5.000000000000000000e+00,5.000000000000000000e+00,5.000000000000000000e+00,5.000000000000000000e+00,5.000000000000000000e+00,5.000000000000000000e+00,5.000000000000000000e+00,5.000000000000000000e+00,5.000000000000000000e+00,5.000000000000000000e+00,5.000000000000000000e+00,5.000000000000000000e+00,5.000000000000000000e+00,5.000000000000000000e+00,5.000000000000000000e+00,5.000000000000000000e+00,5.000000000000000000e+00,5.000000000000000000e+00,5.000000000000000000e+00,5.000000000000000000e+00,5.000000000000000000e+00,5.000000000000000000e+00,5.000000000000000000e+00,5.000000000000000000e+00,5.000000000000000000e+00,5.000000000000000000e+00,5.000000000000000000e+00,5.000000000000000000e+00,5.000000000000000000e+00,5.000000000000000000e+00,5.000000000000000000e+00,5.000000000000000000e+00,5.000000000000000000e+00,5.000000000000000000e+00,5.000000000000000000e+00,5.000000000000000000e+00,5.000000000000000000e+00,5.000000000000000000e+00,5.000000000000000000e+00,4.848290443420410156e+00,4.658476352691650391e+00,4.482965469360351562e+00,4.320198535919189453e+00,4.168837547302246094e+00,4.027723312377929688e+00,3.895850181579589844e+00,3.772338151931762695e+00,3.656417131423950195e+00,3.547408342361450195e+00,3.444710731506347656e+00,3.347792148590087891e+00,3.256178140640258789e+00,3.169444561004638672e+00,3.087211608886718750e+00,3.009138107299804688e+00,2.934916257858276367e+00,2.864267110824584961e+00,2.796939611434936523e+00,2.732704639434814453e+00,2.671354055404663086e+00,2.612697601318359375e+00,2.556561470031738281e+00,2.502787113189697266e+00,2.451228141784667969e+00,2.401750802993774414e+00,2.354231119155883789e+00,2.308555603027343750e+00,2.264618396759033203e+00,2.222322463989257812e+00,9.151790142059326172e-01,8.964527249336242676e-01,8.784884810447692871e-01,8.642053604125976562e-01,8.507777452468872070e-01,8.377611041069030762e-01,8.251882195472717285e-01,8.194115161895751953e-01,8.158133625984191895e-01,8.127729296684265137e-01,8.097550868988037109e-01
5.000000000000000000e+00,5.000000000000000000e+00,5.000000000000000000e+00,5.000000000000000000e+00,5.000000000000000000e+00,5.000000000000000000e+00,5.000000000000000000e+00,5.000000000000000000e+00,5.000000000000000000e+00,5.000000000000000000e+00,5.000000000000000000e+00,5.000000000000000000e+00,5.000000000000000000e+00,5.000000000000000000e+00,5.000000000000000000e+00,5.000000000000000000e+00,5.000000000000000000e+00,5.000000000000000000e+00,5.000000000000000000e+00,5.000000000000000000e+00,5.000000000000000000e+00,5.000000000000000000e+00,5.000000000000000000e+00,5.000000000000000000e+00,5.000000000000000000e+00,5.000000000000000000e+00,5.000000000000000000e+00,5.000000000000000000e+00,5.000000000000000000e+00,5.000000000000000000e+00,5.000000000000000000e+00,5.000000000000000000e+00,5.000000000000000000e+00,5.000000000000000000e+00,5.000000000000000000e+00,5.000000000000000000e+00,5.000000000000000000e+00,5.000000000000000000e+00,5.000000000000000000e+00,4.848428249359130859e+00,4.658603668212890625e+00,4.483082771301269531e+00,4.320308208465576172e+00,4.168939590454101562e+00,4.027818679809570312e+00,3.895939350128173828e+00,3.772421836853027344e+00,3.656495571136474609e+00,3.547482013702392578e+00,3.444780349731445312e+00,3.347857952117919922e+00,3.256240367889404297e+00,3.169503688812255859e+00,3.087267637252807617e+00,3.009191274642944336e+00,2.934966564178466797e+00,2.864315271377563477e+00,2.796985626220703125e+00,2.732748508453369141e+00,2.671396017074584961e+00,2.612737655639648438e+00,2.556599855422973633e+00,2.502823829650878906e+00,2.451263427734375000e+00,2.401784658432006836e+00,2.354263782501220703e+00,2.308586835861206055e+00,2.264648675918579102e+00,2.222351312637329102e+00,9.203920364379882812e-01,9.014655947685241699e-01,8.833018541336059570e-01,8.677683472633361816e-01,8.542307615280151367e-01,8.411017060279846191e-01,8.272775411605834961e-01,8.209663629531860352e-01,8.155900835990905762e-01,8.125513195991516113e-01,8.095350861549377441e-01
5.000000000000000000e+00,5.000000000000000000e+00,5.000000000000000000e+00,5.000000000000000000e+00,5.000000000000000000e+00,5.000000000000000000e+00,5.000000000000000000e+00,5.000000000000000000e+00,5.000000000000000000e+00,5.000000000000000000e+00,5.000000000000000000e+00,5.000000000000000000e+00,5.000000000000000000e+00,5.000000000000000000e+00,5.000000000000000000e+00,5.000000000000000000e+00,5.000000000000000000e+00,5.000000000000000000e+00,5.000000000000000000e+00,5.000000000000000000e+00,5.000000000000000000e+00,5.000000000000000000e+00,5.000000000000000000e+00,5.000000000000000000e+00,5.000000000000000000e+00,5.000000000000000000e+00,5.000000000000000000e+00,5.000000000000000000e+00,5.000000000000000000e+00,5.000000000000000000e+00,5.000000000000000000e+00,5.000000000000000000e+00,5.000000000000000000e+00,5.000000000000000000e+00,5.000000000000000000e+00,5.000000000000000000e+00,5.000000000000000000e+00,5.000000000000000000e+00,5.000000000000000000e+00,4.848566532135009766e+00,4.658730983734130859e+00,4.483201026916503906e+00,4.320417881011962891e+00,4.169041633605957031e+00,4.027913570404052734e+00,3.896028041839599609e+00,3.772505283355712891e+00,3.656574249267578125e+00,3.547555923461914062e+00,3.444850206375122070e+00,3.347923755645751953e+00,3.256302595138549805e+00,3.169562339782714844e+00,3.087323665618896484e+00,3.009244441986083984e+00,2.935017108917236328e+00,2.864363193511962891e+00,2.797031402587890625e+00,2.732792377471923828e+00,2.671437740325927734e+00,2.612777709960937500e+00,2.556638240814208984e+00,2.502860546112060547e+00,2.451298713684082031e+00,2.401818513870239258e+00,2.354296207427978516e+00,2.308617830276489258e+00,2.264678478240966797e+00,2.222380399703979492e+00,9.247592687606811523e-01,9.065347909927368164e-01,8.881682157516479492e-01,8.713608980178833008e-01,8.577117919921875000e-01,8.443964123725891113e-01,8.304646611213684082e-01,8.225271105766296387e-01,8.167874217033386230e-01,8.123297691345214844e-01,8.093152046203613281e-01
5.000000000000000000e+00,5.000000000000000000e+00,5.000000000000000000e+00,5.000000000000000000e+00,5.000000000000000000e+00,5.000000000000000000e+00,5.000000000000000000e+00,5.000000000000000000e+00,5.000000000000000000e+00,5.000000000000000000e+00,5.000000000000000000e+00,5.000000000000000000e+00,5.000000000000000000e+00,5.000000000000000000e+00,5.000000000000000000e+00,5.000000000000000000e+00,5.000000000000000000e+00,5.000000000000000000e+00,5.000000000000000000e+00,5.000000000000000000e+00,5.000000000000000000e+00,5.000000000000000000e+00,5.000000000000000000e+00,5.000000000000000000e+00,5.000000000000000000e+00,5.000000000000000000e+00,5.000000000000000000e+00,5.000000000000000000e+00,5.000000000000000000e+00,5.000000000000000000e+00,5.000000000000000000e+00,5.000000000000000000e+00,5.000000000000000000e+00,5.000000000000000000e+00,5.000000000000000000e+00,5.000000000000000000e+00,5.000000000000000000e+00,5.000000000000000000e+00,5.000000000000000000e+00,4.848703861236572266e+00,4.658858299255371094e+00,4.483318805694580078e+00,4.320527076721191406e+00,4.169143676757812500e+00,4.028008937835693359e+00,3.896117210388183594e+00,3.772588491439819336e+00,3.656652688980102539e+00,3.547629594802856445e+00,3.444919347763061523e+00,3.347989559173583984e+00,3.256364822387695312e+00,3.169621229171752930e+00,3.087379217147827148e+00,3.009297609329223633e+00,2.935067653656005859e+00,2.864411592483520508e+00,2.797077417373657227e+00,2.732836246490478516e+00,2.671479463577270508e+00,2.612817525863647461e+00,2.556676626205444336e+00,2.502897262573242188e+00,2.451333999633789062e+00,2.401852369308471680e+00,2.354328870773315430e+00,2.308649063110351562e+00,2.264708518981933594e+00,2.222409248352050781e+00,9.285032153129577637e-01,9.113138914108276367e-01,8.930885791778564453e-01,8.752576112747192383e-01,8.612213134765625000e-01,8.477171063423156738e-01,8.336764574050903320e-01,8.240938782691955566e-01,8.183323740959167480e-01,8.126509785652160645e-01,8.090953826904296875e-01
5.000000000000000000e+00,5.000000000000000000e+00,5.000000000000000000e+00,5.000000000000000000e+00,5.000000000000000000e+00,5.000000000000000000e+00,5.000000000000000000e+00,5.000000000000000000e+00,5.000000000000000000e+00,5.000000000000000000e+00,5.000000000000000000e+00,5.000000000000000000e+00,5.000000000000000000e+00,5.000000000000000000e+00,5.000000000000000000e+00,5.000000000000000000e+00,5.000000000000000000e+00,5.000000000000000000e+00,5.000000000000000000e+00,5.000000000000000000e+00,5.000000000000000000e+00,5.000000000000000000e+00,5.000000000000000000e+00,5.000000000000000000e+00,5.000000000000000000e+00,5.000000000000000000e+00,5.000000000000000000e+00,5.000000000000000000e+00,5.000000000000000000e+00,5.000000000000000000e+00,5.000000000000000000e+00,5.000000000000000000e+00,5.000000000000000000e+00,5.000000000000000000e+00,5.000000000000000000e+00,5.000000000000000000e+00,5.000000000000000000e+00,5.000000000000000000e+00,5.000000000000000000e+00,4.848842144012451172e+00,4.658985614776611328e+00,4.483436584472656250e+00,4.320636749267578125e+00,4.169245243072509766e+00,4.028104305267333984e+00,3.896206140518188477e+00,3.772671937942504883e+00,3.656731128692626953e+00,3.547703504562377930e+00,3.444989204406738281e+00,3.348055124282836914e+00,3.256427049636840820e+00,3.169680356979370117e+00,3.087435245513916016e+00,3.009350538253784180e+00,2.935118198394775391e+00,2.864459753036499023e+00,2.797123193740844727e+00,2.732880115509033203e+00,2.671521425247192383e+00,2.612857580184936523e+00,2.556714773178100586e+00,2.502933979034423828e+00,2.451369285583496094e+00,2.401885986328125000e+00,2.354361057281494141e+00,2.308680295944213867e+00,2.264738559722900391e+00,2.222438097000122070e+00,2.181689262390136719e+00,9.149495363235473633e-01,8.980637192726135254e-01,8.800355195999145508e-01,8.647597432136535645e-01,8.510639667510986328e-01,8.369131684303283691e-01,8.256664872169494629e-01,8.198831677436828613e-01,8.141802549362182617e-01,8.088757991790771484e-01
5.000000000000000000e+00,5.000000000000000000e+00,5.000000000000000000e+00,5.000000000000000000e+00,5.000000000000000000e+00,5.000000000000000000e+00,5.000000000000000000e+00,5.000000000000000000e+00,5.000000000000000000e+00,5.000000000000000000e+00,5.000000000000000000e+00,5.000000000000000000e+00,5.000000000000000000e+00,5.000000000000000000e+00,5.000000000000000000e+00,5.000000000000000000e+00,5.000000000000000000e+00,5.000000000000000000e+00,5.000000000000000000e+00,5.000000000000000000e+00,5.000000000000000000e+00,5.000000000000000000e+00,5.000000000000000000e+00,5.000000000000000000e+00,5.000000000000000000e+00,5.000000000000000000e+00,5.000000000000000000e+00,5.000000000000000000e+00,5.000000000000000000e+00,5.000000000000000000e+00,5.000000000000000000e+00,5.000000000000000000e+00,5.000000000000000000e+00,5.000000000000000000e+00,5.000000000000000000e+00,5.000000000000000000e+00,5.000000000000000000e+00,5.000000000000000000e+00,5.000000000000000000e+00,4.848979949951171875e+00,4.659112930297851562e+00,4.483554840087890625e+00,4.320745944976806641e+00,4.169347286224365234e+00,4.028199195861816406e+00,3.896295309066772461e+00,3.772755622863769531e+00,3.656809329986572266e+00,3.547777414321899414e+00,3.445058822631835938e+00,3.348120927810668945e+00,3.256489038467407227e+00,3.169739246368408203e+00,3.087491273880004883e+00,3.009403705596923828e+00,2.935168743133544922e+00,2.864507913589477539e+00,2.797168970108032227e+00,2.732923507690429688e+00,2.671563386917114258e+00,2.612897634506225586e+00,2.556753158569335938e+00,2.502970933914184570e+00,2.451404571533203125e+00,2.401919603347778320e+00,2.354393482208251953e+00,2.308711528778076172e+00,2.264768600463867188e+00,2.222467184066772461e+00,2.181716918945312500e+00,9.186142683029174805e-01,9.017858505249023438e-01,8.848659396171569824e-01,8.683273792266845703e-01,8.544374108314514160e-01,8.401750922203063965e-01,8.272451758384704590e-01,8.214398026466369629e-01,8.157151937484741211e-01,8.100699782371520996e-01
5.000000000000000000e+00,5.000000000000000000e+00,5.000000000000000000e+00,5.000000000000000000e+00,5.000000000000000000e+00,5.000000000000000000e+00,5.000000000000000000e+00,5.000000000000000000e+00,5.000000000000000000e+00,5.000000000000000000e+00,5.000000000000000000e+00,5.000000000000000000e+00,5.000000000000000000e+00,5.000000000000000000e+00,5.000000000000000000e+00,5.000000000000000000e+00,5.000000000000000000e+00,5.000000000000000000e+00,5.000000000000000000e+00,5.000000000000000000e+00,5.000000000000000000e+00,5.000000000000000000e+00,5.000000000000000000e+00,5.000000000000000000e+00,5.000000000000000000e+00,5.000000000000000000e+00,5.000000000000000000e+00,5.000000000000000000e+00,5.000000000000000000e+00,5.000000000000000000e+00,5.000000000000000000e+00,5.000000000000000000e+00,5.000000000000000000e+00,5.000000000000000000e+00,5.000000000000000000e+00,5.000000000000000000e+00,5.000000000000000000e+00,5.000000000000000000e+00,5.000000000000000000e+00,4.849117755889892578e+00,4.659240245819091797e+00,4.483672618865966797e+00,4.320855617523193359e+00,4.169449329376220703e+00,4.028294563293457031e+00,3.896384477615356445e+00,3.772839069366455078e+00,3.656887769699096680e+00,3.547851085662841797e+00,3.445128440856933594e+00,3.348186731338500977e+00,3.256551265716552734e+00,3.169797897338867188e+00,3.087547302246093750e+00,3.009456872940063477e+00,2.935219049453735352e+00,2.864556074142456055e+00,2.797214984893798828e+00,2.732967376708984375e+00,2.671605110168457031e+00,2.612937927246093750e+00,2.556791543960571289e+00,2.503007411956787109e+00,2.451439619064331055e+00,2.401953458786010742e+00,2.354425907135009766e+00,2.308742761611938477e+00,2.264798879623413086e+00,2.222496032714843750e+00,2.181744813919067383e+00,9.223085045814514160e-01,9.053456783294677734e-01,8.889955878257751465e-01,8.720502853393554688e-01,8.578376770019531250e-01,8.434625864028930664e-01,8.295613527297973633e-01,8.230023384094238281e-01,8.172560334205627441e-01,8.115254640579223633e-01
5.000000000000000000e+00,5.000000000000000000e+00,5.000000000000000000e+00,5.000000000000000000e+00,5.000000000000000000e+00,5.000000000000000000e+00,5.000000000000000000e+00,5.000000000000000000e+00,5.000000000000000000e+00,5.000000000000000000e+00,5.000000000000000000e+00,5.000000000000000000e+00,5.000000000000000000e+00,5.000000000000000000e+00,5.000000000000000000e+00,5.000000000000000000e+00,5.000000000000000000e+00,5.000000000000000000e+00,5.000000000000000000e+00,5.000000000000000000e+00,5.000000000000000000e+00,5.000000000000000000e+00,5.000000000000000000e+00,5.000000000000000000e+00,5.000000000000000000e+00,5.000000000000000000e+00,5.000000000000000000e+00,5.000000000000000000e+00,5.000000000000000000e+00,5.000000000000000000e+00,5.000000000000000000e+00,5.000000000000000000e+00,5.000000000000000000e+00,5.000000000000000000e+00,5.000000000000000000e+00,5.000000000000000000e+00,5.000000000000000000e+00,5.000000000000000000e+00,5.000000000000000000e+00,4.849256038665771484e+00,4.659367561340332031e+00,4.483790397644042969e+00,4.320964813232421875e+00,4.169551372528076172e+00,4.028389453887939453e+00,3.896473169326782227e+00,3.772922754287719727e+00,3.656966209411621094e+00,3.547924995422363281e+00,3.445197820663452148e+00,3.348252534866333008e+00,3.256613492965698242e+00,3.169857025146484375e+00,3.087603092193603516e+00,3.009510040283203125e+00,2.935269594192504883e+00,2.864603996276855469e+00,2.797260999679565430e+00,2.733011245727539062e+00,2.671647071838378906e+00,2.612977981567382812e+00,2.556829929351806641e+00,2.503043889999389648e+00,2.451474666595458984e+00,2.401987314224243164e+00,2.354458570480346680e+00,2.308773994445800781e+00,2.264828681945800781e+00,2.222525119781494141e+00,2.181772947311401367e+00,2.142488002777099609e+00,9.089338183403015137e-01,8.924549221992492676e-01,8.765630722045898438e-01,8.612651824951171875e-01,8.468339443206787109e-01,8.330335021018981934e-01,8.246104717254638672e-01,8.181563615798950195e-01,8.123987317085266113e-01
5.000000000000000000e+00,5.000000000000000000e+00,5.000000000000000000e+00,5.000000000000000000e+00,5.000000000000000000e+00,5.000000000000000000e+00,5.000000000000000000e+00,5.000000000000000000e+00,5.000000000000000000e+00,5.000000000000000000e+00,5.000000000000000000e+00,5.000000000000000000e+00,5.000000000000000000e+00,5.000000000000000000e+00,5.000000000000000000e+00,5.000000000000000000e+00,5.000000000000000000e+00,5.000000000000000000e+00,5.000000000000000000e+00,5.000000000000000000e+00,5.000000000000000000e+00,5.000000000000000000e+00,5.000000000000000000e+00,5.000000000000000000e+00,5.000000000000000000e+00,5.000000000000000000e+00,5.000000000000000000e+00,5.000000000000000000e+00,5.000000000000000000e+00,5.000000000000000000e+00,5.000000000000000000e+00,5.000000000000000000e+00,5.000000000000000000e+00,5.000000000000000000e+00,5.000000000000000000e+00,5.000000000000000000e+00,5.000000000000000000e+00,5.000000000000000000e+00,5.000000000000000000e+00,4.849393367767333984e+00,4.659494876861572266e+00,4.483908176422119141e+00,4.321074485778808594e+00,4.169653415679931641e+00,4.028484821319580078e+00,3.896562337875366211e+00,3.773005962371826172e+00,3.657044887542724609e+00,3.547998905181884766e+00,3.445267438888549805e+00,3.348317861557006836e+00,3.256675720214843750e+00,3.169915914535522461e+00,3.087658882141113281e+00,3.009563207626342773e+00,2.935320377349853516e+00,2.864652156829833984e+00,2.797306537628173828e+00,2.733055114746093750e+00,2.671688795089721680e+00,2.613017797470092773e+00,2.556868314743041992e+00,2.503080844879150391e+00,2.451509952545166016e+00,2.402021169662475586e+00,2.354490995407104492e+00,2.308805227279663086e+00,2.264858961105346680e+00,2.222554206848144531e+00,2.181800842285156250e+00,2.142514944076538086e+00,9.126191735267639160e-01,8.960907459259033203e-01,8.801503777503967285e-01,8.649506568908691406e-01,8.505343794822692871e-01,8.366752862930297852e-01,8.277687430381774902e-01,8.206256031990051270e-01,8.136045336723327637e-01
5.000000000000000000e+00,5.000000000000000000e+00,5.000000000000000000e+00,5.000000000000000000e+00,5.000000000000000000e+00,5.000000000000000000e+00,5.000000000000000000e+00,5.000000000000000000e+00,5.000000000000000000e+00,5.000000000000000000e+00,5.000000000000000000e+00,5.000000000000000000e+00,5.000000000000000000e+00,5.000000000000000000e+00,5.000000000000000000e+00,5.000000000000000000e+00,5.000000000000000000e+00,5.000000000000000000e+00,5.000000000000000000e+00,5.000000000000000000e+00,5.000000000000000000e+00,5.000000000000000000e+00,5.000000000000000000e+00,5.000000000000000000e+00,5.000000000000000000e+00,5.000000000000000000e+00,5.000000000000000000e+00,5.000000000000000000e+00,5.000000000000000000e+00,5.000000000000000000e+00,5.000000000000000000e+00,5.000000000000000000e+00,5.000000000000000000e+00,5.000000000000000000e+00,5.000000000000000000e+00,5.000000000000000000e+00,5.000000000000000000e+00,5.000000000000000000e+00,5.000000000000000000e+00,4.849531650543212891e+00,4.659622192382812500e+00,4.484026432037353516e+00,4.321184158325195312e+00,4.169754981994628906e+00,4.028579711914062500e+00,3.896651506423950195e+00,3.773089408874511719e+00,3.657122850418090820e+00,3.548072814941406250e+00,3.445337295532226562e+00,3.348383665084838867e+00,3.256737947463989258e+00,3.169974803924560547e+00,3.087714910507202148e+00,3.009616136550903320e+00,2.935370922088623047e+00,2.864700317382812500e+00,2.797352552413940430e+00,2.733098983764648438e+00,2.671730756759643555e+00,2.613057613372802734e+00,2.556906223297119141e+00,2.503117561340332031e+00,2.451545238494873047e+00,2.402055025100708008e+00,2.354523658752441406e+00,2.308836460113525391e+00,2.264889001846313477e+00,2.222583055496215820e+00,2.181828737258911133e+00,2.142541885375976562e+00,9.172687530517578125e-01,9.003936052322387695e-01,8.841568827629089355e-01,8.687865138053894043e-01,8.543313145637512207e-01,8.397318720817565918e-01,8.310468196868896484e-01,8.238936662673950195e-01,8.168625235557556152e-01
5.000000000000000000e+00,5.000000000000000000e+00,5.000000000000000000e+00,5.000000000000000000e+00,5.000000000000000000e+00,5.000000000000000000e+00,5.000000000000000000e+00,5.000000000000000000e+00,5.000000000000000000e+00,5.000000000000000000e+00,5.000000000000000000e+00,5.000000000000000000e+00,5.000000000000000000e+00,5.000000000000000000e+00,5.000000000000000000e+00,5.000000000000000000e+00,5.000000000000000000e+00,5.000000000000000000e+00,5.000000000000000000e+00,5.000000000000000000e+00,5.000000000000000000e+00,5.000000000000000000e+00,5.000000000000000000e+00,5.000000000000000000e+00,5.000000000000000000e+00,5.000000000000000000e+00,5.000000000000000000e+00,5.000000000000000000e+00,5.000000000000000000e+00,5.000000000000000000e+00,5.000000000000000000e+00,5.000000000000000000e+00,5.000000000000000000e+00,5.000000000000000000e+00,5.000000000000000000e+00,5.000000000000000000e+00,5.000000000000000000e+00,5.000000000000000000e+00,5.000000000000000000e+00,4.849669456481933594e+00,4.659749507904052734e+00,4.484144210815429688e+00,4.321293354034423828e+00,4.169857025146484375e+00,4.028675079345703125e+00,3.896740674972534180e+00,3.773173093795776367e+00,3.657201528549194336e+00,3.548146724700927734e+00,3.445406913757324219e+00,3.348449707031250000e+00,3.256799936294555664e+00,3.170033931732177734e+00,3.087770700454711914e+00,3.009669303894042969e+00,2.935421228408813477e+00,2.864748477935791016e+00,2.797398567199707031e+00,2.733142614364624023e+00,2.671772718429565430e+00,2.613097667694091797e+00,2.556944608688354492e+00,2.503154277801513672e+00,2.451580524444580078e+00,2.402088880538940430e+00,2.354556083679199219e+00,2.308867931365966797e+00,2.264919042587280273e+00,2.222611904144287109e+00,2.181856632232666016e+00,2.142568826675415039e+00,9.189841747283935547e-01,9.011544585227966309e-01,8.846703767776489258e-01,8.686598539352416992e-01,8.549837470054626465e-01,8.434061408042907715e-01,8.353782892227172852e-01,8.275017738342285156e-01,8.203033804893493652e-01
5.000000000000000000e+00,5.000000000000000000e+00,5.000000000000000000e+00,5.000000000000000000e+00,5.000000000000000000e+00,5.000000000000000000e+00,5.000000000000000000e+00,5.000000000000000000e+00,5.000000000000000000e+00,5.000000000000000000e+00,5.000000000000000000e+00,5.000000000000000000e+00,5.000000000000000000e+00,5.000000000000000000e+00,5.000000000000000000e+00,5.000000000000000000e+00,5.000000000000000000e+00,5.000000000000000000e+00,5.000000000000000000e+00,5.000000000000000000e+00,5.000000000000000000e+00,5.000000000000000000e+00,5.000000000000000000e+00,5.000000000000000000e+00,5.000000000000000000e+00,5.000000000000000000e+00,5.000000000000000000e+00,5.000000000000000000e+00,5.000000000000000000e+00,5.000000000000000000e+00,5.000000000000000000e+00,5.000000000000000000e+00,5.000000000000000000e+00,5.000000000000000000e+00,5.000000000000000000e+00,5.000000000000000000e+00,5.000000000000000000e+00,5.000000000000000000e+00,5.000000000000000000e+00,4.849807262420654297e+00,4.659876823425292969e+00,4.484261989593505859e+00,4.321403026580810547e+00,4.169959068298339844e+00,4.028770446777343750e+00,3.896829366683959961e+00,3.773256540298461914e+00,3.657279968261718750e+00,3.548220157623291016e+00,3.445476531982421875e+00,3.348515510559082031e+00,3.256862163543701172e+00,3.170092582702636719e+00,3.087826728820800781e+00,3.009722471237182617e+00,2.935471773147583008e+00,2.864796638488769531e+00,2.797444343566894531e+00,2.733186244964599609e+00,2.671814203262329102e+00,2.613137722015380859e+00,2.556982994079589844e+00,2.503190994262695312e+00,2.451615810394287109e+00,2.402122735977172852e+00,2.354588508605957031e+00,2.308898925781250000e+00,2.264949083328247070e+00,2.222640991210937500e+00,2.181884527206420898e+00,2.142595767974853516e+00,9.188140630722045898e-01,9.005847573280334473e-01,8.833308219909667969e-01,8.703017234802246094e-01,8.576513528823852539e-01,8.489066362380981445e-01,8.407822251319885254e-01,8.328118920326232910e-01,8.297295570373535156e-01
5.000000000000000000e+00,5.000000000000000000e+00,5.000000000000000000e+00,5.000000000000000000e+00,5.000000000000000000e+00,5.000000000000000000e+00,5.000000000000000000e+00,5.000000000000000000e+00,5.000000000000000000e+00,5.000000000000000000e+00,5.000000000000000000e+00,5.000000000000000000e+00,5.000000000000000000e+00,5.000000000000000000e+00,5.000000000000000000e+00,5.000000000000000000e+00,5.000000000000000000e+00,5.000000000000000000e+00,5.000000000000000000e+00,5.000000000000000000e+00,5.000000000000000000e+00,5.000000000000000000e+00,5.000000000000000000e+00,5.000000000000000000e+00,5.000000000000000000e+00,5.000000000000000000e+00,5.000000000000000000e+00,5.000000000000000000e+00,5.000000000000000000e+00,5.000000000000000000e+00,5.000000000000000000e+00,5.000000000000000000e+00,5.000000000000000000e+00,5.000000000000000000e+00,5.000000000000000000e+00,5.000000000000000000e+00,5.000000000000000000e+00,5.000000000000000000e+00,5.000000000000000000e+00,4.849945545196533203e+00,4.660004138946533203e+00,4.484380245208740234e+00,4.321512222290039062e+00,4.170061111450195312e+00,4.028865337371826172e+00,3.896918535232543945e+00,3.773340225219726562e+00,3.657358646392822266e+00,3.548294067382812500e+00,3.445545911788940430e+00,3.348581314086914062e+00,3.256924629211425781e+00,3.170151710510253906e+00,3.087882518768310547e+00,3.009775638580322266e+00,2.935522317886352539e+00,2.864844560623168945e+00,2.797490358352661133e+00,2.733230113983154297e+00,2.671856164932250977e+00,2.613177776336669922e+00,2.557021379470825195e+00,2.503227710723876953e+00,2.451650857925415039e+00,2.402156591415405273e+00,2.354621171951293945e+00,2.308930397033691406e+00,2.264979124069213867e+00,2.222670078277587891e+00,2.181912422180175781e+00,9.363150596618652344e-01,9.173918366432189941e-01,8.992183208465576172e-01,8.844505548477172852e-01,8.713886141777038574e-01,8.607177138328552246e-01,8.554726243019104004e-01,8.472226262092590332e-01,8.391302227973937988e-01,8.482323288917541504e-01
5.000000000000000000e+00,5.000000000000000000e+00,5.000000000000000000e+00,5.000000000000000000e+00,5.000000000000000000e+00,5.000000000000000000e+00,5.000000000000000000e+00,5.000000000000000000e+00,5.000000000000000000e+00,5.000000000000000000e+00,5.000000000000000000e+00,5.000000000000000000e+00,5.000000000000000000e+00,5.000000000000000000e+00,5.000000000000000000e+00,5.000000000000000000e+00,5.000000000000000000e+00,5.000000000000000000e+00,5.000000000000000000e+00,5.000000000000000000e+00,5.000000000000000000e+00,5.000000000000000000e+00,5.000000000000000000e+00,5.000000000000000000e+00,5.000000000000000000e+00,5.000000000000000000e+00,5.000000000000000000e+00,5.000000000000000000e+00,5.000000000000000000e+00,5.000000000000000000e+00,5.000000000000000000e+00,5.000000000000000000e+00,5.000000000000000000e+00,5.000000000000000000e+00,5.000000000000000000e+00,5.000000000000000000e+00,5.000000000000000000e+00,5.000000000000000000e+00,5.000000000000000000e+00,4.850083351135253906e+00,4.660131454467773438e+00,4.484498023986816406e+00,4.321621894836425781e+00,4.170162677764892578e+00,4.028960704803466797e+00,3.897007703781127930e+00,3.773423433303833008e+00,3.657437086105346680e+00,3.548367977142333984e+00,3.445615530014038086e+00,3.348646640777587891e+00,3.256986856460571289e+00,3.170210599899291992e+00,3.087938547134399414e+00,3.009828805923461914e+00,2.935572862625122070e+00,2.864892721176147461e+00,2.797535896301269531e+00,2.733273983001708984e+00,2.671897888183593750e+00,2.613217830657958984e+00,2.557059764862060547e+00,2.503264427185058594e+00,2.451686143875122070e+00,2.402190208435058594e+00,2.354653596878051758e+00,2.308961629867553711e+00,2.265009164810180664e+00,2.222698926925659180e+00,2.181940317153930664e+00,9.348382353782653809e-01,9.159739613533020020e-01,8.990671038627624512e-01,8.855730891227722168e-01,8.745525479316711426e-01,8.669113516807556152e-01,8.621409535408020020e-01,8.537624478340148926e-01,8.479105830192565918e-01,8.675791621208190918e-01
5.000000000000000000e+00,5.000000000000000000e+00,5.000000000000000000e+00,5.000000000000000000e+00,5.000000000000000000e+00,5.000000000000000000e+00,5.000000000000000000e+00,5.000000000000000000e+00,5.000000000000000000e+00,5.000000000000000000e+00,5.000000000000000000e+00,5.000000000000000000e+00,5.000000000000000000e+00,5.000000000000000000e+00,5.000000000000000000e+00,5.000000000000000000e+00,5.000000000000000000e+00,5.000000000000000000e+00,5.000000000000000000e+00,5.000000000000000000e+00,5.000000000000000000e+00,5.000000000000000000e+00,5.000000000000000000e+00,5.000000000000000000e+00,5.000000000000000000e+00,5.000000000000000000e+00,5.000000000000000000e+00,5.000000000000000000e+00,5.000000000000000000e+00,5.000000000000000000e+00,5.000000000000000000e+00,5.000000000000000000e+00,5.000000000000000000e+00,5.000000000000000000e+00,5.000000000000000000e+00,5.000000000000000000e+00,5.000000000000000000e+00,5.000000000000000000e+00,5.000000000000000000e+00,4.850221157073974609e+00,4.660258769989013672e+00,4.484615802764892578e+00,4.321731567382812500e+00,4.170265197753906250e+00,4.029056072235107422e+00,3.897096872329711914e+00,3.773506879806518555e+00,3.657515287399291992e+00,3.548441886901855469e+00,3.445685386657714844e+00,3.348712682723999023e+00,3.257048845291137695e+00,3.170269727706909180e+00,3.087994337081909180e+00,3.009881734848022461e+00,2.935623645782470703e+00,2.864940643310546875e+00,2.797581911087036133e+00,2.733317613601684570e+00,2.671939849853515625e+00,2.613257884979248047e+00,2.557097911834716797e+00,2.503301382064819336e+00,2.451721429824829102e+00,2.402224302291870117e+00,2.354686021804809570e+00,2.308992862701416016e+00,2.265039443969726562e+00,2.222727775573730469e+00,9.612356424331665039e-01,9.333660006523132324e-01,9.145605564117431641e-01,9.002271294593811035e-01,8.888393044471740723e-01,8.785324692726135254e-01,8.735624551773071289e-01,8.689140081405639648e-01,8.604040145874023438e-01,8.672425746917724609e-01,1.843849301338195801e+00
5.000000000000000000e+00,5.000000000000000000e+00,5.000000000000000000e+00,5.000000000000000000e+00,5.000000000000000000e+00,5.000000000000000000e+00,5.000000000000000000e+00,5.000000000000000000e+00,5.000000000000000000e+00,5.000000000000000000e+00,5.000000000000000000e+00,5.000000000000000000e+00,5.000000000000000000e+00,5.000000000000000000e+00,5.000000000000000000e+00,5.000000000000000000e+00,5.000000000000000000e+00,5.000000000000000000e+00,5.000000000000000000e+00,5.000000000000000000e+00,5.000000000000000000e+00,5.000000000000000000e+00,5.000000000000000000e+00,5.000000000000000000e+00,5.000000000000000000e+00,5.000000000000000000e+00,5.000000000000000000e+00,5.000000000000000000e+00,5.000000000000000000e+00,5.000000000000000000e+00,5.000000000000000000e+00,5.000000000000000000e+00,5.000000000000000000e+00,5.000000000000000000e+00,5.000000000000000000e+00,5.000000000000000000e+00,5.000000000000000000e+00,5.000000000000000000e+00,5.000000000000000000e+00,4.850358963012695312e+00,4.660386085510253906e+00,4.484733581542968750e+00,4.321841239929199219e+00,4.170367240905761719e+00,4.029150962829589844e+00,3.897186040878295898e+00,3.773590564727783203e+00,3.657593727111816406e+00,3.548515558242797852e+00,3.445755004882812500e+00,3.348778486251831055e+00,3.257111072540283203e+00,3.170328617095947266e+00,3.088050365447998047e+00,3.009934902191162109e+00,2.935673713684082031e+00,2.864989042282104492e+00,2.797627687454223633e+00,2.733361482620239258e+00,2.671981811523437500e+00,2.613297939300537109e+00,2.557136297225952148e+00,2.503337860107421875e+00,2.451756715774536133e+00,2.402258157730102539e+00,2.354718685150146484e+00,2.309024095535278320e+00,2.265069484710693359e+00,2.222756862640380859e+00,9.578289985656738281e-01,9.318983554840087891e-01,9.153741598129272461e-01,9.036005735397338867e-01,8.929506540298461914e-01,8.843935132026672363e-01,8.803164958953857422e-01,8.757943511009216309e-01,8.671497702598571777e-01,1.872892022132873535e+00,1.843869209289550781e+00
5.000000000000000000e+00,5.000000000000000000e+00,5.000000000000000000e+00,5.000000000000000000e+00,5.000000000000000000e+00,5.000000000000000000e+00,5.000000000000000000e+00,5.000000000000000000e+00,5.000000000000000000e+00,5.000000000000000000e+00,5.000000000000000000e+00,5.000000000000000000e+00,5.000000000000000000e+00,5.000000000000000000e+00,5.000000000000000000e+00,5.000000000000000000e+00,5.000000000000000000e+00,5.000000000000000000e+00,5.000000000000000000e+00,5.000000000000000000e+00,5.000000000000000000e+00,5.000000000000000000e+00,5.000000000000000000e+00,5.000000000000000000e+00,5.000000000000000000e+00,5.000000000000000000e+00,5.000000000000000000e+00,5.000000000000000000e+00,5.000000000000000000e+00,5.000000000000000000e+00,5.000000000000000000e+00,5.000000000000000000e+00,5.000000000000000000e+00,5.000000000000000000e+00,5.000000000000000000e+00,5.000000000000000000e+00,5.000000000000000000e+00,5.000000000000000000e+00,5.000000000000000000e+00,4.850497245788574219e+00,4.660513401031494141e+00,4.484851837158203125e+00,4.321950912475585938e+00,4.170468807220458984e+00,4.029246330261230469e+00,3.897274732589721680e+00,3.773674249649047852e+00,3.657672405242919922e+00,3.548589468002319336e+00,3.445824384689331055e+00,3.348844289779663086e+00,3.257173299789428711e+00,3.170387268066406250e+00,3.088106393814086914e+00,3.009987831115722656e+00,2.935724258422851562e+00,2.865036964416503906e+00,2.797673702239990234e+00,2.733405351638793945e+00,2.672023534774780273e+00,2.613337993621826172e+00,2.557174921035766602e+00,2.503374814987182617e+00,2.451791763305664062e+00,2.402292013168334961e+00,2.354751110076904297e+00,2.309055328369140625e+00,2.265099525451660156e+00,2.222785949707031250e+00,9.544466137886047363e-01,9.310396909713745117e-01,9.188604950904846191e-01,9.078500270843505859e-01,8.971003293991088867e-01,8.913165926933288574e-01,8.871756792068481445e-01,8.827844262123107910e-01,1.902864217758178711e+00,1.872912645339965820e+00,1.843889236450195312e+00
5.000000000000000000e+00,5.000000000000000000e+00,5.000000000000000000e+00,5.000000000000000000e+00,5.000000000000000000e+00,5.000000000000000000e+00,5.000000000000000000e+00,5.000000000000000000e+00,5.000000000000000000e+00,5.000000000000000000e+00,5.000000000000000000e+00,5.000000000000000000e+00,5.000000000000000000e+00,5.000000000000000000e+00,5.000000000000000000e+00,5.000000000000000000e+00,5.000000000000000000e+00,5.000000000000000000e+00,5.000000000000000000e+00,5.000000000000000000e+00,5.000000000000000000e+00,5.000000000000000000e+00,5.000000000000000000e+00,5.000000000000000000e+00,5.000000000000000000e+00,5.000000000000000000e+00,5.000000000000000000e+00,5.000000000000000000e+00,5.000000000000000000e+00,5.000000000000000000e+00,5.000000000000000000e+00,5.000000000000000000e+00,5.000000000000000000e+00,5.000000000000000000e+00,5.000000000000000000e+00,5.000000000000000000e+00,5.000000000000000000e+00,5.000000000000000000e+00,5.000000000000000000e+00,4.850635051727294922e+00,4.660641193389892578e+00,4.484970092773437500e+00,4.322060108184814453e+00,4.170571327209472656e+00,4.029341220855712891e+00,3.897363901138305664e+00,3.773757457733154297e+00,3.657750844955444336e+00,3.548663377761840820e+00,3.445894002914428711e+00,3.348910093307495117e+00,3.257235765457153320e+00,3.170446395874023438e+00,3.088161945343017578e+00,3.010040998458862305e+00,2.935774803161621094e+00,2.865085124969482422e+00,2.797719717025756836e+00,2.733449220657348633e+00,2.672065496444702148e+00,2.613378047943115234e+00,2.557213306427001953e+00,2.503411531448364258e+00,2.451827049255371094e+00,2.402325868606567383e+00,2.354783773422241211e+00,2.309086561203002930e+00,2.265129566192626953e+00,9.898211956024169922e-01,9.516092538833618164e-01,9.346446394920349121e-01,9.232549667358398438e-01,9.121396541595458984e-01,9.025952816009521484e-01,8.983491063117980957e-01,8.941426873207092285e-01,8.898870944976806641e-01,1.902885556221008301e+00,1.872933149337768555e+00,1.843909144401550293e+00
5.000000000000000000e+00,5.000000000000000000e+00,5.000000000000000000e+00,5.000000000000000000e+00,5.000000000000000000e+00,5.000000000000000000e+00,5.000000000000000000e+00,5.000000000000000000e+00,5.000000000000000000e+00,5.000000000000000000e+00,5.000000000000000000e+00,5.000000000000000000e+00,5.000000000000000000e+00,5.000000000000000000e+00,5.000000000000000000e+00,5.000000000000000000e+00,5.000000000000000000e+00,5.000000000000000000e+00,5.000000000000000000e+00,5.000000000000000000e+00,5.000000000000000000e+00,5.000000000000000000e+00,5.000000000000000000e+00,5.000000000000000000e+00,5.000000000000000000e+00,5.000000000000000000e+00,5.000000000000000000e+00,5.000000000000000000e+00,5.000000000000000000e+00,5.000000000000000000e+00,5.000000000000000000e+00,5.000000000000000000e+00,5.000000000000000000e+00,5.000000000000000000e+00,5.000000000000000000e+00,5.000000000000000000e+00,5.000000000000000000e+00,5.000000000000000000e+00,5.000000000000000000e+00,4.850773334503173828e+00,4.660768508911132812e+00,4.485087871551513672e+00,4.322169780731201172e+00,4.170672893524169922e+00,4.029436588287353516e+00,3.897453069686889648e+00,3.773840904235839844e+00,3.657829523086547852e+00,3.548737287521362305e+00,3.445963859558105469e+00,3.348975658416748047e+00,3.257297992706298828e+00,3.170505046844482422e+00,3.088217973709106445e+00,3.010093927383422852e+00,2.935825586318969727e+00,2.865133285522460938e+00,2.797765493392944336e+00,2.733493089675903320e+00,2.672107458114624023e+00,2.613418102264404297e+00,2.557251453399658203e+00,2.503448247909545898e+00,2.451862335205078125e+00,2.402359485626220703e+00,2.354816198348999023e+00,2.309118032455444336e+00,2.265159845352172852e+00,9.919564723968505859e-01,9.541028141975402832e-01,9.388436675071716309e-01,9.273629188537597656e-01,9.161596298217773438e-01,9.068939089775085449e-01,9.026827216148376465e-01,8.985106348991394043e-01,9.056134819984436035e-01,1.902906775474548340e+00,1.872953653335571289e+00,1.843929171562194824e+00
5.000000000000000000e+00,5.000000000000000000e+00,5.000000000000000000e+00,5.000000000000000000e+00,5.000000000000000000e+00,5.000000000000000000e+00,5.000000000000000000e+00,5.000000000000000000e+00,5.000000000000000000e+00,5.000000000000000000e+00,5.000000000000000000e+00,5.000000000000000000e+00,5.000000000000000000e+00,5.000000000000000000e+00,5.000000000000000000e+00,5.000000000000000000e+00,5.000000000000000000e+00,5.000000000000000000e+00,5.000000000000000000e+00,5.000000000000000000e+00,5.000000000000000000e+00,5.000000000000000000e+00,5.000000000000000000e+00,5.000000000000000000e+00,5.000000000000000000e+00,5.000000000000000000e+00,5.000000000000000000e+00,5.000000000000000000e+00,5.000000000000000000e+00,5.000000000000000000e+00,5.000000000000000000e+00,5.000000000000000000e+00,5.000000000000000000e+00,5.000000000000000000e+00,5.000000000000000000e+00,5.000000000000000000e+00,5.000000000000000000e+00,5.000000000000000000e+00,5.000000000000000000e+00,4.850911140441894531e+00,4.660895824432373047e+00,4.485205650329589844e+00,4.322279453277587891e+00,4.170774936676025391e+00,4.029531955718994141e+00,3.897542238235473633e+00,3.773924589157104492e+00,3.657907485961914062e+00,3.548811197280883789e+00,3.446033477783203125e+00,3.349041461944580078e+00,3.257359743118286133e+00,3.170564174652099609e+00,3.088273763656616211e+00,3.010147094726562500e+00,2.935876131057739258e+00,2.865181446075439453e+00,2.797811269760131836e+00,2.733536720275878906e+00,2.672149181365966797e+00,2.613458156585693359e+00,2.557289838790893555e+00,2.503485202789306641e+00,2.451897621154785156e+00,2.402393341064453125e+00,2.354848623275756836e+00,2.309149265289306641e+00,2.265189886093139648e+00,9.941008687019348145e-01,9.566092491149902344e-01,9.430426359176635742e-01,9.314596056938171387e-01,9.202137589454650879e-01,9.108696579933166504e-01,9.063370227813720703e-01,9.021310806274414062e-01,9.238919019699096680e-01,1.902928113937377930e+00,1.872974395751953125e+00,1.843949079513549805e+00
5.000000000000000000e+00,5.000000000000000000e+00,5.000000000000000000e+00,5.000000000000000000e+00,5.000000000000000000e+00,5.000000000000000000e+00,5.000000000000000000e+00,5.000000000000000000e+00,5.000000000000000000e+00,5.000000000000000000e+00,5.000000000000000000e+00,5.000000000000000000e+00,5.000000000000000000e+00,5.000000000000000000e+00,5.000000000000000000e+00,5.000000000000000000e+00,5.000000000000000000e+00,5.000000000000000000e+00,5.000000000000000000e+00,5.000000000000000000e+00,5.000000000000000000e+00,5.000000000000000000e+00,5.000000000000000000e+00,5.000000000000000000e+00,5.000000000000000000e+00,5.000000000000000000e+00,5.000000000000000000e+00,5.000000000000000000e+00,5.000000000000000000e+00,5.000000000000000000e+00,5.000000000000000000e+00,5.000000000000000000e+00,5.000000000000000000e+00,5.000000000000000000e+00,5.000000000000000000e+00,5.000000000000000000e+00,5.000000000000000000e+00,5.000000000000000000e+00,5.000000000000000000e+00,4.851047515869140625e+00,4.661023139953613281e+00,4.485323429107666016e+00,4.322389125823974609e+00,4.170876979827880859e+00,4.029627323150634766e+00,3.897631406784057617e+00,3.774008274078369141e+00,3.657986164093017578e+00,3.548884868621826172e+00,3.446103334426879883e+00,3.349107027053833008e+00,3.257421970367431641e+00,3.170622825622558594e+00,3.088329792022705078e+00,3.010200262069702148e+00,2.935926437377929688e+00,2.865229606628417969e+00,2.797857522964477539e+00,2.733580589294433594e+00,2.672190904617309570e+00,2.613498210906982422e+00,2.557328224182128906e+00,2.503521680831909180e+00,2.451933145523071289e+00,2.402427196502685547e+00,2.354881286621093750e+00,2.309180498123168945e+00,2.265219926834106445e+00,9.962546825408935547e-01,9.592617154121398926e-01,9.472794532775878906e-01,9.355927109718322754e-01,9.243757128715515137e-01,9.150888919830322266e-01,9.100209474563598633e-01,9.057808518409729004e-01,9.389310479164123535e-01,1.902949213981628418e+00,1.872994899749755859e+00,9.527746438980102539e-01
5.000000000000000000e+00,5.000000000000000000e+00,5.000000000000000000e+00,5.000000000000000000e+00,5.000000000000000000e+00,5.000000000000000000e+00,5.000000000000000000e+00,5.000000000000000000e+00,5.000000000000000000e+00,5.000000000000000000e+00,5.000000000000000000e+00,5.000000000000000000e+00,5.000000000000000000e+00,5.000000000000000000e+00,5.000000000000000000e+00,5.000000000000000000e+00,5.000000000000000000e+00,5.000000000000000000e+00,5.000000000000000000e+00,5.000000000000000000e+00,5.000000000000000000e+00,5.000000000000000000e+00,5.000000000000000000e+00,5.000000000000000000e+00,5.000000000000000000e+00,5.000000000000000000e+00,5.000000000000000000e+00,5.000000000000000000e+00,5.000000000000000000e+00,5.000000000000000000e+00,5.000000000000000000e+00,5.000000000000000000e+00,5.000000000000000000e+00,5.000000000000000000e+00,5.000000000000000000e+00,5.000000000000000000e+00,5.000000000000000000e+00,5.000000000000000000e+00,5.000000000000000000e+00,4.851185798645019531e+00,4.661150455474853516e+00,4.485441684722900391e+00,4.322498321533203125e+00,4.170979022979736328e+00,4.029722690582275391e+00,3.897720098495483398e+00,3.774091720581054688e+00,3.658064603805541992e+00,3.548958778381347656e+00,3.446172475814819336e+00,3.349172830581665039e+00,3.257484197616577148e+00,3.170681953430175781e+00,3.088385820388793945e+00,3.010253667831420898e+00,2.935976982116699219e+00,2.865277528762817383e+00,2.797903299331665039e+00,2.733624458312988281e+00,2.672232866287231445e+00,2.613538265228271484e+00,2.557366609573364258e+00,2.503558635711669922e+00,2.451968193054199219e+00,2.402461290359497070e+00,2.354913711547851562e+00,2.309211730957031250e+00,2.265249967575073242e+00,9.984177350997924805e-01,9.636457562446594238e-01,9.515543580055236816e-01,9.398310780525207520e-01,9.285754561424255371e-01,9.193472266197204590e-01,9.137350320816040039e-01,9.094603061676025391e-01,1.933899164199829102e+00,1.902970433235168457e+00,1.873015522956848145e+00,9.506897926330566406e-01
5.000000000000000000e+00,5.000000000000000000e+00,5.000000000000000000e+00,5.000000000000000000e+00,5.000000000000000000e+00,5.000000000000000000e+00,5.000000000000000000e+00,5.000000000000000000e+00,5.000000000000000000e+00,5.000000000000000000e+00,5.000000000000000000e+00,5.000000000000000000e+00,5.000000000000000000e+00,5.000000000000000000e+00,5.000000000000000000e+00,5.000000000000000000e+00,5.000000000000000000e+00,5.000000000000000000e+00,5.000000000000000000e+00,5.000000000000000000e+00,5.000000000000000000e+00,5.000000000000000000e+00,5.000000000000000000e+00,5.000000000000000000e+00,5.000000000000000000e+00,5.000000000000000000e+00,5.000000000000000000e+00,5.000000000000000000e+00,5.000000000000000000e+00,5.000000000000000000e+00,5.000000000000000000e+00,5.000000000000000000e+00,5.000000000000000000e+00,5.000000000000000000e+00,5.000000000000000000e+00,5.000000000000000000e+00,5.000000000000000000e+00,5.000000000000000000e+00,5.000000000000000000e+00,4.851324081420898438e+00,4.661276817321777344e+00,4.485559463500976562e+00,4.322607994079589844e+00,4.171081066131591797e+00,4.029817581176757812e+00,3.897809267044067383e+00,3.774174928665161133e+00,3.658143281936645508e+00,3.549032449722290039e+00,3.446242094039916992e+00,3.349238395690917969e+00,3.257546663284301758e+00,3.170740842819213867e+00,3.088441610336303711e+00,3.010306835174560547e+00,2.936027526855468750e+00,2.865325689315795898e+00,2.797949075698852539e+00,2.733668327331542969e+00,2.672274827957153320e+00,2.613578319549560547e+00,2.557404994964599609e+00,2.503595352172851562e+00,2.452003479003906250e+00,2.402494907379150391e+00,2.354946374893188477e+00,2.309242963790893555e+00,2.265280008316040039e+00,1.000590205192565918e+00,9.680700302124023438e-01,9.558681845664978027e-01,9.441727995872497559e-01,9.328135848045349121e-01,9.236454367637634277e-01,9.174794554710388184e-01,9.131697416305541992e-01,1.933921217918395996e+00,1.902991771697998047e+00,9.757426977157592773e-01,9.486141204833984375e-01
5.000000000000000000e+00,5.000000000000000000e+00,5.000000000000000000e+00,5.000000000000000000e+00,5.000000000000000000e+00,5.000000000000000000e+00,5.000000000000000000e+00,5.000000000000000000e+00,5.000000000000000000e+00,5.000000000000000000e+00,5.000000000000000000e+00,5.000000000000000000e+00,5.000000000000000000e+00,5.000000000000000000e+00,5.000000000000000000e+00,5.000000000000000000e+00,5.000000000000000000e+00,5.000000000000000000e+00,5.000000000000000000e+00,5.000000000000000000e+00,5.000000000000000000e+00,5.000000000000000000e+00,5.000000000000000000e+00,5.000000000000000000e+00,5.000000000000000000e+00,5.000000000000000000e+00,5.000000000000000000e+00,5.000000000000000000e+00,5.000000000000000000e+00,5.000000000000000000e+00,5.000000000000000000e+00,5.000000000000000000e+00,5.000000000000000000e+00,5.000000000000000000e+00,5.000000000000000000e+00,5.000000000000000000e+00,5.000000000000000000e+00,5.000000000000000000e+00,5.000000000000000000e+00,4.851461887359619141e+00,4.661404132843017578e+00,4.485676288604736328e+00,4.322717666625976562e+00,4.171183109283447266e+00,4.029912948608398438e+00,3.897898435592651367e+00,3.774258613586425781e+00,3.658221244812011719e+00,3.549106359481811523e+00,3.446311950683593750e+00,3.349304199218750000e+00,3.257608890533447266e+00,3.170799970626831055e+00,3.088497638702392578e+00,3.010359764099121094e+00,2.936078310012817383e+00,2.865374088287353516e+00,2.797995090484619141e+00,2.733712196350097656e+00,2.672316789627075195e+00,2.613618373870849609e+00,2.557443141937255859e+00,2.503632068634033203e+00,2.452038764953613281e+00,2.402528762817382812e+00,2.354978799819946289e+00,2.309274435043334961e+00,2.265310287475585938e+00,1.002772092819213867e+00,9.725351929664611816e-01,9.603030681610107422e-01,9.485548138618469238e-01,9.370905160903930664e-01,9.279839992523193359e-01,9.213384389877319336e-01,9.187288284301757812e-01,1.933943033218383789e+00,1.903012871742248535e+00,9.726343154907226562e-01,9.465474486351013184e-01
5.000000000000000000e+00,5.000000000000000000e+00,5.000000000000000000e+00,5.000000000000000000e+00,5.000000000000000000e+00,5.000000000000000000e+00,5.000000000000000000e+00,5.000000000000000000e+00,5.000000000000000000e+00,5.000000000000000000e+00,5.000000000000000000e+00,5.000000000000000000e+00,5.000000000000000000e+00,5.000000000000000000e+00,5.000000000000000000e+00,5.000000000000000000e+00,5.000000000000000000e+00,5.000000000000000000e+00,5.000000000000000000e+00,5.000000000000000000e+00,5.000000000000000000e+00,5.000000000000000000e+00,5.000000000000000000e+00,5.000000000000000000e+00,5.000000000000000000e+00,5.000000000000000000e+00,5.000000000000000000e+00,5.000000000000000000e+00,5.000000000000000000e+00,5.000000000000000000e+00,5.000000000000000000e+00,5.000000000000000000e+00,5.000000000000000000e+00,5.000000000000000000e+00,5.000000000000000000e+00,5.000000000000000000e+00,5.000000000000000000e+00,5.000000000000000000e+00,5.000000000000000000e+00,4.851600170135498047e+00,4.661531925201416016e+00,4.485794544219970703e+00,4.322825908660888672e+00,4.171285152435302734e+00,4.030007839202880859e+00,3.897987842559814453e+00,3.774342060089111328e+00,3.658299684524536133e+00,3.549180030822753906e+00,3.446381568908691406e+00,3.349370241165161133e+00,3.257670879364013672e+00,3.170859098434448242e+00,3.088553667068481445e+00,3.010412931442260742e+00,2.936128616333007812e+00,2.865422248840332031e+00,2.798041105270385742e+00,2.733755826950073242e+00,2.672358751296997070e+00,2.613658428192138672e+00,2.557481527328491211e+00,2.503668785095214844e+00,2.452074050903320312e+00,2.402562618255615234e+00,2.355011224746704102e+00,2.309305667877197266e+00,2.265340328216552734e+00,1.004963755607604980e+00,9.770417213439941406e-01,9.648363590240478516e-01,9.529777169227600098e-01,9.414067864418029785e-01,9.323636293411254883e-01,9.256553053855895996e-01,9.346244931221008301e-01,1.933964848518371582e+00,1.000483036041259766e+00,9.695833921432495117e-01,9.444897174835205078e-01
5.000000000000000000e+00,5.000000000000000000e+00,5.000000000000000000e+00,5.000000000000000000e+00,5.000000000000000000e+00,5.000000000000000000e+00,5.000000000000000000e+00,5.000000000000000000e+00,5.000000000000000000e+00,5.000000000000000000e+00,5.000000000000000000e+00,5.000000000000000000e+00,5.000000000000000000e+00,5.000000000000000000e+00,5.000000000000000000e+00,5.000000000000000000e+00,5.000000000000000000e+00,5.000000000000000000e+00,5.000000000000000000e+00,5.000000000000000000e+00,5.000000000000000000e+00,5.000000000000000000e+00,5.000000000000000000e+00,5.000000000000000000e+00,5.000000000000000000e+00,5.000000000000000000e+00,5.000000000000000000e+00,5.000000000000000000e+00,5.000000000000000000e+00,5.000000000000000000e+00,5.000000000000000000e+00,5.000000000000000000e+00,5.000000000000000000e+00,5.000000000000000000e+00,5.000000000000000000e+00,5.000000000000000000e+00,5.000000000000000000e+00,5.000000000000000000e+00,5.000000000000000000e+00,4.851737976074218750e+00,4.661659240722656250e+00,4.485912799835205078e+00,4.322935581207275391e+00,4.171387195587158203e+00,4.030103206634521484e+00,3.898076295852661133e+00,3.774425745010375977e+00,3.658378362655639648e+00,3.549253940582275391e+00,3.446451425552368164e+00,3.349436044692993164e+00,3.257733106613159180e+00,3.170917749404907227e+00,3.088609695434570312e+00,3.010466098785400391e+00,2.936179161071777344e+00,2.865470409393310547e+00,2.798086881637573242e+00,2.733799695968627930e+00,2.672400474548339844e+00,2.613698482513427734e+00,2.557519912719726562e+00,2.503705501556396484e+00,2.452109336853027344e+00,2.402596473693847656e+00,2.355043888092041016e+00,2.309336900711059570e+00,2.265370368957519531e+00,1.008513689041137695e+00,9.816867709159851074e-01,9.694128036499023438e-01,9.574420452117919922e-01,9.457632303237915039e-01,9.367846846580505371e-01,9.300128817558288574e-01,9.487500786781311035e-01,1.933986902236938477e+00,9.972153306007385254e-01,9.674244523048400879e-01,9.468348622322082520e-01
4.874002933502197266e+00,4.872806072235107422e+00,4.871609687805175781e+00,4.870413780212402344e+00,4.869218826293945312e+00,4.868024349212646484e+00,4.866829872131347656e+00,4.865636348724365234e+00,4.864443778991699219e+00,4.863251686096191406e+00,4.862059593200683594e+00,4.860868453979492188e+00,4.859678268432617188e+00,4.858488082885742188e+00,4.857298851013183594e+00,4.856109619140625000e+00,4.854921817779541016e+00,4.853734016418457031e+00,4.852547168731689453e+00,4.851360797882080078e+00,4.850174903869628906e+00,4.848989486694335938e+00,4.847805023193359375e+00,4.846621036529541016e+00,4.845437526702880859e+00,4.844254016876220703e+00,4.843071937561035156e+00,4.841889858245849609e+00,4.840708732604980469e+00,4.839528083801269531e+00,4.838347911834716797e+00,4.837168216705322266e+00,4.835989475250244141e+00,4.834811210632324219e+00,4.833633422851562500e+00,4.832455635070800781e+00,4.831279277801513672e+00,4.830102920532226562e+00,4.828927516937255859e+00,4.827753067016601562e+00,4.661786556243896484e+00,4.486030578613281250e+00,4.323045253753662109e+00,4.171488285064697266e+00,4.030198574066162109e+00,3.898165464401245117e+00,3.774509429931640625e+00,3.658456802368164062e+00,3.549327850341796875e+00,3.446520805358886719e+00,3.349501848220825195e+00,3.257795572280883789e+00,3.170976638793945312e+00,3.088665246963500977e+00,3.010519266128540039e+00,2.936229944229125977e+00,2.865518331527709961e+00,2.798132896423339844e+00,2.733843564987182617e+00,2.672442436218261719e+00,2.613738536834716797e+00,2.557558298110961914e+00,2.503742456436157227e+00,2.452144384384155273e+00,2.402630567550659180e+00,2.355076551437377930e+00,2.309368133544921875e+00,2.265400409698486328e+00,1.012948632240295410e+00,9.869598150253295898e-01,9.745429158210754395e-01,9.624344110488891602e-01,9.506460428237915039e-01,9.433696866035461426e-01,9.362360239028930664e-01,9.663255810737609863e-01,1.026510596275329590e+00,9.939688444137573242e-01,9.652751684188842773e-01,9.509708881378173828e-01
3.777035951614379883e+00,3.776317119598388672e+00,3.775598526000976562e+00,3.774880409240722656e+00,3.774162292480468750e+00,3.773444652557373047e+00,3.772727012634277344e+00,3.772009849548339844e+00,3.771292686462402344e+00,3.770576000213623047e+00,3.769859790802001953e+00,3.769143581390380859e+00,3.768427848815917969e+00,3.767712354660034180e+00,3.766997098922729492e+00,3.766282081604003906e+00,3.765567302703857422e+00,3.764853000640869141e+00,3.764138221740722656e+00,3.763424396514892578e+00,3.762710571289062500e+00,3.761997222900390625e+00,3.761284112930297852e+00,3.760571479797363281e+00,3.759858846664428711e+00,3.759146690368652344e+00,3.758434534072875977e+00,3.757722854614257812e+00,3.757010936737060547e+00,3.756299734115600586e+00,3.755588769912719727e+00,3.754878044128417969e+00,3.754167795181274414e+00,3.753457546234130859e+00,3.752747774124145508e+00,3.752038002014160156e+00,3.751328706741333008e+00,3.750619649887084961e+00,3.749910593032836914e+00,3.749202013015747070e+00,3.748493671417236328e+00,3.747785806655883789e+00,3.747077941894531250e+00,3.746370553970336914e+00,3.745663404464721680e+00,3.744956493377685547e+00,3.744249820709228516e+00,3.658535480499267578e+00,3.549401760101318359e+00,3.446590423583984375e+00,3.349567413330078125e+00,3.257857799530029297e+00,3.171035766601562500e+00,3.088721275329589844e+00,3.010572433471679688e+00,2.936280488967895508e+00,2.865566492080688477e+00,2.798178672790527344e+00,2.733887434005737305e+00,2.672484159469604492e+00,2.613778591156005859e+00,2.557596683502197266e+00,2.503779172897338867e+00,2.452179670333862305e+00,2.402664184570312500e+00,2.355108976364135742e+00,2.309399366378784180e+00,2.265430688858032227e+00,1.017422676086425781e+00,9.923118352890014648e-01,9.797605276107788086e-01,9.675229787826538086e-01,9.557582736015319824e-01,9.504918456077575684e-01,9.432504773139953613e-01,1.965985774993896484e+00,1.934030890464782715e+00,9.907434582710266113e-01,9.679709672927856445e-01,9.550143480300903320e-01
3.083131313323974609e+00,3.082652330398559570e+00,3.082173347473144531e+00,3.081694841384887695e+00,3.081216335296630859e+00,3.080737829208374023e+00,3.080259561538696289e+00,3.079781532287597656e+00,3.079303741455078125e+00,3.078825950622558594e+00,3.078347921371459961e+00,3.077870368957519531e+00,3.077393054962158203e+00,3.076915979385375977e+00,3.076438903808593750e+00,3.075961828231811523e+00,3.075485229492187500e+00,3.075008630752563477e+00,3.074532032012939453e+00,3.074055910110473633e+00,3.073579311370849609e+00,3.073103427886962891e+00,3.072627544403076172e+00,3.072151899337768555e+00,3.071676254272460938e+00,3.071200847625732422e+00,3.070725440979003906e+00,3.070250272750854492e+00,3.069775342941284180e+00,3.069300651550292969e+00,3.068825721740722656e+00,3.068351030349731445e+00,3.067876577377319336e+00,3.067402362823486328e+00,3.066928386688232422e+00,3.066454410552978516e+00,3.065980672836303711e+00,3.065506935119628906e+00,3.065033435821533203e+00,3.064560174942016602e+00,3.064086675643920898e+00,3.063613653182983398e+00,3.063140630722045898e+00,3.062667846679687500e+00,3.062195301055908203e+00,3.061722755432128906e+00,3.061250448226928711e+00,3.060778141021728516e+00,3.060306072235107422e+00,3.059834241867065430e+00,3.059362173080444336e+00,3.058890581130981445e+00,3.058418989181518555e+00,3.057947635650634766e+00,3.010625600814819336e+00,2.936331033706665039e+00,2.865614891052246094e+00,2.798224687576293945e+00,2.733931303024291992e+00,2.672526121139526367e+00,2.613818645477294922e+00,2.557635068893432617e+00,2.503815889358520508e+00,2.452215194702148438e+00,2.402698040008544922e+00,2.355141401290893555e+00,2.309430837631225586e+00,2.265460729598999023e+00,1.021936416625976562e+00,9.977219700813293457e-01,9.850344657897949219e-01,9.727509021759033203e-01,9.609257578849792480e-01,9.577221870422363281e-01,9.503706693649291992e-01,1.966008543968200684e+00,1.025559663772583008e+00,1.001197099685668945e+00,9.721473455429077148e-01,9.590553045272827148e-01
2.604619264602661133e+00,2.604277372360229492e+00,2.603935718536376953e+00,2.603593826293945312e+00,2.603252172470092773e+00,2.602910757064819336e+00,2.602569341659545898e+00,2.602227926254272461e+00,2.601886749267578125e+00,2.601545810699462891e+00,2.601204633712768555e+00,2.600863695144653320e+00,2.600522756576538086e+00,2.600181818008422852e+00,2.599841117858886719e+00,2.599500656127929688e+00,2.599160194396972656e+00,2.598819732666015625e+00,2.598479270935058594e+00,2.598139047622680664e+00,2.597799062728881836e+00,2.597458839416503906e+00,2.597118854522705078e+00,2.596778869628906250e+00,2.596439123153686523e+00,2.596099376678466797e+00,2.595759868621826172e+00,2.595420360565185547e+00,2.595080852508544922e+00,2.594741582870483398e+00,2.594402313232421875e+00,2.594063043594360352e+00,2.593724012374877930e+00,2.593384742736816406e+00,2.593045949935913086e+00,2.592707157135009766e+00,2.592368364334106445e+00,2.592029809951782227e+00,2.591691255569458008e+00,2.591352701187133789e+00,2.591014385223388672e+00,2.590676069259643555e+00,2.590337991714477539e+00,2.589999675750732422e+00,2.589661598205566406e+00,2.589323759078979492e+00,2.588985919952392578e+00,2.588648080825805664e+00,2.588310480117797852e+00,2.587972879409790039e+00,2.587635278701782227e+00,2.587297916412353516e+00,2.586960554122924805e+00,2.586623191833496094e+00,2.586286067962646484e+00,2.585949182510375977e+00,2.585612058639526367e+00,2.585275173187255859e+00,2.584938526153564453e+00,2.584601879119873047e+00,2.584265232086181641e+00,2.557673454284667969e+00,2.503852605819702148e+00,2.452250480651855469e+00,2.402731895446777344e+00,2.355174064636230469e+00,2.309461832046508789e+00,2.265490770339965820e+00,1.026490449905395508e+00,1.003191590309143066e+00,9.903655648231506348e-01,9.781042933464050293e-01,9.661494493484497070e-01,9.650636315345764160e-01,9.575994014739990234e-01,1.041379332542419434e+00,1.016566276550292969e+00,9.963170289993286133e-01,9.827303886413574219e-01,9.721119403839111328e-01
2.254737377166748047e+00,2.254478931427001953e+00,2.254220724105834961e+00,2.253962278366088867e+00,2.253704071044921875e+00,2.253445863723754883e+00,2.253187656402587891e+00,2.252929687500000000e+00,2.252671480178833008e+00,2.252413511276245117e+00,2.252155780792236328e+00,2.251898050308227539e+00,2.251640081405639648e+00,2.251382350921630859e+00,2.251124858856201172e+00,2.250867128372192383e+00,2.250609636306762695e+00,2.250352144241333008e+00,2.250094652175903320e+00,2.249837160110473633e+00,2.249579906463623047e+00,2.249322652816772461e+00,2.249065399169921875e+00,2.248808383941650391e+00,2.248552560806274414e+00,2.248297691345214844e+00,2.248043060302734375e+00,2.247788190841674805e+00,2.247533798217773438e+00,2.247279167175292969e+00,2.247024774551391602e+00,2.246770143508911133e+00,2.246515989303588867e+00,2.246261596679687500e+00,2.246007442474365234e+00,2.245753049850463867e+00,2.245498895645141602e+00,2.245244741439819336e+00,2.244990587234497070e+00,2.244736671447753906e+00,2.244482755661010742e+00,2.244229078292846680e+00,2.243975162506103516e+00,2.243721485137939453e+00,2.243467807769775391e+00,2.243214130401611328e+00,2.242960453033447266e+00,2.242707014083862305e+00,2.242453575134277344e+00,2.242200136184692383e+00,2.241946697235107422e+00,2.241693496704101562e+00,2.241440296173095703e+00,2.241187095642089844e+00,2.240933895111083984e+00,2.240680694580078125e+00,2.240427732467651367e+00,2.240174770355224609e+00,2.239922046661376953e+00,2.239669084548950195e+00,2.239416360855102539e+00,2.239163637161254883e+00,2.238911151885986328e+00,2.238658428192138672e+00,2.238405942916870117e+00,2.238153219223022461e+00,2.237900972366333008e+00,2.237648487091064453e+00,1.030671477317810059e+00,1.008721470832824707e+00,9.959082603454589844e-01,9.835169911384582520e-01,9.714301228523254395e-01,9.713285565376281738e-01,9.725484848022460938e-01,1.036871314048767090e+00,1.016460776329040527e+00,9.944133758544921875e-01,9.832907915115356445e-01,9.738824367523193359e-01
1.987822055816650391e+00,1.987621068954467773e+00,1.987420320510864258e+00,1.987219452857971191e+00,1.987018704414367676e+00,1.986817955970764160e+00,1.986617326736450195e+00,1.986416697502136230e+00,1.986216068267822266e+00,1.986015558242797852e+00,1.985815048217773438e+00,1.985614538192749023e+00,1.985414147377014160e+00,1.985213756561279297e+00,1.985013365745544434e+00,1.984813094139099121e+00,1.984612822532653809e+00,1.984412550926208496e+00,1.984212398529052734e+00,1.984012246131896973e+00,1.983812093734741211e+00,1.983612060546875000e+00,1.983412027359008789e+00,1.983211994171142578e+00,1.983012080192565918e+00,1.982812166213989258e+00,1.982612252235412598e+00,1.982412457466125488e+00,1.982212662696838379e+00,1.982012987136840820e+00,1.981813192367553711e+00,1.981613516807556152e+00,1.981413960456848145e+00,1.981214404106140137e+00,1.981015086174011230e+00,1.980815529823303223e+00,1.980616092681884766e+00,1.980416655540466309e+00,1.980217218399047852e+00,1.980017900466918945e+00,1.979818582534790039e+00,1.979619264602661133e+00,1.979420065879821777e+00,1.979220867156982422e+00,1.979021787643432617e+00,1.978822588920593262e+00,1.978623509407043457e+00,1.978424549102783203e+00,1.978225588798522949e+00,1.978026628494262695e+00,1.977827668190002441e+00,1.977628827095031738e+00,1.977429986000061035e+00,1.977231144905090332e+00,1.977032423019409180e+00,1.976833701133728027e+00,1.976635098457336426e+00,1.976436495780944824e+00,1.976237893104553223e+00,1.976039290428161621e+00,1.975840806961059570e+00,1.975642323493957520e+00,1.975443840026855469e+00,1.975245475769042969e+00,1.975047111511230469e+00,1.974848866462707520e+00,1.974650621414184570e+00,1.974452376365661621e+00,1.034664630889892578e+00,1.014372467994689941e+00,1.001520276069641113e+00,9.889898896217346191e-01,9.767689704895019531e-01,9.776313304901123047e-01,1.055280447006225586e+00,1.034883260726928711e+00,1.014187693595886230e+00,9.949131011962890625e-01,9.822619557380676270e-01,9.732827544212341309e-01
1.777412056922912598e+00,1.777251362800598145e+00,1.777091026306152344e+00,1.776930451393127441e+00,1.776769995689392090e+00,1.776609420776367188e+00,1.776448965072631836e+00,1.776288628578186035e+00,1.776128172874450684e+00,1.775967836380004883e+00,1.775807499885559082e+00,1.775647163391113281e+00,1.775486826896667480e+00,1.775326609611511230e+00,1.775166392326354980e+00,1.775006175041198730e+00,1.774845957756042480e+00,1.774685859680175781e+00,1.774525761604309082e+00,1.774365663528442383e+00,1.774205565452575684e+00,1.774045586585998535e+00,1.773885607719421387e+00,1.773725628852844238e+00,1.773565649986267090e+00,1.773405671119689941e+00,1.773245811462402344e+00,1.773085951805114746e+00,1.772926211357116699e+00,1.772766351699829102e+00,1.772606611251831055e+00,1.772446870803833008e+00,1.772287130355834961e+00,1.772127389907836914e+00,1.771967768669128418e+00,1.771808147430419922e+00,1.771648526191711426e+00,1.771489024162292480e+00,1.771329641342163086e+00,1.771170139312744141e+00,1.771010637283325195e+00,1.770851135253906250e+00,1.770691752433776855e+00,1.770532369613647461e+00,1.770372986793518066e+00,1.770213603973388672e+00,1.770054340362548828e+00,1.769895076751708984e+00,1.769735813140869141e+00,1.769576549530029297e+00,1.769417405128479004e+00,1.769258260726928711e+00,1.769099116325378418e+00,1.768939971923828125e+00,1.768780827522277832e+00,1.768621802330017090e+00,1.768462777137756348e+00,1.768303751945495605e+00,1.768144845962524414e+00,1.767985939979553223e+00,1.767827033996582031e+00,1.767668128013610840e+00,1.767509222030639648e+00,1.767350435256958008e+00,1.767191648483276367e+00,1.767032861709594727e+00,1.766874194145202637e+00,1.766715407371520996e+00,1.084625601768493652e+00,1.031439542770385742e+00,1.007195949554443359e+00,9.945239424705505371e-01,9.827082157135009766e-01,9.840165376663208008e-01,1.061955213546752930e+00,1.035159468650817871e+00,1.016698598861694336e+00,9.965252280235290527e-01,9.803379178047180176e-01,9.684485793113708496e-01
1.607282161712646484e+00,1.607150793075561523e+00,1.607019543647766113e+00,1.606888175010681152e+00,1.606756925582885742e+00,1.606625676155090332e+00,1.606494426727294922e+00,1.606363415718078613e+00,1.606232285499572754e+00,1.606101036071777344e+00,1.605969905853271484e+00,1.605838775634765625e+00,1.605707764625549316e+00,1.605576634407043457e+00,1.605445623397827148e+00,1.605314612388610840e+00,1.605183482170104980e+00,1.605052590370178223e+00,1.604921579360961914e+00,1.604790687561035156e+00,1.604659676551818848e+00,1.604528784751892090e+00,1.604397892951965332e+00,1.604267001152038574e+00,1.604136228561401367e+00,1.604005336761474609e+00,1.603874564170837402e+00,1.603743791580200195e+00,1.603613018989562988e+00,1.603482365608215332e+00,1.603351593017578125e+00,1.603220939636230469e+00,1.603090286254882812e+00,1.602959632873535156e+00,1.602828979492187500e+00,1.602698326110839844e+00,1.602567791938781738e+00,1.602437257766723633e+00,1.602306604385375977e+00,1.602176189422607422e+00,1.602045655250549316e+00,1.601915121078491211e+00,1.601784706115722656e+00,1.601654410362243652e+00,1.601523995399475098e+00,1.601393580436706543e+00,1.601263284683227539e+00,1.601132869720458984e+00,1.601002573966979980e+00,1.600872278213500977e+00,1.600741982460021973e+00,1.600611686706542969e+00,1.600481390953063965e+00,1.600351214408874512e+00,1.600221037864685059e+00,1.600090861320495605e+00,1.599960684776306152e+00,1.599830508232116699e+00,1.599700331687927246e+00,1.599570274353027344e+00,1.599440217018127441e+00,1.599310159683227539e+00,1.599180102348327637e+00,1.599050164222717285e+00,1.598920106887817383e+00,1.598790168762207031e+00,1.598660230636596680e+00,1.598530292510986328e+00,1.073529839515686035e+00,1.036337614059448242e+00,1.020155549049377441e+00,1.010796785354614258e+00,1.003852009773254395e+00,1.597751140594482422e+00,1.597621321678161621e+00,1.597491621971130371e+00,1.021511197090148926e+00,1.002595067024230957e+00,9.819967746734619141e-01,9.655594825744628906e-01
1.466876149177551270e+00,1.466766715049743652e+00,1.466657280921936035e+00,1.466547966003417969e+00,1.466438651084899902e+00,1.466329336166381836e+00,1.466220021247863770e+00,1.466110706329345703e+00,1.466001391410827637e+00,1.465892195701599121e+00,1.465782880783081055e+00,1.465673804283142090e+00,1.465564608573913574e+00,1.465455412864685059e+00,1.465346217155456543e+00,1.465237021446228027e+00,1.465127944946289062e+00,1.465018749237060547e+00,1.464909672737121582e+00,1.464800596237182617e+00,1.464691400527954102e+00,1.464582443237304688e+00,1.464473366737365723e+00,1.464364290237426758e+00,1.464255332946777344e+00,1.464146256446838379e+00,1.464037299156188965e+00,1.463928341865539551e+00,1.463819384574890137e+00,1.463710427284240723e+00,1.463601469993591309e+00,1.463492631912231445e+00,1.463383674621582031e+00,1.463274836540222168e+00,1.463165998458862305e+00,1.463057160377502441e+00,1.462948322296142578e+00,1.462839484214782715e+00,1.462730765342712402e+00,1.462621927261352539e+00,1.462513208389282227e+00,1.462404489517211914e+00,1.462295770645141602e+00,1.462187051773071289e+00,1.462078332901000977e+00,1.461969733238220215e+00,1.461861014366149902e+00,1.461752533912658691e+00,1.461643934249877930e+00,1.461535215377807617e+00,1.461426615715026855e+00,1.461318135261535645e+00,1.461209535598754883e+00,1.461100935935974121e+00,1.460992455482482910e+00,1.460883975028991699e+00,1.460775494575500488e+00,1.460667014122009277e+00,1.460558533668518066e+00,1.460450053215026855e+00,1.460341572761535645e+00,1.460233211517333984e+00,1.460124731063842773e+00,1.460016369819641113e+00,1.459908008575439453e+00,1.459799647331237793e+00,1.459691286087036133e+00,1.459583044052124023e+00,1.067016601562500000e+00,1.038699746131896973e+00,1.022121310234069824e+00,1.014497280120849609e+00,1.007016062736511230e+00,1.008756518363952637e+00,1.458825230598449707e+00,1.458716988563537598e+00,1.458608865737915039e+00,1.458500623703002930e+00,9.880492091178894043e-01,9.657977223396301270e-01
1.349029898643493652e+00,1.348937392234802246e+00,1.348844885826110840e+00,1.348752379417419434e+00,1.348659873008728027e+00,1.348567485809326172e+00,1.348474979400634766e+00,1.348382472991943359e+00,1.348290085792541504e+00,1.348197698593139648e+00,1.348105311393737793e+00,1.348012924194335938e+00,1.347920536994934082e+00,1.347828149795532227e+00,1.347735762596130371e+00,1.347643375396728516e+00,1.347551226615905762e+00,1.347458839416503906e+00,1.347366571426391602e+00,1.347274303436279297e+00,1.347182035446166992e+00,1.347089767456054688e+00,1.346997499465942383e+00,1.346905231475830078e+00,1.346813082695007324e+00,1.346720814704895020e+00,1.346628665924072266e+00,1.346536397933959961e+00,1.346444249153137207e+00,1.346352100372314453e+00,1.346259951591491699e+00,1.346167802810668945e+00,1.346075654029846191e+00,1.345983505249023438e+00,1.345891475677490234e+00,1.345799326896667480e+00,1.345707297325134277e+00,1.345615267753601074e+00,1.345523118972778320e+00,1.345431089401245117e+00,1.345339059829711914e+00,1.345247030258178711e+00,1.345155119895935059e+00,1.345063090324401855e+00,1.344971060752868652e+00,1.344879150390625000e+00,1.344787120819091797e+00,1.344695210456848145e+00,1.344603300094604492e+00,1.344511389732360840e+00,1.344419479370117188e+00,1.344327688217163086e+00,1.344235777854919434e+00,1.344143986701965332e+00,1.344052076339721680e+00,1.343960285186767578e+00,1.343868374824523926e+00,1.343776583671569824e+00,1.343684792518615723e+00,1.343593001365661621e+00,1.343501210212707520e+00,1.343409419059753418e+00,1.343317747116088867e+00,1.343225955963134766e+00,1.343134284019470215e+00,1.343042492866516113e+00,1.342950820922851562e+00,1.342859148979187012e+00,1.070028543472290039e+00,1.039012312889099121e+00,1.020974516868591309e+00,1.007138967514038086e+00,9.966045022010803223e-01,9.900358319282531738e-01,9.889107346534729004e-01,1.342126011848449707e+00,1.342034459114074707e+00,1.341942906379699707e+00,1.341851353645324707e+00,1.341759800910949707e+00
1.248710751533508301e+00,1.248631477355957031e+00,1.248552203178405762e+00,1.248473048210144043e+00,1.248393774032592773e+00,1.248314499855041504e+00,1.248235344886779785e+00,1.248156070709228516e+00,1.248076915740966797e+00,1.247997641563415527e+00,1.247918486595153809e+00,1.247839331626892090e+00,1.247760176658630371e+00,1.247681021690368652e+00,1.247601866722106934e+00,1.247522711753845215e+00,1.247443675994873047e+00,1.247364521026611328e+00,1.247285366058349609e+00,1.247206330299377441e+00,1.247127294540405273e+00,1.247048258781433105e+00,1.246969223022460938e+00,1.246890187263488770e+00,1.246811151504516602e+00,1.246732115745544434e+00,1.246653079986572266e+00,1.246574044227600098e+00,1.246495008468627930e+00,1.246415972709655762e+00,1.246337056159973145e+00,1.246258020401000977e+00,1.246179103851318359e+00,1.246100187301635742e+00,1.246021270751953125e+00,1.245942234992980957e+00,1.245863318443298340e+00,1.245784401893615723e+00,1.245705604553222656e+00,1.245626688003540039e+00,1.245547771453857422e+00,1.245468854904174805e+00,1.245390057563781738e+00,1.245311141014099121e+00,1.245232343673706055e+00,1.245153546333312988e+00,1.245074748992919922e+00,1.244995832443237305e+00,1.244917035102844238e+00,1.244838237762451172e+00,1.244759559631347656e+00,1.244680762290954590e+00,1.244601964950561523e+00,1.244523167610168457e+00,1.244444489479064941e+00,1.244365692138671875e+00,1.244287133216857910e+00,1.244208455085754395e+00,1.244129657745361328e+00,1.244050979614257812e+00,1.243972301483154297e+00,1.243893623352050781e+00,1.243814945220947266e+00,1.243736386299133301e+00,1.243657708168029785e+00,1.243579030036926270e+00,1.243500471115112305e+00,1.243421792984008789e+00,1.069819211959838867e+00,1.040690422058105469e+00,1.016911149024963379e+00,1.001955509185791016e+00,9.893288612365722656e-01,9.800278544425964355e-01,9.746011495590209961e-01,9.741680026054382324e-01,1.242714762687683105e+00,1.242636322975158691e+00,1.242557764053344727e+00,1.242479324340820312e+00
1.162279129028320312e+00,1.162210464477539062e+00,1.162141799926757812e+00,1.162073135375976562e+00,1.162004470825195312e+00,1.161935925483703613e+00,1.161867260932922363e+00,1.161798596382141113e+00,1.161729931831359863e+00,1.161661386489868164e+00,1.161592721939086914e+00,1.161524176597595215e+00,1.161455512046813965e+00,1.161386966705322266e+00,1.161318421363830566e+00,1.161249876022338867e+00,1.161181330680847168e+00,1.161112785339355469e+00,1.161044239997863770e+00,1.160975694656372070e+00,1.160907149314880371e+00,1.160838603973388672e+00,1.160770058631896973e+00,1.160701632499694824e+00,1.160633087158203125e+00,1.160564661026000977e+00,1.160496234893798828e+00,1.160427808761596680e+00,1.160359263420104980e+00,1.160290837287902832e+00,1.160222411155700684e+00,1.160153985023498535e+00,1.160085558891296387e+00,1.160017132759094238e+00,1.159948706626892090e+00,1.159880280494689941e+00,1.159811854362487793e+00,1.159743547439575195e+00,1.159675121307373047e+00,1.159606695175170898e+00,1.159538388252258301e+00,1.159470081329345703e+00,1.159401655197143555e+00,1.159333348274230957e+00,1.159265041351318359e+00,1.159196734428405762e+00,1.159128308296203613e+00,1.159060001373291016e+00,1.158991694450378418e+00,1.158923506736755371e+00,1.158855199813842773e+00,1.158786892890930176e+00,1.158718585968017578e+00,1.158650398254394531e+00,1.158582091331481934e+00,1.158513903617858887e+00,1.158445596694946289e+00,1.158377408981323242e+00,1.158309221267700195e+00,1.158241033554077148e+00,1.158172845840454102e+00,1.158104658126831055e+00,1.158036470413208008e+00,1.157968282699584961e+00,1.157900214195251465e+00,1.157832026481628418e+00,1.157763838768005371e+00,1.157695651054382324e+00,1.157627582550048828e+00,1.043537378311157227e+00,1.013415098190307617e+00,9.945666790008544922e-01,9.817406535148620605e-01,9.720915555953979492e-01,9.643511176109313965e-01,9.587044119834899902e-01,9.568538069725036621e-01,1.157014727592468262e+00,1.156946659088134766e+00,1.156878590583801270e+00
1.087038040161132812e+00,1.086977958679199219e+00,1.086917877197265625e+00,1.086857795715332031e+00,1.086797714233398438e+00,1.086737632751464844e+00,1.086677670478820801e+00,1.086617588996887207e+00,1.086557626724243164e+00,1.086497545242309570e+00,1.086437582969665527e+00,1.086377501487731934e+00,1.086317539215087891e+00,1.086257576942443848e+00,1.086197495460510254e+00,1.086137533187866211e+00,1.086077570915222168e+00,1.086017608642578125e+00,1.085957646369934082e+00,1.085897684097290039e+00,1.085837721824645996e+00,1.085777759552001953e+00,1.085717916488647461e+00,1.085657954216003418e+00,1.085597991943359375e+00,1.085538148880004883e+00,1.085478186607360840e+00,1.085418343544006348e+00,1.085358381271362305e+00,1.085298538208007812e+00,1.085238695144653320e+00,1.085178852081298828e+00,1.085119009017944336e+00,1.085059046745300293e+00,1.084999203681945801e+00,1.084939360618591309e+00,1.084879517555236816e+00,1.084819674491882324e+00,1.084759950637817383e+00,1.084699988365173340e+00,1.084640264511108398e+00,1.084580421447753906e+00,1.084520578384399414e+00,1.084460854530334473e+00,1.084401011466979980e+00,1.084341287612915039e+00,1.084281444549560547e+00,1.084221720695495605e+00,1.084161996841430664e+00,1.084102153778076172e+00,1.084042429924011230e+00,1.083982706069946289e+00,1.083922982215881348e+00,1.083863258361816406e+00,1.083803534507751465e+00,1.083743810653686523e+00,1.083684086799621582e+00,1.083624362945556641e+00,1.083564639091491699e+00,1.083505034446716309e+00,1.083445310592651367e+00,1.083385586738586426e+00,1.083325982093811035e+00,1.083266258239746094e+00,1.083206653594970703e+00,1.083147048950195312e+00,1.083087444305419922e+00,1.083027720451354980e+00,1.082968115806579590e+00,1.082908511161804199e+00,1.082848906517028809e+00,9.889377355575561523e-01,9.713152050971984863e-01,9.605459570884704590e-01,9.536482691764831543e-01,9.467220902442932129e-01,9.426946640014648438e-01,9.407240748405456543e-01,9.372709393501281738e-01,1.082312583923339844e+00
1.020946145057678223e+00,1.020893096923828125e+00,1.020840167999267578e+00,1.020787119865417480e+00,1.020734190940856934e+00,1.020681262016296387e+00,1.020628213882446289e+00,1.020575284957885742e+00,1.020522356033325195e+00,1.020469427108764648e+00,1.020416498184204102e+00,1.020363569259643555e+00,1.020310640335083008e+00,1.020257711410522461e+00,1.020204782485961914e+00,1.020151853561401367e+00,1.020098924636840820e+00,1.020045995712280273e+00,1.019993066787719727e+00,1.019940257072448730e+00,1.019887328147888184e+00,1.019834518432617188e+00,1.019781589508056641e+00,1.019728660583496094e+00,1.019675850868225098e+00,1.019623041152954102e+00,1.019570112228393555e+00,1.019517302513122559e+00,1.019464492797851562e+00,1.019411563873291016e+00,1.019358754158020020e+00,1.019305944442749023e+00,1.019253134727478027e+00,1.019200325012207031e+00,1.019147515296936035e+00,1.019094705581665039e+00,1.019041895866394043e+00,1.018989205360412598e+00,1.018936395645141602e+00,1.018883585929870605e+00,1.018830776214599609e+00,1.018778085708618164e+00,1.018725275993347168e+00,1.018672466278076172e+00,1.018619775772094727e+00,1.018566966056823730e+00,1.018514275550842285e+00,1.018461465835571289e+00,1.018408775329589844e+00,1.018356084823608398e+00,1.018303275108337402e+00,1.018250584602355957e+00,1.018197894096374512e+00,1.018145203590393066e+00,1.018092513084411621e+00,1.018039822578430176e+00,1.017987132072448730e+00,1.017934441566467285e+00,1.017881751060485840e+00,1.017829060554504395e+00,1.017776370048522949e+00,1.017723679542541504e+00,1.017671108245849609e+00,1.017618417739868164e+00,1.017565727233886719e+00,1.017513155937194824e+00,1.017460465431213379e+00,1.017407894134521484e+00,1.017355203628540039e+00,1.017302632331848145e+00,1.017250061035156250e+00,1.017197489738464355e+00,9.641302824020385742e-01,9.482113122940063477e-01,9.366514086723327637e-01,9.335311055183410645e-01,9.302842617034912109e-01,9.301084280014038086e-01,9.147217869758605957e-01,9.179848432540893555e-01
9.624304175376892090e-01,9.623832702636718750e-01,9.623362421989440918e-01,9.622892141342163086e-01,9.622420668601989746e-01,9.621950387954711914e-01,9.621479511260986328e-01,9.621009230613708496e-01,9.620538353919982910e-01,9.620068073272705078e-01,9.619597196578979492e-01,9.619127511978149414e-01,9.618656039237976074e-01,9.618186354637145996e-01,9.617715477943420410e-01,9.617245793342590332e-01,9.616774916648864746e-01,9.616305232048034668e-01,9.615834951400756836e-01,9.615365266799926758e-01,9.614894986152648926e-01,9.614425301551818848e-01,9.613955020904541016e-01,9.613485336303710938e-01,9.613015055656433105e-01,9.612545967102050781e-01,9.612075686454772949e-01,9.611606001853942871e-01,9.611136317253112793e-01,9.610667228698730469e-01,9.610196948051452637e-01,9.609727859497070312e-01,9.609257578849792480e-01,9.608789086341857910e-01,9.608318805694580078e-01,9.607850313186645508e-01,9.607380032539367676e-01,9.606911540031433105e-01,9.606443047523498535e-01,9.605973362922668457e-01,9.605504870414733887e-01,9.605035185813903809e-01,9.604566693305969238e-01,9.604097008705139160e-01,9.603628516197204590e-01,9.603158831596374512e-01,9.602690935134887695e-01,9.602221250534057617e-01,9.601753354072570801e-01,9.601284265518188477e-01,9.600815773010253906e-01,9.600346684455871582e-01,9.599878787994384766e-01,9.599409699440002441e-01,9.598941802978515625e-01,9.598472714424133301e-01,9.598004817962646484e-01,9.597535729408264160e-01,9.597067832946777344e-01,9.596599340438842773e-01,9.596131443977355957e-01,9.595662951469421387e-01,9.595195055007934570e-01,9.594726562500000000e-01,9.594259262084960938e-01,9.593790769577026367e-01,9.593323469161987305e-01,9.592854976654052734e-01,9.592387676239013672e-01,9.591919183731079102e-01,9.591451883316040039e-01,9.590983986854553223e-01,9.590516686439514160e-01,9.516685605049133301e-01,9.326432943344116211e-01,9.185076355934143066e-01,9.141498208045959473e-01,9.091824293136596680e-01,9.018562436103820801e-01,9.000311493873596191e-01
9.102587699890136719e-01,9.102165699005126953e-01,9.101745486259460449e-01,9.101323485374450684e-01,9.100902676582336426e-01,9.100481271743774414e-01,9.100061058998107910e-01,9.099640250205993652e-01,9.099218845367431641e-01,9.098798036575317383e-01,9.098376631736755371e-01,9.097956418991088867e-01,9.097535014152526855e-01,9.097114801406860352e-01,9.096693992614746094e-01,9.096273779869079590e-01,9.095852375030517578e-01,9.095432162284851074e-01,9.095011353492736816e-01,9.094591140747070312e-01,9.094170331954956055e-01,9.093750119209289551e-01,9.093329310417175293e-01,9.092909097671508789e-01,9.092488288879394531e-01,9.092068672180175781e-01,9.091647863388061523e-01,9.091228246688842773e-01,9.090807437896728516e-01,9.090387821197509766e-01,9.089967012405395508e-01,9.089547395706176758e-01,9.089127182960510254e-01,9.088707566261291504e-01,9.088286757469177246e-01,9.087867736816406250e-01,9.087447524070739746e-01,9.087027907371520996e-01,9.086607694625854492e-01,9.086188077926635742e-01,9.085767865180969238e-01,9.085348844528198242e-01,9.084928631782531738e-01,9.084509611129760742e-01,9.084090590476989746e-01,9.083670377731323242e-01,9.083251357078552246e-01,9.082831740379333496e-01,9.082412719726562500e-01,9.081993103027343750e-01,9.081574082374572754e-01,9.081153869628906250e-01,9.080735445022583008e-01,9.080315828323364258e-01,9.079896807670593262e-01,9.079477190971374512e-01,9.079058766365051270e-01,9.078639149665832520e-01,9.078220725059509277e-01,9.077801108360290527e-01,9.077382683753967285e-01,9.076963067054748535e-01,9.076544642448425293e-01,9.076125621795654297e-01,9.075707197189331055e-01,9.075288176536560059e-01,9.074869751930236816e-01,9.074450731277465820e-01,9.074032306671142578e-01,9.073613286018371582e-01,9.073195457458496094e-01,9.072776436805725098e-01,9.072358012199401855e-01,9.071938991546630859e-01,9.071521162986755371e-01,9.071102738380432129e-01,9.070684909820556641e-01,9.032350778579711914e-01,8.968630433082580566e-01,8.961154222488403320e-01
8.634525537490844727e-01,8.634145855903625488e-01,8.633767366409301758e-01,8.633387684822082520e-01,8.633009195327758789e-01,8.632630109786987305e-01,8.632251620292663574e-01,8.631872534751892090e-01,8.631494045257568359e-01,8.631114959716796875e-01,8.630736470222473145e-01,8.630357980728149414e-01,8.629978895187377930e-01,8.629601001739501953e-01,8.629221916198730469e-01,8.628843426704406738e-01,8.628464937210083008e-01,8.628086447715759277e-01,8.627707362174987793e-01,8.627329468727111816e-01,8.626950979232788086e-01,8.626573085784912109e-01,8.626194000244140625e-01,8.625816106796264648e-01,8.625437617301940918e-01,8.625059723854064941e-01,8.624681234359741211e-01,8.624303340911865234e-01,8.623924851417541504e-01,8.623546957969665527e-01,8.623168468475341797e-01,8.622791171073913574e-01,8.622412681579589844e-01,8.622034788131713867e-01,8.621656298637390137e-01,8.621279001235961914e-01,8.620900511741638184e-01,8.620523214340209961e-01,8.620145320892333984e-01,8.619767427444458008e-01,8.619389533996582031e-01,8.619012236595153809e-01,8.618634343147277832e-01,8.618257045745849609e-01,8.617879152297973633e-01,8.617501854896545410e-01,8.617123961448669434e-01,8.616746664047241211e-01,8.616369366645812988e-01,8.615991473197937012e-01,8.615614771842956543e-01,8.615236878395080566e-01,8.614860177040100098e-01,8.614482283592224121e-01,8.614105582237243652e-01,8.613727688789367676e-01,8.613350987434387207e-01,8.612973093986511230e-01,8.612596392631530762e-01,8.612219095230102539e-01,8.611842393875122070e-01,8.611465096473693848e-01,8.611088395118713379e-01,8.610711097717285156e-01,8.610334396362304688e-01,8.609957098960876465e-01,8.609580397605895996e-01,8.609203100204467773e-01,8.608826994895935059e-01,8.608449697494506836e-01,8.608073592185974121e-01,8.607696294784545898e-01,8.607320189476013184e-01,8.606942892074584961e-01,8.606566786766052246e-01,8.606189489364624023e-01,8.605813384056091309e-01,8.605436682701110840e-01,8.605060577392578125e-01,8.604683876037597656e-01
8.212245106697082520e-01,8.211901783943176270e-01,8.211559057235717773e-01,8.211216330528259277e-01,8.210873603820800781e-01,8.210530877113342285e-01,8.210188150405883789e-01,8.209845423698425293e-01,8.209502696990966797e-01,8.209159970283508301e-01,8.208817839622497559e-01,8.208474516868591309e-01,8.208132386207580566e-01,8.207789659500122070e-01,8.207447528839111328e-01,8.207104802131652832e-01,8.206762671470642090e-01,8.206420540809631348e-01,8.206077814102172852e-01,8.205735683441162109e-01,8.205392956733703613e-01,8.205051422119140625e-01,8.204708695411682129e-01,8.204366564750671387e-01,8.204024434089660645e-01,8.203682303428649902e-01,8.203339576721191406e-01,8.202998042106628418e-01,8.202655315399169922e-01,8.202313780784606934e-01,8.201971650123596191e-01,8.201630115509033203e-01,8.201287388801574707e-01,8.200945854187011719e-01,8.200603723526000977e-01,8.200262188911437988e-01,8.199920058250427246e-01,8.199578523635864258e-01,8.199236392974853516e-01,8.198894858360290527e-01,8.198552727699279785e-01,8.198211193084716797e-01,8.197869062423706055e-01,8.197528123855590820e-01,8.197185993194580078e-01,8.196844458580017090e-01,8.196502923965454102e-01,8.196161389350891113e-01,8.195819258689880371e-01,8.195478320121765137e-01,8.195136785507202148e-01,8.194795250892639160e-01,8.194454312324523926e-01,8.194112777709960938e-01,8.193771839141845703e-01,8.193430304527282715e-01,8.193089365959167480e-01,8.192747235298156738e-01,8.192406296730041504e-01,8.192064762115478516e-01,8.191724419593811035e-01,8.191382884979248047e-01,8.191041946411132812e-01,8.190700411796569824e-01,8.190359473228454590e-01,8.190017938613891602e-01,8.189677596092224121e-01,8.189336061477661133e-01,8.188995718955993652e-01,8.188654184341430664e-01,8.188313841819763184e-01,8.187972307205200195e-01,8.187631964683532715e-01,8.187291026115417480e-01,8.186950683593750000e-01,8.186609148979187012e-01,8.186268806457519531e-01,8.185927867889404297e-01,8.185587525367736816e-01,8.185246586799621582e-01
7.829343080520629883e-01,7.829031348228454590e-01,7.828720211982727051e-01,7.828407883644104004e-01,7.828096747398376465e-01,7.827785015106201172e-01,7.827473878860473633e-01,7.827162146568298340e-01,7.826851010322570801e-01,7.826538681983947754e-01,7.826228141784667969e-01,7.825916409492492676e-01,7.825605273246765137e-01,7.825293540954589844e-01,7.824982404708862305e-01,7.824670672416687012e-01,7.824359536170959473e-01,7.824048399925231934e-01,7.823737263679504395e-01,7.823425531387329102e-01,7.823114991188049316e-01,7.822804450988769531e-01,7.822492718696594238e-01,7.822182178497314453e-01,7.821870446205139160e-01,7.821559906005859375e-01,7.821248173713684082e-01,7.820937633514404297e-01,7.820626497268676758e-01,7.820315957069396973e-01,7.820004820823669434e-01,7.819694280624389648e-01,7.819382548332214355e-01,7.819072008132934570e-01,7.818760871887207031e-01,7.818450331687927246e-01,7.818139195442199707e-01,7.817829251289367676e-01,7.817518115043640137e-01,7.817207574844360352e-01,7.816896438598632812e-01,7.816586494445800781e-01,7.816275358200073242e-01,7.815964818000793457e-01,7.815654277801513672e-01,7.815343737602233887e-01,7.815033197402954102e-01,7.814722657203674316e-01,7.814412117004394531e-01,7.814101576805114746e-01,7.813791036605834961e-01,7.813481092453002930e-01,7.813170552253723145e-01,7.812860012054443359e-01,7.812549471855163574e-01,7.812239527702331543e-01,7.811929583549499512e-01,7.811619043350219727e-01,7.811309099197387695e-01,7.810998558998107910e-01,7.810688614845275879e-01,7.810378074645996094e-01,7.810068726539611816e-01,7.809758186340332031e-01,7.809448242187500000e-01,7.809137701988220215e-01,7.808828353881835938e-01,7.808517813682556152e-01,7.808207869529724121e-01,7.807897925376892090e-01,7.807587981224060059e-01,7.807278037071228027e-01,7.806968688964843750e-01,7.806658148765563965e-01,7.806348800659179688e-01,7.806038260459899902e-01,7.805728912353515625e-01,7.805418968200683594e-01,7.805109620094299316e-01,7.804799675941467285e-01
7.480556964874267578e-01,7.480272054672241211e-01,7.479987740516662598e-01,7.479702830314636230e-01,7.479419112205505371e-01,7.479134202003479004e-01,7.478849887847900391e-01,7.478565573692321777e-01,7.478281259536743164e-01,7.477996945381164551e-01,7.477712631225585938e-01,7.477428317070007324e-01,7.477144002914428711e-01,7.476859688758850098e-01,7.476575970649719238e-01,7.476291060447692871e-01,7.476007342338562012e-01,7.475723028182983398e-01,7.475439310073852539e-01,7.475154399871826172e-01,7.474870681762695312e-01,7.474586367607116699e-01,7.474302649497985840e-01,7.474018335342407227e-01,7.473734617233276367e-01,7.473450899124145508e-01,7.473166584968566895e-01,7.472883462905883789e-01,7.472599148750305176e-01,7.472315430641174316e-01,7.472031116485595703e-01,7.471747398376464844e-01,7.471463680267333984e-01,7.471179962158203125e-01,7.470895648002624512e-01,7.470612525939941406e-01,7.470328211784362793e-01,7.470045089721679688e-01,7.469760775566101074e-01,7.469477653503417969e-01,7.469193339347839355e-01,7.468910217285156250e-01,7.468626499176025391e-01,7.468343377113342285e-01,7.468059062957763672e-01,7.467775940895080566e-01,7.467492222785949707e-01,7.467209100723266602e-01,7.466925382614135742e-01,7.466642260551452637e-01,7.466357946395874023e-01,7.466075420379638672e-01,7.465791702270507812e-01,7.465508580207824707e-01,7.465224862098693848e-01,7.464941740036010742e-01,7.464658021926879883e-01,7.464374899864196777e-01,7.464091181755065918e-01,7.463808655738830566e-01,7.463524937629699707e-01,7.463241815567016602e-01,7.462959289550781250e-01,7.462675571441650391e-01,7.462393045425415039e-01,7.462109327316284180e-01,7.461826801300048828e-01,7.461543083190917969e-01,7.461260557174682617e-01,7.460977435111999512e-01,7.460694313049316406e-01,7.460411190986633301e-01,7.460128664970397949e-01,7.459845542907714844e-01,7.459562420845031738e-01,7.459279298782348633e-01,7.458996772766113281e-01,7.458713650703430176e-01,7.458431124687194824e-01,7.458148002624511719e-01
7.161520719528198242e-01,7.161259651184082031e-01,7.160999178886413574e-01,7.160738110542297363e-01,7.160478234291076660e-01,7.160217165946960449e-01,7.159956693649291992e-01,7.159695625305175781e-01,7.159435153007507324e-01,7.159174680709838867e-01,7.158914208412170410e-01,7.158653140068054199e-01,7.158393263816833496e-01,7.158132195472717285e-01,7.157872319221496582e-01,7.157611250877380371e-01,7.157351374626159668e-01,7.157090306282043457e-01,7.156830430030822754e-01,7.156569361686706543e-01,7.156309485435485840e-01,7.156049013137817383e-01,7.155788540840148926e-01,7.155528068542480469e-01,7.155268192291259766e-01,7.155007719993591309e-01,7.154747247695922852e-01,7.154486775398254395e-01,7.154226899147033691e-01,7.153967022895812988e-01,7.153706550598144531e-01,7.153446674346923828e-01,7.153186202049255371e-01,7.152926325798034668e-01,7.152665853500366211e-01,7.152405977249145508e-01,7.152146100997924805e-01,7.151886224746704102e-01,7.151625752449035645e-01,7.151365876197814941e-01,7.151105999946594238e-01,7.150846123695373535e-01,7.150585651397705078e-01,7.150326371192932129e-01,7.150065898895263672e-01,7.149806022644042969e-01,7.149546146392822266e-01,7.149286270141601562e-01,7.149026393890380859e-01,7.148766517639160156e-01,7.148506641387939453e-01,7.148247361183166504e-01,7.147986888885498047e-01,7.147727608680725098e-01,7.147467732429504395e-01,7.147208452224731445e-01,7.146947979927062988e-01,7.146688699722290039e-01,7.146428823471069336e-01,7.146169543266296387e-01,7.145909667015075684e-01,7.145650386810302734e-01,7.145390510559082031e-01,7.145131230354309082e-01,7.144871354103088379e-01,7.144612073898315430e-01,7.144352793693542480e-01,7.144092917442321777e-01,7.143833637237548828e-01,7.143573760986328125e-01,7.143315076828002930e-01,7.143055200576782227e-01,7.142795920372009277e-01,7.142536044120788574e-01,7.142277359962463379e-01,7.142017483711242676e-01,7.141758799552917480e-01,7.141498923301696777e-01,7.141239643096923828e-01,7.140980362892150879e-01
