5.000000000000000000e+00,5.000000000000000000e+00,5.000000000000000000e+00,5.000000000000000000e+00,5.000000000000000000e+00,5.000000000000000000e+00,5.000000000000000000e+00,5.000000000000000000e+00,5.000000000000000000e+00,5.000000000000000000e+00,5.000000000000000000e+00,5.000000000000000000e+00,5.000000000000000000e+00,5.000000000000000000e+00,5.000000000000000000e+00,5.000000000000000000e+00,5.000000000000000000e+00,5.000000000000000000e+00,5.000000000000000000e+00,5.000000000000000000e+00,5.000000000000000000e+00,5.000000000000000000e+00,5.000000000000000000e+00,5.000000000000000000e+00,5.000000000000000000e+00,5.000000000000000000e+00,5.000000000000000000e+00,5.000000000000000000e+00,5.000000000000000000e+00,5.000000000000000000e+00,5.000000000000000000e+00,5.000000000000000000e+00,5.000000000000000000e+00,5.000000000000000000e+00,5.000000000000000000e+00,5.000000000000000000e+00,5.000000000000000000e+00,5.000000000000000000e+00,5.000000000000000000e+00,4.866685867309570312e+00,4.675336360931396484e+00,4.498464584350585938e+00,4.334487438201904297e+00,4.182044506072998047e+00,4.039959430694580078e+00,3.907212734222412109e+00,3.782911539077758789e+00,3.666275501251220703e+00,3.556616783142089844e+00,3.453327178955078125e+00,3.355867624282836914e+00,3.263758420944213867e+00,3.176570177078247070e+00,3.093918800354003906e+00,3.015459775924682617e+00,2.940881490707397461e+00,2.869903087615966797e+00,2.802270174026489258e+00,2.737751483917236328e+00,2.676136970520019531e+00,2.617234468460083008e+00,2.560869216918945312e+00,2.506880760192871094e+00,2.455121517181396484e+00,2.405456066131591797e+00,2.357760667800903320e+00,2.311919689178466797e+00,2.267826795578002930e+00,2.225384950637817383e+00,2.184502363204956055e+00,2.145094633102416992e+00,2.107083559036254883e+00,2.070396184921264648e+00,2.034964561462402344e+00,2.000725030899047852e+00,1.967619180679321289e+00,1.935590505599975586e+00,1.904588222503662109e+00,1.874563217163085938e+00,1.845470070838928223e+00
5.000000000000000000e+00,5.000000000000000000e+00,5.000000000000000000e+00,5.000000000000000000e+00,5.000000000000000000e+00,5.000000000000000000e+00,5.000000000000000000e+00,5.000000000000000000e+00,5.000000000000000000e+00,5.000000000000000000e+00,5.000000000000000000e+00,5.000000000000000000e+00,5.000000000000000000e+00,5.000000000000000000e+00,5.000000000000000000e+00,5.000000000000000000e+00,5.000000000000000000e+00,5.000000000000000000e+00,5.000000000000000000e+00,5.000000000000000000e+00,5.000000000000000000e+00,5.000000000000000000e+00,5.000000000000000000e+00,5.000000000000000000e+00,5.000000000000000000e+00,5.000000000000000000e+00,5.000000000000000000e+00,5.000000000000000000e+00,5.000000000000000000e+00,5.000000000000000000e+00,5.000000000000000000e+00,5.000000000000000000e+00,5.000000000000000000e+00,5.000000000000000000e+00,5.000000000000000000e+00,5.000000000000000000e+00,5.000000000000000000e+00,5.000000000000000000e+00,5.000000000000000000e+00,4.866826534271240234e+00,4.675466060638427734e+00,4.498584747314453125e+00,4.334599018096923828e+00,4.182147979736328125e+00,4.040056705474853516e+00,3.907303333282470703e+00,3.782996654510498047e+00,3.666355133056640625e+00,3.556691884994506836e+00,3.453398227691650391e+00,3.355934619903564453e+00,3.263821601867675781e+00,3.176630020141601562e+00,3.093976020812988281e+00,3.015513658523559570e+00,2.940932989120483398e+00,2.869951963424682617e+00,2.802316665649414062e+00,2.737795829772949219e+00,2.676179409027099609e+00,2.617275238037109375e+00,2.560908079147338867e+00,2.506917953491210938e+00,2.455157279968261719e+00,2.405490636825561523e+00,2.357793569564819336e+00,2.311951160430908203e+00,2.267857551574707031e+00,2.225414276123046875e+00,2.184530496597290039e+00,2.145121812820434570e+00,2.107110023498535156e+00,2.070421457290649414e+00,2.034989118576049805e+00,2.000748872756958008e+00,1.967641949653625488e+00,1.935612916946411133e+00,1.904609680175781250e+00,1.874584078788757324e+00,1.845490336418151855e+00
5.000000000000000000e+00,5.000000000000000000e+00,5.000000000000000000e+00,5.000000000000000000e+00,5.000000000000000000e+00,5.000000000000000000e+00,5.000000000000000000e+00,5.000000000000000000e+00,5.000000000000000000e+00,5.000000000000000000e+00,5.000000000000000000e+00,5.000000000000000000e+00,5.000000000000000000e+00,5.000000000000000000e+00,5.000000000000000000e+00,5.000000000000000000e+00,5.000000000000000000e+00,5.000000000000000000e+00,5.000000000000000000e+00,5.000000000000000000e+00,5.000000000000000000e+00,5.000000000000000000e+00,5.000000000000000000e+00,5.000000000000000000e+00,5.000000000000000000e+00,5.000000000000000000e+00,5.000000000000000000e+00,5.000000000000000000e+00,5.000000000000000000e+00,5.000000000000000000e+00,5.000000000000000000e+00,5.000000000000000000e+00,5.000000000000000000e+00,5.000000000000000000e+00,5.000000000000000000e+00,5.000000000000000000e+00,5.000000000000000000e+00,5.000000000000000000e+00,5.000000000000000000e+00,4.866967201232910156e+00,4.675596237182617188e+00,4.498704910278320312e+00,4.334710597991943359e+00,4.182251930236816406e+00,4.040153503417968750e+00,3.907393932342529297e+00,3.783081531524658203e+00,3.666435480117797852e+00,3.556766986846923828e+00,3.453468799591064453e+00,3.356001615524291992e+00,3.263884782791137695e+00,3.176689863204956055e+00,3.094032764434814453e+00,3.015567779541015625e+00,2.940984249114990234e+00,2.870000839233398438e+00,2.802363395690917969e+00,2.737840414047241211e+00,2.676221847534179688e+00,2.617316007614135742e+00,2.560947179794311523e+00,2.506955146789550781e+00,2.455193042755126953e+00,2.405524969100952148e+00,2.357826471328735352e+00,2.311982870101928711e+00,2.267888069152832031e+00,2.225443840026855469e+00,2.184558868408203125e+00,2.145149230957031250e+00,2.107136249542236328e+00,2.070446968078613281e+00,2.035013675689697266e+00,2.000772714614868164e+00,1.967665076255798340e+00,1.935634970664978027e+00,1.904631257057189941e+00,1.874604821205139160e+00,1.845510721206665039e+00
5.000000000000000000e+00,5.000000000000000000e+00,5.000000000000000000e+00,5.000000000000000000e+00,5.000000000000000000e+00,5.000000000000000000e+00,5.000000000000000000e+00,5.000000000000000000e+00,5.000000000000000000e+00,5.000000000000000000e+00,5.000000000000000000e+00,5.000000000000000000e+00,5.000000000000000000e+00,5.000000000000000000e+00,5.000000000000000000e+00,5.000000000000000000e+00,5.000000000000000000e+00,5.000000000000000000e+00,5.000000000000000000e+00,5.000000000000000000e+00,5.000000000000000000e+00,5.000000000000000000e+00,5.000000000000000000e+00,5.000000000000000000e+00,5.000000000000000000e+00,5.000000000000000000e+00,5.000000000000000000e+00,5.000000000000000000e+00,5.000000000000000000e+00,5.000000000000000000e+00,5.000000000000000000e+00,5.000000000000000000e+00,5.000000000000000000e+00,5.000000000000000000e+00,5.000000000000000000e+00,5.000000000000000000e+00,5.000000000000000000e+00,5.000000000000000000e+00,5.000000000000000000e+00,4.867107868194580078e+00,4.675725936889648438e+00,4.498825550079345703e+00,4.334822177886962891e+00,4.182355880737304688e+00,4.040250301361083984e+00,3.907484292984008789e+00,3.783166408538818359e+00,3.666515111923217773e+00,3.556842327117919922e+00,3.453539609909057617e+00,3.356068372726440430e+00,3.263948202133178711e+00,3.176749706268310547e+00,3.094089508056640625e+00,3.015621900558471680e+00,2.941035747528076172e+00,2.870049715042114258e+00,2.802410125732421875e+00,2.737884998321533203e+00,2.676264286041259766e+00,2.617356538772583008e+00,2.560986042022705078e+00,2.506992578506469727e+00,2.455228805541992188e+00,2.405559062957763672e+00,2.357859611511230469e+00,2.312014579772949219e+00,2.267918586730957031e+00,2.225473165512084961e+00,2.184587240219116211e+00,2.145176410675048828e+00,2.107162714004516602e+00,2.070472478866577148e+00,2.035038471221923828e+00,2.000796318054199219e+00,1.967688083648681641e+00,1.935657382011413574e+00,1.904652714729309082e+00,1.874625802040100098e+00,1.845530748367309570e+00
5.000000000000000000e+00,5.000000000000000000e+00,5.000000000000000000e+00,5.000000000000000000e+00,5.000000000000000000e+00,5.000000000000000000e+00,5.000000000000000000e+00,5.000000000000000000e+00,5.000000000000000000e+00,5.000000000000000000e+00,5.000000000000000000e+00,5.000000000000000000e+00,5.000000000000000000e+00,5.000000000000000000e+00,5.000000000000000000e+00,5.000000000000000000e+00,5.000000000000000000e+00,5.000000000000000000e+00,5.000000000000000000e+00,5.000000000000000000e+00,5.000000000000000000e+00,5.000000000000000000e+00,5.000000000000000000e+00,5.000000000000000000e+00,5.000000000000000000e+00,5.000000000000000000e+00,5.000000000000000000e+00,5.000000000000000000e+00,5.000000000000000000e+00,5.000000000000000000e+00,5.000000000000000000e+00,5.000000000000000000e+00,5.000000000000000000e+00,5.000000000000000000e+00,5.000000000000000000e+00,5.000000000000000000e+00,5.000000000000000000e+00,5.000000000000000000e+00,5.000000000000000000e+00,4.867248535156250000e+00,4.675855636596679688e+00,4.498945236206054688e+00,4.334933757781982422e+00,4.182459831237792969e+00,4.040347099304199219e+00,3.907575368881225586e+00,3.783251523971557617e+00,3.666594743728637695e+00,3.556917190551757812e+00,3.453610658645629883e+00,3.356135129928588867e+00,3.264011383056640625e+00,3.176810026168823242e+00,3.094146251678466797e+00,3.015675783157348633e+00,2.941087007522583008e+00,2.870098829269409180e+00,2.802456617355346680e+00,2.737929344177246094e+00,2.676306962966918945e+00,2.617397308349609375e+00,2.561024904251098633e+00,2.507030010223388672e+00,2.455264329910278320e+00,2.405593395233154297e+00,2.357892513275146484e+00,2.312046289443969727e+00,2.267949104309082031e+00,2.225502490997314453e+00,2.184615612030029297e+00,2.145203828811645508e+00,2.107188940048217773e+00,2.070497989654541016e+00,2.035063028335571289e+00,2.000820159912109375e+00,1.967710971832275391e+00,1.935679674148559570e+00,1.904674291610717773e+00,1.874646544456481934e+00,1.845551133155822754e+00
5.000000000000000000e+00,5.000000000000000000e+00,5.000000000000000000e+00,5.000000000000000000e+00,5.000000000000000000e+00,5.000000000000000000e+00,5.000000000000000000e+00,5.000000000000000000e+00,5.000000000000000000e+00,5.000000000000000000e+00,5.000000000000000000e+00,5.000000000000000000e+00,5.000000000000000000e+00,5.000000000000000000e+00,5.000000000000000000e+00,5.000000000000000000e+00,5.000000000000000000e+00,5.000000000000000000e+00,5.000000000000000000e+00,5.000000000000000000e+00,5.000000000000000000e+00,5.000000000000000000e+00,5.000000000000000000e+00,5.000000000000000000e+00,5.000000000000000000e+00,5.000000000000000000e+00,5.000000000000000000e+00,5.000000000000000000e+00,5.000000000000000000e+00,5.000000000000000000e+00,5.000000000000000000e+00,5.000000000000000000e+00,5.000000000000000000e+00,5.000000000000000000e+00,5.000000000000000000e+00,5.000000000000000000e+00,5.000000000000000000e+00,5.000000000000000000e+00,5.000000000000000000e+00,4.867389678955078125e+00,4.675985336303710938e+00,4.499065876007080078e+00,4.335045337677001953e+00,4.182563781738281250e+00,4.040444374084472656e+00,3.907665967941284180e+00,3.783336639404296875e+00,3.666674613952636719e+00,3.556992292404174805e+00,3.453681468963623047e+00,3.356202125549316406e+00,3.264074563980102539e+00,3.176869869232177734e+00,3.094203233718872070e+00,3.015729665756225586e+00,2.941138267517089844e+00,2.870147705078125000e+00,2.802503347396850586e+00,2.737973928451538086e+00,2.676349639892578125e+00,2.617438077926635742e+00,2.561064004898071289e+00,2.507066965103149414e+00,2.455300092697143555e+00,2.405627965927124023e+00,2.357925415039062500e+00,2.312077999114990234e+00,2.267979621887207031e+00,2.225531816482543945e+00,2.184643983840942383e+00,2.145231246948242188e+00,2.107215404510498047e+00,2.070523262023925781e+00,2.035087585449218750e+00,2.000844001770019531e+00,1.967734098434448242e+00,1.935701727867126465e+00,1.904695987701416016e+00,1.874667525291442871e+00,1.845571160316467285e+00
5.000000000000000000e+00,5.000000000000000000e+00,5.000000000000000000e+00,5.000000000000000000e+00,5.000000000000000000e+00,5.000000000000000000e+00,5.000000000000000000e+00,5.000000000000000000e+00,5.000000000000000000e+00,5.000000000000000000e+00,5.000000000000000000e+00,5.000000000000000000e+00,5.000000000000000000e+00,5.000000000000000000e+00,5.000000000000000000e+00,5.000000000000000000e+00,5.000000000000000000e+00,5.000000000000000000e+00,5.000000000000000000e+00,5.000000000000000000e+00,5.000000000000000000e+00,5.000000000000000000e+00,5.000000000000000000e+00,5.000000000000000000e+00,5.000000000000000000e+00,5.000000000000000000e+00,5.000000000000000000e+00,5.000000000000000000e+00,5.000000000000000000e+00,5.000000000000000000e+00,5.000000000000000000e+00,5.000000000000000000e+00,5.000000000000000000e+00,5.000000000000000000e+00,5.000000000000000000e+00,5.000000000000000000e+00,5.000000000000000000e+00,5.000000000000000000e+00,5.000000000000000000e+00,4.867529869079589844e+00,4.676115512847900391e+00,4.499186038970947266e+00,4.335156917572021484e+00,4.182667732238769531e+00,4.040541172027587891e+00,3.907756567001342773e+00,3.783421516418457031e+00,3.666754722595214844e+00,3.557067394256591797e+00,3.453752279281616211e+00,3.356269121170043945e+00,3.264137744903564453e+00,3.176929712295532227e+00,3.094260215759277344e+00,3.015783786773681641e+00,2.941189527511596680e+00,2.870196580886840820e+00,2.802550077438354492e+00,2.738018751144409180e+00,2.676392078399658203e+00,2.617478609085083008e+00,2.561103105545043945e+00,2.507104396820068359e+00,2.455335855484008789e+00,2.405662298202514648e+00,2.357958555221557617e+00,2.312109708786010742e+00,2.268010139465332031e+00,2.225561380386352539e+00,2.184672355651855469e+00,2.145258426666259766e+00,2.107241868972778320e+00,2.070548772811889648e+00,2.035112142562866211e+00,2.000867843627929688e+00,1.967757105827331543e+00,1.935724139213562012e+00,1.904717326164245605e+00,1.874688386917114258e+00,1.845591425895690918e+00
5.000000000000000000e+00,5.000000000000000000e+00,5.000000000000000000e+00,5.000000000000000000e+00,5.000000000000000000e+00,5.000000000000000000e+00,5.000000000000000000e+00,5.000000000000000000e+00,5.000000000000000000e+00,5.000000000000000000e+00,5.000000000000000000e+00,5.000000000000000000e+00,5.000000000000000000e+00,5.000000000000000000e+00,5.000000000000000000e+00,5.000000000000000000e+00,5.000000000000000000e+00,5.000000000000000000e+00,5.000000000000000000e+00,5.000000000000000000e+00,5.000000000000000000e+00,5.000000000000000000e+00,5.000000000000000000e+00,5.000000000000000000e+00,5.000000000000000000e+00,5.000000000000000000e+00,5.000000000000000000e+00,5.000000000000000000e+00,5.000000000000000000e+00,5.000000000000000000e+00,5.000000000000000000e+00,5.000000000000000000e+00,5.000000000000000000e+00,5.000000000000000000e+00,5.000000000000000000e+00,5.000000000000000000e+00,5.000000000000000000e+00,5.000000000000000000e+00,5.000000000000000000e+00,4.867671012878417969e+00,4.676245212554931641e+00,4.499306201934814453e+00,4.335268497467041016e+00,4.182771205902099609e+00,4.040638446807861328e+00,3.907847166061401367e+00,3.783506393432617188e+00,3.666834354400634766e+00,3.557142734527587891e+00,3.453822851181030273e+00,3.356335878372192383e+00,3.264201164245605469e+00,3.176989555358886719e+00,3.094316959381103516e+00,3.015837907791137695e+00,2.941241264343261719e+00,2.870245456695556641e+00,2.802596569061279297e+00,2.738063097000122070e+00,2.676434516906738281e+00,2.617519140243530273e+00,2.561141729354858398e+00,2.507141828536987305e+00,2.455371618270874023e+00,2.405696392059326172e+00,2.357991456985473633e+00,2.312141656875610352e+00,2.268040657043457031e+00,2.225590705871582031e+00,2.184700727462768555e+00,2.145285844802856445e+00,2.107268095016479492e+00,2.070574283599853516e+00,2.035136699676513672e+00,2.000891447067260742e+00,1.967779994010925293e+00,1.935746431350708008e+00,1.904739022254943848e+00,1.874709129333496094e+00,1.845611810684204102e+00
5.000000000000000000e+00,5.000000000000000000e+00,5.000000000000000000e+00,5.000000000000000000e+00,5.000000000000000000e+00,5.000000000000000000e+00,5.000000000000000000e+00,5.000000000000000000e+00,5.000000000000000000e+00,5.000000000000000000e+00,5.000000000000000000e+00,5.000000000000000000e+00,5.000000000000000000e+00,5.000000000000000000e+00,5.000000000000000000e+00,5.000000000000000000e+00,5.000000000000000000e+00,5.000000000000000000e+00,5.000000000000000000e+00,5.000000000000000000e+00,5.000000000000000000e+00,5.000000000000000000e+00,5.000000000000000000e+00,5.000000000000000000e+00,5.000000000000000000e+00,5.000000000000000000e+00,5.000000000000000000e+00,5.000000000000000000e+00,5.000000000000000000e+00,5.000000000000000000e+00,5.000000000000000000e+00,5.000000000000000000e+00,5.000000000000000000e+00,5.000000000000000000e+00,5.000000000000000000e+00,5.000000000000000000e+00,5.000000000000000000e+00,5.000000000000000000e+00,5.000000000000000000e+00,4.867811203002929688e+00,4.676374912261962891e+00,4.499426364898681641e+00,4.335380554199218750e+00,4.182875156402587891e+00,4.040735244750976562e+00,3.907938003540039062e+00,3.783591508865356445e+00,3.666914224624633789e+00,3.557217836380004883e+00,3.453894138336181641e+00,3.356402873992919922e+00,3.264264345169067383e+00,3.177049636840820312e+00,3.094373703002929688e+00,3.015891790390014648e+00,2.941292524337768555e+00,2.870294570922851562e+00,2.802643060684204102e+00,2.738107681274414062e+00,2.676477193832397461e+00,2.617559671401977539e+00,2.561180591583251953e+00,2.507179021835327148e+00,2.455407619476318359e+00,2.405730724334716797e+00,2.358024597167968750e+00,2.312173366546630859e+00,2.268071413040161133e+00,2.225620031356811523e+00,2.184729099273681641e+00,2.145313262939453125e+00,2.107294559478759766e+00,2.070599794387817383e+00,2.035161256790161133e+00,2.000915288925170898e+00,1.967803001403808594e+00,1.935768604278564453e+00,1.904760599136352539e+00,1.874730110168457031e+00,1.845631837844848633e+00
5.000000000000000000e+00,5.000000000000000000e+00,5.000000000000000000e+00,5.000000000000000000e+00,5.000000000000000000e+00,5.000000000000000000e+00,5.000000000000000000e+00,5.000000000000000000e+00,5.000000000000000000e+00,5.000000000000000000e+00,5.000000000000000000e+00,5.000000000000000000e+00,5.000000000000000000e+00,5.000000000000000000e+00,5.000000000000000000e+00,5.000000000000000000e+00,5.000000000000000000e+00,5.000000000000000000e+00,5.000000000000000000e+00,5.000000000000000000e+00,5.000000000000000000e+00,5.000000000000000000e+00,5.000000000000000000e+00,5.000000000000000000e+00,5.000000000000000000e+00,5.000000000000000000e+00,5.000000000000000000e+00,5.000000000000000000e+00,5.000000000000000000e+00,5.000000000000000000e+00,5.000000000000000000e+00,5.000000000000000000e+00,5.000000000000000000e+00,5.000000000000000000e+00,5.000000000000000000e+00,5.000000000000000000e+00,5.000000000000000000e+00,5.000000000000000000e+00,5.000000000000000000e+00,4.867952346801757812e+00,4.676504611968994141e+00,4.499546527862548828e+00,4.335491657257080078e+00,4.182979583740234375e+00,4.040832042694091797e+00,3.908028602600097656e+00,3.783676624298095703e+00,3.666993856430053711e+00,3.557292938232421875e+00,3.453964710235595703e+00,3.356469869613647461e+00,3.264327764511108398e+00,3.177109479904174805e+00,3.094430685043334961e+00,3.015945672988891602e+00,2.941343784332275391e+00,2.870343446731567383e+00,2.802690029144287109e+00,2.738151788711547852e+00,2.676519393920898438e+00,2.617600440979003906e+00,2.561219453811645508e+00,2.507216215133666992e+00,2.455443382263183594e+00,2.405765295028686523e+00,2.358057498931884766e+00,2.312205076217651367e+00,2.268101930618286133e+00,2.225649595260620117e+00,2.184757232666015625e+00,2.145340442657470703e+00,2.107321023941040039e+00,2.070625066757202148e+00,2.035185813903808594e+00,2.000939130783081055e+00,1.967826128005981445e+00,1.935790896415710449e+00,1.904782056808471680e+00,1.874751091003417969e+00,1.845652222633361816e+00
5.000000000000000000e+00,5.000000000000000000e+00,5.000000000000000000e+00,5.000000000000000000e+00,5.000000000000000000e+00,5.000000000000000000e+00,5.000000000000000000e+00,5.000000000000000000e+00,5.000000000000000000e+00,5.000000000000000000e+00,5.000000000000000000e+00,5.000000000000000000e+00,5.000000000000000000e+00,5.000000000000000000e+00,5.000000000000000000e+00,5.000000000000000000e+00,5.000000000000000000e+00,5.000000000000000000e+00,5.000000000000000000e+00,5.000000000000000000e+00,5.000000000000000000e+00,5.000000000000000000e+00,5.000000000000000000e+00,5.000000000000000000e+00,5.000000000000000000e+00,5.000000000000000000e+00,5.000000000000000000e+00,5.000000000000000000e+00,5.000000000000000000e+00,5.000000000000000000e+00,5.000000000000000000e+00,5.000000000000000000e+00,5.000000000000000000e+00,5.000000000000000000e+00,5.000000000000000000e+00,5.000000000000000000e+00,5.000000000000000000e+00,5.000000000000000000e+00,5.000000000000000000e+00,4.868093013763427734e+00,4.676634788513183594e+00,4.499666690826416016e+00,4.335603713989257812e+00,4.183083057403564453e+00,4.040928840637207031e+00,3.908119201660156250e+00,3.783761739730834961e+00,3.667073965072631836e+00,3.557368040084838867e+00,3.454035520553588867e+00,3.356536865234375000e+00,3.264391183853149414e+00,3.177169322967529297e+00,3.094487667083740234e+00,3.016000032424926758e+00,2.941395044326782227e+00,2.870392322540283203e+00,2.802736520767211914e+00,2.738196611404418945e+00,2.676561832427978516e+00,2.617641210556030273e+00,2.561258554458618164e+00,2.507253646850585938e+00,2.455479145050048828e+00,2.405799627304077148e+00,2.358090639114379883e+00,2.312236785888671875e+00,2.268132448196411133e+00,2.225678920745849609e+00,2.184785604476928711e+00,2.145367860794067383e+00,2.107347249984741211e+00,2.070650815963745117e+00,2.035210371017456055e+00,2.000962972640991211e+00,1.967849016189575195e+00,1.935812950134277344e+00,1.904803633689880371e+00,1.874771833419799805e+00,1.845672488212585449e+00
5.000000000000000000e+00,5.000000000000000000e+00,5.000000000000000000e+00,5.000000000000000000e+00,5.000000000000000000e+00,5.000000000000000000e+00,5.000000000000000000e+00,5.000000000000000000e+00,5.000000000000000000e+00,5.000000000000000000e+00,5.000000000000000000e+00,5.000000000000000000e+00,5.000000000000000000e+00,5.000000000000000000e+00,5.000000000000000000e+00,5.000000000000000000e+00,5.000000000000000000e+00,5.000000000000000000e+00,5.000000000000000000e+00,5.000000000000000000e+00,5.000000000000000000e+00,5.000000000000000000e+00,5.000000000000000000e+00,5.000000000000000000e+00,5.000000000000000000e+00,5.000000000000000000e+00,5.000000000000000000e+00,5.000000000000000000e+00,5.000000000000000000e+00,5.000000000000000000e+00,5.000000000000000000e+00,5.000000000000000000e+00,5.000000000000000000e+00,5.000000000000000000e+00,5.000000000000000000e+00,5.000000000000000000e+00,5.000000000000000000e+00,5.000000000000000000e+00,5.000000000000000000e+00,4.868233680725097656e+00,4.676764488220214844e+00,4.499786853790283203e+00,4.335715293884277344e+00,4.183187007904052734e+00,4.041026115417480469e+00,3.908209800720214844e+00,3.783846616744995117e+00,3.667153835296630859e+00,3.557443380355834961e+00,3.454106330871582031e+00,3.356603622436523438e+00,3.264454364776611328e+00,3.177229642868041992e+00,3.094544410705566406e+00,3.016053915023803711e+00,2.941446781158447266e+00,2.870441198348999023e+00,2.802783012390136719e+00,2.738240957260131836e+00,2.676604747772216797e+00,2.617681741714477539e+00,2.561297416687011719e+00,2.507291078567504883e+00,2.455514907836914062e+00,2.405833959579467773e+00,2.358123540878295898e+00,2.312268733978271484e+00,2.268162965774536133e+00,2.225708484649658203e+00,2.184813976287841797e+00,2.145395040512084961e+00,2.107373476028442383e+00,2.070676088333129883e+00,2.035235166549682617e+00,2.000986576080322266e+00,1.967872023582458496e+00,1.935835361480712891e+00,1.904825091361999512e+00,1.874792695045471191e+00,1.845692634582519531e+00
5.000000000000000000e+00,5.000000000000000000e+00,5.000000000000000000e+00,5.000000000000000000e+00,5.000000000000000000e+00,5.000000000000000000e+00,5.000000000000000000e+00,5.000000000000000000e+00,5.000000000000000000e+00,5.000000000000000000e+00,5.000000000000000000e+00,5.000000000000000000e+00,5.000000000000000000e+00,5.000000000000000000e+00,5.000000000000000000e+00,5.000000000000000000e+00,5.000000000000000000e+00,5.000000000000000000e+00,5.000000000000000000e+00,5.000000000000000000e+00,5.000000000000000000e+00,5.000000000000000000e+00,5.000000000000000000e+00,5.000000000000000000e+00,5.000000000000000000e+00,5.000000000000000000e+00,5.000000000000000000e+00,5.000000000000000000e+00,5.000000000000000000e+00,5.000000000000000000e+00,5.000000000000000000e+00,5.000000000000000000e+00,5.000000000000000000e+00,5.000000000000000000e+00,5.000000000000000000e+00,5.000000000000000000e+00,5.000000000000000000e+00,5.000000000000000000e+00,5.000000000000000000e+00,4.868374347686767578e+00,4.676894664764404297e+00,4.499907016754150391e+00,4.335826873779296875e+00,4.183290958404541016e+00,4.041123390197753906e+00,3.908300876617431641e+00,3.783931493759155273e+00,3.667233467102050781e+00,3.557518482208251953e+00,3.454177379608154297e+00,3.356670379638671875e+00,3.264517545700073242e+00,3.177289485931396484e+00,3.094601154327392578e+00,3.016107797622680664e+00,2.941498041152954102e+00,2.870490074157714844e+00,2.802829504013061523e+00,2.738285541534423828e+00,2.676647186279296875e+00,2.617722749710083008e+00,2.561336278915405273e+00,2.507328271865844727e+00,2.455550909042358398e+00,2.405868291854858398e+00,2.358156681060791016e+00,2.312300443649291992e+00,2.268193483352661133e+00,2.225737810134887695e+00,2.184842348098754883e+00,2.145422458648681641e+00,2.107399940490722656e+00,2.070701599121093750e+00,2.035259723663330078e+00,2.001010417938232422e+00,1.967894911766052246e+00,1.935857653617858887e+00,1.904846668243408203e+00,1.874813437461853027e+00,1.845712900161743164e+00
5.000000000000000000e+00,5.000000000000000000e+00,5.000000000000000000e+00,5.000000000000000000e+00,5.000000000000000000e+00,5.000000000000000000e+00,5.000000000000000000e+00,5.000000000000000000e+00,5.000000000000000000e+00,5.000000000000000000e+00,5.000000000000000000e+00,5.000000000000000000e+00,5.000000000000000000e+00,5.000000000000000000e+00,5.000000000000000000e+00,5.000000000000000000e+00,5.000000000000000000e+00,5.000000000000000000e+00,5.000000000000000000e+00,5.000000000000000000e+00,5.000000000000000000e+00,5.000000000000000000e+00,5.000000000000000000e+00,5.000000000000000000e+00,5.000000000000000000e+00,5.000000000000000000e+00,5.000000000000000000e+00,5.000000000000000000e+00,5.000000000000000000e+00,5.000000000000000000e+00,5.000000000000000000e+00,5.000000000000000000e+00,5.000000000000000000e+00,5.000000000000000000e+00,5.000000000000000000e+00,5.000000000000000000e+00,5.000000000000000000e+00,5.000000000000000000e+00,5.000000000000000000e+00,4.868515014648437500e+00,4.677024364471435547e+00,4.500027656555175781e+00,4.335938453674316406e+00,4.183394908905029297e+00,4.041220188140869141e+00,3.908391475677490234e+00,3.784016847610473633e+00,3.667313337326049805e+00,3.557593584060668945e+00,3.454248189926147461e+00,3.356737613677978516e+00,3.264580726623535156e+00,3.177349328994750977e+00,3.094658136367797852e+00,3.016161680221557617e+00,2.941549062728881836e+00,2.870538949966430664e+00,2.802876234054565430e+00,2.738329887390136719e+00,2.676689624786376953e+00,2.617763280868530273e+00,2.561375379562377930e+00,2.507365703582763672e+00,2.455586671829223633e+00,2.405902862548828125e+00,2.358189582824707031e+00,2.312332153320312500e+00,2.268224000930786133e+00,2.225767374038696289e+00,2.184870719909667969e+00,2.145449876785278320e+00,2.107426404953002930e+00,2.070727109909057617e+00,2.035284280776977539e+00,2.001034259796142578e+00,1.967918038368225098e+00,1.935879826545715332e+00,1.904868245124816895e+00,1.874834418296813965e+00,1.845733046531677246e+00
5.000000000000000000e+00,5.000000000000000000e+00,5.000000000000000000e+00,5.000000000000000000e+00,5.000000000000000000e+00,5.000000000000000000e+00,5.000000000000000000e+00,5.000000000000000000e+00,5.000000000000000000e+00,5.000000000000000000e+00,5.000000000000000000e+00,5.000000000000000000e+00,5.000000000000000000e+00,5.000000000000000000e+00,5.000000000000000000e+00,5.000000000000000000e+00,5.000000000000000000e+00,5.000000000000000000e+00,5.000000000000000000e+00,5.000000000000000000e+00,5.000000000000000000e+00,5.000000000000000000e+00,5.000000000000000000e+00,5.000000000000000000e+00,5.000000000000000000e+00,5.000000000000000000e+00,5.000000000000000000e+00,5.000000000000000000e+00,5.000000000000000000e+00,5.000000000000000000e+00,5.000000000000000000e+00,5.000000000000000000e+00,5.000000000000000000e+00,5.000000000000000000e+00,5.000000000000000000e+00,5.000000000000000000e+00,5.000000000000000000e+00,5.000000000000000000e+00,5.000000000000000000e+00,4.868655681610107422e+00,4.677154541015625000e+00,4.500147819519042969e+00,4.336050033569335938e+00,4.183498859405517578e+00,4.041316986083984375e+00,3.908482074737548828e+00,3.784101724624633789e+00,3.667393445968627930e+00,3.557668447494506836e+00,3.454319000244140625e+00,3.356804370880126953e+00,3.264644384384155273e+00,3.177409172058105469e+00,3.094715118408203125e+00,3.016215801239013672e+00,2.941600322723388672e+00,2.870587825775146484e+00,2.802922964096069336e+00,2.738374710083007812e+00,2.676732063293457031e+00,2.617803812026977539e+00,2.561414480209350586e+00,2.507402896881103516e+00,2.455622434616088867e+00,2.405937194824218750e+00,2.358222723007202148e+00,2.312363862991333008e+00,2.268254518508911133e+00,2.225796699523925781e+00,2.184899091720581055e+00,2.145477056503295898e+00,2.107452630996704102e+00,2.070752620697021484e+00,2.035308837890625000e+00,2.001057863235473633e+00,1.967941045761108398e+00,1.935902118682861328e+00,1.904889702796936035e+00,1.874855399131774902e+00,1.845753312110900879e+00
5.000000000000000000e+00,5.000000000000000000e+00,5.000000000000000000e+00,5.000000000000000000e+00,5.000000000000000000e+00,5.000000000000000000e+00,5.000000000000000000e+00,5.000000000000000000e+00,5.000000000000000000e+00,5.000000000000000000e+00,5.000000000000000000e+00,5.000000000000000000e+00,5.000000000000000000e+00,5.000000000000000000e+00,5.000000000000000000e+00,5.000000000000000000e+00,5.000000000000000000e+00,5.000000000000000000e+00,5.000000000000000000e+00,5.000000000000000000e+00,5.000000000000000000e+00,5.000000000000000000e+00,5.000000000000000000e+00,5.000000000000000000e+00,5.000000000000000000e+00,5.000000000000000000e+00,5.000000000000000000e+00,5.000000000000000000e+00,5.000000000000000000e+00,5.000000000000000000e+00,5.000000000000000000e+00,5.000000000000000000e+00,5.000000000000000000e+00,5.000000000000000000e+00,5.000000000000000000e+00,5.000000000000000000e+00,5.000000000000000000e+00,5.000000000000000000e+00,5.000000000000000000e+00,4.868796825408935547e+00,4.677284240722656250e+00,4.500267982482910156e+00,4.336161613464355469e+00,4.183602809906005859e+00,4.041413784027099609e+00,3.908573150634765625e+00,3.784186601638793945e+00,3.667473316192626953e+00,3.557744026184082031e+00,3.454389572143554688e+00,3.356871128082275391e+00,3.264707565307617188e+00,3.177469253540039062e+00,3.094771623611450195e+00,3.016269683837890625e+00,2.941652059555053711e+00,2.870636701583862305e+00,2.802969455718994141e+00,2.738419055938720703e+00,2.676774740219116211e+00,2.617844581604003906e+00,2.561453342437744141e+00,2.507440328598022461e+00,2.455658197402954102e+00,2.405971527099609375e+00,2.358255624771118164e+00,2.312395572662353516e+00,2.268285036087036133e+00,2.225826025009155273e+00,2.184927463531494141e+00,2.145504713058471680e+00,2.107479095458984375e+00,2.070777893066406250e+00,2.035333395004272461e+00,2.001081705093383789e+00,1.967963933944702148e+00,1.935924410820007324e+00,1.904911398887634277e+00,1.874876141548156738e+00,1.845773577690124512e+00
5.000000000000000000e+00,5.000000000000000000e+00,5.000000000000000000e+00,5.000000000000000000e+00,5.000000000000000000e+00,5.000000000000000000e+00,5.000000000000000000e+00,5.000000000000000000e+00,5.000000000000000000e+00,5.000000000000000000e+00,5.000000000000000000e+00,5.000000000000000000e+00,5.000000000000000000e+00,5.000000000000000000e+00,5.000000000000000000e+00,5.000000000000000000e+00,5.000000000000000000e+00,5.000000000000000000e+00,5.000000000000000000e+00,5.000000000000000000e+00,5.000000000000000000e+00,5.000000000000000000e+00,5.000000000000000000e+00,5.000000000000000000e+00,5.000000000000000000e+00,5.000000000000000000e+00,5.000000000000000000e+00,5.000000000000000000e+00,5.000000000000000000e+00,5.000000000000000000e+00,5.000000000000000000e+00,5.000000000000000000e+00,5.000000000000000000e+00,5.000000000000000000e+00,5.000000000000000000e+00,5.000000000000000000e+00,5.000000000000000000e+00,5.000000000000000000e+00,5.000000000000000000e+00,4.868937492370605469e+00,4.677414417266845703e+00,4.500388145446777344e+00,4.336273193359375000e+00,4.183706760406494141e+00,4.041511058807373047e+00,3.908663749694824219e+00,3.784271955490112305e+00,3.667552947998046875e+00,3.557819128036499023e+00,3.454460859298706055e+00,3.356938123703002930e+00,3.264770746231079102e+00,3.177529096603393555e+00,3.094828605651855469e+00,3.016323566436767578e+00,2.941703319549560547e+00,2.870685815811157227e+00,2.803016185760498047e+00,2.738463640213012695e+00,2.676817417144775391e+00,2.617885351181030273e+00,2.561492204666137695e+00,2.507477760314941406e+00,2.455693960189819336e+00,2.406005859375000000e+00,2.358288764953613281e+00,2.312427282333374023e+00,2.268315792083740234e+00,2.225855350494384766e+00,2.184955835342407227e+00,2.145531892776489258e+00,2.107505321502685547e+00,2.070803403854370117e+00,2.035358190536499023e+00,2.001105546951293945e+00,1.967987060546875000e+00,1.935946583747863770e+00,1.904932975769042969e+00,1.874897122383117676e+00,1.845793724060058594e+00
5.000000000000000000e+00,5.000000000000000000e+00,5.000000000000000000e+00,5.000000000000000000e+00,5.000000000000000000e+00,5.000000000000000000e+00,5.000000000000000000e+00,5.000000000000000000e+00,5.000000000000000000e+00,5.000000000000000000e+00,5.000000000000000000e+00,5.000000000000000000e+00,5.000000000000000000e+00,5.000000000000000000e+00,5.000000000000000000e+00,5.000000000000000000e+00,5.000000000000000000e+00,5.000000000000000000e+00,5.000000000000000000e+00,5.000000000000000000e+00,5.000000000000000000e+00,5.000000000000000000e+00,5.000000000000000000e+00,5.000000000000000000e+00,5.000000000000000000e+00,5.000000000000000000e+00,5.000000000000000000e+00,5.000000000000000000e+00,5.000000000000000000e+00,5.000000000000000000e+00,5.000000000000000000e+00,5.000000000000000000e+00,5.000000000000000000e+00,5.000000000000000000e+00,5.000000000000000000e+00,5.000000000000000000e+00,5.000000000000000000e+00,5.000000000000000000e+00,5.000000000000000000e+00,4.869078159332275391e+00,4.677544116973876953e+00,4.500508785247802734e+00,4.336384773254394531e+00,4.183810710906982422e+00,4.041607856750488281e+00,3.908754348754882812e+00,3.784356832504272461e+00,3.667633295059204102e+00,3.557893991470336914e+00,3.454531669616699219e+00,3.357005119323730469e+00,3.264833688735961914e+00,3.177588939666748047e+00,3.094885587692260742e+00,3.016377925872802734e+00,2.941754579544067383e+00,2.870734691619873047e+00,2.803062915802001953e+00,2.738507986068725586e+00,2.676859855651855469e+00,2.617926120758056641e+00,2.561531305313110352e+00,2.507514953613281250e+00,2.455729722976684570e+00,2.406040191650390625e+00,2.358321666717529297e+00,2.312458992004394531e+00,2.268346309661865234e+00,2.225884914398193359e+00,2.184983968734741211e+00,2.145559310913085938e+00,2.107531785964965820e+00,2.070828914642333984e+00,2.035382747650146484e+00,2.001129388809204102e+00,1.968010067939758301e+00,1.935968875885009766e+00,1.904954433441162109e+00,1.874917984008789062e+00,1.845813989639282227e+00
5.000000000000000000e+00,5.000000000000000000e+00,5.000000000000000000e+00,5.000000000000000000e+00,5.000000000000000000e+00,5.000000000000000000e+00,5.000000000000000000e+00,5.000000000000000000e+00,5.000000000000000000e+00,5.000000000000000000e+00,5.000000000000000000e+00,5.000000000000000000e+00,5.000000000000000000e+00,5.000000000000000000e+00,5.000000000000000000e+00,5.000000000000000000e+00,5.000000000000000000e+00,5.000000000000000000e+00,5.000000000000000000e+00,5.000000000000000000e+00,5.000000000000000000e+00,5.000000000000000000e+00,5.000000000000000000e+00,5.000000000000000000e+00,5.000000000000000000e+00,5.000000000000000000e+00,5.000000000000000000e+00,5.000000000000000000e+00,5.000000000000000000e+00,5.000000000000000000e+00,5.000000000000000000e+00,5.000000000000000000e+00,5.000000000000000000e+00,5.000000000000000000e+00,5.000000000000000000e+00,5.000000000000000000e+00,5.000000000000000000e+00,5.000000000000000000e+00,5.000000000000000000e+00,4.869216918945312500e+00,4.677673816680908203e+00,4.500628948211669922e+00,4.336496829986572266e+00,4.183914661407470703e+00,4.041705131530761719e+00,3.908844947814941406e+00,3.784441947937011719e+00,3.667712926864624023e+00,3.557969093322753906e+00,3.454602479934692383e+00,3.357071876525878906e+00,3.264897108078002930e+00,3.177648782730102539e+00,3.094942331314086914e+00,3.016431808471679688e+00,2.941806077957153320e+00,2.870783567428588867e+00,2.803109645843505859e+00,2.738552808761596680e+00,2.676902294158935547e+00,2.617966651916503906e+00,2.561570167541503906e+00,2.507552385330200195e+00,2.455765485763549805e+00,2.406074523925781250e+00,2.358354806900024414e+00,2.312490701675415039e+00,2.268376827239990234e+00,2.225914478302001953e+00,2.185012578964233398e+00,2.145586490631103516e+00,2.107558250427246094e+00,2.070854425430297852e+00,2.035407304763793945e+00,2.001152992248535156e+00,1.968032956123352051e+00,1.935991287231445312e+00,1.904976010322570801e+00,1.874938726425170898e+00,1.845834374427795410e+00
5.000000000000000000e+00,5.000000000000000000e+00,5.000000000000000000e+00,5.000000000000000000e+00,5.000000000000000000e+00,5.000000000000000000e+00,5.000000000000000000e+00,5.000000000000000000e+00,5.000000000000000000e+00,5.000000000000000000e+00,5.000000000000000000e+00,5.000000000000000000e+00,5.000000000000000000e+00,5.000000000000000000e+00,5.000000000000000000e+00,5.000000000000000000e+00,5.000000000000000000e+00,5.000000000000000000e+00,5.000000000000000000e+00,5.000000000000000000e+00,5.000000000000000000e+00,5.000000000000000000e+00,5.000000000000000000e+00,5.000000000000000000e+00,5.000000000000000000e+00,5.000000000000000000e+00,5.000000000000000000e+00,5.000000000000000000e+00,5.000000000000000000e+00,5.000000000000000000e+00,5.000000000000000000e+00,5.000000000000000000e+00,5.000000000000000000e+00,5.000000000000000000e+00,5.000000000000000000e+00,5.000000000000000000e+00,5.000000000000000000e+00,5.000000000000000000e+00,5.000000000000000000e+00,4.869355678558349609e+00,4.677802562713623047e+00,4.500749111175537109e+00,4.336608409881591797e+00,4.184018611907958984e+00,4.041801929473876953e+00,3.908936023712158203e+00,3.784526824951171875e+00,3.667792797088623047e+00,3.558044672012329102e+00,3.454672813415527344e+00,3.357138633728027344e+00,3.264960527420043945e+00,3.177708864212036133e+00,3.094999074935913086e+00,3.016485929489135742e+00,2.941857576370239258e+00,2.870832681655883789e+00,2.803156137466430664e+00,2.738597154617309570e+00,2.676944971084594727e+00,2.618007421493530273e+00,2.561609268188476562e+00,2.507589817047119141e+00,2.455801486968994141e+00,2.406108856201171875e+00,2.358387947082519531e+00,2.312522649765014648e+00,2.268407344818115234e+00,2.225943803787231445e+00,2.185040950775146484e+00,2.145613908767700195e+00,2.107584476470947266e+00,2.070879936218261719e+00,2.035431861877441406e+00,2.001176834106445312e+00,1.968056082725524902e+00,1.936013340950012207e+00,1.904997706413269043e+00,1.874959707260131836e+00,1.845854401588439941e+00
5.000000000000000000e+00,5.000000000000000000e+00,5.000000000000000000e+00,5.000000000000000000e+00,5.000000000000000000e+00,5.000000000000000000e+00,5.000000000000000000e+00,5.000000000000000000e+00,5.000000000000000000e+00,5.000000000000000000e+00,5.000000000000000000e+00,5.000000000000000000e+00,5.000000000000000000e+00,5.000000000000000000e+00,5.000000000000000000e+00,5.000000000000000000e+00,5.000000000000000000e+00,5.000000000000000000e+00,5.000000000000000000e+00,5.000000000000000000e+00,5.000000000000000000e+00,5.000000000000000000e+00,5.000000000000000000e+00,5.000000000000000000e+00,5.000000000000000000e+00,5.000000000000000000e+00,5.000000000000000000e+00,5.000000000000000000e+00,5.000000000000000000e+00,5.000000000000000000e+00,5.000000000000000000e+00,5.000000000000000000e+00,5.000000000000000000e+00,5.000000000000000000e+00,5.000000000000000000e+00,5.000000000000000000e+00,5.000000000000000000e+00,5.000000000000000000e+00,5.000000000000000000e+00,4.869493484497070312e+00,4.677930355072021484e+00,4.500869274139404297e+00,4.336719989776611328e+00,4.184122562408447266e+00,4.041899204254150391e+00,3.909026622772216797e+00,3.784612178802490234e+00,3.667872667312622070e+00,3.558119535446166992e+00,3.454744100570678711e+00,3.357205390930175781e+00,3.265023708343505859e+00,3.177768945693969727e+00,3.095056295394897461e+00,3.016539812088012695e+00,2.941908836364746094e+00,2.870881557464599609e+00,2.803202629089355469e+00,2.738641738891601562e+00,2.676987409591674805e+00,2.618048191070556641e+00,2.561648130416870117e+00,2.507627010345458984e+00,2.455837249755859375e+00,2.406143426895141602e+00,2.358420848846435547e+00,2.312554359436035156e+00,2.268438100814819336e+00,2.225973129272460938e+00,2.185069084167480469e+00,2.145641326904296875e+00,2.107610940933227539e+00,2.070905208587646484e+00,2.035456418991088867e+00,2.001200675964355469e+00,1.968078851699829102e+00,1.936035752296447754e+00,1.905019044876098633e+00,1.874980688095092773e+00,1.845874786376953125e+00
5.000000000000000000e+00,5.000000000000000000e+00,5.000000000000000000e+00,5.000000000000000000e+00,5.000000000000000000e+00,5.000000000000000000e+00,5.000000000000000000e+00,5.000000000000000000e+00,5.000000000000000000e+00,5.000000000000000000e+00,5.000000000000000000e+00,5.000000000000000000e+00,5.000000000000000000e+00,5.000000000000000000e+00,5.000000000000000000e+00,5.000000000000000000e+00,5.000000000000000000e+00,5.000000000000000000e+00,5.000000000000000000e+00,5.000000000000000000e+00,5.000000000000000000e+00,5.000000000000000000e+00,5.000000000000000000e+00,5.000000000000000000e+00,5.000000000000000000e+00,5.000000000000000000e+00,5.000000000000000000e+00,5.000000000000000000e+00,5.000000000000000000e+00,5.000000000000000000e+00,5.000000000000000000e+00,5.000000000000000000e+00,5.000000000000000000e+00,5.000000000000000000e+00,5.000000000000000000e+00,5.000000000000000000e+00,5.000000000000000000e+00,5.000000000000000000e+00,5.000000000000000000e+00,4.869632244110107422e+00,4.678058147430419922e+00,4.500987052917480469e+00,4.336831569671630859e+00,4.184226512908935547e+00,4.041996002197265625e+00,3.909117221832275391e+00,3.784697055816650391e+00,3.667952537536621094e+00,3.558194637298583984e+00,3.454814910888671875e+00,3.357272624969482422e+00,3.265086889266967773e+00,3.177828788757324219e+00,3.095113039016723633e+00,3.016593933105468750e+00,2.941960096359252930e+00,2.870930433273315430e+00,2.803249597549438477e+00,2.738686084747314453e+00,2.677030086517333984e+00,2.618088960647583008e+00,2.561687231063842773e+00,2.507664442062377930e+00,2.455873012542724609e+00,2.406177759170532227e+00,2.358453750610351562e+00,2.312586069107055664e+00,2.268468618392944336e+00,2.226002693176269531e+00,2.185097455978393555e+00,2.145668506622314453e+00,2.107637405395507812e+00,2.070930957794189453e+00,2.035480976104736328e+00,2.001224517822265625e+00,1.968101978302001953e+00,1.936057806015014648e+00,1.905040740966796875e+00,1.875001430511474609e+00,1.845895051956176758e+00
5.000000000000000000e+00,5.000000000000000000e+00,5.000000000000000000e+00,5.000000000000000000e+00,5.000000000000000000e+00,5.000000000000000000e+00,5.000000000000000000e+00,5.000000000000000000e+00,5.000000000000000000e+00,5.000000000000000000e+00,5.000000000000000000e+00,5.000000000000000000e+00,5.000000000000000000e+00,5.000000000000000000e+00,5.000000000000000000e+00,5.000000000000000000e+00,5.000000000000000000e+00,5.000000000000000000e+00,5.000000000000000000e+00,5.000000000000000000e+00,5.000000000000000000e+00,5.000000000000000000e+00,5.000000000000000000e+00,5.000000000000000000e+00,5.000000000000000000e+00,5.000000000000000000e+00,5.000000000000000000e+00,5.000000000000000000e+00,5.000000000000000000e+00,5.000000000000000000e+00,5.000000000000000000e+00,5.000000000000000000e+00,5.000000000000000000e+00,5.000000000000000000e+00,5.000000000000000000e+00,5.000000000000000000e+00,5.000000000000000000e+00,5.000000000000000000e+00,5.000000000000000000e+00,4.869770050048828125e+00,4.678185939788818359e+00,4.501105308532714844e+00,4.336941719055175781e+00,4.184330463409423828e+00,4.042093276977539062e+00,3.909207820892333984e+00,3.784781932830810547e+00,3.668032407760620117e+00,3.558269977569580078e+00,3.454885721206665039e+00,3.357339620590209961e+00,3.265150308609008789e+00,3.177888631820678711e+00,3.095169782638549805e+00,3.016648054122924805e+00,2.942011833190917969e+00,2.870979309082031250e+00,2.803296089172363281e+00,2.738730907440185547e+00,2.677072525024414062e+00,2.618129491806030273e+00,2.561726093292236328e+00,2.507701873779296875e+00,2.455908775329589844e+00,2.406212091445922852e+00,2.358486890792846680e+00,2.312617778778076172e+00,2.268499135971069336e+00,2.226032018661499023e+00,2.185126066207885742e+00,2.145695924758911133e+00,2.107663631439208984e+00,2.070956230163574219e+00,2.035505771636962891e+00,2.001248121261596680e+00,1.968125104904174805e+00,1.936080217361450195e+00,1.905062079429626465e+00,1.875022411346435547e+00,1.845915198326110840e+00
5.000000000000000000e+00,5.000000000000000000e+00,5.000000000000000000e+00,5.000000000000000000e+00,5.000000000000000000e+00,5.000000000000000000e+00,5.000000000000000000e+00,5.000000000000000000e+00,5.000000000000000000e+00,5.000000000000000000e+00,5.000000000000000000e+00,5.000000000000000000e+00,5.000000000000000000e+00,5.000000000000000000e+00,5.000000000000000000e+00,5.000000000000000000e+00,5.000000000000000000e+00,5.000000000000000000e+00,5.000000000000000000e+00,5.000000000000000000e+00,5.000000000000000000e+00,5.000000000000000000e+00,5.000000000000000000e+00,5.000000000000000000e+00,5.000000000000000000e+00,5.000000000000000000e+00,5.000000000000000000e+00,5.000000000000000000e+00,5.000000000000000000e+00,5.000000000000000000e+00,5.000000000000000000e+00,5.000000000000000000e+00,5.000000000000000000e+00,5.000000000000000000e+00,5.000000000000000000e+00,5.000000000000000000e+00,5.000000000000000000e+00,5.000000000000000000e+00,5.000000000000000000e+00,4.869908809661865234e+00,4.678313255310058594e+00,4.501223564147949219e+00,4.337051391601562500e+00,4.184433460235595703e+00,4.042190074920654297e+00,3.909298658370971680e+00,3.784866809844970703e+00,3.668112039566040039e+00,3.558345079421997070e+00,3.454956769943237305e+00,3.357406377792358398e+00,3.265213727951049805e+00,3.177948713302612305e+00,3.095226526260375977e+00,3.016701936721801758e+00,2.942063093185424805e+00,2.871028423309326172e+00,2.803342819213867188e+00,2.738775491714477539e+00,2.677115201950073242e+00,2.618170261383056641e+00,2.561764955520629883e+00,2.507739067077636719e+00,2.455944776535034180e+00,2.406246423721313477e+00,2.358520030975341797e+00,2.312649726867675781e+00,2.268529653549194336e+00,2.226061344146728516e+00,2.185154199600219727e+00,2.145723342895507812e+00,2.107690095901489258e+00,2.070981740951538086e+00,2.035530328750610352e+00,2.001271963119506836e+00,1.968147873878479004e+00,1.936102509498596191e+00,1.905083775520324707e+00,1.875043153762817383e+00,1.845935463905334473e+00
4.874821662902832031e+00,4.873610019683837891e+00,4.872399330139160156e+00,4.871189117431640625e+00,4.869979381561279297e+00,4.868770599365234375e+00,4.867562294006347656e+00,4.866353988647460938e+00,4.865147113800048828e+00,4.863940238952636719e+00,4.862734317779541016e+00,4.861528873443603516e+00,4.860323905944824219e+00,4.859119892120361328e+00,4.857916355133056641e+00,4.856713294982910156e+00,4.855510711669921875e+00,4.854309082031250000e+00,4.853107452392578125e+00,4.851906776428222656e+00,4.850707054138183594e+00,4.849507808685302734e+00,4.848309040069580078e+00,4.847110748291015625e+00,4.845912933349609375e+00,4.844715595245361328e+00,4.843519210815429688e+00,4.842323303222656250e+00,4.841127872467041016e+00,4.839932918548583984e+00,4.838739395141601562e+00,4.837545394897460938e+00,4.836352348327636719e+00,4.835160255432128906e+00,4.833968162536621094e+00,4.832777023315429688e+00,4.831586360931396484e+00,4.830396175384521484e+00,4.829206943511962891e+00,4.828018188476562500e+00,4.678441047668457031e+00,4.501341819763183594e+00,4.337161064147949219e+00,4.184535503387451172e+00,4.042287349700927734e+00,3.909389257431030273e+00,3.784952163696289062e+00,3.668191909790039062e+00,3.558420181274414062e+00,3.455027580261230469e+00,3.357473611831665039e+00,3.265276908874511719e+00,3.178008794784545898e+00,3.095283746719360352e+00,3.016755819320678711e+00,2.942114353179931641e+00,2.871077299118041992e+00,2.803389549255371094e+00,2.738819837570190430e+00,2.677157640457153320e+00,2.618211030960083008e+00,2.561804056167602539e+00,2.507776498794555664e+00,2.455980539321899414e+00,2.406280994415283203e+00,2.358552932739257812e+00,2.312681436538696289e+00,2.268560171127319336e+00,2.226090908050537109e+00,2.185182571411132812e+00,2.145750522613525391e+00,2.107716560363769531e+00,2.071007251739501953e+00,2.035554885864257812e+00,2.001295804977416992e+00,1.968171000480651855e+00,1.936124682426452637e+00,1.905105352401733398e+00,1.875064134597778320e+00,1.845955610275268555e+00
3.777594327926635742e+00,3.776866674423217773e+00,3.776139497756958008e+00,3.775412559509277344e+00,3.774685859680175781e+00,3.773959398269653320e+00,3.773233175277709961e+00,3.772507429122924805e+00,3.771781921386718750e+00,3.771056890487670898e+00,3.770332098007202148e+00,3.769607305526733398e+00,3.768882751464843750e+00,3.768158674240112305e+00,3.767434835433959961e+00,3.766711235046386719e+00,3.765987873077392578e+00,3.765264749526977539e+00,3.764541864395141602e+00,3.763819456100463867e+00,3.763097286224365234e+00,3.762375354766845703e+00,3.761653661727905273e+00,3.760932207107543945e+00,3.760210990905761719e+00,3.759490251541137695e+00,3.758770227432250977e+00,3.758049726486206055e+00,3.757329940795898438e+00,3.756610155105590820e+00,3.755890607833862305e+00,3.755171537399291992e+00,3.754452466964721680e+00,3.753733873367309570e+00,3.753015518188476562e+00,3.752297401428222656e+00,3.751579523086547852e+00,3.750862121582031250e+00,3.750144720077514648e+00,3.749427795410156250e+00,3.748711109161376953e+00,3.747994661331176758e+00,3.747278928756713867e+00,3.746562957763671875e+00,3.745847463607788086e+00,3.745131969451904297e+00,3.744416952133178711e+00,3.668272018432617188e+00,3.558495283126831055e+00,3.455098390579223633e+00,3.357540369033813477e+00,3.265340089797973633e+00,3.178068637847900391e+00,3.095340490341186523e+00,3.016810178756713867e+00,2.942165851593017578e+00,2.871126174926757812e+00,2.803436279296875000e+00,2.738864660263061523e+00,2.677200317382812500e+00,2.618251800537109375e+00,2.561843156814575195e+00,2.507813692092895508e+00,2.456016302108764648e+00,2.406315326690673828e+00,2.358586072921752930e+00,2.312713146209716797e+00,2.268590688705444336e+00,2.226120471954345703e+00,2.185210943222045898e+00,2.145777940750122070e+00,2.107743024826049805e+00,2.071032762527465820e+00,2.035579442977905273e+00,2.001319646835327148e+00,1.968194127082824707e+00,1.936146974563598633e+00,1.905126810073852539e+00,1.875084996223449707e+00,1.845975875854492188e+00
3.083547830581665039e+00,3.083062887191772461e+00,3.082578420639038086e+00,3.082093954086303711e+00,3.081609487533569336e+00,3.081125736236572266e+00,3.080641746520996094e+00,3.080157756805419922e+00,3.079674243927001953e+00,3.079190492630004883e+00,3.078707218170166016e+00,3.078223943710327148e+00,3.077740907669067383e+00,3.077257871627807617e+00,3.076775074005126953e+00,3.076292514801025391e+00,3.075809955596923828e+00,3.075327634811401367e+00,3.074845552444458008e+00,3.074363470077514648e+00,3.073881626129150391e+00,3.073400020599365234e+00,3.072918415069580078e+00,3.072437047958374023e+00,3.071955680847167969e+00,3.071474552154541016e+00,3.070993661880493164e+00,3.070512771606445312e+00,3.070032119750976562e+00,3.069551706314086914e+00,3.069071292877197266e+00,3.068590879440307617e+00,3.068110942840576172e+00,3.067631006240844727e+00,3.067151308059692383e+00,3.066671609878540039e+00,3.066192150115966797e+00,3.065712928771972656e+00,3.065233945846557617e+00,3.064754962921142578e+00,3.064275979995727539e+00,3.063797473907470703e+00,3.063318729400634766e+00,3.062840461730957031e+00,3.062361955642700195e+00,3.061883926391601562e+00,3.061405897140502930e+00,3.060928106307983398e+00,3.060450553894042969e+00,3.059973001480102539e+00,3.059495449066162109e+00,3.059018373489379883e+00,3.058541297912597656e+00,3.058064222335815430e+00,3.016864061355590820e+00,2.942217350006103516e+00,2.871175050735473633e+00,2.803482770919799805e+00,2.738909006118774414e+00,2.677242755889892578e+00,2.618292331695556641e+00,2.561882019042968750e+00,2.507851123809814453e+00,2.456052064895629883e+00,2.406349658966064453e+00,2.358618974685668945e+00,2.312745094299316406e+00,2.268621206283569336e+00,2.226149797439575195e+00,2.185239315032958984e+00,2.145805120468139648e+00,2.107769250869750977e+00,2.071058273315429688e+00,2.035604238510131836e+00,2.001343250274658203e+00,1.968217015266418457e+00,1.936169266700744629e+00,1.905148386955261230e+00,1.875105857849121094e+00,1.845996141433715820e+00
2.604948043823242188e+00,2.604602336883544922e+00,2.604256391525268555e+00,2.603910684585571289e+00,2.603564977645874023e+00,2.603219270706176758e+00,2.602873802185058594e+00,2.602528333663940430e+00,2.602183103561401367e+00,2.601837873458862305e+00,2.601492643356323242e+00,2.601147651672363281e+00,2.600802659988403320e+00,2.600457668304443359e+00,2.600112915039062500e+00,2.599768400192260742e+00,2.599423646926879883e+00,2.599079370498657227e+00,2.598734855651855469e+00,2.598390579223632812e+00,2.598046302795410156e+00,2.597702264785766602e+00,2.597358226776123047e+00,2.597014188766479492e+00,2.596670389175415039e+00,2.596326589584350586e+00,2.595983028411865234e+00,2.595639228820800781e+00,2.595295906066894531e+00,2.594952344894409180e+00,2.594609022140502930e+00,2.594265937805175781e+00,2.593922615051269531e+00,2.593579769134521484e+00,2.593236923217773438e+00,2.592894077301025391e+00,2.592551231384277344e+00,2.592208623886108398e+00,2.591866016387939453e+00,2.591523408889770508e+00,2.591181039810180664e+00,2.590838670730590820e+00,2.590496540069580078e+00,2.590154409408569336e+00,2.589812278747558594e+00,2.589470386505126953e+00,2.589128494262695312e+00,2.588786602020263672e+00,2.588444948196411133e+00,2.588103294372558594e+00,2.587762117385864258e+00,2.587420701980590820e+00,2.587079286575317383e+00,2.586738109588623047e+00,2.586396932601928711e+00,2.586055994033813477e+00,2.585714817047119141e+00,2.585374116897583008e+00,2.585033178329467773e+00,2.584692478179931641e+00,2.584352016448974609e+00,2.561920881271362305e+00,2.507888555526733398e+00,2.456088066101074219e+00,2.406383991241455078e+00,2.358652114868164062e+00,2.312776803970336914e+00,2.268651962280273438e+00,2.226179361343383789e+00,2.185267686843872070e+00,2.145832777023315430e+00,2.107795715332031250e+00,2.071083545684814453e+00,2.035628795623779297e+00,2.001367092132568359e+00,1.968240022659301758e+00,1.936191439628601074e+00,1.905170083045959473e+00,1.875126719474792480e+00,1.846016287803649902e+00
2.254999637603759766e+00,2.254738569259643555e+00,2.254477262496948242e+00,2.254216194152832031e+00,2.253955125808715820e+00,2.253694295883178711e+00,2.253433227539062500e+00,2.253172159194946289e+00,2.252911329269409180e+00,2.252650737762451172e+00,2.252389907836914062e+00,2.252129316329956055e+00,2.251868724822998047e+00,2.251608133316040039e+00,2.251347780227661133e+00,2.251087427139282227e+00,2.250827074050903320e+00,2.250566720962524414e+00,2.250306606292724609e+00,2.250046253204345703e+00,2.249786138534545898e+00,2.249526023864746094e+00,2.249266147613525391e+00,2.249007463455200195e+00,2.248749494552612305e+00,2.248491764068603516e+00,2.248234033584594727e+00,2.247976303100585938e+00,2.247718572616577148e+00,2.247461080551147461e+00,2.247203588485717773e+00,2.246946096420288086e+00,2.246688842773437500e+00,2.246431350708007812e+00,2.246174097061157227e+00,2.245916843414306641e+00,2.245659589767456055e+00,2.245402574539184570e+00,2.245145320892333984e+00,2.244888305664062500e+00,2.244631528854370117e+00,2.244374513626098633e+00,2.244117736816406250e+00,2.243860960006713867e+00,2.243604183197021484e+00,2.243347644805908203e+00,2.243091106414794922e+00,2.242834568023681641e+00,2.242578268051147461e+00,2.242321729660034180e+00,2.242065429687500000e+00,2.241809129714965820e+00,2.241552829742431641e+00,2.241296768188476562e+00,2.241040468215942383e+00,2.240784406661987305e+00,2.240528583526611328e+00,2.240272521972656250e+00,2.240016698837280273e+00,2.239760875701904297e+00,2.239505052566528320e+00,2.239249229431152344e+00,2.238993883132934570e+00,2.238738298416137695e+00,2.238482713699340820e+00,2.238227128982543945e+00,2.237971782684326172e+00,2.237716436386108398e+00,2.226208686828613281e+00,2.185296058654785156e+00,2.145859956741333008e+00,2.107822179794311523e+00,2.071109056472778320e+00,2.035653352737426758e+00,2.001390933990478516e+00,1.968263149261474609e+00,1.936213731765747070e+00,1.905191540718078613e+00,1.875147700309753418e+00,1.846036672592163086e+00
1.988028764724731445e+00,1.987825751304626465e+00,1.987622737884521484e+00,1.987419843673706055e+00,1.987216949462890625e+00,1.987014055252075195e+00,1.986810922622680664e+00,1.986608147621154785e+00,1.986405372619628906e+00,1.986202716827392578e+00,1.986000061035156250e+00,1.985797405242919922e+00,1.985594868659973145e+00,1.985392332077026367e+00,1.985189795494079590e+00,1.984987378120422363e+00,1.984784960746765137e+00,1.984582543373107910e+00,1.984379887580871582e+00,1.984177589416503906e+00,1.983975410461425781e+00,1.983773231506347656e+00,1.983571052551269531e+00,1.983368873596191406e+00,1.983166813850402832e+00,1.982964754104614258e+00,1.982762694358825684e+00,1.982560753822326660e+00,1.982358813285827637e+00,1.982156991958618164e+00,1.981955051422119141e+00,1.981753110885620117e+00,1.981551289558410645e+00,1.981349587440490723e+00,1.981147885322570801e+00,1.980946302413940430e+00,1.980744719505310059e+00,1.980543136596679688e+00,1.980341553688049316e+00,1.980140089988708496e+00,1.979938626289367676e+00,1.979737281799316406e+00,1.979535937309265137e+00,1.979334354400634766e+00,1.979133129119873047e+00,1.978931903839111328e+00,1.978730678558349609e+00,1.978529572486877441e+00,1.978328466415405273e+00,1.978127360343933105e+00,1.977926373481750488e+00,1.977725267410278320e+00,1.977524399757385254e+00,1.977323412895202637e+00,1.977122664451599121e+00,1.976921558380126953e+00,1.976720809936523438e+00,1.976520061492919922e+00,1.976319313049316406e+00,1.976118683815002441e+00,1.975918054580688477e+00,1.975717425346374512e+00,1.975516915321350098e+00,1.975316405296325684e+00,1.975116014480590820e+00,1.974915504455566406e+00,1.974715232849121094e+00,1.974514842033386230e+00,1.974314332008361816e+00,1.974114060401916504e+00,1.973913908004760742e+00,1.973713636398315430e+00,1.973513484001159668e+00,1.973313450813293457e+00,1.973113417625427246e+00,1.968286037445068359e+00,1.936236143112182617e+00,1.905213117599487305e+00,1.875168442726135254e+00,1.846056938171386719e+00
1.777579784393310547e+00,1.777417421340942383e+00,1.777255177497863770e+00,1.777092933654785156e+00,1.776930689811706543e+00,1.776768445968627930e+00,1.776606321334838867e+00,1.776444077491760254e+00,1.776281952857971191e+00,1.776119947433471680e+00,1.775957822799682617e+00,1.775795578956604004e+00,1.775633573532104492e+00,1.775471687316894531e+00,1.775309681892395020e+00,1.775147795677185059e+00,1.774985909461975098e+00,1.774824023246765137e+00,1.774662137031555176e+00,1.774500370025634766e+00,1.774338603019714355e+00,1.774176836013793945e+00,1.774015188217163086e+00,1.773853421211242676e+00,1.773691654205322266e+00,1.773530006408691406e+00,1.773368477821350098e+00,1.773206830024719238e+00,1.773045301437377930e+00,1.772883772850036621e+00,1.772722363471984863e+00,1.772560834884643555e+00,1.772399425506591797e+00,1.772238016128540039e+00,1.772076725959777832e+00,1.771915435791015625e+00,1.771753907203674316e+00,1.771592617034912109e+00,1.771431326866149902e+00,1.771270155906677246e+00,1.771108984947204590e+00,1.770947813987731934e+00,1.770786643028259277e+00,1.770625591278076172e+00,1.770464539527893066e+00,1.770303487777709961e+00,1.770142436027526855e+00,1.769981503486633301e+00,1.769820332527160645e+00,1.769659399986267090e+00,1.769498586654663086e+00,1.769337654113769531e+00,1.769176840782165527e+00,1.769016027450561523e+00,1.768855333328247070e+00,1.768694519996643066e+00,1.768533825874328613e+00,1.768373131752014160e+00,1.768212437629699707e+00,1.768051862716674805e+00,1.767891287803649902e+00,1.767730474472045898e+00,1.767570018768310547e+00,1.767409443855285645e+00,1.767248988151550293e+00,1.767088532447814941e+00,1.766928076744079590e+00,1.766767740249633789e+00,1.766607403755187988e+00,1.766447067260742188e+00,1.766286730766296387e+00,1.766126394271850586e+00,1.765966176986694336e+00,1.765805721282958984e+00,1.765645623207092285e+00,1.765485525131225586e+00,1.765325307846069336e+00,1.765165209770202637e+00,1.765005230903625488e+00,1.764845132827758789e+00
1.607421398162841797e+00,1.607288599014282227e+00,1.607155919075012207e+00,1.607023239135742188e+00,1.606890439987182617e+00,1.606757760047912598e+00,1.606625080108642578e+00,1.606492519378662109e+00,1.606359839439392090e+00,1.606227278709411621e+00,1.606094837188720703e+00,1.605962276458740234e+00,1.605829715728759766e+00,1.605697274208068848e+00,1.605564832687377930e+00,1.605432391166687012e+00,1.605299949645996094e+00,1.605167388916015625e+00,1.605035066604614258e+00,1.604902744293212891e+00,1.604770421981811523e+00,1.604638099670410156e+00,1.604505777359008789e+00,1.604373574256896973e+00,1.604241251945495605e+00,1.604109048843383789e+00,1.603976845741271973e+00,1.603844642639160156e+00,1.603712558746337891e+00,1.603580236434936523e+00,1.603448152542114258e+00,1.603316068649291992e+00,1.603183984756469727e+00,1.603051900863647461e+00,1.602919936180114746e+00,1.602787971496582031e+00,1.602655887603759766e+00,1.602523922920227051e+00,1.602392077445983887e+00,1.602260112762451172e+00,1.602128267288208008e+00,1.601996183395385742e+00,1.601864337921142578e+00,1.601732611656188965e+00,1.601600766181945801e+00,1.601468920707702637e+00,1.601337194442749023e+00,1.601205468177795410e+00,1.601073741912841797e+00,1.600942015647888184e+00,1.600810408592224121e+00,1.600678682327270508e+00,1.600547075271606445e+00,1.600415468215942383e+00,1.600283741950988770e+00,1.600152254104614258e+00,1.600020647048950195e+00,1.599889039993286133e+00,1.599757552146911621e+00,1.599626064300537109e+00,1.599494695663452148e+00,1.599363207817077637e+00,1.599231839179992676e+00,1.599100351333618164e+00,1.598968982696533203e+00,1.598837733268737793e+00,1.598706245422363281e+00,1.598574876785278320e+00,1.598443627357482910e+00,1.598312377929687500e+00,1.598181128501892090e+00,1.598049879074096680e+00,1.597918748855590820e+00,1.597787499427795410e+00,1.597656369209289551e+00,1.597525238990783691e+00,1.597394108772277832e+00,1.597262978553771973e+00,1.597131967544555664e+00,1.597000718116760254e+00
1.466993570327758789e+00,1.466883063316345215e+00,1.466772437095642090e+00,1.466661930084228516e+00,1.466551423072814941e+00,1.466440916061401367e+00,1.466330409049987793e+00,1.466220021247863770e+00,1.466109514236450195e+00,1.465999126434326172e+00,1.465888500213623047e+00,1.465778112411499023e+00,1.465667724609375000e+00,1.465557456016540527e+00,1.465447068214416504e+00,1.465336680412292480e+00,1.465226411819458008e+00,1.465116143226623535e+00,1.465005874633789062e+00,1.464895606040954590e+00,1.464785337448120117e+00,1.464675068855285645e+00,1.464564800262451172e+00,1.464454531669616699e+00,1.464344382286071777e+00,1.464234232902526855e+00,1.464124083518981934e+00,1.464013934135437012e+00,1.463903784751892090e+00,1.463793754577636719e+00,1.463683605194091797e+00,1.463573575019836426e+00,1.463463544845581055e+00,1.463353514671325684e+00,1.463243365287780762e+00,1.463133335113525391e+00,1.463023304939270020e+00,1.462913393974304199e+00,1.462803483009338379e+00,1.462693452835083008e+00,1.462583541870117188e+00,1.462473750114440918e+00,1.462363839149475098e+00,1.462253928184509277e+00,1.462144136428833008e+00,1.462034225463867188e+00,1.461924433708190918e+00,1.461814522743225098e+00,1.461704730987548828e+00,1.461594939231872559e+00,1.461485266685485840e+00,1.461375474929809570e+00,1.461265802383422852e+00,1.461156129837036133e+00,1.461046338081359863e+00,1.460936784744262695e+00,1.460827112197875977e+00,1.460717439651489258e+00,1.460607767105102539e+00,1.460498094558715820e+00,1.460388541221618652e+00,1.460278987884521484e+00,1.460169434547424316e+00,1.460059881210327148e+00,1.459950327873229980e+00,1.459840774536132812e+00,1.459731340408325195e+00,1.459621906280517578e+00,1.459512352943420410e+00,1.459402918815612793e+00,1.459293603897094727e+00,1.459184169769287109e+00,1.459074616432189941e+00,1.458965301513671875e+00,1.458855867385864258e+00,1.458746552467346191e+00,1.458637237548828125e+00,1.458527922630310059e+00,1.458418607711791992e+00,1.458309412002563477e+00
1.349130630493164062e+00,1.349037170410156250e+00,1.348943710327148438e+00,1.348850131034851074e+00,1.348756551742553711e+00,1.348663210868835449e+00,1.348569750785827637e+00,1.348476290702819824e+00,1.348382830619812012e+00,1.348289489746093750e+00,1.348196029663085938e+00,1.348102688789367676e+00,1.348009347915649414e+00,1.347915887832641602e+00,1.347822546958923340e+00,1.347729206085205078e+00,1.347635865211486816e+00,1.347542524337768555e+00,1.347449302673339844e+00,1.347355961799621582e+00,1.347262740135192871e+00,1.347169518470764160e+00,1.347076296806335449e+00,1.346983075141906738e+00,1.346889853477478027e+00,1.346796631813049316e+00,1.346703410148620605e+00,1.346610307693481445e+00,1.346516966819763184e+00,1.346423864364624023e+00,1.346330642700195312e+00,1.346237540245056152e+00,1.346144437789916992e+00,1.346051335334777832e+00,1.345958232879638672e+00,1.345865249633789062e+00,1.345772147178649902e+00,1.345679163932800293e+00,1.345586061477661133e+00,1.345493078231811523e+00,1.345399975776672363e+00,1.345306992530822754e+00,1.345214009284973145e+00,1.345121026039123535e+00,1.345028042793273926e+00,1.344935059547424316e+00,1.344842195510864258e+00,1.344749212265014648e+00,1.344656348228454590e+00,1.344563484191894531e+00,1.344470500946044922e+00,1.344377636909484863e+00,1.344284772872924805e+00,1.344191908836364746e+00,1.344099044799804688e+00,1.344006180763244629e+00,1.343913435935974121e+00,1.343820691108703613e+00,1.343727827072143555e+00,1.343635082244873047e+00,1.343542337417602539e+00,1.343449592590332031e+00,1.343356847763061523e+00,1.343264222145080566e+00,1.343171477317810059e+00,1.343078613281250000e+00,1.342985987663269043e+00,1.342893362045288086e+00,1.342800617218017578e+00,1.342707991600036621e+00,1.342615365982055664e+00,1.342522859573364258e+00,1.342430233955383301e+00,1.342337608337402344e+00,1.342245101928710938e+00,1.342152476310729980e+00,1.342059969902038574e+00,1.341967344284057617e+00,1.341874718666076660e+00,1.341782212257385254e+00
1.248798251152038574e+00,1.248718142509460449e+00,1.248638033866882324e+00,1.248557925224304199e+00,1.248477816581726074e+00,1.248397707939147949e+00,1.248317718505859375e+00,1.248237609863281250e+00,1.248157501220703125e+00,1.248077392578125000e+00,1.247997403144836426e+00,1.247917413711547852e+00,1.247837424278259277e+00,1.247757434844970703e+00,1.247677445411682129e+00,1.247597455978393555e+00,1.247517466545104980e+00,1.247437477111816406e+00,1.247357606887817383e+00,1.247277617454528809e+00,1.247197747230529785e+00,1.247117638587951660e+00,1.247037768363952637e+00,1.246957898139953613e+00,1.246878027915954590e+00,1.246798157691955566e+00,1.246718287467956543e+00,1.246638417243957520e+00,1.246558547019958496e+00,1.246478676795959473e+00,1.246398925781250000e+00,1.246319055557250977e+00,1.246239304542541504e+00,1.246159434318542480e+00,1.246079564094543457e+00,1.245999813079833984e+00,1.245920062065124512e+00,1.245840311050415039e+00,1.245760560035705566e+00,1.245680809020996094e+00,1.245601177215576172e+00,1.245521426200866699e+00,1.245441675186157227e+00,1.245362043380737305e+00,1.245282292366027832e+00,1.245202541351318359e+00,1.245122909545898438e+00,1.245043277740478516e+00,1.244963645935058594e+00,1.244884014129638672e+00,1.244804382324218750e+00,1.244724750518798828e+00,1.244645237922668457e+00,1.244565606117248535e+00,1.244485974311828613e+00,1.244406461715698242e+00,1.244326949119567871e+00,1.244247317314147949e+00,1.244167685508728027e+00,1.244088172912597656e+00,1.244008660316467285e+00,1.243929147720336914e+00,1.243849635124206543e+00,1.243770122528076172e+00,1.243690729141235352e+00,1.243611216545104980e+00,1.243531823158264160e+00,1.243452310562133789e+00,1.243372917175292969e+00,1.243293523788452148e+00,1.243214011192321777e+00,1.243134617805480957e+00,1.243055224418640137e+00,1.242975831031799316e+00,1.242896437644958496e+00,1.242817044258117676e+00,1.242737650871276855e+00,1.242658376693725586e+00,1.242578983306884766e+00,1.242499709129333496e+00
1.162356019020080566e+00,1.162286520004272461e+00,1.162217140197753906e+00,1.162147760391235352e+00,1.162078261375427246e+00,1.162008881568908691e+00,1.161939620971679688e+00,1.161870241165161133e+00,1.161800861358642578e+00,1.161731481552124023e+00,1.161662220954895020e+00,1.161592841148376465e+00,1.161523461341857910e+00,1.161454200744628906e+00,1.161384820938110352e+00,1.161315560340881348e+00,1.161246180534362793e+00,1.161176919937133789e+00,1.161107659339904785e+00,1.161038398742675781e+00,1.160969138145446777e+00,1.160899877548217773e+00,1.160830616950988770e+00,1.160761475563049316e+00,1.160692214965820312e+00,1.160622954368591309e+00,1.160553693771362305e+00,1.160484552383422852e+00,1.160415291786193848e+00,1.160346150398254395e+00,1.160277009010314941e+00,1.160207748413085938e+00,1.160138607025146484e+00,1.160069465637207031e+00,1.160000324249267578e+00,1.159931182861328125e+00,1.159862041473388672e+00,1.159793019294738770e+00,1.159723758697509766e+00,1.159654736518859863e+00,1.159585595130920410e+00,1.159516453742980957e+00,1.159447431564331055e+00,1.159378409385681152e+00,1.159309267997741699e+00,1.159240245819091797e+00,1.159171223640441895e+00,1.159102201461791992e+00,1.159033179283142090e+00,1.158964157104492188e+00,1.158895134925842285e+00,1.158825993537902832e+00,1.158757090568542480e+00,1.158688068389892578e+00,1.158619046211242676e+00,1.158550143241882324e+00,1.158481121063232422e+00,1.158412218093872070e+00,1.158343315124511719e+00,1.158274412155151367e+00,1.158205389976501465e+00,1.158136487007141113e+00,1.158067584037780762e+00,1.157998681068420410e+00,1.157929778099060059e+00,1.157860875129699707e+00,1.157791972160339355e+00,1.157723069190979004e+00,1.157654285430908203e+00,1.157585382461547852e+00,1.157516598701477051e+00,1.157447695732116699e+00,1.157378911972045898e+00,1.157310009002685547e+00,1.157241225242614746e+00,1.157172441482543945e+00,1.157103538513183594e+00,1.157034754753112793e+00,1.156965970993041992e+00,1.156897187232971191e+00
1.087105989456176758e+00,1.087045311927795410e+00,1.086984634399414062e+00,1.086923956871032715e+00,1.086863160133361816e+00,1.086802482604980469e+00,1.086741805076599121e+00,1.086681127548217773e+00,1.086620450019836426e+00,1.086559772491455078e+00,1.086499094963073730e+00,1.086438417434692383e+00,1.086377859115600586e+00,1.086317181587219238e+00,1.086256504058837891e+00,1.086195945739746094e+00,1.086135268211364746e+00,1.086074709892272949e+00,1.086014151573181152e+00,1.085953474044799805e+00,1.085892915725708008e+00,1.085832238197326660e+00,1.085771679878234863e+00,1.085711121559143066e+00,1.085650563240051270e+00,1.085590004920959473e+00,1.085529446601867676e+00,1.085468888282775879e+00,1.085408449172973633e+00,1.085347890853881836e+00,1.085287332534790039e+00,1.085226774215698242e+00,1.085166215896606445e+00,1.085105776786804199e+00,1.085045337677001953e+00,1.084984779357910156e+00,1.084924340248107910e+00,1.084863901138305664e+00,1.084803342819213867e+00,1.084742903709411621e+00,1.084682464599609375e+00,1.084622025489807129e+00,1.084561586380004883e+00,1.084501147270202637e+00,1.084440588951110840e+00,1.084380269050598145e+00,1.084319829940795898e+00,1.084259390830993652e+00,1.084198951721191406e+00,1.084138631820678711e+00,1.084078192710876465e+00,1.084017872810363770e+00,1.083957433700561523e+00,1.083897113800048828e+00,1.083836793899536133e+00,1.083776354789733887e+00,1.083716034889221191e+00,1.083655595779418945e+00,1.083595275878906250e+00,1.083534955978393555e+00,1.083474636077880859e+00,1.083414316177368164e+00,1.083354115486145020e+00,1.083293795585632324e+00,1.083233475685119629e+00,1.083173155784606934e+00,1.083112955093383789e+00,1.083052635192871094e+00,1.082992315292358398e+00,1.082931995391845703e+00,1.082871794700622559e+00,1.082811594009399414e+00,1.082751274108886719e+00,1.082691073417663574e+00,1.082630872726440430e+00,1.082570672035217285e+00,1.082510471343994141e+00,1.082450270652770996e+00,1.082390069961547852e+00,1.082329869270324707e+00
1.021006941795349121e+00,1.020953297615051270e+00,1.020899772644042969e+00,1.020846247673034668e+00,1.020792722702026367e+00,1.020739197731018066e+00,1.020685672760009766e+00,1.020632147789001465e+00,1.020578622817993164e+00,1.020525097846984863e+00,1.020471572875976562e+00,1.020418047904968262e+00,1.020364522933959961e+00,1.020310997962951660e+00,1.020257592201232910e+00,1.020204067230224609e+00,1.020150542259216309e+00,1.020097136497497559e+00,1.020043611526489258e+00,1.019990205764770508e+00,1.019936800003051758e+00,1.019883275032043457e+00,1.019829869270324707e+00,1.019776463508605957e+00,1.019722938537597656e+00,1.019669532775878906e+00,1.019616127014160156e+00,1.019562721252441406e+00,1.019509315490722656e+00,1.019455909729003906e+00,1.019402503967285156e+00,1.019349098205566406e+00,1.019295692443847656e+00,1.019242405891418457e+00,1.019189000129699707e+00,1.019135594367980957e+00,1.019082188606262207e+00,1.019028782844543457e+00,1.018975496292114258e+00,1.018922090530395508e+00,1.018868803977966309e+00,1.018815517425537109e+00,1.018762111663818359e+00,1.018708825111389160e+00,1.018655538558959961e+00,1.018602132797241211e+00,1.018548846244812012e+00,1.018495559692382812e+00,1.018442273139953613e+00,1.018388986587524414e+00,1.018335700035095215e+00,1.018282413482666016e+00,1.018229126930236816e+00,1.018175840377807617e+00,1.018122553825378418e+00,1.018069267272949219e+00,1.018016099929809570e+00,1.017962813377380371e+00,1.017909526824951172e+00,1.017856359481811523e+00,1.017803072929382324e+00,1.017749905586242676e+00,1.017696619033813477e+00,1.017643451690673828e+00,1.017590165138244629e+00,1.017536997795104980e+00,1.017483830451965332e+00,1.017430663108825684e+00,1.017377495765686035e+00,1.017324209213256836e+00,1.017271041870117188e+00,1.017217874526977539e+00,1.017164826393127441e+00,1.017111659049987793e+00,1.017058372497558594e+00,1.017005205154418945e+00,1.016952157020568848e+00,1.016898989677429199e+00,1.016845822334289551e+00,1.016792774200439453e+00
9.624851942062377930e-01,9.624376296997070312e-01,9.623900055885314941e-01,9.623424410820007324e-01,9.622948169708251953e-01,9.622471332550048828e-01,9.621995687484741211e-01,9.621520042419433594e-01,9.621044397354125977e-01,9.620569348335266113e-01,9.620093703269958496e-01,9.619618058204650879e-01,9.619142413139343262e-01,9.618667364120483398e-01,9.618191719055175781e-01,9.617716670036315918e-01,9.617241621017456055e-01,9.616766571998596191e-01,9.616290926933288574e-01,9.615815877914428711e-01,9.615340828895568848e-01,9.614865779876708984e-01,9.614391326904296875e-01,9.613916277885437012e-01,9.613441228866577148e-01,9.612966775894165039e-01,9.612491726875305176e-01,9.612017273902893066e-01,9.611542224884033203e-01,9.611067771911621094e-01,9.610592126846313477e-01,9.610117673873901367e-01,9.609643220901489258e-01,9.609168767929077148e-01,9.608694314956665039e-01,9.608219861984252930e-01,9.607745409011840820e-01,9.607271552085876465e-01,9.606797099113464355e-01,9.606323242187500000e-01,9.605848789215087891e-01,9.605374932289123535e-01,9.604901075363159180e-01,9.604426622390747070e-01,9.603952765464782715e-01,9.603478908538818359e-01,9.603005051612854004e-01,9.602531194686889648e-01,9.602057933807373047e-01,9.601584076881408691e-01,9.601110219955444336e-01,9.600636959075927734e-01,9.600163102149963379e-01,9.599689841270446777e-01,9.599215984344482422e-01,9.598741531372070312e-01,9.598268270492553711e-01,9.597795009613037109e-01,9.597321748733520508e-01,9.596848487854003906e-01,9.596375226974487305e-01,9.595901966094970703e-01,9.595429301261901855e-01,9.594956040382385254e-01,9.594483375549316406e-01,9.594010114669799805e-01,9.593537449836730957e-01,9.593064188957214355e-01,9.592591524124145508e-01,9.592118859291076660e-01,9.591646194458007812e-01,9.591173529624938965e-01,9.590700864791870117e-01,9.590228199958801270e-01,9.589755535125732422e-01,9.589283466339111328e-01,9.588810801506042480e-01,9.588338136672973633e-01,9.587866067886352539e-01,9.587392807006835938e-01
9.103083610534667969e-01,9.102658033370971680e-01,9.102231860160827637e-01,9.101806282997131348e-01,9.101380705833435059e-01,9.100955128669738770e-01,9.100529551506042480e-01,9.100103974342346191e-01,9.099678993225097656e-01,9.099253416061401367e-01,9.098826646804809570e-01,9.098401665687561035e-01,9.097976088523864746e-01,9.097551107406616211e-01,9.097125530242919922e-01,9.096700549125671387e-01,9.096275568008422852e-01,9.095850586891174316e-01,9.095425009727478027e-01,9.095000028610229492e-01,9.094575047492980957e-01,9.094150066375732422e-01,9.093725681304931641e-01,9.093300700187683105e-01,9.092875719070434570e-01,9.092450737953186035e-01,9.092026352882385254e-01,9.091601371765136719e-01,9.091176986694335938e-01,9.090752005577087402e-01,9.090327620506286621e-01,9.089903235435485840e-01,9.089478850364685059e-01,9.089053869247436523e-01,9.088629484176635742e-01,9.088204503059387207e-01,9.087780117988586426e-01,9.087355732917785645e-01,9.086931347846984863e-01,9.086506962776184082e-01,9.086083173751831055e-01,9.085658788681030273e-01,9.085234999656677246e-01,9.084810614585876465e-01,9.084386825561523438e-01,9.083962440490722656e-01,9.083538651466369629e-01,9.083114862442016602e-01,9.082691073417663574e-01,9.082267284393310547e-01,9.081843495368957520e-01,9.081419706344604492e-01,9.080995917320251465e-01,9.080572128295898438e-01,9.080148339271545410e-01,9.079725146293640137e-01,9.079301357269287109e-01,9.078878164291381836e-01,9.078454375267028809e-01,9.078031182289123535e-01,9.077606797218322754e-01,9.077183008193969727e-01,9.076759815216064453e-01,9.076336622238159180e-01,9.075913429260253906e-01,9.075490236282348633e-01,9.075067043304443359e-01,9.074643850326538086e-01,9.074220657348632812e-01,9.073798060417175293e-01,9.073374867439270020e-01,9.072951674461364746e-01,9.072529077529907227e-01,9.072105884552001953e-01,9.071683287620544434e-01,9.071260690689086914e-01,9.070837497711181641e-01,9.070414900779724121e-01,9.069992303848266602e-01,9.069569706916809082e-01
8.634976744651794434e-01,8.634593486785888672e-01,8.634210824966430664e-01,8.633827567100524902e-01,8.633444905281066895e-01,8.633061647415161133e-01,8.632678985595703125e-01,8.632295727729797363e-01,8.631913065910339355e-01,8.631530404090881348e-01,8.631147742271423340e-01,8.630765080451965332e-01,8.630381822586059570e-01,8.629999160766601562e-01,8.629616498947143555e-01,8.629234433174133301e-01,8.628850579261779785e-01,8.628467917442321777e-01,8.628085851669311523e-01,8.627703189849853516e-01,8.627320528030395508e-01,8.626938462257385254e-01,8.626555800437927246e-01,8.626173734664916992e-01,8.625791072845458984e-01,8.625409007072448730e-01,8.625026941299438477e-01,8.624644875526428223e-01,8.624262213706970215e-01,8.623880147933959961e-01,8.623498082160949707e-01,8.623116016387939453e-01,8.622733950614929199e-01,8.622351884841918945e-01,8.621970415115356445e-01,8.621588349342346191e-01,8.621206283569335938e-01,8.620824813842773438e-01,8.620442748069763184e-01,8.620060682296752930e-01,8.619679212570190430e-01,8.619296550750732422e-01,8.618915081024169922e-01,8.618533015251159668e-01,8.618151545524597168e-01,8.617770075798034668e-01,8.617388606071472168e-01,8.617007136344909668e-01,8.616625666618347168e-01,8.616244196891784668e-01,8.615862727165222168e-01,8.615481257438659668e-01,8.615099787712097168e-01,8.614718317985534668e-01,8.614337444305419922e-01,8.613955974578857422e-01,8.613574504852294922e-01,8.613193631172180176e-01,8.612812161445617676e-01,8.612431287765502930e-01,8.612050414085388184e-01,8.611668944358825684e-01,8.611288070678710938e-01,8.610907196998596191e-01,8.610526323318481445e-01,8.610145449638366699e-01,8.609763383865356445e-01,8.609382510185241699e-01,8.609001636505126953e-01,8.608620762825012207e-01,8.608240485191345215e-01,8.607859611511230469e-01,8.607478737831115723e-01,8.607098460197448730e-01,8.606717586517333984e-01,8.606337308883666992e-01,8.605956435203552246e-01,8.605576157569885254e-01,8.605195283889770508e-01,8.604815006256103516e-01
8.212658166885375977e-01,8.212311863899230957e-01,8.211965560913085938e-01,8.211618661880493164e-01,8.211272358894348145e-01,8.210926055908203125e-01,8.210579752922058105e-01,8.210233449935913086e-01,8.209887146949768066e-01,8.209540843963623047e-01,8.209194540977478027e-01,8.208848237991333008e-01,8.208501935005187988e-01,8.208155632019042969e-01,8.207809925079345703e-01,8.207463622093200684e-01,8.207117319107055664e-01,8.206771612167358398e-01,8.206425309181213379e-01,8.206079602241516113e-01,8.205733299255371094e-01,8.205386996269226074e-01,8.205040693283081055e-01,8.204694986343383789e-01,8.204349279403686523e-01,8.204003572463989258e-01,8.203657269477844238e-01,8.203311562538146973e-01,8.202965855598449707e-01,8.202620148658752441e-01,8.202274441719055176e-01,8.201928734779357910e-01,8.201583623886108398e-01,8.201237916946411133e-01,8.200892210006713867e-01,8.200546503067016602e-01,8.200201392173767090e-01,8.199855685234069824e-01,8.199509978294372559e-01,8.199164867401123047e-01,8.198819160461425781e-01,8.198474049568176270e-01,8.198128938674926758e-01,8.197783231735229492e-01,8.197438120841979980e-01,8.197093009948730469e-01,8.196746706962585449e-01,8.196401596069335938e-01,8.196056485176086426e-01,8.195711374282836914e-01,8.195366263389587402e-01,8.195021152496337891e-01,8.194676041603088379e-01,8.194330930709838867e-01,8.193986415863037109e-01,8.193641304969787598e-01,8.193296194076538086e-01,8.192951679229736328e-01,8.192606568336486816e-01,8.192261457443237305e-01,8.191916942596435547e-01,8.191572427749633789e-01,8.191227316856384277e-01,8.190882802009582520e-01,8.190538287162780762e-01,8.190193176269531250e-01,8.189848661422729492e-01,8.189504146575927734e-01,8.189159631729125977e-01,8.188815116882324219e-01,8.188470602035522461e-01,8.188124895095825195e-01,8.187780976295471191e-01,8.187436461448669434e-01,8.187091946601867676e-01,8.186747431755065918e-01,8.186402916908264160e-01,8.186058998107910156e-01,8.185714483261108398e-01,8.185369968414306641e-01
7.829723954200744629e-01,7.829409241676330566e-01,7.829093337059020996e-01,7.828778624534606934e-01,7.828463315963745117e-01,7.828148603439331055e-01,7.827833890914916992e-01,7.827519178390502930e-01,7.827204465866088867e-01,7.826889753341674805e-01,7.826574444770812988e-01,7.826259732246398926e-01,7.825945019721984863e-01,7.825630903244018555e-01,7.825316190719604492e-01,7.825001478195190430e-01,7.824686765670776367e-01,7.824372053146362305e-01,7.824057936668395996e-01,7.823743224143981934e-01,7.823428511619567871e-01,7.823114395141601562e-01,7.822799682617187500e-01,7.822485566139221191e-01,7.822170853614807129e-01,7.821856737136840820e-01,7.821542024612426758e-01,7.821227312088012695e-01,7.820913195610046387e-01,7.820598483085632324e-01,7.820284366607666016e-01,7.819970250129699707e-01,7.819656133651733398e-01,7.819342017173767090e-01,7.819027900695800781e-01,7.818713784217834473e-01,7.818399667739868164e-01,7.818085551261901855e-01,7.817771434783935547e-01,7.817457318305969238e-01,7.817143797874450684e-01,7.816829681396484375e-01,7.816515564918518066e-01,7.816201448440551758e-01,7.815887928009033203e-01,7.815573811531066895e-01,7.815260291099548340e-01,7.814946174621582031e-01,7.814632654190063477e-01,7.814318537712097168e-01,7.814005017280578613e-01,7.813691496849060059e-01,7.813376784324645996e-01,7.813063263893127441e-01,7.812749743461608887e-01,7.812436223030090332e-01,7.812122702598571777e-01,7.811809182167053223e-01,7.811495661735534668e-01,7.811182141304016113e-01,7.810868620872497559e-01,7.810555100440979004e-01,7.810241580009460449e-01,7.809928059577941895e-01,7.809614539146423340e-01,7.809301614761352539e-01,7.808988094329833984e-01,7.808674573898315430e-01,7.808361649513244629e-01,7.808048129081726074e-01,7.807735204696655273e-01,7.807421684265136719e-01,7.807108759880065918e-01,7.806795239448547363e-01,7.806482315063476562e-01,7.806169390678405762e-01,7.805855274200439453e-01,7.805542349815368652e-01,7.805229425430297852e-01,7.804916501045227051e-01
7.480908632278442383e-01,7.480620741844177246e-01,7.480333447456359863e-01,7.480045557022094727e-01,7.479758262634277344e-01,7.479470968246459961e-01,7.479183673858642578e-01,7.478895187377929688e-01,7.478607892990112305e-01,7.478320598602294922e-01,7.478033304214477539e-01,7.477746009826660156e-01,7.477458715438842773e-01,7.477171421051025391e-01,7.476884126663208008e-01,7.476596832275390625e-01,7.476310133934020996e-01,7.476022839546203613e-01,7.475735545158386230e-01,7.475448250770568848e-01,7.475161552429199219e-01,7.474874258041381836e-01,7.474586963653564453e-01,7.474300265312194824e-01,7.474012970924377441e-01,7.473726272583007812e-01,7.473438978195190430e-01,7.473152279853820801e-01,7.472864985466003418e-01,7.472578287124633789e-01,7.472291588783264160e-01,7.472004294395446777e-01,7.471717000007629395e-01,7.471430301666259766e-01,7.471143603324890137e-01,7.470856904983520508e-01,7.470570206642150879e-01,7.470282912254333496e-01,7.469996213912963867e-01,7.469709515571594238e-01,7.469422817230224609e-01,7.469136714935302734e-01,7.468850016593933105e-01,7.468563318252563477e-01,7.468276619911193848e-01,7.467989921569824219e-01,7.467703819274902344e-01,7.467417120933532715e-01,7.467130422592163086e-01,7.466844320297241211e-01,7.466557621955871582e-01,7.466270923614501953e-01,7.465984821319580078e-01,7.465698122978210449e-01,7.465412020683288574e-01,7.465125918388366699e-01,7.464839220046997070e-01,7.464552521705627441e-01,7.464265823364257812e-01,7.463979721069335938e-01,7.463693618774414062e-01,7.463407516479492188e-01,7.463121414184570312e-01,7.462835311889648438e-01,7.462549209594726562e-01,7.462263107299804688e-01,7.461977005004882812e-01,7.461690902709960938e-01,7.461404800415039062e-01,7.461118698120117188e-01,7.460832595825195312e-01,7.460546493530273438e-01,7.460260391235351562e-01,7.459974884986877441e-01,7.459688782691955566e-01,7.459402680397033691e-01,7.459117174148559570e-01,7.458831071853637695e-01,7.458544969558715820e-01,7.458259463310241699e-01
7.161846756935119629e-01,7.161583304405212402e-01,7.161319851875305176e-01,7.161056399345397949e-01,7.160792946815490723e-01,7.160529494285583496e-01,7.160266041755676270e-01,7.160002589225769043e-01,7.159739136695861816e-01,7.159475684165954590e-01,7.159212231636047363e-01,7.158948779106140137e-01,7.158685922622680664e-01,7.158421874046325684e-01,7.158158421516418457e-01,7.157895565032958984e-01,7.157632112503051758e-01,7.157368659973144531e-01,7.157105803489685059e-01,7.156842350959777832e-01,7.156579494476318359e-01,7.156316041946411133e-01,7.156053185462951660e-01,7.155789732933044434e-01,7.155526876449584961e-01,7.155264019966125488e-01,7.155000567436218262e-01,7.154737710952758789e-01,7.154474854469299316e-01,7.154211997985839844e-01,7.153948545455932617e-01,7.153685688972473145e-01,7.153422832489013672e-01,7.153159976005554199e-01,7.152897119522094727e-01,7.152634263038635254e-01,7.152371406555175781e-01,7.152108550071716309e-01,7.151845097541809082e-01,7.151582241058349609e-01,7.151319384574890137e-01,7.151057124137878418e-01,7.150794267654418945e-01,7.150531411170959473e-01,7.150268554687500000e-01,7.150006294250488281e-01,7.149743437767028809e-01,7.149480581283569336e-01,7.149218320846557617e-01,7.148955464363098145e-01,7.148693203926086426e-01,7.148430347442626953e-01,7.148168087005615234e-01,7.147905230522155762e-01,7.147642970085144043e-01,7.147380709648132324e-01,7.147117853164672852e-01,7.146855592727661133e-01,7.146593332290649414e-01,7.146331071853637695e-01,7.146068215370178223e-01,7.145805954933166504e-01,7.145543098449707031e-01,7.145280838012695312e-01,7.145018577575683594e-01,7.144756317138671875e-01,7.144494056701660156e-01,7.144231796264648438e-01,7.143969535827636719e-01,7.143707275390625000e-01,7.143445014953613281e-01,7.143182754516601562e-01,7.142920494079589844e-01,7.142658829689025879e-01,7.142396569252014160e-01,7.142134308815002441e-01,7.141872048377990723e-01,7.141610383987426758e-01,7.141348123550415039e-01,7.141085863113403320e-01
6.868888139724731445e-01,6.868645548820495605e-01,6.868402957916259766e-01,6.868160963058471680e-01,6.867918372154235840e-01,6.867676377296447754e-01,6.867433786392211914e-01,6.867191195487976074e-01,6.866949200630187988e-01,6.866707205772399902e-01,6.866464614868164062e-01,6.866222620010375977e-01,6.865980029106140137e-01,6.865738034248352051e-01,6.865496039390563965e-01,6.865253448486328125e-01,6.865011453628540039e-01,6.864769458770751953e-01,6.864526867866516113e-01,6.864284873008728027e-01,6.864042282104492188e-01,6.863800287246704102e-01,6.863558292388916016e-01,6.863316297531127930e-01,6.863074302673339844e-01,6.862832307815551758e-01,6.862590312957763672e-01,6.862348318099975586e-01,6.862106323242187500e-01,6.861864328384399414e-01,6.861622333526611328e-01,6.861380934715270996e-01,6.861138939857482910e-01,6.860896944999694824e-01,6.860654950141906738e-01,6.860413551330566406e-01,6.860171556472778320e-01,6.859929561614990234e-01,6.859688162803649902e-01,6.859446167945861816e-01,6.859204173088073730e-01,6.858962774276733398e-01,6.858720779418945312e-01,6.858478784561157227e-01,6.858236789703369141e-01,6.857995390892028809e-01,6.857753992080688477e-01,6.857511997222900391e-01,6.857270598411560059e-01,6.857029199600219727e-01,6.856787204742431641e-01,6.856545805931091309e-01,6.856304407119750977e-01,6.856063008308410645e-01,6.855821013450622559e-01,6.855579614639282227e-01,6.855338215827941895e-01,6.855096817016601562e-01,6.854855418205261230e-01,6.854614019393920898e-01,6.854372620582580566e-01,6.854131221771240234e-01,6.853889822959899902e-01,6.853648424148559570e-01,6.853407025337219238e-01,6.853165626525878906e-01,6.852924823760986328e-01,6.852683424949645996e-01,6.852441430091857910e-01,6.852200031280517578e-01,6.851959228515625000e-01,6.851717829704284668e-01,6.851476430892944336e-01,6.851235628128051758e-01,6.850994229316711426e-01,6.850752830505371094e-01,6.850512027740478516e-01,6.850270628929138184e-01,6.850029826164245605e-01,6.849788427352905273e-01
6.598954796791076660e-01,6.598730683326721191e-01,6.598507165908813477e-01,6.598283648490905762e-01,6.598059535026550293e-01,6.597836017608642578e-01,6.597612500190734863e-01,6.597388982772827148e-01,6.597164869308471680e-01,6.596941351890563965e-01,6.596717834472656250e-01,6.596494317054748535e-01,6.596270799636840820e-01,6.596047282218933105e-01,6.595823764801025391e-01,6.595600247383117676e-01,6.595376729965209961e-01,6.595153212547302246e-01,6.594929695129394531e-01,6.594706177711486816e-01,6.594482660293579102e-01,6.594259738922119141e-01,6.594036221504211426e-01,6.593812704086303711e-01,6.593588590621948242e-01,6.593365669250488281e-01,6.593142151832580566e-01,6.592918634414672852e-01,6.592695116996765137e-01,6.592472195625305176e-01,6.592248678207397461e-01,6.592025756835937500e-01,6.591802239418029785e-01,6.591579318046569824e-01,6.591355800628662109e-01,6.591132879257202148e-01,6.590909361839294434e-01,6.590686440467834473e-01,6.590462923049926758e-01,6.590240001678466797e-01,6.590016484260559082e-01,6.589793562889099121e-01,6.589570641517639160e-01,6.589347720146179199e-01,6.589124202728271484e-01,6.588901281356811523e-01,6.588678359985351562e-01,6.588455438613891602e-01,6.588231921195983887e-01,6.588008403778076172e-01,6.587785482406616211e-01,6.587562561035156250e-01,6.587339639663696289e-01,6.587116718292236328e-01,6.586893796920776367e-01,6.586670875549316406e-01,6.586447954177856445e-01,6.586225032806396484e-01,6.586002111434936523e-01,6.585779190063476562e-01,6.585556864738464355e-01,6.585333943367004395e-01,6.585111021995544434e-01,6.584888100624084473e-01,6.584665179252624512e-01,6.584442853927612305e-01,6.584219932556152344e-01,6.583997011184692383e-01,6.583774685859680176e-01,6.583551764488220215e-01,6.583328843116760254e-01,6.583106517791748047e-01,6.582883596420288086e-01,6.582660675048828125e-01,6.582437753677368164e-01,6.582215428352355957e-01,6.581992506980895996e-01,6.581770181655883789e-01,6.581547260284423828e-01,6.581324934959411621e-01
