5.000000000000000000e+00,5.000000000000000000e+00,5.000000000000000000e+00,5.000000000000000000e+00,5.000000000000000000e+00,5.000000000000000000e+00,5.000000000000000000e+00,5.000000000000000000e+00,5.000000000000000000e+00,5.000000000000000000e+00,5.000000000000000000e+00,5.000000000000000000e+00,5.000000000000000000e+00,5.000000000000000000e+00,5.000000000000000000e+00,5.000000000000000000e+00,5.000000000000000000e+00,5.000000000000000000e+00,5.000000000000000000e+00,5.000000000000000000e+00,5.000000000000000000e+00,5.000000000000000000e+00,5.000000000000000000e+00,5.000000000000000000e+00,5.000000000000000000e+00,5.000000000000000000e+00,5.000000000000000000e+00,5.000000000000000000e+00,5.000000000000000000e+00,5.000000000000000000e+00,5.000000000000000000e+00,5.000000000000000000e+00,5.000000000000000000e+00,5.000000000000000000e+00,5.000000000000000000e+00,5.000000000000000000e+00,5.000000000000000000e+00,5.000000000000000000e+00,5.000000000000000000e+00,4.854930400848388672e+00,4.664569854736328125e+00,4.488574504852294922e+00,4.325376510620117188e+00,4.173629760742187500e+00,4.032169342041015625e+00,3.899983882904052734e+00,3.776190042495727539e+00,3.660013914108276367e+00,3.550772190093994141e+00,3.447862863540649414e+00,3.350750446319580078e+00,3.258959054946899414e+00,3.172062397003173828e+00,3.089679479598999023e+00,3.011467456817626953e+00,2.937117576599121094e+00,2.866350173950195312e+00,2.798912763595581055e+00,2.734575510025024414e+00,2.673130035400390625e+00,2.614384889602661133e+00,2.558166265487670898e+00,2.504314422607421875e+00,2.452683210372924805e+00,2.403137922286987305e+00,2.355554819107055664e+00,2.309819221496582031e+00,2.265825986862182617e+00,2.223477125167846680e+00,2.182682275772094727e+00,2.143357515335083008e+00,2.105424642562866211e+00,2.068810939788818359e+00,2.033448934555053711e+00,1.999275684356689453e+00,1.966231942176818848e+00,1.934262633323669434e+00,1.161120653152465820e+00,1.141453146934509277e+00,1.036742091178894043e+00
5.000000000000000000e+00,5.000000000000000000e+00,5.000000000000000000e+00,5.000000000000000000e+00,5.000000000000000000e+00,5.000000000000000000e+00,5.000000000000000000e+00,5.000000000000000000e+00,5.000000000000000000e+00,5.000000000000000000e+00,5.000000000000000000e+00,5.000000000000000000e+00,5.000000000000000000e+00,5.000000000000000000e+00,5.000000000000000000e+00,5.000000000000000000e+00,5.000000000000000000e+00,5.000000000000000000e+00,5.000000000000000000e+00,5.000000000000000000e+00,5.000000000000000000e+00,5.000000000000000000e+00,5.000000000000000000e+00,5.000000000000000000e+00,5.000000000000000000e+00,5.000000000000000000e+00,5.000000000000000000e+00,5.000000000000000000e+00,5.000000000000000000e+00,5.000000000000000000e+00,5.000000000000000000e+00,5.000000000000000000e+00,5.000000000000000000e+00,5.000000000000000000e+00,5.000000000000000000e+00,5.000000000000000000e+00,5.000000000000000000e+00,5.000000000000000000e+00,5.000000000000000000e+00,4.855069637298583984e+00,4.664698600769042969e+00,4.488693237304687500e+00,4.325487136840820312e+00,4.173732280731201172e+00,4.032265186309814453e+00,3.900073766708374023e+00,3.776274681091308594e+00,3.660092830657958984e+00,3.550846815109252930e+00,3.447932958602905273e+00,3.350816965103149414e+00,3.259021759033203125e+00,3.172121763229370117e+00,3.089735746383666992e+00,3.011521100997924805e+00,2.937168359756469727e+00,2.866398572921752930e+00,2.798959016799926758e+00,2.734619855880737305e+00,2.673172235488891602e+00,2.614425182342529297e+00,2.558204889297485352e+00,2.504351615905761719e+00,2.452718734741210938e+00,2.403172016143798828e+00,2.355587482452392578e+00,2.309850931167602539e+00,2.265856266021728516e+00,2.223506450653076172e+00,2.182710409164428711e+00,2.143384695053100586e+00,2.105450868606567383e+00,2.068836212158203125e+00,2.033473491668701172e+00,1.999299287796020508e+00,1.966254830360412598e+00,1.934284806251525879e+00,1.162454605102539062e+00,1.142398953437805176e+00,1.123355388641357422e+00
5.000000000000000000e+00,5.000000000000000000e+00,5.000000000000000000e+00,5.000000000000000000e+00,5.000000000000000000e+00,5.000000000000000000e+00,5.000000000000000000e+00,5.000000000000000000e+00,5.000000000000000000e+00,5.000000000000000000e+00,5.000000000000000000e+00,5.000000000000000000e+00,5.000000000000000000e+00,5.000000000000000000e+00,5.000000000000000000e+00,5.000000000000000000e+00,5.000000000000000000e+00,5.000000000000000000e+00,5.000000000000000000e+00,5.000000000000000000e+00,5.000000000000000000e+00,5.000000000000000000e+00,5.000000000000000000e+00,5.000000000000000000e+00,5.000000000000000000e+00,5.000000000000000000e+00,5.000000000000000000e+00,5.000000000000000000e+00,5.000000000000000000e+00,5.000000000000000000e+00,5.000000000000000000e+00,5.000000000000000000e+00,5.000000000000000000e+00,5.000000000000000000e+00,5.000000000000000000e+00,5.000000000000000000e+00,5.000000000000000000e+00,5.000000000000000000e+00,5.000000000000000000e+00,4.855208873748779297e+00,4.664827346801757812e+00,4.488812446594238281e+00,4.325597763061523438e+00,4.173835277557373047e+00,4.032361507415771484e+00,3.900163888931274414e+00,3.776358842849731445e+00,3.660171985626220703e+00,3.550921440124511719e+00,3.448003530502319336e+00,3.350883245468139648e+00,3.259084463119506836e+00,3.172181606292724609e+00,3.089792490005493164e+00,3.011574745178222656e+00,2.937219381332397461e+00,2.866447448730468750e+00,2.799005508422851562e+00,2.734663963317871094e+00,2.673214435577392578e+00,2.614465713500976562e+00,2.558243513107299805e+00,2.504388570785522461e+00,2.452754259109497070e+00,2.403206348419189453e+00,2.355620384216308594e+00,2.309882402420043945e+00,2.265886545181274414e+00,2.223535776138305664e+00,2.182738780975341797e+00,2.143411874771118164e+00,2.105477094650268555e+00,2.068861484527587891e+00,2.033498048782348633e+00,1.999322891235351562e+00,1.966277599334716797e+00,1.934307098388671875e+00,1.166855216026306152e+00,1.143346428871154785e+00,1.124271512031555176e+00
5.000000000000000000e+00,5.000000000000000000e+00,5.000000000000000000e+00,5.000000000000000000e+00,5.000000000000000000e+00,5.000000000000000000e+00,5.000000000000000000e+00,5.000000000000000000e+00,5.000000000000000000e+00,5.000000000000000000e+00,5.000000000000000000e+00,5.000000000000000000e+00,5.000000000000000000e+00,5.000000000000000000e+00,5.000000000000000000e+00,5.000000000000000000e+00,5.000000000000000000e+00,5.000000000000000000e+00,5.000000000000000000e+00,5.000000000000000000e+00,5.000000000000000000e+00,5.000000000000000000e+00,5.000000000000000000e+00,5.000000000000000000e+00,5.000000000000000000e+00,5.000000000000000000e+00,5.000000000000000000e+00,5.000000000000000000e+00,5.000000000000000000e+00,5.000000000000000000e+00,5.000000000000000000e+00,5.000000000000000000e+00,5.000000000000000000e+00,5.000000000000000000e+00,5.000000000000000000e+00,5.000000000000000000e+00,5.000000000000000000e+00,5.000000000000000000e+00,5.000000000000000000e+00,4.855348587036132812e+00,4.664955615997314453e+00,4.488931655883789062e+00,4.325708389282226562e+00,4.173938751220703125e+00,4.032457351684570312e+00,3.900253772735595703e+00,3.776443004608154297e+00,3.660251379013061523e+00,3.550995826721191406e+00,3.448073625564575195e+00,3.350949525833129883e+00,3.259147405624389648e+00,3.172240972518920898e+00,3.089848756790161133e+00,3.011628150939941406e+00,2.937270641326904297e+00,2.866495847702026367e+00,2.799051761627197266e+00,2.734708070755004883e+00,2.673256635665893555e+00,2.614506006240844727e+00,2.558282136917114258e+00,2.504425525665283203e+00,2.452790021896362305e+00,2.403240442276000977e+00,2.355653285980224609e+00,2.309913873672485352e+00,2.265917062759399414e+00,2.223564863204956055e+00,2.182766914367675781e+00,2.143438816070556641e+00,2.105503320693969727e+00,2.068886756896972656e+00,2.033522367477416992e+00,1.999346375465393066e+00,1.966300606727600098e+00,1.934329152107238770e+00,1.171289443969726562e+00,1.146564126014709473e+00,1.125189065933227539e+00
5.000000000000000000e+00,5.000000000000000000e+00,5.000000000000000000e+00,5.000000000000000000e+00,5.000000000000000000e+00,5.000000000000000000e+00,5.000000000000000000e+00,5.000000000000000000e+00,5.000000000000000000e+00,5.000000000000000000e+00,5.000000000000000000e+00,5.000000000000000000e+00,5.000000000000000000e+00,5.000000000000000000e+00,5.000000000000000000e+00,5.000000000000000000e+00,5.000000000000000000e+00,5.000000000000000000e+00,5.000000000000000000e+00,5.000000000000000000e+00,5.000000000000000000e+00,5.000000000000000000e+00,5.000000000000000000e+00,5.000000000000000000e+00,5.000000000000000000e+00,5.000000000000000000e+00,5.000000000000000000e+00,5.000000000000000000e+00,5.000000000000000000e+00,5.000000000000000000e+00,5.000000000000000000e+00,5.000000000000000000e+00,5.000000000000000000e+00,5.000000000000000000e+00,5.000000000000000000e+00,5.000000000000000000e+00,5.000000000000000000e+00,5.000000000000000000e+00,5.000000000000000000e+00,4.855487823486328125e+00,4.665084362030029297e+00,4.489050865173339844e+00,4.325819015502929688e+00,4.174041748046875000e+00,4.032553672790527344e+00,3.900343894958496094e+00,3.776527404785156250e+00,3.660330533981323242e+00,3.551070213317871094e+00,3.448144197463989258e+00,3.351016044616699219e+00,3.259210109710693359e+00,3.172300338745117188e+00,3.089905261993408203e+00,3.011682033538818359e+00,2.937321424484252930e+00,2.866544246673583984e+00,2.799098253250122070e+00,2.734752416610717773e+00,2.673298835754394531e+00,2.614546537399291992e+00,2.558320999145507812e+00,2.504462718963623047e+00,2.452825546264648438e+00,2.403274536132812500e+00,2.355686187744140625e+00,2.309945583343505859e+00,2.265947341918945312e+00,2.223593950271606445e+00,2.182795047760009766e+00,2.143466234207153320e+00,2.105529546737670898e+00,2.068912029266357422e+00,2.033546924591064453e+00,1.999370217323303223e+00,1.966323494911193848e+00,1.934351205825805664e+00,1.175757408142089844e+00,1.150845170021057129e+00,1.126966714859008789e+00
5.000000000000000000e+00,5.000000000000000000e+00,5.000000000000000000e+00,5.000000000000000000e+00,5.000000000000000000e+00,5.000000000000000000e+00,5.000000000000000000e+00,5.000000000000000000e+00,5.000000000000000000e+00,5.000000000000000000e+00,5.000000000000000000e+00,5.000000000000000000e+00,5.000000000000000000e+00,5.000000000000000000e+00,5.000000000000000000e+00,5.000000000000000000e+00,5.000000000000000000e+00,5.000000000000000000e+00,5.000000000000000000e+00,5.000000000000000000e+00,5.000000000000000000e+00,5.000000000000000000e+00,5.000000000000000000e+00,5.000000000000000000e+00,5.000000000000000000e+00,5.000000000000000000e+00,5.000000000000000000e+00,5.000000000000000000e+00,5.000000000000000000e+00,5.000000000000000000e+00,5.000000000000000000e+00,5.000000000000000000e+00,5.000000000000000000e+00,5.000000000000000000e+00,5.000000000000000000e+00,5.000000000000000000e+00,5.000000000000000000e+00,5.000000000000000000e+00,5.000000000000000000e+00,4.855627059936523438e+00,4.665213108062744141e+00,4.489170074462890625e+00,4.325929641723632812e+00,4.174144268035888672e+00,4.032649993896484375e+00,3.900433778762817383e+00,3.776611566543579102e+00,3.660409450531005859e+00,3.551145076751708984e+00,3.448214292526245117e+00,3.351082324981689453e+00,3.259272813796997070e+00,3.172359943389892578e+00,3.089961767196655273e+00,3.011735439300537109e+00,2.937372446060180664e+00,2.866593122482299805e+00,2.799144268035888672e+00,2.734796762466430664e+00,2.673341035842895508e+00,2.614587068557739258e+00,2.558359622955322266e+00,2.504499912261962891e+00,2.452861070632934570e+00,2.403308629989624023e+00,2.355718851089477539e+00,2.309977054595947266e+00,2.265977621078491211e+00,2.223623275756835938e+00,2.182823181152343750e+00,2.143493175506591797e+00,2.105555534362792969e+00,2.068937540054321289e+00,2.033571243286132812e+00,1.999393820762634277e+00,1.966346263885498047e+00,1.934373259544372559e+00,1.180259585380554199e+00,1.155158281326293945e+00,1.130907535552978516e+00
5.000000000000000000e+00,5.000000000000000000e+00,5.000000000000000000e+00,5.000000000000000000e+00,5.000000000000000000e+00,5.000000000000000000e+00,5.000000000000000000e+00,5.000000000000000000e+00,5.000000000000000000e+00,5.000000000000000000e+00,5.000000000000000000e+00,5.000000000000000000e+00,5.000000000000000000e+00,5.000000000000000000e+00,5.000000000000000000e+00,5.000000000000000000e+00,5.000000000000000000e+00,5.000000000000000000e+00,5.000000000000000000e+00,5.000000000000000000e+00,5.000000000000000000e+00,5.000000000000000000e+00,5.000000000000000000e+00,5.000000000000000000e+00,5.000000000000000000e+00,5.000000000000000000e+00,5.000000000000000000e+00,5.000000000000000000e+00,5.000000000000000000e+00,5.000000000000000000e+00,5.000000000000000000e+00,5.000000000000000000e+00,5.000000000000000000e+00,5.000000000000000000e+00,5.000000000000000000e+00,5.000000000000000000e+00,5.000000000000000000e+00,5.000000000000000000e+00,5.000000000000000000e+00,4.855766773223876953e+00,4.665341854095458984e+00,4.489289283752441406e+00,4.326040267944335938e+00,4.174247741699218750e+00,4.032745838165283203e+00,3.900523424148559570e+00,3.776696205139160156e+00,3.660488843917846680e+00,3.551219463348388672e+00,3.448284387588500977e+00,3.351149082183837891e+00,3.259335756301879883e+00,3.172419309616088867e+00,3.090018033981323242e+00,3.011789321899414062e+00,2.937423467636108398e+00,2.866641521453857422e+00,2.799190521240234375e+00,2.734841108322143555e+00,2.673383474349975586e+00,2.614627361297607422e+00,2.558398246765136719e+00,2.504537105560302734e+00,2.452896595001220703e+00,2.403342723846435547e+00,2.355751514434814453e+00,2.310008525848388672e+00,2.266008138656616211e+00,2.223652601242065430e+00,2.182851314544677734e+00,2.143520593643188477e+00,2.105581998825073242e+00,2.068962812423706055e+00,2.033595800399780273e+00,1.999417424201965332e+00,1.966369032859802246e+00,1.934395313262939453e+00,1.903444886207580566e+00,1.156850337982177734e+00,1.131253838539123535e+00
5.000000000000000000e+00,5.000000000000000000e+00,5.000000000000000000e+00,5.000000000000000000e+00,5.000000000000000000e+00,5.000000000000000000e+00,5.000000000000000000e+00,5.000000000000000000e+00,5.000000000000000000e+00,5.000000000000000000e+00,5.000000000000000000e+00,5.000000000000000000e+00,5.000000000000000000e+00,5.000000000000000000e+00,5.000000000000000000e+00,5.000000000000000000e+00,5.000000000000000000e+00,5.000000000000000000e+00,5.000000000000000000e+00,5.000000000000000000e+00,5.000000000000000000e+00,5.000000000000000000e+00,5.000000000000000000e+00,5.000000000000000000e+00,5.000000000000000000e+00,5.000000000000000000e+00,5.000000000000000000e+00,5.000000000000000000e+00,5.000000000000000000e+00,5.000000000000000000e+00,5.000000000000000000e+00,5.000000000000000000e+00,5.000000000000000000e+00,5.000000000000000000e+00,5.000000000000000000e+00,5.000000000000000000e+00,5.000000000000000000e+00,5.000000000000000000e+00,5.000000000000000000e+00,4.855906009674072266e+00,4.665470600128173828e+00,4.489408493041992188e+00,4.326150894165039062e+00,4.174350738525390625e+00,4.032842159271240234e+00,3.900613784790039062e+00,3.776780366897583008e+00,3.660567998886108398e+00,3.551293849945068359e+00,3.448354959487915039e+00,3.351215362548828125e+00,3.259398460388183594e+00,3.172478675842285156e+00,3.090074777603149414e+00,3.011842727661132812e+00,2.937474489212036133e+00,2.866690158843994141e+00,2.799237012863159180e+00,2.734885215759277344e+00,2.673425674438476562e+00,2.614667654037475586e+00,2.558437108993530273e+00,2.504574060440063477e+00,2.452932119369506836e+00,2.403376817703247070e+00,2.355784416198730469e+00,2.310039997100830078e+00,2.266038417816162109e+00,2.223681688308715820e+00,2.182879686355590820e+00,2.143547534942626953e+00,2.105607986450195312e+00,2.068987846374511719e+00,2.033620119094848633e+00,1.999441027641296387e+00,1.966391921043395996e+00,1.196649312973022461e+00,1.173219680786132812e+00,1.150574088096618652e+00,1.127372503280639648e+00
5.000000000000000000e+00,5.000000000000000000e+00,5.000000000000000000e+00,5.000000000000000000e+00,5.000000000000000000e+00,5.000000000000000000e+00,5.000000000000000000e+00,5.000000000000000000e+00,5.000000000000000000e+00,5.000000000000000000e+00,5.000000000000000000e+00,5.000000000000000000e+00,5.000000000000000000e+00,5.000000000000000000e+00,5.000000000000000000e+00,5.000000000000000000e+00,5.000000000000000000e+00,5.000000000000000000e+00,5.000000000000000000e+00,5.000000000000000000e+00,5.000000000000000000e+00,5.000000000000000000e+00,5.000000000000000000e+00,5.000000000000000000e+00,5.000000000000000000e+00,5.000000000000000000e+00,5.000000000000000000e+00,5.000000000000000000e+00,5.000000000000000000e+00,5.000000000000000000e+00,5.000000000000000000e+00,5.000000000000000000e+00,5.000000000000000000e+00,5.000000000000000000e+00,5.000000000000000000e+00,5.000000000000000000e+00,5.000000000000000000e+00,5.000000000000000000e+00,5.000000000000000000e+00,4.856045722961425781e+00,4.665599346160888672e+00,4.489527702331542969e+00,4.326261520385742188e+00,4.174453735351562500e+00,4.032938003540039062e+00,3.900703430175781250e+00,3.776864528656005859e+00,3.660647392272949219e+00,3.551368713378906250e+00,3.448425054550170898e+00,3.351281642913818359e+00,3.259461641311645508e+00,3.172538518905639648e+00,3.090131044387817383e+00,3.011896371841430664e+00,2.937525510787963867e+00,2.866738796234130859e+00,2.799283266067504883e+00,2.734929323196411133e+00,2.673468112945556641e+00,2.614708185195922852e+00,2.558475732803344727e+00,2.504611015319824219e+00,2.452967882156372070e+00,2.403411149978637695e+00,2.355817317962646484e+00,2.310071468353271484e+00,2.266068935394287109e+00,2.223711013793945312e+00,2.182907819747924805e+00,2.143574714660644531e+00,2.105634450912475586e+00,2.069013357162475586e+00,2.033644676208496094e+00,1.231450796127319336e+00,1.209304928779602051e+00,1.185382127761840820e+00,1.162387371063232422e+00,1.147704243659973145e+00,1.135091185569763184e+00
5.000000000000000000e+00,5.000000000000000000e+00,5.000000000000000000e+00,5.000000000000000000e+00,5.000000000000000000e+00,5.000000000000000000e+00,5.000000000000000000e+00,5.000000000000000000e+00,5.000000000000000000e+00,5.000000000000000000e+00,5.000000000000000000e+00,5.000000000000000000e+00,5.000000000000000000e+00,5.000000000000000000e+00,5.000000000000000000e+00,5.000000000000000000e+00,5.000000000000000000e+00,5.000000000000000000e+00,5.000000000000000000e+00,5.000000000000000000e+00,5.000000000000000000e+00,5.000000000000000000e+00,5.000000000000000000e+00,5.000000000000000000e+00,5.000000000000000000e+00,5.000000000000000000e+00,5.000000000000000000e+00,5.000000000000000000e+00,5.000000000000000000e+00,5.000000000000000000e+00,5.000000000000000000e+00,5.000000000000000000e+00,5.000000000000000000e+00,5.000000000000000000e+00,5.000000000000000000e+00,5.000000000000000000e+00,5.000000000000000000e+00,5.000000000000000000e+00,5.000000000000000000e+00,4.856184482574462891e+00,4.665728092193603516e+00,4.489646434783935547e+00,4.326372146606445312e+00,4.174556732177734375e+00,4.033034324645996094e+00,3.900793313980102539e+00,3.776949167251586914e+00,3.660726547241210938e+00,3.551443099975585938e+00,3.448495388031005859e+00,3.351348161697387695e+00,3.259524345397949219e+00,3.172597885131835938e+00,3.090187311172485352e+00,3.011950254440307617e+00,2.937576532363891602e+00,2.866787195205688477e+00,2.799329519271850586e+00,2.734973669052124023e+00,2.673510313034057617e+00,2.614748477935791016e+00,2.558514356613159180e+00,2.504648208618164062e+00,2.453003406524658203e+00,2.403445243835449219e+00,2.355849981307983398e+00,2.310103178024291992e+00,2.266099214553833008e+00,2.223740339279174805e+00,2.182935953140258789e+00,2.143602132797241211e+00,2.105660438537597656e+00,1.270227432250976562e+00,1.244617342948913574e+00,1.222231268882751465e+00,1.198185563087463379e+00,1.184445142745971680e+00,1.171016454696655273e+00,1.157888770103454590e+00,1.145052075386047363e+00
5.000000000000000000e+00,5.000000000000000000e+00,5.000000000000000000e+00,5.000000000000000000e+00,5.000000000000000000e+00,5.000000000000000000e+00,5.000000000000000000e+00,5.000000000000000000e+00,5.000000000000000000e+00,5.000000000000000000e+00,5.000000000000000000e+00,5.000000000000000000e+00,5.000000000000000000e+00,5.000000000000000000e+00,5.000000000000000000e+00,5.000000000000000000e+00,5.000000000000000000e+00,5.000000000000000000e+00,5.000000000000000000e+00,5.000000000000000000e+00,5.000000000000000000e+00,5.000000000000000000e+00,5.000000000000000000e+00,5.000000000000000000e+00,5.000000000000000000e+00,5.000000000000000000e+00,5.000000000000000000e+00,5.000000000000000000e+00,5.000000000000000000e+00,5.000000000000000000e+00,5.000000000000000000e+00,5.000000000000000000e+00,5.000000000000000000e+00,5.000000000000000000e+00,5.000000000000000000e+00,5.000000000000000000e+00,5.000000000000000000e+00,5.000000000000000000e+00,5.000000000000000000e+00,4.856324195861816406e+00,4.665856838226318359e+00,4.489765644073486328e+00,4.326482772827148438e+00,4.174659729003906250e+00,4.033130645751953125e+00,3.900883436203002930e+00,3.777033329010009766e+00,3.660805702209472656e+00,3.551517963409423828e+00,3.448565721511840820e+00,3.351414442062377930e+00,3.259587049484252930e+00,3.172657489776611328e+00,3.090244054794311523e+00,3.012003660202026367e+00,2.937627553939819336e+00,2.866836071014404297e+00,2.799376010894775391e+00,2.735017776489257812e+00,2.673552274703979492e+00,2.614789009094238281e+00,2.558553218841552734e+00,2.504685401916503906e+00,2.453038930892944336e+00,2.403479576110839844e+00,2.355882883071899414e+00,2.310134649276733398e+00,2.266129493713378906e+00,2.223769664764404297e+00,2.182964086532592773e+00,2.143629074096679688e+00,1.291494727134704590e+00,1.263493418693542480e+00,1.236749291419982910e+00,1.221991777420043945e+00,1.207229971885681152e+00,1.192820549011230469e+00,1.178751111030578613e+00,1.165009617805480957e+00,1.151591181755065918e+00
5.000000000000000000e+00,5.000000000000000000e+00,5.000000000000000000e+00,5.000000000000000000e+00,5.000000000000000000e+00,5.000000000000000000e+00,5.000000000000000000e+00,5.000000000000000000e+00,5.000000000000000000e+00,5.000000000000000000e+00,5.000000000000000000e+00,5.000000000000000000e+00,5.000000000000000000e+00,5.000000000000000000e+00,5.000000000000000000e+00,5.000000000000000000e+00,5.000000000000000000e+00,5.000000000000000000e+00,5.000000000000000000e+00,5.000000000000000000e+00,5.000000000000000000e+00,5.000000000000000000e+00,5.000000000000000000e+00,5.000000000000000000e+00,5.000000000000000000e+00,5.000000000000000000e+00,5.000000000000000000e+00,5.000000000000000000e+00,5.000000000000000000e+00,5.000000000000000000e+00,5.000000000000000000e+00,5.000000000000000000e+00,5.000000000000000000e+00,5.000000000000000000e+00,5.000000000000000000e+00,5.000000000000000000e+00,5.000000000000000000e+00,5.000000000000000000e+00,5.000000000000000000e+00,4.856463909149169922e+00,4.665985107421875000e+00,4.489884853363037109e+00,4.326593399047851562e+00,4.174762725830078125e+00,4.033226490020751953e+00,3.900973320007324219e+00,3.777117490768432617e+00,3.660885095596313477e+00,3.551592350006103516e+00,3.448636054992675781e+00,3.351480722427368164e+00,3.259649991989135742e+00,3.172716856002807617e+00,3.090300321578979492e+00,3.012057304382324219e+00,2.937678575515747070e+00,2.866884469985961914e+00,2.799422264099121094e+00,2.735061883926391602e+00,2.673594713211059570e+00,2.614829540252685547e+00,2.558591842651367188e+00,2.504722356796264648e+00,2.453074455261230469e+00,2.403513669967651367e+00,2.355915784835815430e+00,2.310166120529174805e+00,2.266160011291503906e+00,2.223798751831054688e+00,2.182992219924926758e+00,1.313495635986328125e+00,1.284459710121154785e+00,1.256830334663391113e+00,1.240499019622802734e+00,1.226359248161315918e+00,1.212538361549377441e+00,1.198261260986328125e+00,1.189600110054016113e+00,1.181063175201416016e+00,1.061683416366577148e+00
5.000000000000000000e+00,5.000000000000000000e+00,5.000000000000000000e+00,5.000000000000000000e+00,5.000000000000000000e+00,5.000000000000000000e+00,5.000000000000000000e+00,5.000000000000000000e+00,5.000000000000000000e+00,5.000000000000000000e+00,5.000000000000000000e+00,5.000000000000000000e+00,5.000000000000000000e+00,5.000000000000000000e+00,5.000000000000000000e+00,5.000000000000000000e+00,5.000000000000000000e+00,5.000000000000000000e+00,5.000000000000000000e+00,5.000000000000000000e+00,5.000000000000000000e+00,5.000000000000000000e+00,5.000000000000000000e+00,5.000000000000000000e+00,5.000000000000000000e+00,5.000000000000000000e+00,5.000000000000000000e+00,5.000000000000000000e+00,5.000000000000000000e+00,5.000000000000000000e+00,5.000000000000000000e+00,5.000000000000000000e+00,5.000000000000000000e+00,5.000000000000000000e+00,5.000000000000000000e+00,5.000000000000000000e+00,5.000000000000000000e+00,5.000000000000000000e+00,5.000000000000000000e+00,4.856603145599365234e+00,4.666113853454589844e+00,4.490004062652587891e+00,4.326704025268554688e+00,4.174865722656250000e+00,4.033322811126708984e+00,3.901063442230224609e+00,3.777202129364013672e+00,3.660964250564575195e+00,3.551666736602783203e+00,3.448706626892089844e+00,3.351547241210937500e+00,3.259712696075439453e+00,3.172776222229003906e+00,3.090357065200805664e+00,3.012110948562622070e+00,2.937729597091674805e+00,2.866933107376098633e+00,2.799468755722045898e+00,2.735106229782104492e+00,2.673636913299560547e+00,2.614869832992553711e+00,2.558630704879760742e+00,2.504759550094604492e+00,2.453109979629516602e+00,2.403547763824462891e+00,2.355948686599731445e+00,2.310197830200195312e+00,2.266190290451049805e+00,2.223827838897705078e+00,1.366115450859069824e+00,1.306214213371276855e+00,1.277574300765991211e+00,1.259029984474182129e+00,1.244467258453369141e+00,1.230367183685302734e+00,1.221947789192199707e+00,1.218238115310668945e+00,1.212083220481872559e+00,1.203221797943115234e+00,1.064516305923461914e+00
5.000000000000000000e+00,5.000000000000000000e+00,5.000000000000000000e+00,5.000000000000000000e+00,5.000000000000000000e+00,5.000000000000000000e+00,5.000000000000000000e+00,5.000000000000000000e+00,5.000000000000000000e+00,5.000000000000000000e+00,5.000000000000000000e+00,5.000000000000000000e+00,5.000000000000000000e+00,5.000000000000000000e+00,5.000000000000000000e+00,5.000000000000000000e+00,5.000000000000000000e+00,5.000000000000000000e+00,5.000000000000000000e+00,5.000000000000000000e+00,5.000000000000000000e+00,5.000000000000000000e+00,5.000000000000000000e+00,5.000000000000000000e+00,5.000000000000000000e+00,5.000000000000000000e+00,5.000000000000000000e+00,5.000000000000000000e+00,5.000000000000000000e+00,5.000000000000000000e+00,5.000000000000000000e+00,5.000000000000000000e+00,5.000000000000000000e+00,5.000000000000000000e+00,5.000000000000000000e+00,5.000000000000000000e+00,5.000000000000000000e+00,5.000000000000000000e+00,5.000000000000000000e+00,4.856742382049560547e+00,4.666242599487304688e+00,4.490123271942138672e+00,4.326814651489257812e+00,4.174968719482421875e+00,4.033419132232666016e+00,3.901153326034545898e+00,3.777286291122436523e+00,3.661043405532836914e+00,3.551741600036621094e+00,3.448776721954345703e+00,3.351613521575927734e+00,3.259775400161743164e+00,3.172836065292358398e+00,3.090413331985473633e+00,3.012164592742919922e+00,2.937780380249023438e+00,2.866981744766235352e+00,2.799515008926391602e+00,2.735150337219238281e+00,2.673679113388061523e+00,2.614910364151000977e+00,2.558669328689575195e+00,2.504796504974365234e+00,2.453145503997802734e+00,2.403581857681274414e+00,2.355981349945068359e+00,2.310229301452636719e+00,2.266220569610595703e+00,1.385258197784423828e+00,1.328724026679992676e+00,1.299014568328857422e+00,1.278123140335083008e+00,1.263264179229736328e+00,1.249142765998840332e+00,1.240747928619384766e+00,1.237734913825988770e+00,1.233929038047790527e+00,1.903594970703125000e+00,1.873614549636840820e+00,1.067364215850830078e+00
5.000000000000000000e+00,5.000000000000000000e+00,5.000000000000000000e+00,5.000000000000000000e+00,5.000000000000000000e+00,5.000000000000000000e+00,5.000000000000000000e+00,5.000000000000000000e+00,5.000000000000000000e+00,5.000000000000000000e+00,5.000000000000000000e+00,5.000000000000000000e+00,5.000000000000000000e+00,5.000000000000000000e+00,5.000000000000000000e+00,5.000000000000000000e+00,5.000000000000000000e+00,5.000000000000000000e+00,5.000000000000000000e+00,5.000000000000000000e+00,5.000000000000000000e+00,5.000000000000000000e+00,5.000000000000000000e+00,5.000000000000000000e+00,5.000000000000000000e+00,5.000000000000000000e+00,5.000000000000000000e+00,5.000000000000000000e+00,5.000000000000000000e+00,5.000000000000000000e+00,5.000000000000000000e+00,5.000000000000000000e+00,5.000000000000000000e+00,5.000000000000000000e+00,5.000000000000000000e+00,5.000000000000000000e+00,5.000000000000000000e+00,5.000000000000000000e+00,5.000000000000000000e+00,4.856880664825439453e+00,4.666371822357177734e+00,4.490242481231689453e+00,4.326925754547119141e+00,4.175071716308593750e+00,4.033515453338623047e+00,3.901243209838867188e+00,3.777370929718017578e+00,3.661122798919677734e+00,3.551815986633300781e+00,3.448846817016601562e+00,3.351680278778076172e+00,3.259838342666625977e+00,3.172895431518554688e+00,3.090469598770141602e+00,3.012218475341796875e+00,2.937831640243530273e+00,2.867030382156372070e+00,2.799561262130737305e+00,2.735194921493530273e+00,2.673721551895141602e+00,2.614950656890869141e+00,2.558707952499389648e+00,2.504833698272705078e+00,2.453181266784667969e+00,2.403615951538085938e+00,2.356014013290405273e+00,2.310261011123657227e+00,2.266251087188720703e+00,1.352464556694030762e+00,1.321368336677551270e+00,1.297968626022338867e+00,1.283065438270568848e+00,1.268500447273254395e+00,1.260131239891052246e+00,1.257773160934448242e+00,1.253935456275939941e+00,1.934572458267211914e+00,1.903616309165954590e+00,1.873635292053222656e+00,1.070227503776550293e+00
5.000000000000000000e+00,5.000000000000000000e+00,5.000000000000000000e+00,5.000000000000000000e+00,5.000000000000000000e+00,5.000000000000000000e+00,5.000000000000000000e+00,5.000000000000000000e+00,5.000000000000000000e+00,5.000000000000000000e+00,5.000000000000000000e+00,5.000000000000000000e+00,5.000000000000000000e+00,5.000000000000000000e+00,5.000000000000000000e+00,5.000000000000000000e+00,5.000000000000000000e+00,5.000000000000000000e+00,5.000000000000000000e+00,5.000000000000000000e+00,5.000000000000000000e+00,5.000000000000000000e+00,5.000000000000000000e+00,5.000000000000000000e+00,5.000000000000000000e+00,5.000000000000000000e+00,5.000000000000000000e+00,5.000000000000000000e+00,5.000000000000000000e+00,5.000000000000000000e+00,5.000000000000000000e+00,5.000000000000000000e+00,5.000000000000000000e+00,5.000000000000000000e+00,5.000000000000000000e+00,5.000000000000000000e+00,5.000000000000000000e+00,5.000000000000000000e+00,5.000000000000000000e+00,4.857018947601318359e+00,4.666500091552734375e+00,4.490361690521240234e+00,4.327035903930664062e+00,4.175174713134765625e+00,4.033611297607421875e+00,3.901333332061767578e+00,3.777455091476440430e+00,3.661201953887939453e+00,3.551890611648559570e+00,3.448917388916015625e+00,3.351746559143066406e+00,3.259901046752929688e+00,3.172954797744750977e+00,3.090526342391967773e+00,3.012271881103515625e+00,2.937882661819458008e+00,2.867078781127929688e+00,2.799607753753662109e+00,2.735239028930664062e+00,2.673763751983642578e+00,2.614990949630737305e+00,2.558746814727783203e+00,2.504870653152465820e+00,2.453216791152954102e+00,2.403650045394897461e+00,2.356047153472900391e+00,2.310292482376098633e+00,1.377659916877746582e+00,1.345087170600891113e+00,1.320319771766662598e+00,1.303853869438171387e+00,1.288467407226562500e+00,1.280129909515380859e+00,1.277696371078491211e+00,1.274601340293884277e+00,1.966574907302856445e+00,1.934594511985778809e+00,1.903637766838073730e+00,1.873655915260314941e+00,1.073106169700622559e+00
5.000000000000000000e+00,5.000000000000000000e+00,5.000000000000000000e+00,5.000000000000000000e+00,5.000000000000000000e+00,5.000000000000000000e+00,5.000000000000000000e+00,5.000000000000000000e+00,5.000000000000000000e+00,5.000000000000000000e+00,5.000000000000000000e+00,5.000000000000000000e+00,5.000000000000000000e+00,5.000000000000000000e+00,5.000000000000000000e+00,5.000000000000000000e+00,5.000000000000000000e+00,5.000000000000000000e+00,5.000000000000000000e+00,5.000000000000000000e+00,5.000000000000000000e+00,5.000000000000000000e+00,5.000000000000000000e+00,5.000000000000000000e+00,5.000000000000000000e+00,5.000000000000000000e+00,5.000000000000000000e+00,5.000000000000000000e+00,5.000000000000000000e+00,5.000000000000000000e+00,5.000000000000000000e+00,5.000000000000000000e+00,5.000000000000000000e+00,5.000000000000000000e+00,5.000000000000000000e+00,5.000000000000000000e+00,5.000000000000000000e+00,5.000000000000000000e+00,5.000000000000000000e+00,4.857157707214355469e+00,4.666626930236816406e+00,4.490480899810791016e+00,4.327147006988525391e+00,4.175278186798095703e+00,4.033707618713378906e+00,3.901423215866088867e+00,3.777539491653442383e+00,3.661281347274780273e+00,3.551965236663818359e+00,3.448987722396850586e+00,3.351812839508056641e+00,3.259963989257812500e+00,3.173014640808105469e+00,3.090582609176635742e+00,3.012325525283813477e+00,2.937933683395385742e+00,2.867127418518066406e+00,2.799654006958007812e+00,2.735283136367797852e+00,2.673806190490722656e+00,2.615031480789184570e+00,2.558785438537597656e+00,2.504907846450805664e+00,2.453252553939819336e+00,2.403684377670288086e+00,2.356079816818237305e+00,1.405486106872558594e+00,1.369673252105712891e+00,1.344249129295349121e+00,1.327184915542602539e+00,1.310546398162841797e+00,1.301063060760498047e+00,1.298260927200317383e+00,1.295758008956909180e+00,1.999653816223144531e+00,1.966597795486450195e+00,1.934616684913635254e+00,1.903659105300903320e+00,1.873676657676696777e+00,1.076000332832336426e+00
5.000000000000000000e+00,5.000000000000000000e+00,5.000000000000000000e+00,5.000000000000000000e+00,5.000000000000000000e+00,5.000000000000000000e+00,5.000000000000000000e+00,5.000000000000000000e+00,5.000000000000000000e+00,5.000000000000000000e+00,5.000000000000000000e+00,5.000000000000000000e+00,5.000000000000000000e+00,5.000000000000000000e+00,5.000000000000000000e+00,5.000000000000000000e+00,5.000000000000000000e+00,5.000000000000000000e+00,5.000000000000000000e+00,5.000000000000000000e+00,5.000000000000000000e+00,5.000000000000000000e+00,5.000000000000000000e+00,5.000000000000000000e+00,5.000000000000000000e+00,5.000000000000000000e+00,5.000000000000000000e+00,5.000000000000000000e+00,5.000000000000000000e+00,5.000000000000000000e+00,5.000000000000000000e+00,5.000000000000000000e+00,5.000000000000000000e+00,5.000000000000000000e+00,5.000000000000000000e+00,5.000000000000000000e+00,5.000000000000000000e+00,5.000000000000000000e+00,5.000000000000000000e+00,4.857295513153076172e+00,4.666754722595214844e+00,4.490598678588867188e+00,4.327257633209228516e+00,4.175380706787109375e+00,4.033803939819335938e+00,3.901513099670410156e+00,3.777624130249023438e+00,3.661360502243041992e+00,3.552039861679077148e+00,3.449057817459106445e+00,3.351879358291625977e+00,3.260026693344116211e+00,3.173074007034301758e+00,3.090639114379882812e+00,3.012379169464111328e+00,2.937984704971313477e+00,2.867176055908203125e+00,2.799700260162353516e+00,2.735327482223510742e+00,2.673848390579223633e+00,2.615072011947631836e+00,2.558824062347412109e+00,2.504945039749145508e+00,2.453288078308105469e+00,2.403718471527099609e+00,1.434459328651428223e+00,1.395174622535705566e+00,1.369062066078186035e+00,1.351353764533996582e+00,1.333914279937744141e+00,1.323632359504699707e+00,1.320542693138122559e+00,1.317467570304870605e+00,2.033864736557006836e+00,1.999677419662475586e+00,1.966620564460754395e+00,1.934638738632202148e+00,1.903680443763732910e+00,1.873697638511657715e+00,1.078910231590270996e+00
5.000000000000000000e+00,5.000000000000000000e+00,5.000000000000000000e+00,5.000000000000000000e+00,5.000000000000000000e+00,5.000000000000000000e+00,5.000000000000000000e+00,5.000000000000000000e+00,5.000000000000000000e+00,5.000000000000000000e+00,5.000000000000000000e+00,5.000000000000000000e+00,5.000000000000000000e+00,5.000000000000000000e+00,5.000000000000000000e+00,5.000000000000000000e+00,5.000000000000000000e+00,5.000000000000000000e+00,5.000000000000000000e+00,5.000000000000000000e+00,5.000000000000000000e+00,5.000000000000000000e+00,5.000000000000000000e+00,5.000000000000000000e+00,5.000000000000000000e+00,5.000000000000000000e+00,5.000000000000000000e+00,5.000000000000000000e+00,5.000000000000000000e+00,5.000000000000000000e+00,5.000000000000000000e+00,5.000000000000000000e+00,5.000000000000000000e+00,5.000000000000000000e+00,5.000000000000000000e+00,5.000000000000000000e+00,5.000000000000000000e+00,5.000000000000000000e+00,5.000000000000000000e+00,4.857434272766113281e+00,4.666882514953613281e+00,4.490716934204101562e+00,4.327367305755615234e+00,4.175484180450439453e+00,4.033900260925292969e+00,3.901603221893310547e+00,3.777708292007446289e+00,3.661439657211303711e+00,3.552114486694335938e+00,3.449128389358520508e+00,3.351945638656616211e+00,3.260089635848999023e+00,3.173133611679077148e+00,3.090695619583129883e+00,3.012432813644409180e+00,2.938035726547241211e+00,2.867224693298339844e+00,2.799746751785278320e+00,2.735371589660644531e+00,2.673890590667724609e+00,2.615112543106079102e+00,2.558862924575805664e+00,2.504981994628906250e+00,1.511384248733520508e+00,1.478233814239501953e+00,1.437436103820800781e+00,1.394784092903137207e+00,1.376213192939758301e+00,1.358130574226379395e+00,1.347051858901977539e+00,1.343799114227294922e+00,2.105896472930908203e+00,2.069266557693481445e+00,2.033889293670654297e+00,1.999701023101806641e+00,1.966643333435058594e+00,1.934661030769348145e+00,1.903702139854431152e+00,1.873718380928039551e+00,1.844664454460144043e+00
5.000000000000000000e+00,5.000000000000000000e+00,5.000000000000000000e+00,5.000000000000000000e+00,5.000000000000000000e+00,5.000000000000000000e+00,5.000000000000000000e+00,5.000000000000000000e+00,5.000000000000000000e+00,5.000000000000000000e+00,5.000000000000000000e+00,5.000000000000000000e+00,5.000000000000000000e+00,5.000000000000000000e+00,5.000000000000000000e+00,5.000000000000000000e+00,5.000000000000000000e+00,5.000000000000000000e+00,5.000000000000000000e+00,5.000000000000000000e+00,5.000000000000000000e+00,5.000000000000000000e+00,5.000000000000000000e+00,5.000000000000000000e+00,5.000000000000000000e+00,5.000000000000000000e+00,5.000000000000000000e+00,5.000000000000000000e+00,5.000000000000000000e+00,5.000000000000000000e+00,5.000000000000000000e+00,5.000000000000000000e+00,5.000000000000000000e+00,5.000000000000000000e+00,5.000000000000000000e+00,5.000000000000000000e+00,5.000000000000000000e+00,5.000000000000000000e+00,5.000000000000000000e+00,4.857572555541992188e+00,4.667010307312011719e+00,4.490835189819335938e+00,4.327477455139160156e+00,4.175587177276611328e+00,4.033996582031250000e+00,3.901693105697631836e+00,3.777792930603027344e+00,3.661519050598144531e+00,3.552189111709594727e+00,3.449198722839355469e+00,3.352012395858764648e+00,3.260152578353881836e+00,3.173192977905273438e+00,3.090752124786376953e+00,3.012486696243286133e+00,2.938086986541748047e+00,2.867273330688476562e+00,2.799793004989624023e+00,2.735415935516357422e+00,2.673932790756225586e+00,2.615152835845947266e+00,2.558901548385620117e+00,2.505019187927246094e+00,1.491367459297180176e+00,1.461620926856994629e+00,1.427387356758117676e+00,1.411491036415100098e+00,1.383242368698120117e+00,1.372381806373596191e+00,1.367889165878295898e+00,2.143873691558837891e+00,2.105922698974609375e+00,2.069291830062866211e+00,2.033913612365722656e+00,1.999724864959716797e+00,1.966666460037231445e+00,1.934683084487915039e+00,1.903723478317260742e+00,1.873739004135131836e+00,1.844684481620788574e+00
4.875226497650146484e+00,4.874015808105468750e+00,4.872805595397949219e+00,4.871596336364746094e+00,4.870387077331542969e+00,4.869178771972656250e+00,4.867970943450927734e+00,4.866764068603515625e+00,4.865557670593261719e+00,4.864351272583007812e+00,4.863146305084228516e+00,4.861941337585449219e+00,4.860737323760986328e+00,4.859533786773681641e+00,4.858330726623535156e+00,4.857128620147705078e+00,4.855926513671875000e+00,4.854725360870361328e+00,4.853525161743164062e+00,4.852324962615966797e+00,4.851125717163085938e+00,4.849926471710205078e+00,4.848728656768798828e+00,4.847530841827392578e+00,4.846333980560302734e+00,4.845137596130371094e+00,4.843941688537597656e+00,4.842746257781982422e+00,4.841551780700683594e+00,4.840357303619384766e+00,4.839164257049560547e+00,4.837971210479736328e+00,4.836778640747070312e+00,4.835587024688720703e+00,4.834395885467529297e+00,4.833205223083496094e+00,4.832015037536621094e+00,4.830825805664062500e+00,4.829637527465820312e+00,4.828448772430419922e+00,4.667138099670410156e+00,4.490953922271728516e+00,4.327587127685546875e+00,4.175688743591308594e+00,4.034092426300048828e+00,3.901783466339111328e+00,3.777877092361450195e+00,3.661598205566406250e+00,3.552263498306274414e+00,3.449269056320190430e+00,3.352078676223754883e+00,3.260215282440185547e+00,3.173252582550048828e+00,3.090808868408203125e+00,3.012540102005004883e+00,2.938137769699096680e+00,2.867321729660034180e+00,2.799839496612548828e+00,2.735460042953491211e+00,2.673974990844726562e+00,2.615193128585815430e+00,2.558940410614013672e+00,2.505056381225585938e+00,1.483386635780334473e+00,1.447892069816589355e+00,1.428842067718505859e+00,1.416670203208923340e+00,2.266433238983154297e+00,2.224061727523803711e+00,2.183245897293090820e+00,2.143900871276855469e+00,2.105948925018310547e+00,2.069317102432250977e+00,2.033938169479370117e+00,1.999748468399047852e+00,1.966689229011535645e+00,1.934705257415771484e+00,1.903744816780090332e+00,1.873759746551513672e+00,1.844704627990722656e+00
3.778037786483764648e+00,3.777311086654663086e+00,3.776583909988403320e+00,3.775857210159301758e+00,3.775130748748779297e+00,3.774405241012573242e+00,3.773679256439208984e+00,3.772953748703002930e+00,3.772228717803955078e+00,3.771503686904907227e+00,3.770778894424438477e+00,3.770054817199707031e+00,3.769330739974975586e+00,3.768606901168823242e+00,3.767883300781250000e+00,3.767160177230834961e+00,3.766437053680419922e+00,3.765714406967163086e+00,3.764992237091064453e+00,3.764270067214965820e+00,3.763547897338867188e+00,3.762826681137084961e+00,3.762105226516723633e+00,3.761384248733520508e+00,3.760663270950317383e+00,3.759943246841430664e+00,3.759222745895385742e+00,3.758502721786499023e+00,3.757783412933349609e+00,3.757063865661621094e+00,3.756344795227050781e+00,3.755626201629638672e+00,3.754907608032226562e+00,3.754189014434814453e+00,3.753470897674560547e+00,3.752753496170043945e+00,3.752036094665527344e+00,3.751318693161010742e+00,3.750602006912231445e+00,3.749885320663452148e+00,3.749168872833251953e+00,3.748453140258789062e+00,3.747737169265747070e+00,3.747021436691284180e+00,3.746306180953979492e+00,3.745591402053833008e+00,3.744876623153686523e+00,3.661677598953247070e+00,3.552338361740112305e+00,3.449339389801025391e+00,3.352144956588745117e+00,3.260278224945068359e+00,3.173312187194824219e+00,3.090865135192871094e+00,3.012593746185302734e+00,2.938189029693603516e+00,2.867370605468750000e+00,2.799885749816894531e+00,2.735504388809204102e+00,2.674017429351806641e+00,2.615233659744262695e+00,2.558979034423828125e+00,2.505093336105346680e+00,1.481669187545776367e+00,1.442774772644042969e+00,1.426801323890686035e+00,1.423308968544006348e+00,2.266463518142700195e+00,2.224091291427612305e+00,2.183274030685424805e+00,2.143928050994873047e+00,2.105975151062011719e+00,2.069342374801635742e+00,2.033962488174438477e+00,1.999772071838378906e+00,1.966712117195129395e+00,1.934727311134338379e+00,1.903766274452209473e+00,1.873780488967895508e+00,1.844724893569946289e+00
3.083976984024047852e+00,3.083492517471313477e+00,3.083008050918579102e+00,3.082524061203002930e+00,3.082039833068847656e+00,3.081555843353271484e+00,3.081072330474853516e+00,3.080588579177856445e+00,3.080105066299438477e+00,3.079621791839599609e+00,3.079138517379760742e+00,3.078655481338500977e+00,3.078172445297241211e+00,3.077690124511718750e+00,3.077207326889038086e+00,3.076725006103515625e+00,3.076242923736572266e+00,3.075760602951049805e+00,3.075278520584106445e+00,3.074796915054321289e+00,3.074315309524536133e+00,3.073833703994750977e+00,3.073352098464965820e+00,3.072871208190917969e+00,3.072390079498291016e+00,3.071908950805664062e+00,3.071428537368774414e+00,3.070947885513305664e+00,3.070467233657836914e+00,3.069987297058105469e+00,3.069506883621215820e+00,3.069026947021484375e+00,3.068547010421752930e+00,3.068067312240600586e+00,3.067587852478027344e+00,3.067108392715454102e+00,3.066629171371459961e+00,3.066150188446044922e+00,3.065671205520629883e+00,3.065192461013793945e+00,3.064713716506958008e+00,3.064235210418701172e+00,3.063756704330444336e+00,3.063278675079345703e+00,3.062800645828247070e+00,3.062322616577148438e+00,3.061845064163208008e+00,3.061367511749267578e+00,3.060889959335327148e+00,3.060412645339965820e+00,3.059935569763183594e+00,3.059458494186401367e+00,3.058981418609619141e+00,3.058504819869995117e+00,3.012647628784179688e+00,2.938240051269531250e+00,2.867419004440307617e+00,2.799932003021240234e+00,2.735548734664916992e+00,2.674059629440307617e+00,2.615274190902709961e+00,2.559017658233642578e+00,2.505130529403686523e+00,2.453465938568115234e+00,1.435834527015686035e+00,1.424174666404724121e+00,2.310513496398925781e+00,2.266493797302246094e+00,2.224120378494262695e+00,2.183302164077758789e+00,2.143955230712890625e+00,2.106001377105712891e+00,2.069367647171020508e+00,2.033987045288085938e+00,1.999795675277709961e+00,1.966734886169433594e+00,1.934749364852905273e+00,1.903787612915039062e+00,1.873801350593566895e+00,1.844744920730590820e+00
2.605350017547607422e+00,2.605004072189331055e+00,2.604658365249633789e+00,2.604312658309936523e+00,2.603967189788818359e+00,2.603621721267700195e+00,2.603276252746582031e+00,2.602931022644042969e+00,2.602585792541503906e+00,2.602240800857543945e+00,2.601895809173583984e+00,2.601551055908203125e+00,2.601206064224243164e+00,2.600861310958862305e+00,2.600516796112060547e+00,2.600172281265258789e+00,2.599827766418457031e+00,2.599483489990234375e+00,2.599139213562011719e+00,2.598794937133789062e+00,2.598450899124145508e+00,2.598106861114501953e+00,2.597763061523437500e+00,2.597419023513793945e+00,2.597075462341308594e+00,2.596731901168823242e+00,2.596388339996337891e+00,2.596045017242431641e+00,2.595701456069946289e+00,2.595358133316040039e+00,2.595015287399291992e+00,2.594671964645385742e+00,2.594329118728637695e+00,2.593986034393310547e+00,2.593643426895141602e+00,2.593300580978393555e+00,2.592957973480224609e+00,2.592615604400634766e+00,2.592272996902465820e+00,2.591930627822875977e+00,2.591588497161865234e+00,2.591246366500854492e+00,2.590904235839843750e+00,2.590562105178833008e+00,2.590220212936401367e+00,2.589878559112548828e+00,2.589536666870117188e+00,2.589195251464843750e+00,2.588853597640991211e+00,2.588512182235717773e+00,2.588170766830444336e+00,2.587829589843750000e+00,2.587488412857055664e+00,2.587147235870361328e+00,2.586806297302246094e+00,2.586465358734130859e+00,2.586124420166015625e+00,2.585783958435058594e+00,2.585443258285522461e+00,2.585102558135986328e+00,2.584762334823608398e+00,2.559056520462036133e+00,2.505167484283447266e+00,2.453501462936401367e+00,1.428230285644531250e+00,1.422741413116455078e+00,2.310544967651367188e+00,2.266524314880371094e+00,2.224149703979492188e+00,2.183330535888671875e+00,2.143982410430908203e+00,2.106027603149414062e+00,2.069393157958984375e+00,2.034011602401733398e+00,1.999819278717041016e+00,1.966757774353027344e+00,1.934771656990051270e+00,1.903809189796447754e+00,1.873822093009948730e+00,1.844765067100524902e+00
2.255350351333618164e+00,2.255090236663818359e+00,2.254830121994018555e+00,2.254570245742797852e+00,2.254310131072998047e+00,2.254050254821777344e+00,2.253790378570556641e+00,2.253530740737915039e+00,2.253270864486694336e+00,2.253011226654052734e+00,2.252751588821411133e+00,2.252491950988769531e+00,2.252232551574707031e+00,2.251973152160644531e+00,2.251713752746582031e+00,2.251454591751098633e+00,2.251195192337036133e+00,2.250936031341552734e+00,2.250676870346069336e+00,2.250417947769165039e+00,2.250158786773681641e+00,2.249899864196777344e+00,2.249640941619873047e+00,2.249382257461547852e+00,2.249124526977539062e+00,2.248866796493530273e+00,2.248609066009521484e+00,2.248351335525512695e+00,2.248094081878662109e+00,2.247836589813232422e+00,2.247579097747802734e+00,2.247321605682373047e+00,2.247064352035522461e+00,2.246807098388671875e+00,2.246549844741821289e+00,2.246292829513549805e+00,2.246035814285278320e+00,2.245778799057006836e+00,2.245521783828735352e+00,2.245264768600463867e+00,2.245007991790771484e+00,2.244751214981079102e+00,2.244494438171386719e+00,2.244237899780273438e+00,2.243981122970581055e+00,2.243724822998046875e+00,2.243468284606933594e+00,2.243211746215820312e+00,2.242955446243286133e+00,2.242699146270751953e+00,2.242442846298217773e+00,2.242186546325683594e+00,2.241930484771728516e+00,2.241674423217773438e+00,2.241418361663818359e+00,2.241162538528442383e+00,2.240906715393066406e+00,2.240650653839111328e+00,2.240395069122314453e+00,2.240139245986938477e+00,2.239883661270141602e+00,2.239627838134765625e+00,2.239372491836547852e+00,1.439262866973876953e+00,1.419984936714172363e+00,1.422947049140930176e+00,2.238350868225097656e+00,2.238095521926879883e+00,2.224178791046142578e+00,2.183358669281005859e+00,2.144009590148925781e+00,2.106053829193115234e+00,2.069418430328369141e+00,2.034035921096801758e+00,1.999842882156372070e+00,1.966780781745910645e+00,1.934793829917907715e+00,1.903830647468566895e+00,1.873842835426330566e+00,1.844785094261169434e+00
1.988295316696166992e+00,1.988093137741088867e+00,1.987890720367431641e+00,1.987688660621643066e+00,1.987486720085144043e+00,1.987284660339355469e+00,1.987082719802856445e+00,1.986880779266357422e+00,1.986678957939147949e+00,1.986476898193359375e+00,1.986275076866149902e+00,1.986073374748229980e+00,1.985871672630310059e+00,1.985670089721679688e+00,1.985468387603759766e+00,1.985266566276550293e+00,1.985065102577209473e+00,1.984863638877868652e+00,1.984662175178527832e+00,1.984460711479187012e+00,1.984259247779846191e+00,1.984058022499084473e+00,1.983856439590454102e+00,1.983655214309692383e+00,1.983453989028930664e+00,1.983252763748168945e+00,1.983051657676696777e+00,1.982850551605224609e+00,1.982649326324462891e+00,1.982448339462280273e+00,1.982247352600097656e+00,1.982046484947204590e+00,1.981845498085021973e+00,1.981644749641418457e+00,1.981443881988525391e+00,1.981242895126342773e+00,1.981042146682739258e+00,1.980841517448425293e+00,1.980640888214111328e+00,1.980440258979797363e+00,1.980239629745483398e+00,1.980038881301879883e+00,1.979838490486145020e+00,1.979637980461120605e+00,1.979437589645385742e+00,1.979237198829650879e+00,1.979036927223205566e+00,1.978836655616760254e+00,1.978636145591735840e+00,1.978435993194580078e+00,1.978235840797424316e+00,1.978035688400268555e+00,1.977835655212402344e+00,1.977635622024536133e+00,1.977435350418090820e+00,1.977235436439514160e+00,1.977035522460937500e+00,1.976835608482360840e+00,1.976635813713073730e+00,1.976436018943786621e+00,1.976235985755920410e+00,1.976036310195922852e+00,1.975836634635925293e+00,1.975636959075927734e+00,1.413824796676635742e+00,1.424716830253601074e+00,1.975038290023803711e+00,1.974838614463806152e+00,1.974639177322387695e+00,1.974439740180969238e+00,1.974240422248840332e+00,1.974041104316711426e+00,1.973841905593872070e+00,1.973642349243164062e+00,1.973443150520324707e+00,1.966803669929504395e+00,1.934815883636474609e+00,1.903851985931396484e+00,1.873863577842712402e+00,1.844805240631103516e+00
1.777787923812866211e+00,1.777626276016235352e+00,1.777464747428894043e+00,1.777303218841552734e+00,1.777141690254211426e+00,1.776980161666870117e+00,1.776818752288818359e+00,1.776657104492187500e+00,1.776495695114135742e+00,1.776334285736083984e+00,1.776172876358032227e+00,1.776011586189270020e+00,1.775850296020507812e+00,1.775688886642456055e+00,1.775527596473693848e+00,1.775366425514221191e+00,1.775205254554748535e+00,1.775044083595275879e+00,1.774883031845092773e+00,1.774721860885620117e+00,1.774560689926147461e+00,1.774399638175964355e+00,1.774238586425781250e+00,1.774077653884887695e+00,1.773916721343994141e+00,1.773755788803100586e+00,1.773594737052917480e+00,1.773433804512023926e+00,1.773272991180419922e+00,1.773112177848815918e+00,1.772951483726501465e+00,1.772790670394897461e+00,1.772629976272583008e+00,1.772469162940979004e+00,1.772308468818664551e+00,1.772147893905639648e+00,1.771987199783325195e+00,1.771826624870300293e+00,1.771666169166564941e+00,1.771505475044250488e+00,1.771345019340515137e+00,1.771184563636779785e+00,1.771024107933044434e+00,1.770863652229309082e+00,1.770703315734863281e+00,1.770542979240417480e+00,1.770382523536682129e+00,1.770222187042236328e+00,1.770061969757080078e+00,1.769901752471923828e+00,1.769741535186767578e+00,1.769581437110900879e+00,1.769421100616455078e+00,1.769261002540588379e+00,1.769100904464721680e+00,1.768940925598144531e+00,1.768780827522277832e+00,1.768620848655700684e+00,1.768460750579833984e+00,1.768300771713256836e+00,1.768140912055969238e+00,1.767981052398681641e+00,1.767821192741394043e+00,1.767661452293395996e+00,1.404372692108154297e+00,1.413388729095458984e+00,1.767181992530822754e+00,1.767022252082824707e+00,1.766862630844116211e+00,1.766703009605407715e+00,1.766543388366699219e+00,1.766383647918701172e+00,1.766224026679992676e+00,1.766064524650573730e+00,1.765905022621154785e+00,1.765745520591735840e+00,1.765586137771606445e+00,1.765426754951477051e+00,1.765267252922058105e+00,1.765107870101928711e+00
1.607587575912475586e+00,1.607455372810363770e+00,1.607323288917541504e+00,1.607191205024719238e+00,1.607059121131896973e+00,1.606926798820495605e+00,1.606794834136962891e+00,1.606662750244140625e+00,1.606530785560607910e+00,1.606398820877075195e+00,1.606266856193542480e+00,1.606134772300720215e+00,1.606002807617187500e+00,1.605870962142944336e+00,1.605739116668701172e+00,1.605607271194458008e+00,1.605475425720214844e+00,1.605343580245971680e+00,1.605211615562438965e+00,1.605079889297485352e+00,1.604948163032531738e+00,1.604816436767578125e+00,1.604684710502624512e+00,1.604552984237670898e+00,1.604421257972717285e+00,1.604289650917053223e+00,1.604158043861389160e+00,1.604026436805725098e+00,1.603894829750061035e+00,1.603763222694396973e+00,1.603631734848022461e+00,1.603500127792358398e+00,1.603368639945983887e+00,1.603237152099609375e+00,1.603105664253234863e+00,1.602974295616149902e+00,1.602842926979064941e+00,1.602711319923400879e+00,1.602580070495605469e+00,1.602448701858520508e+00,1.602317333221435547e+00,1.602186083793640137e+00,1.602054834365844727e+00,1.601923584938049316e+00,1.601792216300964355e+00,1.601660966873168945e+00,1.601529836654663086e+00,1.601398706436157227e+00,1.601267457008361816e+00,1.601136445999145508e+00,1.601005196571350098e+00,1.600874066352844238e+00,1.600743055343627930e+00,1.600612044334411621e+00,1.600481033325195312e+00,1.600350022315979004e+00,1.600218892097473145e+00,1.600088000297546387e+00,1.599956989288330078e+00,1.599826097488403320e+00,1.599695205688476562e+00,1.599564313888549805e+00,1.599433541297912598e+00,1.599302530288696289e+00,1.401503086090087891e+00,1.414954900741577148e+00,1.598910212516784668e+00,1.598779439926147461e+00,1.598648786544799805e+00,1.598517894744873047e+00,1.598387241363525391e+00,1.598256587982177734e+00,1.598126053810119629e+00,1.597995400428771973e+00,1.597864866256713867e+00,1.597734212875366211e+00,1.597603559494018555e+00,1.597473025321960449e+00,1.597342610359191895e+00,1.597212076187133789e+00
1.467128753662109375e+00,1.467018723487854004e+00,1.466908693313598633e+00,1.466798543930053711e+00,1.466688513755798340e+00,1.466578483581542969e+00,1.466468453407287598e+00,1.466358542442321777e+00,1.466248512268066406e+00,1.466138482093811035e+00,1.466028571128845215e+00,1.465918660163879395e+00,1.465808749198913574e+00,1.465698838233947754e+00,1.465589046478271484e+00,1.465479135513305664e+00,1.465369224548339844e+00,1.465259432792663574e+00,1.465149641036987305e+00,1.465039849281311035e+00,1.464930057525634766e+00,1.464820384979248047e+00,1.464710474014282227e+00,1.464600801467895508e+00,1.464491128921508789e+00,1.464381456375122070e+00,1.464271783828735352e+00,1.464162111282348633e+00,1.464052319526672363e+00,1.463942766189575195e+00,1.463833212852478027e+00,1.463723540306091309e+00,1.463613986968994141e+00,1.463504433631896973e+00,1.463394999504089355e+00,1.463285326957702637e+00,1.463175773620605469e+00,1.463066339492797852e+00,1.462956905364990234e+00,1.462847471237182617e+00,1.462738037109375000e+00,1.462628602981567383e+00,1.462519049644470215e+00,1.462409734725952148e+00,1.462300300598144531e+00,1.462190985679626465e+00,1.462081670761108398e+00,1.461972355842590332e+00,1.461862921714782715e+00,1.461753606796264648e+00,1.461644411087036133e+00,1.461535096168518066e+00,1.461425900459289551e+00,1.461316704750061035e+00,1.461207389831542969e+00,1.461098194122314453e+00,1.460988998413085938e+00,1.460879921913146973e+00,1.460770726203918457e+00,1.460661649703979492e+00,1.460552453994750977e+00,1.460443258285522461e+00,1.460334181785583496e+00,1.460225224494934082e+00,1.460116147994995117e+00,1.460007071495056152e+00,1.459898114204406738e+00,1.459789037704467773e+00,1.459680080413818359e+00,1.459571123123168945e+00,1.459462165832519531e+00,1.459353208541870117e+00,1.459244251251220703e+00,1.459135413169860840e+00,1.459026455879211426e+00,1.458917498588562012e+00,1.458808660507202148e+00,1.458699822425842285e+00,1.458591103553771973e+00,1.458482265472412109e+00
1.349242210388183594e+00,1.349148988723754883e+00,1.349055886268615723e+00,1.348962903022766113e+00,1.348869800567626953e+00,1.348776817321777344e+00,1.348683714866638184e+00,1.348590612411499023e+00,1.348497629165649414e+00,1.348404645919799805e+00,1.348311662673950195e+00,1.348218679428100586e+00,1.348125696182250977e+00,1.348032832145690918e+00,1.347939729690551758e+00,1.347846865653991699e+00,1.347754001617431641e+00,1.347661018371582031e+00,1.347568154335021973e+00,1.347475290298461914e+00,1.347382426261901855e+00,1.347289562225341797e+00,1.347196698188781738e+00,1.347103953361511230e+00,1.347011208534240723e+00,1.346918344497680664e+00,1.346825480461120605e+00,1.346732735633850098e+00,1.346639990806579590e+00,1.346547245979309082e+00,1.346454501152038574e+00,1.346361875534057617e+00,1.346269130706787109e+00,1.346176385879516602e+00,1.346083641052246094e+00,1.345991015434265137e+00,1.345898389816284180e+00,1.345805764198303223e+00,1.345713138580322266e+00,1.345620393753051758e+00,1.345527768135070801e+00,1.345435261726379395e+00,1.345342636108398438e+00,1.345250129699707031e+00,1.345157504081726074e+00,1.345064997673034668e+00,1.344972372055053711e+00,1.344879865646362305e+00,1.344787359237670898e+00,1.344694852828979492e+00,1.344602465629577637e+00,1.344509959220886230e+00,1.344417452812194824e+00,1.344325065612792969e+00,1.344232559204101562e+00,1.344140172004699707e+00,1.344047784805297852e+00,1.343955397605895996e+00,1.343863010406494141e+00,1.343770623207092285e+00,1.343678236007690430e+00,1.343585968017578125e+00,1.343493580818176270e+00,1.343401312828063965e+00,1.343309044837951660e+00,1.343216657638549805e+00,1.343124389648437500e+00,1.343032121658325195e+00,1.342939853668212891e+00,1.342847704887390137e+00,1.342755436897277832e+00,1.342663288116455078e+00,1.342570900917053223e+00,1.342478752136230469e+00,1.342386603355407715e+00,1.342294454574584961e+00,1.342202305793762207e+00,1.342110157012939453e+00,1.342018008232116699e+00,1.341925859451293945e+00
1.248891353607177734e+00,1.248811602592468262e+00,1.248731851577758789e+00,1.248652100563049316e+00,1.248572468757629395e+00,1.248492598533630371e+00,1.248412847518920898e+00,1.248333215713500977e+00,1.248253464698791504e+00,1.248173832893371582e+00,1.248094201087951660e+00,1.248014450073242188e+00,1.247934699058532715e+00,1.247855067253112793e+00,1.247775435447692871e+00,1.247695922851562500e+00,1.247616291046142578e+00,1.247536659240722656e+00,1.247457027435302734e+00,1.247377395629882812e+00,1.247297883033752441e+00,1.247218251228332520e+00,1.247138738632202148e+00,1.247059226036071777e+00,1.246979594230651855e+00,1.246900081634521484e+00,1.246820569038391113e+00,1.246741056442260742e+00,1.246661543846130371e+00,1.246582031250000000e+00,1.246502637863159180e+00,1.246423125267028809e+00,1.246343612670898438e+00,1.246264219284057617e+00,1.246184706687927246e+00,1.246105313301086426e+00,1.246025919914245605e+00,1.245946407318115234e+00,1.245867013931274414e+00,1.245787739753723145e+00,1.245708346366882324e+00,1.245628952980041504e+00,1.245549678802490234e+00,1.245470285415649414e+00,1.245390892028808594e+00,1.245311617851257324e+00,1.245232224464416504e+00,1.245152950286865234e+00,1.245073676109313965e+00,1.244994401931762695e+00,1.244915008544921875e+00,1.244835853576660156e+00,1.244756579399108887e+00,1.244677305221557617e+00,1.244598150253295898e+00,1.244518876075744629e+00,1.244439721107482910e+00,1.244360446929931641e+00,1.244281172752380371e+00,1.244202017784118652e+00,1.244122862815856934e+00,1.244043707847595215e+00,1.243964552879333496e+00,1.243885397911071777e+00,1.243806242942810059e+00,1.243727087974548340e+00,1.243648052215576172e+00,1.243568897247314453e+00,1.243489861488342285e+00,1.243410825729370117e+00,1.243331670761108398e+00,1.243252515792846680e+00,1.243173480033874512e+00,1.243094444274902344e+00,1.243015527725219727e+00,1.242936491966247559e+00,1.242857336997985840e+00,1.242778420448303223e+00,1.242699384689331055e+00,1.242620468139648438e+00
1.162434577941894531e+00,1.162365555763244629e+00,1.162296414375305176e+00,1.162227272987365723e+00,1.162158131599426270e+00,1.162089109420776367e+00,1.162020087242126465e+00,1.161950945854187012e+00,1.161881923675537109e+00,1.161812901496887207e+00,1.161743760108947754e+00,1.161674737930297852e+00,1.161605834960937500e+00,1.161536812782287598e+00,1.161467790603637695e+00,1.161398768424987793e+00,1.161329746246337891e+00,1.161260724067687988e+00,1.161191821098327637e+00,1.161122918128967285e+00,1.161053895950317383e+00,1.160984992980957031e+00,1.160915970802307129e+00,1.160847067832946777e+00,1.160778164863586426e+00,1.160709261894226074e+00,1.160640358924865723e+00,1.160571455955505371e+00,1.160502552986145020e+00,1.160433650016784668e+00,1.160364747047424316e+00,1.160295844078063965e+00,1.160227060317993164e+00,1.160158157348632812e+00,1.160089373588562012e+00,1.160020470619201660e+00,1.159951686859130859e+00,1.159882903099060059e+00,1.159814000129699707e+00,1.159745216369628906e+00,1.159676432609558105e+00,1.159607768058776855e+00,1.159538865089416504e+00,1.159470081329345703e+00,1.159401297569274902e+00,1.159332633018493652e+00,1.159263849258422852e+00,1.159195184707641602e+00,1.159126400947570801e+00,1.159057617187500000e+00,1.158988952636718750e+00,1.158920288085937500e+00,1.158851623535156250e+00,1.158782839775085449e+00,1.158714175224304199e+00,1.158645510673522949e+00,1.158576846122741699e+00,1.158508181571960449e+00,1.158439517021179199e+00,1.158370971679687500e+00,1.158302307128906250e+00,1.158233642578125000e+00,1.158165097236633301e+00,1.158096432685852051e+00,1.158027887344360352e+00,1.157959342002868652e+00,1.157890677452087402e+00,1.157822132110595703e+00,1.157753586769104004e+00,1.157685041427612305e+00,1.157616496086120605e+00,1.157547950744628906e+00,1.157479405403137207e+00,1.157410860061645508e+00,1.157342314720153809e+00,1.157273769378662109e+00,1.157205343246459961e+00,1.157136797904968262e+00,1.157068371772766113e+00,1.156999945640563965e+00
1.087172985076904297e+00,1.087112545967102051e+00,1.087052106857299805e+00,1.086991667747497559e+00,1.086931228637695312e+00,1.086870789527893066e+00,1.086810350418090820e+00,1.086750030517578125e+00,1.086689591407775879e+00,1.086629152297973633e+00,1.086568713188171387e+00,1.086508393287658691e+00,1.086448073387145996e+00,1.086387634277343750e+00,1.086327195167541504e+00,1.086266875267028809e+00,1.086206555366516113e+00,1.086146235466003418e+00,1.086085915565490723e+00,1.086025595664978027e+00,1.085965156555175781e+00,1.085904836654663086e+00,1.085844516754150391e+00,1.085784316062927246e+00,1.085723996162414551e+00,1.085663676261901855e+00,1.085603475570678711e+00,1.085543155670166016e+00,1.085482835769653320e+00,1.085422635078430176e+00,1.085362315177917480e+00,1.085302114486694336e+00,1.085241913795471191e+00,1.085181593894958496e+00,1.085121393203735352e+00,1.085061192512512207e+00,1.085000991821289062e+00,1.084940791130065918e+00,1.084880590438842773e+00,1.084820389747619629e+00,1.084760069847106934e+00,1.084699869155883789e+00,1.084639787673950195e+00,1.084579586982727051e+00,1.084519386291503906e+00,1.084459304809570312e+00,1.084399104118347168e+00,1.084338903427124023e+00,1.084278821945190430e+00,1.084218740463256836e+00,1.084158539772033691e+00,1.084098458290100098e+00,1.084038376808166504e+00,1.083978176116943359e+00,1.083918094635009766e+00,1.083858013153076172e+00,1.083797931671142578e+00,1.083737850189208984e+00,1.083677887916564941e+00,1.083617687225341797e+00,1.083557724952697754e+00,1.083497643470764160e+00,1.083437561988830566e+00,1.083377599716186523e+00,1.083317518234252930e+00,1.083257555961608887e+00,1.083197474479675293e+00,1.083137512207031250e+00,1.083077430725097656e+00,1.083017468452453613e+00,1.082957506179809570e+00,1.082897543907165527e+00,1.082837462425231934e+00,1.082777500152587891e+00,1.082717537879943848e+00,1.082657575607299805e+00,1.082597613334655762e+00,1.082537770271301270e+00,1.082477807998657227e+00,1.082417845726013184e+00
1.021064400672912598e+00,1.021011114120483398e+00,1.020957708358764648e+00,1.020904421806335449e+00,1.020851135253906250e+00,1.020797848701477051e+00,1.020744562149047852e+00,1.020691275596618652e+00,1.020637989044189453e+00,1.020584702491760254e+00,1.020531415939331055e+00,1.020478129386901855e+00,1.020424842834472656e+00,1.020371556282043457e+00,1.020318388938903809e+00,1.020265102386474609e+00,1.020211935043334961e+00,1.020158648490905762e+00,1.020105361938476562e+00,1.020052194595336914e+00,1.019998908042907715e+00,1.019945740699768066e+00,1.019892573356628418e+00,1.019839406013488770e+00,1.019786119461059570e+00,1.019732952117919922e+00,1.019679784774780273e+00,1.019626617431640625e+00,1.019573450088500977e+00,1.019520282745361328e+00,1.019467115402221680e+00,1.019413948059082031e+00,1.019360780715942383e+00,1.019307613372802734e+00,1.019254446029663086e+00,1.019201397895812988e+00,1.019148230552673340e+00,1.019095182418823242e+00,1.019041895866394043e+00,1.018988847732543945e+00,1.018935799598693848e+00,1.018882632255554199e+00,1.018829584121704102e+00,1.018776535987854004e+00,1.018723368644714355e+00,1.018670320510864258e+00,1.018617272377014160e+00,1.018564105033874512e+00,1.018511056900024414e+00,1.018458008766174316e+00,1.018404960632324219e+00,1.018351912498474121e+00,1.018298864364624023e+00,1.018245816230773926e+00,1.018192887306213379e+00,1.018139839172363281e+00,1.018086791038513184e+00,1.018033742904663086e+00,1.017980694770812988e+00,1.017927765846252441e+00,1.017874717712402344e+00,1.017821788787841797e+00,1.017768740653991699e+00,1.017715811729431152e+00,1.017662763595581055e+00,1.017609834671020508e+00,1.017556905746459961e+00,1.017503976821899414e+00,1.017450928688049316e+00,1.017397999763488770e+00,1.017345070838928223e+00,1.017292141914367676e+00,1.017239212989807129e+00,1.017186284065246582e+00,1.017133355140686035e+00,1.017080426216125488e+00,1.017027616500854492e+00,1.016974568367004395e+00,1.016921758651733398e+00,1.016868829727172852e+00
9.625347852706909180e-01,9.624873995780944824e-01,9.624400734901428223e-01,9.623926281929016113e-01,9.623453021049499512e-01,9.622979164123535156e-01,9.622505903244018555e-01,9.622032046318054199e-01,9.621558785438537598e-01,9.621085524559020996e-01,9.620611071586608887e-01,9.620137810707092285e-01,9.619664549827575684e-01,9.619191288948059082e-01,9.618718028068542480e-01,9.618244767189025879e-01,9.617772102355957031e-01,9.617298841476440430e-01,9.616825580596923828e-01,9.616352915763854980e-01,9.615880250930786133e-01,9.615406990051269531e-01,9.614934325218200684e-01,9.614460468292236328e-01,9.613987803459167480e-01,9.613515138626098633e-01,9.613042473793029785e-01,9.612569808959960938e-01,9.612097740173339844e-01,9.611625075340270996e-01,9.611152410507202148e-01,9.610680341720581055e-01,9.610207676887512207e-01,9.609735608100891113e-01,9.609263539314270020e-01,9.608790874481201172e-01,9.608317613601684570e-01,9.607845544815063477e-01,9.607373476028442383e-01,9.606901407241821289e-01,9.606429934501647949e-01,9.605957865715026855e-01,9.605485796928405762e-01,9.605014324188232422e-01,9.604542255401611328e-01,9.604070782661437988e-01,9.603598713874816895e-01,9.603127241134643555e-01,9.602655768394470215e-01,9.602183103561401367e-01,9.601711630821228027e-01,9.601240158081054688e-01,9.600768685340881348e-01,9.600297212600708008e-01,9.599825739860534668e-01,9.599354863166809082e-01,9.598883390426635742e-01,9.598411917686462402e-01,9.597941040992736816e-01,9.597470164299011230e-01,9.596998691558837891e-01,9.596527814865112305e-01,9.596055746078491211e-01,9.595584869384765625e-01,9.595113992691040039e-01,9.594643115997314453e-01,9.594172835350036621e-01,9.593701958656311035e-01,9.593231081962585449e-01,9.592760801315307617e-01,9.592289924621582031e-01,9.591819643974304199e-01,9.591348767280578613e-01,9.590878486633300781e-01,9.590408205986022949e-01,9.589936733245849609e-01,9.589466452598571777e-01,9.588996171951293945e-01,9.588525891304016113e-01,9.588055610656738281e-01
9.103515148162841797e-01,9.103090763092041016e-01,9.102666974067687988e-01,9.102243185043334961e-01,9.101819396018981934e-01,9.101395606994628906e-01,9.100971817970275879e-01,9.100548624992370605e-01,9.100124835968017578e-01,9.099701642990112305e-01,9.099277853965759277e-01,9.098854660987854004e-01,9.098431468009948730e-01,9.098007678985595703e-01,9.097583293914794922e-01,9.097160100936889648e-01,9.096736907958984375e-01,9.096313714981079102e-01,9.095890522003173828e-01,9.095467925071716309e-01,9.095044732093811035e-01,9.094621539115905762e-01,9.094198942184448242e-01,9.093775749206542969e-01,9.093352556228637695e-01,9.092929959297180176e-01,9.092507362365722656e-01,9.092083573341369629e-01,9.091660380363464355e-01,9.091237783432006836e-01,9.090815186500549316e-01,9.090392589569091797e-01,9.089969992637634277e-01,9.089547395706176758e-01,9.089124798774719238e-01,9.088702797889709473e-01,9.088280200958251953e-01,9.087857604026794434e-01,9.087435603141784668e-01,9.087013006210327148e-01,9.086589813232421875e-01,9.086167812347412109e-01,9.085745215415954590e-01,9.085323214530944824e-01,9.084901213645935059e-01,9.084479212760925293e-01,9.084057211875915527e-01,9.083635210990905762e-01,9.083213210105895996e-01,9.082791209220886230e-01,9.082369208335876465e-01,9.081947803497314453e-01,9.081525802612304688e-01,9.081103205680847168e-01,9.080681204795837402e-01,9.080259799957275391e-01,9.079837799072265625e-01,9.079416394233703613e-01,9.078994989395141602e-01,9.078573584556579590e-01,9.078151583671569824e-01,9.077730178833007812e-01,9.077308773994445801e-01,9.076887369155883789e-01,9.076465964317321777e-01,9.076045155525207520e-01,9.075622558593750000e-01,9.075201749801635742e-01,9.074780344963073730e-01,9.074359536170959473e-01,9.073938131332397461e-01,9.073517322540283203e-01,9.073095917701721191e-01,9.072675108909606934e-01,9.072254300117492676e-01,9.071833491325378418e-01,9.071412682533264160e-01,9.070991873741149902e-01,9.070571064949035645e-01,9.070149064064025879e-01
8.635353446006774902e-01,8.634972572326660156e-01,8.634591102600097656e-01,8.634209632873535156e-01,8.633828759193420410e-01,8.633447289466857910e-01,8.633065223693847656e-01,8.632684350013732910e-01,8.632302880287170410e-01,8.631922006607055664e-01,8.631541132926940918e-01,8.631160259246826172e-01,8.630778789520263672e-01,8.630397915840148926e-01,8.630017042160034180e-01,8.629636168479919434e-01,8.629255294799804688e-01,8.628874421119689941e-01,8.628494143486022949e-01,8.628112077713012695e-01,8.627731800079345703e-01,8.627350926399230957e-01,8.626970052719116211e-01,8.626589775085449219e-01,8.626208901405334473e-01,8.625828623771667480e-01,8.625448346138000488e-01,8.625067472457885742e-01,8.624687194824218750e-01,8.624306917190551758e-01,8.623926639556884766e-01,8.623546361923217773e-01,8.623164892196655273e-01,8.622784614562988281e-01,8.622404336929321289e-01,8.622024059295654297e-01,8.621644377708435059e-01,8.621264100074768066e-01,8.620883822441101074e-01,8.620503544807434082e-01,8.620123863220214844e-01,8.619743585586547852e-01,8.619363903999328613e-01,8.618983626365661621e-01,8.618603944778442383e-01,8.618223071098327637e-01,8.617843389511108398e-01,8.617463707923889160e-01,8.617084026336669922e-01,8.616704344749450684e-01,8.616324663162231445e-01,8.615944981575012207e-01,8.615565299987792969e-01,8.615185618400573730e-01,8.614805936813354492e-01,8.614426255226135254e-01,8.614047169685363770e-01,8.613667488098144531e-01,8.613287210464477539e-01,8.612908124923706055e-01,8.612528443336486816e-01,8.612149357795715332e-01,8.611769676208496094e-01,8.611390590667724609e-01,8.611011505126953125e-01,8.610632419586181641e-01,8.610253334045410156e-01,8.609874248504638672e-01,8.609494566917419434e-01,8.609115481376647949e-01,8.608736991882324219e-01,8.608356714248657227e-01,8.607978224754333496e-01,8.607599139213562012e-01,8.607220053672790527e-01,8.606841564178466797e-01,8.606462478637695312e-01,8.606083393096923828e-01,8.605704903602600098e-01,8.605326414108276367e-01
8.212988972663879395e-01,8.212643861770629883e-01,8.212298750877380371e-01,8.211954236030578613e-01,8.211609125137329102e-01,8.211264610290527344e-01,8.210919499397277832e-01,8.210574984550476074e-01,8.210229873657226562e-01,8.209885358810424805e-01,8.209539651870727539e-01,8.209195137023925781e-01,8.208850622177124023e-01,8.208506107330322266e-01,8.208161592483520508e-01,8.207817077636718750e-01,8.207472562789916992e-01,8.207128047943115234e-01,8.206783533096313477e-01,8.206439018249511719e-01,8.206094503402709961e-01,8.205750584602355957e-01,8.205406069755554199e-01,8.205060958862304688e-01,8.204716444015502930e-01,8.204372525215148926e-01,8.204028010368347168e-01,8.203684091567993164e-01,8.203339576721191406e-01,8.202995657920837402e-01,8.202651739120483398e-01,8.202307224273681641e-01,8.201963305473327637e-01,8.201619386672973633e-01,8.201275467872619629e-01,8.200931549072265625e-01,8.200587034225463867e-01,8.200243115425109863e-01,8.199899196624755859e-01,8.199555277824401855e-01,8.199211359024047852e-01,8.198867440223693848e-01,8.198523521423339844e-01,8.198180198669433594e-01,8.197836279869079590e-01,8.197492361068725586e-01,8.197149038314819336e-01,8.196805119514465332e-01,8.196461796760559082e-01,8.196117281913757324e-01,8.195773959159851074e-01,8.195430636405944824e-01,8.195086717605590820e-01,8.194743394851684570e-01,8.194400072097778320e-01,8.194056749343872070e-01,8.193713426589965820e-01,8.193370103836059570e-01,8.193026781082153320e-01,8.192683458328247070e-01,8.192340135574340820e-01,8.191996812820434570e-01,8.191652894020080566e-01,8.191309571266174316e-01,8.190966844558715820e-01,8.190623521804809570e-01,8.190280795097351074e-01,8.189937472343444824e-01,8.189594149589538574e-01,8.189251422882080078e-01,8.188908696174621582e-01,8.188565373420715332e-01,8.188222646713256836e-01,8.187879920005798340e-01,8.187537193298339844e-01,8.187193274497985840e-01,8.186850547790527344e-01,8.186507821083068848e-01,8.186165094375610352e-01,8.185822367668151855e-01
7.830014824867248535e-01,7.829701304435729980e-01,7.829387187957763672e-01,7.829073667526245117e-01,7.828760147094726562e-01,7.828446626663208008e-01,7.828133106231689453e-01,7.827820181846618652e-01,7.827506661415100098e-01,7.827193140983581543e-01,7.826880216598510742e-01,7.826566696166992188e-01,7.826253175735473633e-01,7.825940251350402832e-01,7.825626730918884277e-01,7.825313210487365723e-01,7.824999690055847168e-01,7.824686765670776367e-01,7.824373841285705566e-01,7.824060916900634766e-01,7.823747396469116211e-01,7.823434472084045410e-01,7.823121547698974609e-01,7.822808623313903809e-01,7.822495698928833008e-01,7.822182774543762207e-01,7.821869850158691406e-01,7.821556925773620605e-01,7.821243405342102051e-01,7.820930480957031250e-01,7.820617556571960449e-01,7.820304632186889648e-01,7.819992303848266602e-01,7.819679379463195801e-01,7.819366455078125000e-01,7.819054126739501953e-01,7.818741202354431152e-01,7.818428874015808105e-01,7.818115949630737305e-01,7.817803621292114258e-01,7.817491292953491211e-01,7.817177772521972656e-01,7.816865444183349609e-01,7.816552519798278809e-01,7.816240191459655762e-01,7.815927863121032715e-01,7.815615534782409668e-01,7.815303206443786621e-01,7.814990878105163574e-01,7.814678549766540527e-01,7.814366221427917480e-01,7.814053893089294434e-01,7.813741564750671387e-01,7.813429236412048340e-01,7.813116312026977539e-01,7.812803983688354492e-01,7.812492251396179199e-01,7.812179923057556152e-01,7.811867594718933105e-01,7.811555862426757812e-01,7.811243534088134766e-01,7.810931801795959473e-01,7.810619473457336426e-01,7.810307741165161133e-01,7.809996008872985840e-01,7.809683680534362793e-01,7.809371948242187500e-01,7.809059023857116699e-01,7.808747291564941406e-01,7.808435559272766113e-01,7.808123826980590820e-01,7.807812094688415527e-01,7.807500362396240234e-01,7.807188630104064941e-01,7.806876897811889648e-01,7.806565165519714355e-01,7.806253433227539062e-01,7.805941700935363770e-01,7.805630564689636230e-01,7.805318832397460938e-01
7.481164932250976562e-01,7.480878829956054688e-01,7.480592727661132812e-01,7.480306625366210938e-01,7.480020523071289062e-01,7.479734420776367188e-01,7.479447722434997559e-01,7.479161620140075684e-01,7.478875517845153809e-01,7.478589415550231934e-01,7.478303313255310059e-01,7.478017210960388184e-01,7.477731704711914062e-01,7.477445602416992188e-01,7.477159500122070312e-01,7.476873397827148438e-01,7.476587891578674316e-01,7.476301789283752441e-01,7.476016283035278320e-01,7.475729584693908691e-01,7.475444078445434570e-01,7.475157976150512695e-01,7.474872469902038574e-01,7.474586367607116699e-01,7.474300861358642578e-01,7.474015355110168457e-01,7.473729252815246582e-01,7.473443746566772461e-01,7.473158240318298340e-01,7.472872734069824219e-01,7.472587227821350098e-01,7.472301721572875977e-01,7.472015023231506348e-01,7.471729516983032227e-01,7.471444010734558105e-01,7.471158504486083984e-01,7.470873594284057617e-01,7.470588088035583496e-01,7.470302581787109375e-01,7.470017075538635254e-01,7.469731569290161133e-01,7.469446659088134766e-01,7.469161152839660645e-01,7.468875646591186523e-01,7.468590736389160156e-01,7.468304634094238281e-01,7.468019127845764160e-01,7.467734217643737793e-01,7.467448711395263672e-01,7.467163801193237305e-01,7.466878890991210938e-01,7.466593384742736816e-01,7.466308474540710449e-01,7.466023564338684082e-01,7.465738058090209961e-01,7.465453147888183594e-01,7.465168237686157227e-01,7.464883327484130859e-01,7.464597821235656738e-01,7.464312314987182617e-01,7.464027404785156250e-01,7.463742494583129883e-01,7.463458180427551270e-01,7.463173270225524902e-01,7.462888360023498535e-01,7.462603449821472168e-01,7.462318539619445801e-01,7.462033629417419434e-01,7.461749315261840820e-01,7.461464405059814453e-01,7.461179494857788086e-01,7.460893988609313965e-01,7.460609674453735352e-01,7.460324764251708984e-01,7.460040450096130371e-01,7.459755539894104004e-01,7.459471225738525391e-01,7.459186315536499023e-01,7.458902001380920410e-01,7.458617687225341797e-01
7.162074446678161621e-01,7.161811590194702148e-01,7.161549329757690430e-01,7.161287069320678711e-01,7.161024808883666992e-01,7.160762548446655273e-01,7.160500288009643555e-01,7.160238623619079590e-01,7.159976363182067871e-01,7.159714102745056152e-01,7.159451842308044434e-01,7.159188985824584961e-01,7.158927321434020996e-01,7.158665060997009277e-01,7.158402800559997559e-01,7.158140540122985840e-01,7.157878875732421875e-01,7.157616615295410156e-01,7.157354950904846191e-01,7.157092690467834473e-01,7.156831026077270508e-01,7.156568765640258789e-01,7.156307101249694824e-01,7.156044840812683105e-01,7.155782580375671387e-01,7.155520915985107422e-01,7.155258655548095703e-01,7.154996991157531738e-01,7.154735326766967773e-01,7.154473662376403809e-01,7.154211997985839844e-01,7.153950333595275879e-01,7.153688073158264160e-01,7.153426408767700195e-01,7.153164744377136230e-01,7.152903079986572266e-01,7.152641415596008301e-01,7.152379155158996582e-01,7.152117490768432617e-01,7.151856422424316406e-01,7.151594758033752441e-01,7.151333093643188477e-01,7.151071429252624512e-01,7.150810360908508301e-01,7.150548696517944336e-01,7.150287032127380371e-01,7.150025367736816406e-01,7.149764299392700195e-01,7.149502635002136230e-01,7.149241566658020020e-01,7.148979306221008301e-01,7.148718237876892090e-01,7.148456573486328125e-01,7.148195505142211914e-01,7.147933840751647949e-01,7.147672772407531738e-01,7.147411704063415527e-01,7.147150039672851562e-01,7.146888971328735352e-01,7.146627902984619141e-01,7.146366834640502930e-01,7.146105766296386719e-01,7.145843505859375000e-01,7.145582437515258789e-01,7.145321369171142578e-01,7.145060300827026367e-01,7.144799232482910156e-01,7.144538164138793945e-01,7.144277095794677734e-01,7.144016027450561523e-01,7.143754959106445312e-01,7.143494486808776855e-01,7.143233418464660645e-01,7.142972350120544434e-01,7.142711281776428223e-01,7.142450213432312012e-01,7.142189145088195801e-01,7.141928076744079590e-01,7.141667604446411133e-01,7.141406536102294922e-01
6.869090199470520020e-01,6.868849396705627441e-01,6.868607401847839355e-01,6.868366003036499023e-01,6.868124604225158691e-01,6.867883801460266113e-01,6.867642402648925781e-01,6.867401003837585449e-01,6.867160201072692871e-01,6.866918802261352539e-01,6.866677403450012207e-01,6.866436600685119629e-01,6.866195201873779297e-01,6.865954399108886719e-01,6.865713000297546387e-01,6.865471601486206055e-01,6.865230798721313477e-01,6.864989399909973145e-01,6.864748597145080566e-01,6.864507794380187988e-01,6.864266395568847656e-01,6.864025592803955078e-01,6.863784790039062500e-01,6.863543987274169922e-01,6.863302588462829590e-01,6.863061785697937012e-01,6.862820982933044434e-01,6.862580180168151855e-01,6.862338781356811523e-01,6.862097978591918945e-01,6.861857175827026367e-01,6.861616373062133789e-01,6.861375570297241211e-01,6.861134767532348633e-01,6.860893964767456055e-01,6.860653162002563477e-01,6.860412955284118652e-01,6.860172152519226074e-01,6.859931349754333496e-01,6.859690546989440918e-01,6.859450340270996094e-01,6.859208941459655762e-01,6.858968138694763184e-01,6.858727931976318359e-01,6.858487129211425781e-01,6.858246326446533203e-01,6.858006119728088379e-01,6.857765316963195801e-01,6.857525110244750977e-01,6.857284307479858398e-01,6.857044100761413574e-01,6.856803894042968750e-01,6.856563091278076172e-01,6.856322884559631348e-01,6.856082081794738770e-01,6.855841279029846191e-01,6.855601072311401367e-01,6.855360865592956543e-01,6.855120658874511719e-01,6.854879856109619141e-01,6.854639649391174316e-01,6.854399442672729492e-01,6.854159235954284668e-01,6.853919029235839844e-01,6.853678822517395020e-01,6.853438615798950195e-01,6.853198409080505371e-01,6.852957606315612793e-01,6.852717399597167969e-01,6.852477192878723145e-01,6.852236986160278320e-01,6.851996779441833496e-01,6.851757168769836426e-01,6.851516962051391602e-01,6.851276755332946777e-01,6.851036548614501953e-01,6.850796937942504883e-01,6.850556731224060059e-01,6.850316524505615234e-01,6.850076913833618164e-01
6.599134802818298340e-01,6.598911881446838379e-01,6.598688960075378418e-01,6.598466634750366211e-01,6.598243713378906250e-01,6.598021388053894043e-01,6.597798466682434082e-01,6.597575545310974121e-01,6.597353219985961914e-01,6.597130298614501953e-01,6.596907973289489746e-01,6.596685051918029785e-01,6.596462726593017578e-01,6.596240401268005371e-01,6.596017479896545410e-01,6.595795154571533203e-01,6.595572829246520996e-01,6.595350503921508789e-01,6.595127582550048828e-01,6.594905257225036621e-01,6.594682335853576660e-01,6.594460010528564453e-01,6.594237685203552246e-01,6.594015359878540039e-01,6.593793034553527832e-01,6.593570709228515625e-01,6.593348383903503418e-01,6.593126058578491211e-01,6.592903733253479004e-01,6.592681407928466797e-01,6.592459082603454590e-01,6.592236757278442383e-01,6.592014431953430176e-01,6.591792106628417969e-01,6.591569781303405762e-01,6.591347455978393555e-01,6.591125130653381348e-01,6.590903401374816895e-01,6.590681076049804688e-01,6.590458750724792480e-01,6.590237021446228027e-01,6.590014696121215820e-01,6.589792370796203613e-01,6.589570641517639160e-01,6.589348316192626953e-01,6.589126586914062500e-01,6.588903665542602539e-01,6.588681936264038086e-01,6.588459610939025879e-01,6.588237881660461426e-01,6.588016152381896973e-01,6.587793827056884766e-01,6.587572097778320312e-01,6.587350368499755859e-01,6.587128043174743652e-01,6.586906313896179199e-01,6.586684584617614746e-01,6.586462259292602539e-01,6.586239933967590332e-01,6.586018204689025879e-01,6.585796475410461426e-01,6.585574746131896973e-01,6.585353016853332520e-01,6.585131287574768066e-01,6.584909558296203613e-01,6.584687829017639160e-01,6.584466099739074707e-01,6.584244370460510254e-01,6.584022641181945801e-01,6.583800911903381348e-01,6.583579182624816895e-01,6.583356857299804688e-01,6.583135128021240234e-01,6.582913398742675781e-01,6.582692265510559082e-01,6.582470536231994629e-01,6.582248806953430176e-01,6.582027077674865723e-01,6.581805944442749023e-01,6.581584215164184570e-01
6.349595189094543457e-01,6.349388957023620605e-01,6.349182724952697754e-01,6.348976492881774902e-01,6.348770260810852051e-01,6.348564028739929199e-01,6.348357796669006348e-01,6.348152160644531250e-01,6.347945928573608398e-01,6.347739696502685547e-01,6.347533464431762695e-01,6.347327232360839844e-01,6.347121000289916992e-01,6.346915364265441895e-01,6.346709132194519043e-01,6.346502900123596191e-01,6.346297264099121094e-01,6.346091032028198242e-01,6.345885396003723145e-01,6.345679163932800293e-01,6.345473527908325195e-01,6.345267295837402344e-01,6.345061659812927246e-01,6.344855427742004395e-01,6.344649195671081543e-01,6.344443559646606445e-01,6.344237923622131348e-01,6.344031691551208496e-01,6.343826055526733398e-01,6.343620419502258301e-01,6.343414187431335449e-01,6.343208551406860352e-01,6.343002915382385254e-01,6.342797279357910156e-01,6.342591643333435059e-01,6.342385411262512207e-01,6.342179775238037109e-01,6.341973543167114258e-01,6.341767907142639160e-01,6.341562271118164062e-01,6.341356635093688965e-01,6.341150999069213867e-01,6.340945363044738770e-01,6.340739727020263672e-01,6.340534090995788574e-01,6.340328454971313477e-01,6.340122818946838379e-01,6.339917778968811035e-01,6.339712142944335938e-01,6.339506506919860840e-01,6.339300274848937988e-01,6.339095234870910645e-01,6.338889598846435547e-01,6.338683962821960449e-01,6.338478326797485352e-01,6.338273286819458008e-01,6.338067650794982910e-01,6.337862014770507812e-01,6.337656974792480469e-01,6.337451338768005371e-01,6.337245702743530273e-01,6.337040662765502930e-01,6.336835026741027832e-01,6.336629390716552734e-01,6.336423754692077637e-01,6.336218714714050293e-01,6.336013078689575195e-01,6.335808038711547852e-01,6.335602998733520508e-01,6.335397362709045410e-01,6.335192322731018066e-01,6.334986686706542969e-01,6.334781646728515625e-01,6.334576606750488281e-01,6.334371566772460938e-01,6.334165930747985840e-01,6.333960294723510742e-01,6.333755254745483398e-01,6.333550214767456055e-01,6.333345174789428711e-01
6.118240356445312500e-01,6.118049025535583496e-01,6.117857694625854492e-01,6.117665767669677734e-01,6.117474436759948730e-01,6.117283105850219727e-01,6.117091774940490723e-01,6.116900444030761719e-01,6.116709113121032715e-01,6.116517782211303711e-01,6.116326451301574707e-01,6.116135120391845703e-01,6.115943789482116699e-01,6.115752458572387695e-01,6.115561127662658691e-01,6.115369796752929688e-01,6.115178465843200684e-01,6.114987134933471680e-01,6.114795804023742676e-01,6.114604473114013672e-01,6.114413142204284668e-01,6.114222407341003418e-01,6.114031076431274414e-01,6.113839745521545410e-01,6.113648414611816406e-01,6.113457679748535156e-01,6.113266348838806152e-01,6.113075017929077148e-01,6.112883687019348145e-01,6.112692356109619141e-01,6.112501621246337891e-01,6.112310290336608887e-01,6.112119555473327637e-01,6.111928224563598633e-01,6.111737489700317383e-01,6.111546158790588379e-01,6.111355423927307129e-01,6.111164093017578125e-01,6.110973358154296875e-01,6.110782027244567871e-01,6.110591292381286621e-01,6.110400557518005371e-01,6.110209226608276367e-01,6.110017895698547363e-01,6.109827160835266113e-01,6.109636425971984863e-01,6.109445095062255859e-01,6.109254360198974609e-01,6.109063625335693359e-01,6.108872890472412109e-01,6.108682155609130859e-01,6.108490824699401855e-01,6.108300089836120605e-01,6.108109354972839355e-01,6.107918024063110352e-01,6.107727289199829102e-01,6.107536554336547852e-01,6.107345819473266602e-01,6.107155084609985352e-01,6.106964349746704102e-01,6.106773614883422852e-01,6.106582880020141602e-01,6.106392145156860352e-01,6.106201410293579102e-01,6.106010675430297852e-01,6.105819940567016602e-01,6.105629801750183105e-01,6.105438470840454102e-01,6.105247735977172852e-01,6.105057001113891602e-01,6.104866862297058105e-01,6.104676127433776855e-01,6.104485392570495605e-01,6.104294657707214355e-01,6.104104518890380859e-01,6.103913784027099609e-01,6.103723049163818359e-01,6.103532910346984863e-01,6.103342175483703613e-01,6.103151440620422363e-01
5.903152227401733398e-01,5.902974009513854980e-01,5.902795791625976562e-01,5.902617573738098145e-01,5.902439355850219727e-01,5.902261137962341309e-01,5.902082920074462891e-01,5.901904106140136719e-01,5.901726484298706055e-01,5.901548266410827637e-01,5.901370048522949219e-01,5.901191830635070801e-01,5.901013612747192383e-01,5.900835990905761719e-01,5.900657773017883301e-01,5.900479555130004883e-01,5.900301337242126465e-01,5.900123715400695801e-01,5.899945497512817383e-01,5.899767279624938965e-01,5.899589061737060547e-01,5.899410843849182129e-01,5.899233222007751465e-01,5.899055004119873047e-01,5.898877382278442383e-01,5.898699164390563965e-01,5.898521542549133301e-01,5.898343324661254883e-01,5.898165702819824219e-01,5.897987484931945801e-01,5.897809863090515137e-01,5.897632241249084473e-01,5.897454023361206055e-01,5.897275805473327637e-01,5.897098183631896973e-01,5.896919965744018555e-01,5.896742343902587891e-01,5.896564722061157227e-01,5.896386504173278809e-01,5.896208882331848145e-01,5.896031260490417480e-01,5.895853042602539062e-01,5.895675420761108398e-01,5.895497798919677734e-01,5.895320177078247070e-01,5.895142555236816406e-01,5.894964337348937988e-01,5.894786715507507324e-01,5.894608497619628906e-01,5.894430875778198242e-01,5.894253253936767578e-01,5.894075632095336914e-01,5.893898010253906250e-01,5.893720388412475586e-01,5.893542766571044922e-01,5.893365144729614258e-01,5.893187522888183594e-01,5.893009901046752930e-01,5.892832279205322266e-01,5.892654061317443848e-01,5.892477035522460938e-01,5.892299413681030273e-01,5.892121791839599609e-01,5.891944169998168945e-01,5.891766548156738281e-01,5.891588926315307617e-01,5.891411304473876953e-01,5.891234278678894043e-01,5.891056656837463379e-01,5.890879034996032715e-01,5.890701413154602051e-01,5.890524387359619141e-01,5.890346169471740723e-01,5.890169143676757812e-01,5.889991521835327148e-01,5.889813899993896484e-01,5.889636874198913574e-01,5.889459252357482910e-01,5.889281630516052246e-01,5.889104604721069336e-01
5.702673196792602539e-01,5.702506899833679199e-01,5.702340602874755859e-01,5.702174305915832520e-01,5.702008008956909180e-01,5.701841711997985840e-01,5.701675415039062500e-01,5.701509118080139160e-01,5.701342821121215820e-01,5.701176524162292480e-01,5.701010227203369141e-01,5.700843930244445801e-01,5.700677633285522461e-01,5.700511336326599121e-01,5.700345039367675781e-01,5.700178742408752441e-01,5.700013041496276855e-01,5.699846744537353516e-01,5.699680447578430176e-01,5.699514150619506836e-01,5.699348449707031250e-01,5.699182152748107910e-01,5.699015855789184570e-01,5.698850154876708984e-01,5.698683261871337891e-01,5.698517560958862305e-01,5.698351263999938965e-01,5.698185563087463379e-01,5.698019266128540039e-01,5.697852969169616699e-01,5.697687268257141113e-01,5.697520971298217773e-01,5.697355270385742188e-01,5.697188973426818848e-01,5.697023272514343262e-01,5.696856975555419922e-01,5.696691274642944336e-01,5.696524977684020996e-01,5.696358680725097656e-01,5.696192979812622070e-01,5.696027278900146484e-01,5.695860981941223145e-01,5.695695281028747559e-01,5.695529580116271973e-01,5.695363283157348633e-01,5.695197582244873047e-01,5.695031881332397461e-01,5.694865584373474121e-01,5.694699883460998535e-01,5.694534182548522949e-01,5.694367885589599609e-01,5.694202184677124023e-01,5.694036483764648438e-01,5.693870186805725098e-01,5.693704485893249512e-01,5.693538784980773926e-01,5.693373084068298340e-01,5.693207383155822754e-01,5.693041682243347168e-01,5.692875981330871582e-01,5.692710280418395996e-01,5.692544579505920410e-01,5.692378878593444824e-01,5.692212581634521484e-01,5.692046880722045898e-01,5.691881179809570312e-01,5.691715478897094727e-01,5.691549777984619141e-01,5.691384077072143555e-01,5.691218376159667969e-01,5.691052675247192383e-01,5.690886974334716797e-01,5.690721273422241211e-01,5.690556168556213379e-01,5.690390467643737793e-01,5.690224766731262207e-01,5.690059065818786621e-01,5.689893364906311035e-01,5.689727663993835449e-01,5.689561963081359863e-01
