5.000000000000000000e+00,5.000000000000000000e+00,5.000000000000000000e+00,5.000000000000000000e+00,5.000000000000000000e+00,5.000000000000000000e+00,5.000000000000000000e+00,5.000000000000000000e+00,5.000000000000000000e+00,5.000000000000000000e+00,5.000000000000000000e+00,5.000000000000000000e+00,5.000000000000000000e+00,5.000000000000000000e+00,5.000000000000000000e+00,5.000000000000000000e+00,5.000000000000000000e+00,5.000000000000000000e+00,5.000000000000000000e+00,5.000000000000000000e+00,5.000000000000000000e+00,5.000000000000000000e+00,5.000000000000000000e+00,5.000000000000000000e+00,5.000000000000000000e+00,5.000000000000000000e+00,5.000000000000000000e+00,5.000000000000000000e+00,5.000000000000000000e+00,5.000000000000000000e+00,5.000000000000000000e+00,5.000000000000000000e+00,5.000000000000000000e+00,5.000000000000000000e+00,5.000000000000000000e+00,5.000000000000000000e+00,5.000000000000000000e+00,5.000000000000000000e+00,1.638529658317565918e+00,1.629200816154479980e+00,1.631104588508605957e+00,1.661399483680725098e+00,1.634670138359069824e+00,1.610984325408935547e+00,1.606384754180908203e+00,1.606638669967651367e+00,1.618041515350341797e+00,1.640296578407287598e+00,1.651439785957336426e+00,1.698831796646118164e+00,1.868642210960388184e+00,3.256188392639160156e+00,3.169452905654907227e+00,3.087218523025512695e+00,3.009143590927124023e+00,2.934920072555541992e+00,2.864269971847534180e+00,2.796941280364990234e+00,2.732705354690551758e+00,2.671353578567504883e+00,2.612696409225463867e+00,2.556559562683105469e+00,2.502784252166748047e+00,2.451224803924560547e+00,2.401746749877929688e+00,2.354226589202880859e+00,2.308550357818603516e+00,2.264612913131713867e+00,2.222316741943359375e+00,2.181571483612060547e+00,2.142293214797973633e+00,2.104404449462890625e+00,2.067832469940185547e+00,2.032510280609130859e+00,1.998374342918395996e+00,1.965366125106811523e+00,1.933430552482604980e+00,1.902516245841979980e+00,1.872574925422668457e+00,1.843561530113220215e+00
5.000000000000000000e+00,5.000000000000000000e+00,5.000000000000000000e+00,5.000000000000000000e+00,5.000000000000000000e+00,5.000000000000000000e+00,5.000000000000000000e+00,5.000000000000000000e+00,5.000000000000000000e+00,5.000000000000000000e+00,5.000000000000000000e+00,5.000000000000000000e+00,5.000000000000000000e+00,5.000000000000000000e+00,5.000000000000000000e+00,5.000000000000000000e+00,5.000000000000000000e+00,5.000000000000000000e+00,5.000000000000000000e+00,5.000000000000000000e+00,5.000000000000000000e+00,5.000000000000000000e+00,5.000000000000000000e+00,5.000000000000000000e+00,5.000000000000000000e+00,5.000000000000000000e+00,5.000000000000000000e+00,5.000000000000000000e+00,5.000000000000000000e+00,5.000000000000000000e+00,5.000000000000000000e+00,5.000000000000000000e+00,5.000000000000000000e+00,5.000000000000000000e+00,5.000000000000000000e+00,5.000000000000000000e+00,5.000000000000000000e+00,5.000000000000000000e+00,1.642081379890441895e+00,1.631817936897277832e+00,1.638065814971923828e+00,1.647722840309143066e+00,1.627271890640258789e+00,1.608171105384826660e+00,1.601183295249938965e+00,1.602594614028930664e+00,1.610699653625488281e+00,1.631788134574890137e+00,1.641371726989746094e+00,1.669772148132324219e+00,1.897082209587097168e+00,3.256250619888305664e+00,3.169512033462524414e+00,3.087274551391601562e+00,3.009196758270263672e+00,2.934970617294311523e+00,2.864318132400512695e+00,2.796987056732177734e+00,2.732749223709106445e+00,2.671395540237426758e+00,2.612736463546752930e+00,2.556597948074340820e+00,2.502821207046508789e+00,2.451260089874267578e+00,2.401780605316162109e+00,2.354259252548217773e+00,2.308581590652465820e+00,2.264643192291259766e+00,2.222345590591430664e+00,2.181599378585815430e+00,2.142320156097412109e+00,2.104430437088012695e+00,2.067857742309570312e+00,2.032534599304199219e+00,1.998397707939147949e+00,1.965388655662536621e+00,1.933452367782592773e+00,1.902537465095520020e+00,1.872595429420471191e+00,1.843581438064575195e+00
5.000000000000000000e+00,5.000000000000000000e+00,5.000000000000000000e+00,5.000000000000000000e+00,5.000000000000000000e+00,5.000000000000000000e+00,5.000000000000000000e+00,5.000000000000000000e+00,5.000000000000000000e+00,5.000000000000000000e+00,5.000000000000000000e+00,5.000000000000000000e+00,5.000000000000000000e+00,5.000000000000000000e+00,5.000000000000000000e+00,5.000000000000000000e+00,5.000000000000000000e+00,5.000000000000000000e+00,5.000000000000000000e+00,5.000000000000000000e+00,5.000000000000000000e+00,5.000000000000000000e+00,5.000000000000000000e+00,5.000000000000000000e+00,5.000000000000000000e+00,5.000000000000000000e+00,5.000000000000000000e+00,5.000000000000000000e+00,5.000000000000000000e+00,5.000000000000000000e+00,5.000000000000000000e+00,5.000000000000000000e+00,5.000000000000000000e+00,5.000000000000000000e+00,5.000000000000000000e+00,5.000000000000000000e+00,5.000000000000000000e+00,5.000000000000000000e+00,1.644331574440002441e+00,1.628384470939636230e+00,1.641836285591125488e+00,1.647024273872375488e+00,1.625843882560729980e+00,1.605367779731750488e+00,1.609025120735168457e+00,1.604821205139160156e+00,1.607556462287902832e+00,1.622586965560913086e+00,1.636781692504882812e+00,1.659612298011779785e+00,3.347936391830444336e+00,3.256313323974609375e+00,3.169571161270141602e+00,3.087330818176269531e+00,3.009250164031982422e+00,2.935021400451660156e+00,2.864366531372070312e+00,2.797033309936523438e+00,2.732793092727661133e+00,2.671437740325927734e+00,2.612776756286621094e+00,2.556636571884155273e+00,2.502858161926269531e+00,2.451295614242553711e+00,2.401814699172973633e+00,2.354291915893554688e+00,2.308613061904907227e+00,2.264673471450805664e+00,2.222374677658081055e+00,2.181627511978149414e+00,2.142347335815429688e+00,2.104456663131713867e+00,2.067882776260375977e+00,2.032558917999267578e+00,1.998421192169189453e+00,1.965411543846130371e+00,1.933474421501159668e+00,1.902558803558349609e+00,1.872616171836853027e+00,1.843601465225219727e+00
5.000000000000000000e+00,5.000000000000000000e+00,5.000000000000000000e+00,5.000000000000000000e+00,5.000000000000000000e+00,5.000000000000000000e+00,5.000000000000000000e+00,5.000000000000000000e+00,5.000000000000000000e+00,5.000000000000000000e+00,5.000000000000000000e+00,5.000000000000000000e+00,5.000000000000000000e+00,5.000000000000000000e+00,5.000000000000000000e+00,5.000000000000000000e+00,5.000000000000000000e+00,5.000000000000000000e+00,5.000000000000000000e+00,5.000000000000000000e+00,5.000000000000000000e+00,5.000000000000000000e+00,5.000000000000000000e+00,5.000000000000000000e+00,5.000000000000000000e+00,5.000000000000000000e+00,5.000000000000000000e+00,5.000000000000000000e+00,5.000000000000000000e+00,5.000000000000000000e+00,5.000000000000000000e+00,5.000000000000000000e+00,5.000000000000000000e+00,5.000000000000000000e+00,5.000000000000000000e+00,5.000000000000000000e+00,5.000000000000000000e+00,5.000000000000000000e+00,1.636158227920532227e+00,1.606620430946350098e+00,1.607100367546081543e+00,1.646946907043457031e+00,1.624910473823547363e+00,1.618721604347229004e+00,1.612594604492187500e+00,1.611410379409790039e+00,1.617949128150939941e+00,1.624890446662902832e+00,1.648490905761718750e+00,1.690746307373046875e+00,3.348002195358276367e+00,3.256375551223754883e+00,3.169630289077758789e+00,3.087386608123779297e+00,3.009303331375122070e+00,2.935071945190429688e+00,2.864414691925048828e+00,2.797079324722290039e+00,2.732836961746215820e+00,2.671479463577270508e+00,2.612816810607910156e+00,2.556674957275390625e+00,2.502894878387451172e+00,2.451330900192260742e+00,2.401848554611206055e+00,2.354324579238891602e+00,2.308644533157348633e+00,2.264703512191772461e+00,2.222403764724731445e+00,2.181655406951904297e+00,2.142374277114868164e+00,2.104482650756835938e+00,2.067908048629760742e+00,2.032583236694335938e+00,1.998444795608520508e+00,1.965434312820434570e+00,1.933496475219726562e+00,1.902580142021179199e+00,1.872636795043945312e+00,1.843621492385864258e+00
5.000000000000000000e+00,5.000000000000000000e+00,5.000000000000000000e+00,5.000000000000000000e+00,5.000000000000000000e+00,5.000000000000000000e+00,5.000000000000000000e+00,5.000000000000000000e+00,5.000000000000000000e+00,5.000000000000000000e+00,5.000000000000000000e+00,5.000000000000000000e+00,5.000000000000000000e+00,5.000000000000000000e+00,5.000000000000000000e+00,5.000000000000000000e+00,5.000000000000000000e+00,5.000000000000000000e+00,5.000000000000000000e+00,5.000000000000000000e+00,5.000000000000000000e+00,5.000000000000000000e+00,5.000000000000000000e+00,5.000000000000000000e+00,5.000000000000000000e+00,5.000000000000000000e+00,5.000000000000000000e+00,5.000000000000000000e+00,5.000000000000000000e+00,5.000000000000000000e+00,5.000000000000000000e+00,5.000000000000000000e+00,5.000000000000000000e+00,5.000000000000000000e+00,5.000000000000000000e+00,5.000000000000000000e+00,5.000000000000000000e+00,5.000000000000000000e+00,1.648411989212036133e+00,1.594664335250854492e+00,1.585824489593505859e+00,1.606850028038024902e+00,1.622969627380371094e+00,1.617259144783020020e+00,1.612359523773193359e+00,1.614428997039794922e+00,1.620103359222412109e+00,1.623555302619934082e+00,1.651244282722473145e+00,1.680149555206298828e+00,3.348067998886108398e+00,3.256437778472900391e+00,3.169689178466796875e+00,3.087442636489868164e+00,3.009356498718261719e+00,2.935122489929199219e+00,2.864462852478027344e+00,2.797125101089477539e+00,2.732880830764770508e+00,2.671521425247192383e+00,2.612856864929199219e+00,2.556713342666625977e+00,2.502931594848632812e+00,2.451366186141967773e+00,2.401882410049438477e+00,2.354357004165649414e+00,2.308675765991210938e+00,2.264733552932739258e+00,2.222432851791381836e+00,2.181683301925659180e+00,2.142401218414306641e+00,2.104508638381958008e+00,2.067933082580566406e+00,2.032607316970825195e+00,1.998468160629272461e+00,1.965456843376159668e+00,1.933518409729003906e+00,1.902601242065429688e+00,1.872657299041748047e+00,1.843641400337219238e+00
5.000000000000000000e+00,5.000000000000000000e+00,5.000000000000000000e+00,5.000000000000000000e+00,5.000000000000000000e+00,5.000000000000000000e+00,5.000000000000000000e+00,5.000000000000000000e+00,5.000000000000000000e+00,5.000000000000000000e+00,5.000000000000000000e+00,5.000000000000000000e+00,5.000000000000000000e+00,5.000000000000000000e+00,5.000000000000000000e+00,5.000000000000000000e+00,5.000000000000000000e+00,5.000000000000000000e+00,5.000000000000000000e+00,5.000000000000000000e+00,5.000000000000000000e+00,5.000000000000000000e+00,5.000000000000000000e+00,5.000000000000000000e+00,5.000000000000000000e+00,5.000000000000000000e+00,5.000000000000000000e+00,5.000000000000000000e+00,5.000000000000000000e+00,5.000000000000000000e+00,5.000000000000000000e+00,5.000000000000000000e+00,5.000000000000000000e+00,5.000000000000000000e+00,5.000000000000000000e+00,5.000000000000000000e+00,5.000000000000000000e+00,5.000000000000000000e+00,5.000000000000000000e+00,1.584064006805419922e+00,1.567279696464538574e+00,1.578438520431518555e+00,1.619539380073547363e+00,1.616652250289916992e+00,1.612759470939636230e+00,1.617713093757629395e+00,1.627185463905334473e+00,1.636606454849243164e+00,1.656352400779724121e+00,1.679461598396301270e+00,3.348134279251098633e+00,3.256500482559204102e+00,3.169748544692993164e+00,3.087498903274536133e+00,3.009409904479980469e+00,2.935173511505126953e+00,2.864511251449584961e+00,2.797171354293823242e+00,2.732924938201904297e+00,2.671563625335693359e+00,2.612897157669067383e+00,2.556751728057861328e+00,2.502968549728393555e+00,2.451401710510253906e+00,2.401916503906250000e+00,2.354389667510986328e+00,2.308707237243652344e+00,2.264763832092285156e+00,2.222461938858032227e+00,2.181711435317993164e+00,2.142428159713745117e+00,2.104534864425659180e+00,2.067958354949951172e+00,2.032631635665893555e+00,1.998491644859313965e+00,1.965479612350463867e+00,1.933540463447570801e+00,1.902622580528259277e+00,1.872678041458129883e+00,1.843661427497863770e+00
5.000000000000000000e+00,5.000000000000000000e+00,5.000000000000000000e+00,5.000000000000000000e+00,5.000000000000000000e+00,5.000000000000000000e+00,5.000000000000000000e+00,5.000000000000000000e+00,5.000000000000000000e+00,5.000000000000000000e+00,5.000000000000000000e+00,5.000000000000000000e+00,5.000000000000000000e+00,5.000000000000000000e+00,5.000000000000000000e+00,5.000000000000000000e+00,5.000000000000000000e+00,5.000000000000000000e+00,5.000000000000000000e+00,5.000000000000000000e+00,5.000000000000000000e+00,5.000000000000000000e+00,5.000000000000000000e+00,5.000000000000000000e+00,5.000000000000000000e+00,5.000000000000000000e+00,5.000000000000000000e+00,5.000000000000000000e+00,5.000000000000000000e+00,5.000000000000000000e+00,5.000000000000000000e+00,5.000000000000000000e+00,5.000000000000000000e+00,5.000000000000000000e+00,5.000000000000000000e+00,5.000000000000000000e+00,5.000000000000000000e+00,5.000000000000000000e+00,5.000000000000000000e+00,1.568943500518798828e+00,1.551730275154113770e+00,1.551030755043029785e+00,1.614392161369323730e+00,1.612162232398986816e+00,1.609743714332580566e+00,1.632703423500061035e+00,1.642352581024169922e+00,1.655906558036804199e+00,1.674160957336425781e+00,1.678409457206726074e+00,1.735934257507324219e+00,3.256562709808349609e+00,3.169807434082031250e+00,3.087554931640625000e+00,3.009463071823120117e+00,2.935224056243896484e+00,2.864559412002563477e+00,2.797217369079589844e+00,2.732968807220458984e+00,2.671605587005615234e+00,2.612937211990356445e+00,2.556790113449096680e+00,2.503005504608154297e+00,2.451436996459960938e+00,2.401950359344482422e+00,2.354422330856323242e+00,2.308738470077514648e+00,2.264793872833251953e+00,2.222491025924682617e+00,2.181739330291748047e+00,2.142455339431762695e+00,2.104560852050781250e+00,2.067983388900756836e+00,2.032655954360961914e+00,1.998515248298645020e+00,1.965502500534057617e+00,1.933562517166137695e+00,1.902644038200378418e+00,1.872698664665222168e+00,1.843681454658508301e+00
5.000000000000000000e+00,5.000000000000000000e+00,5.000000000000000000e+00,5.000000000000000000e+00,5.000000000000000000e+00,5.000000000000000000e+00,5.000000000000000000e+00,5.000000000000000000e+00,5.000000000000000000e+00,5.000000000000000000e+00,5.000000000000000000e+00,5.000000000000000000e+00,5.000000000000000000e+00,5.000000000000000000e+00,5.000000000000000000e+00,5.000000000000000000e+00,5.000000000000000000e+00,5.000000000000000000e+00,5.000000000000000000e+00,5.000000000000000000e+00,5.000000000000000000e+00,5.000000000000000000e+00,5.000000000000000000e+00,5.000000000000000000e+00,5.000000000000000000e+00,5.000000000000000000e+00,5.000000000000000000e+00,5.000000000000000000e+00,5.000000000000000000e+00,5.000000000000000000e+00,5.000000000000000000e+00,5.000000000000000000e+00,5.000000000000000000e+00,5.000000000000000000e+00,5.000000000000000000e+00,5.000000000000000000e+00,5.000000000000000000e+00,5.000000000000000000e+00,5.000000000000000000e+00,1.567833304405212402e+00,1.539259672164916992e+00,1.532960295677185059e+00,1.603171348571777344e+00,1.603737115859985352e+00,1.604466676712036133e+00,1.633662343025207520e+00,1.652936339378356934e+00,1.673705339431762695e+00,1.665142893791198730e+00,1.661215782165527344e+00,1.673721432685852051e+00,3.256624937057495117e+00,3.169866561889648438e+00,3.087610721588134766e+00,3.009516239166259766e+00,2.935274600982666016e+00,2.864607572555541992e+00,2.797263145446777344e+00,2.733012676239013672e+00,2.671647310256958008e+00,2.612977266311645508e+00,2.556828498840332031e+00,2.503042221069335938e+00,2.451472282409667969e+00,2.401984214782714844e+00,2.354454755783081055e+00,2.308769702911376953e+00,2.264824151992797852e+00,2.222519874572753906e+00,2.181767225265502930e+00,2.142482280731201172e+00,2.104586839675903320e+00,2.068008422851562500e+00,2.032680273056030273e+00,1.998538613319396973e+00,1.965525031089782715e+00,1.933584332466125488e+00,1.902665138244628906e+00,1.872719168663024902e+00,1.843701362609863281e+00
5.000000000000000000e+00,5.000000000000000000e+00,5.000000000000000000e+00,5.000000000000000000e+00,5.000000000000000000e+00,5.000000000000000000e+00,5.000000000000000000e+00,5.000000000000000000e+00,5.000000000000000000e+00,5.000000000000000000e+00,5.000000000000000000e+00,5.000000000000000000e+00,5.000000000000000000e+00,5.000000000000000000e+00,5.000000000000000000e+00,5.000000000000000000e+00,5.000000000000000000e+00,5.000000000000000000e+00,5.000000000000000000e+00,5.000000000000000000e+00,5.000000000000000000e+00,5.000000000000000000e+00,5.000000000000000000e+00,5.000000000000000000e+00,5.000000000000000000e+00,5.000000000000000000e+00,5.000000000000000000e+00,5.000000000000000000e+00,5.000000000000000000e+00,5.000000000000000000e+00,5.000000000000000000e+00,5.000000000000000000e+00,5.000000000000000000e+00,5.000000000000000000e+00,5.000000000000000000e+00,5.000000000000000000e+00,5.000000000000000000e+00,5.000000000000000000e+00,5.000000000000000000e+00,1.575373649597167969e+00,1.535888314247131348e+00,1.527929782867431641e+00,1.593214750289916992e+00,1.592672824859619141e+00,1.593223452568054199e+00,1.618438601493835449e+00,1.693033456802368164e+00,1.658333420753479004e+00,1.638331413269042969e+00,1.633014559745788574e+00,1.632510066032409668e+00,1.693305492401123047e+00,3.169925689697265625e+00,3.087666988372802734e+00,3.009569644927978516e+00,2.935325384140014648e+00,2.864655971527099609e+00,2.797309398651123047e+00,2.733056783676147461e+00,2.671689510345458984e+00,2.613017559051513672e+00,2.556867122650146484e+00,2.503079175949096680e+00,2.451507568359375000e+00,2.402018308639526367e+00,2.354487657546997070e+00,2.308801174163818359e+00,2.264854431152343750e+00,2.222548961639404297e+00,2.181795358657836914e+00,2.142509222030639648e+00,2.104612827301025391e+00,2.068033695220947266e+00,2.032704591751098633e+00,1.998562097549438477e+00,1.965547800064086914e+00,1.933606386184692383e+00,1.902686476707458496e+00,1.872739911079406738e+00,1.843721389770507812e+00
5.000000000000000000e+00,5.000000000000000000e+00,5.000000000000000000e+00,5.000000000000000000e+00,5.000000000000000000e+00,5.000000000000000000e+00,5.000000000000000000e+00,5.000000000000000000e+00,5.000000000000000000e+00,5.000000000000000000e+00,5.000000000000000000e+00,5.000000000000000000e+00,5.000000000000000000e+00,5.000000000000000000e+00,5.000000000000000000e+00,5.000000000000000000e+00,5.000000000000000000e+00,5.000000000000000000e+00,5.000000000000000000e+00,5.000000000000000000e+00,5.000000000000000000e+00,5.000000000000000000e+00,5.000000000000000000e+00,5.000000000000000000e+00,5.000000000000000000e+00,5.000000000000000000e+00,5.000000000000000000e+00,5.000000000000000000e+00,5.000000000000000000e+00,5.000000000000000000e+00,5.000000000000000000e+00,5.000000000000000000e+00,5.000000000000000000e+00,5.000000000000000000e+00,5.000000000000000000e+00,5.000000000000000000e+00,5.000000000000000000e+00,5.000000000000000000e+00,5.000000000000000000e+00,4.849594116210937500e+00,1.520566940307617188e+00,1.492980599403381348e+00,1.498266577720642090e+00,1.589225172996520996e+00,1.587350130081176758e+00,1.600114107131958008e+00,1.681144952774047852e+00,1.649853944778442383e+00,1.624020576477050781e+00,1.622890591621398926e+00,1.621762156486511230e+00,1.662169218063354492e+00,3.169984817504882812e+00,3.087723016738891602e+00,3.009622812271118164e+00,2.935375928878784180e+00,2.864704132080078125e+00,2.797355413436889648e+00,2.733100652694702148e+00,2.671731472015380859e+00,2.613057613372802734e+00,2.556905508041381836e+00,2.503115892410278320e+00,2.451542854309082031e+00,2.402052164077758789e+00,2.354520082473754883e+00,2.308832406997680664e+00,2.264884471893310547e+00,2.222578048706054688e+00,2.181823253631591797e+00,2.142536163330078125e+00,2.104638814926147461e+00,2.068058967590332031e+00,2.032728910446166992e+00,1.998585700988769531e+00,1.965570569038391113e+00,1.933628439903259277e+00,1.902707815170288086e+00,1.872760653495788574e+00,1.843741416931152344e+00
5.000000000000000000e+00,5.000000000000000000e+00,5.000000000000000000e+00,5.000000000000000000e+00,5.000000000000000000e+00,5.000000000000000000e+00,5.000000000000000000e+00,5.000000000000000000e+00,5.000000000000000000e+00,5.000000000000000000e+00,5.000000000000000000e+00,5.000000000000000000e+00,5.000000000000000000e+00,5.000000000000000000e+00,5.000000000000000000e+00,5.000000000000000000e+00,5.000000000000000000e+00,5.000000000000000000e+00,5.000000000000000000e+00,5.000000000000000000e+00,5.000000000000000000e+00,5.000000000000000000e+00,5.000000000000000000e+00,5.000000000000000000e+00,5.000000000000000000e+00,5.000000000000000000e+00,5.000000000000000000e+00,5.000000000000000000e+00,5.000000000000000000e+00,5.000000000000000000e+00,5.000000000000000000e+00,5.000000000000000000e+00,5.000000000000000000e+00,5.000000000000000000e+00,5.000000000000000000e+00,5.000000000000000000e+00,5.000000000000000000e+00,5.000000000000000000e+00,5.000000000000000000e+00,4.849731922149658203e+00,1.509157896041870117e+00,1.483553051948547363e+00,1.481328010559082031e+00,1.479945421218872070e+00,1.585255384445190430e+00,1.595363855361938477e+00,1.637205719947814941e+00,1.648423552513122559e+00,1.622304916381835938e+00,1.615849494934082031e+00,1.615504980087280273e+00,1.638941526412963867e+00,3.170043706893920898e+00,3.087779045104980469e+00,3.009675979614257812e+00,2.935426473617553711e+00,2.864752292633056641e+00,2.797401189804077148e+00,2.733144521713256836e+00,2.671773433685302734e+00,2.613097667694091797e+00,2.556943893432617188e+00,2.503152847290039062e+00,2.451578140258789062e+00,2.402086019515991211e+00,2.354552745819091797e+00,2.308863878250122070e+00,2.264914512634277344e+00,2.222607135772705078e+00,2.181851148605346680e+00,2.142563104629516602e+00,2.104664802551269531e+00,2.068084001541137695e+00,2.032753229141235352e+00,1.998609066009521484e+00,1.965593218803405762e+00,1.933650255203247070e+00,1.902729034423828125e+00,1.872781038284301758e+00,1.843761324882507324e+00
5.000000000000000000e+00,5.000000000000000000e+00,5.000000000000000000e+00,5.000000000000000000e+00,5.000000000000000000e+00,5.000000000000000000e+00,5.000000000000000000e+00,5.000000000000000000e+00,5.000000000000000000e+00,5.000000000000000000e+00,5.000000000000000000e+00,5.000000000000000000e+00,5.000000000000000000e+00,5.000000000000000000e+00,5.000000000000000000e+00,5.000000000000000000e+00,5.000000000000000000e+00,5.000000000000000000e+00,5.000000000000000000e+00,5.000000000000000000e+00,5.000000000000000000e+00,5.000000000000000000e+00,5.000000000000000000e+00,5.000000000000000000e+00,5.000000000000000000e+00,5.000000000000000000e+00,5.000000000000000000e+00,5.000000000000000000e+00,5.000000000000000000e+00,5.000000000000000000e+00,5.000000000000000000e+00,5.000000000000000000e+00,5.000000000000000000e+00,5.000000000000000000e+00,5.000000000000000000e+00,5.000000000000000000e+00,5.000000000000000000e+00,5.000000000000000000e+00,5.000000000000000000e+00,4.849870681762695312e+00,1.502646684646606445e+00,1.475340843200683594e+00,1.448702931404113770e+00,1.587443351745605469e+00,1.584997177124023438e+00,1.595001459121704102e+00,1.636489152908325195e+00,1.646726608276367188e+00,1.620071768760681152e+00,1.608995318412780762e+00,1.609601020812988281e+00,1.618920207023620605e+00,3.170103073120117188e+00,3.087835311889648438e+00,3.009729385375976562e+00,2.935477495193481445e+00,2.864800930023193359e+00,2.797447443008422852e+00,2.733188629150390625e+00,2.671815395355224609e+00,2.613137960433959961e+00,2.556982517242431641e+00,2.503189802169799805e+00,2.451613664627075195e+00,2.402120113372802734e+00,2.354585409164428711e+00,2.308895349502563477e+00,2.264944791793823242e+00,2.222636222839355469e+00,2.181879281997680664e+00,2.142590284347534180e+00,2.104691028594970703e+00,2.068109273910522461e+00,2.032777547836303711e+00,1.998632669448852539e+00,1.965615987777709961e+00,1.933672308921813965e+00,1.902750372886657715e+00,1.872801780700683594e+00,1.843781352043151855e+00
5.000000000000000000e+00,5.000000000000000000e+00,5.000000000000000000e+00,5.000000000000000000e+00,5.000000000000000000e+00,5.000000000000000000e+00,5.000000000000000000e+00,5.000000000000000000e+00,5.000000000000000000e+00,5.000000000000000000e+00,5.000000000000000000e+00,5.000000000000000000e+00,5.000000000000000000e+00,5.000000000000000000e+00,5.000000000000000000e+00,5.000000000000000000e+00,5.000000000000000000e+00,5.000000000000000000e+00,5.000000000000000000e+00,5.000000000000000000e+00,5.000000000000000000e+00,5.000000000000000000e+00,5.000000000000000000e+00,5.000000000000000000e+00,5.000000000000000000e+00,5.000000000000000000e+00,5.000000000000000000e+00,5.000000000000000000e+00,5.000000000000000000e+00,5.000000000000000000e+00,5.000000000000000000e+00,5.000000000000000000e+00,5.000000000000000000e+00,5.000000000000000000e+00,5.000000000000000000e+00,5.000000000000000000e+00,5.000000000000000000e+00,5.000000000000000000e+00,5.000000000000000000e+00,4.850008964538574219e+00,1.520464420318603516e+00,1.460743188858032227e+00,1.591131925582885742e+00,1.587609410285949707e+00,1.585162639617919922e+00,1.597524046897888184e+00,1.636307835578918457e+00,1.644478559494018555e+00,1.617783308029174805e+00,1.600726962089538574e+00,1.602934241294860840e+00,1.603400826454162598e+00,3.170162200927734375e+00,3.087891340255737305e+00,3.009782552719116211e+00,2.935528039932250977e+00,2.864849090576171875e+00,2.797493457794189453e+00,2.733232498168945312e+00,2.671857357025146484e+00,2.613178253173828125e+00,2.557020902633666992e+00,2.503226518630981445e+00,2.451648950576782227e+00,2.402153968811035156e+00,2.354617834091186523e+00,2.308926582336425781e+00,2.264975070953369141e+00,2.222665309906005859e+00,2.181907176971435547e+00,2.142617225646972656e+00,2.104717016220092773e+00,2.068134307861328125e+00,2.032801866531372070e+00,1.998656153678894043e+00,1.965638756752014160e+00,1.933694362640380859e+00,1.902771711349487305e+00,1.872822523117065430e+00,1.843801379203796387e+00
5.000000000000000000e+00,5.000000000000000000e+00,5.000000000000000000e+00,5.000000000000000000e+00,5.000000000000000000e+00,5.000000000000000000e+00,5.000000000000000000e+00,5.000000000000000000e+00,5.000000000000000000e+00,5.000000000000000000e+00,5.000000000000000000e+00,5.000000000000000000e+00,5.000000000000000000e+00,5.000000000000000000e+00,5.000000000000000000e+00,5.000000000000000000e+00,5.000000000000000000e+00,5.000000000000000000e+00,5.000000000000000000e+00,5.000000000000000000e+00,5.000000000000000000e+00,5.000000000000000000e+00,5.000000000000000000e+00,5.000000000000000000e+00,5.000000000000000000e+00,5.000000000000000000e+00,5.000000000000000000e+00,5.000000000000000000e+00,5.000000000000000000e+00,5.000000000000000000e+00,5.000000000000000000e+00,5.000000000000000000e+00,5.000000000000000000e+00,5.000000000000000000e+00,5.000000000000000000e+00,5.000000000000000000e+00,5.000000000000000000e+00,5.000000000000000000e+00,5.000000000000000000e+00,4.850147247314453125e+00,1.508134007453918457e+00,1.626163005828857422e+00,1.592211604118347168e+00,1.588302135467529297e+00,1.585328221321105957e+00,1.600054383277893066e+00,1.691267013549804688e+00,1.642236828804016113e+00,1.615501403808593750e+00,1.592543005943298340e+00,1.594727754592895508e+00,1.596931457519531250e+00,3.170221328735351562e+00,3.087947607040405273e+00,3.009836196899414062e+00,2.935578823089599609e+00,2.864897489547729492e+00,2.797539710998535156e+00,2.733276367187500000e+00,2.671899557113647461e+00,2.613218545913696289e+00,2.557059526443481445e+00,2.503263473510742188e+00,2.451684474945068359e+00,2.402188062667846680e+00,2.354650735855102539e+00,2.308958053588867188e+00,2.265005350112915039e+00,2.222694396972656250e+00,2.181935310363769531e+00,2.142644166946411133e+00,2.104743242263793945e+00,2.068159580230712891e+00,2.032826185226440430e+00,1.998679757118225098e+00,1.965661525726318359e+00,1.933716416358947754e+00,1.902793169021606445e+00,1.872843146324157715e+00,1.843821525573730469e+00
5.000000000000000000e+00,5.000000000000000000e+00,5.000000000000000000e+00,5.000000000000000000e+00,5.000000000000000000e+00,5.000000000000000000e+00,5.000000000000000000e+00,5.000000000000000000e+00,5.000000000000000000e+00,5.000000000000000000e+00,5.000000000000000000e+00,5.000000000000000000e+00,5.000000000000000000e+00,5.000000000000000000e+00,5.000000000000000000e+00,5.000000000000000000e+00,5.000000000000000000e+00,5.000000000000000000e+00,5.000000000000000000e+00,5.000000000000000000e+00,5.000000000000000000e+00,5.000000000000000000e+00,5.000000000000000000e+00,5.000000000000000000e+00,5.000000000000000000e+00,5.000000000000000000e+00,5.000000000000000000e+00,5.000000000000000000e+00,5.000000000000000000e+00,5.000000000000000000e+00,5.000000000000000000e+00,5.000000000000000000e+00,5.000000000000000000e+00,5.000000000000000000e+00,5.000000000000000000e+00,5.000000000000000000e+00,5.000000000000000000e+00,5.000000000000000000e+00,5.000000000000000000e+00,4.850285530090332031e+00,4.660315513610839844e+00,1.632766962051391602e+00,1.593292713165283203e+00,1.589377999305725098e+00,1.585493564605712891e+00,1.601819992065429688e+00,1.698161005973815918e+00,1.640001058578491211e+00,1.612858295440673828e+00,1.587226867675781250e+00,1.587527513504028320e+00,1.589873194694519043e+00,1.648269653320312500e+00,3.088003635406494141e+00,3.009889364242553711e+00,2.935629367828369141e+00,2.864945650100708008e+00,2.797585487365722656e+00,2.733320236206054688e+00,2.671941518783569336e+00,2.613258600234985352e+00,2.557097911834716797e+00,2.503300189971923828e+00,2.451719760894775391e+00,2.402221918106079102e+00,2.354683160781860352e+00,2.308989286422729492e+00,2.265035390853881836e+00,2.222723484039306641e+00,2.181963443756103516e+00,2.142671346664428711e+00,2.104769229888916016e+00,2.068184614181518555e+00,2.032850503921508789e+00,1.998703122138977051e+00,1.965684175491333008e+00,1.933738350868225098e+00,1.902814269065856934e+00,1.872863650321960449e+00,1.843841314315795898e+00
5.000000000000000000e+00,5.000000000000000000e+00,5.000000000000000000e+00,5.000000000000000000e+00,5.000000000000000000e+00,5.000000000000000000e+00,5.000000000000000000e+00,5.000000000000000000e+00,5.000000000000000000e+00,5.000000000000000000e+00,5.000000000000000000e+00,5.000000000000000000e+00,5.000000000000000000e+00,5.000000000000000000e+00,5.000000000000000000e+00,5.000000000000000000e+00,5.000000000000000000e+00,5.000000000000000000e+00,5.000000000000000000e+00,5.000000000000000000e+00,5.000000000000000000e+00,5.000000000000000000e+00,5.000000000000000000e+00,5.000000000000000000e+00,5.000000000000000000e+00,5.000000000000000000e+00,5.000000000000000000e+00,5.000000000000000000e+00,5.000000000000000000e+00,5.000000000000000000e+00,5.000000000000000000e+00,5.000000000000000000e+00,5.000000000000000000e+00,5.000000000000000000e+00,5.000000000000000000e+00,5.000000000000000000e+00,5.000000000000000000e+00,5.000000000000000000e+00,5.000000000000000000e+00,4.850423812866210938e+00,4.660443305969238281e+00,1.639030337333679199e+00,1.594730138778686523e+00,1.589735627174377441e+00,1.586020827293395996e+00,1.601903796195983887e+00,3.773616790771484375e+00,1.642081022262573242e+00,1.608334183692932129e+00,1.584570050239562988e+00,1.578694820404052734e+00,1.582877039909362793e+00,1.612681865692138672e+00,3.088059425354003906e+00,3.009942531585693359e+00,2.935680150985717773e+00,2.864993810653686523e+00,2.797631502151489258e+00,2.733364105224609375e+00,2.671983242034912109e+00,2.613298654556274414e+00,2.557136297225952148e+00,2.503337144851684570e+00,2.451755046844482422e+00,2.402255773544311523e+00,2.354715824127197266e+00,2.309020757675170898e+00,2.265065431594848633e+00,2.222752332687377930e+00,2.181991338729858398e+00,2.142698287963867188e+00,2.104795217514038086e+00,2.068209886550903320e+00,2.032874822616577148e+00,1.998726725578308105e+00,1.965706944465637207e+00,1.933760404586791992e+00,1.902835607528686523e+00,1.872884392738342285e+00,1.843861460685729980e+00
5.000000000000000000e+00,5.000000000000000000e+00,5.000000000000000000e+00,5.000000000000000000e+00,5.000000000000000000e+00,5.000000000000000000e+00,5.000000000000000000e+00,5.000000000000000000e+00,5.000000000000000000e+00,5.000000000000000000e+00,5.000000000000000000e+00,5.000000000000000000e+00,5.000000000000000000e+00,5.000000000000000000e+00,5.000000000000000000e+00,5.000000000000000000e+00,5.000000000000000000e+00,5.000000000000000000e+00,5.000000000000000000e+00,5.000000000000000000e+00,5.000000000000000000e+00,5.000000000000000000e+00,5.000000000000000000e+00,5.000000000000000000e+00,5.000000000000000000e+00,5.000000000000000000e+00,5.000000000000000000e+00,5.000000000000000000e+00,5.000000000000000000e+00,5.000000000000000000e+00,5.000000000000000000e+00,5.000000000000000000e+00,5.000000000000000000e+00,5.000000000000000000e+00,5.000000000000000000e+00,5.000000000000000000e+00,5.000000000000000000e+00,5.000000000000000000e+00,5.000000000000000000e+00,4.850562572479248047e+00,4.660571098327636719e+00,1.649135470390319824e+00,1.601589560508728027e+00,1.588802218437194824e+00,1.585091829299926758e+00,1.603480219841003418e+00,3.773700952529907227e+00,1.647375702857971191e+00,1.603835582733154297e+00,1.581922054290771484e+00,1.567961931228637695e+00,1.574696063995361328e+00,1.578598260879516602e+00,3.088115692138671875e+00,3.009995937347412109e+00,2.935730934143066406e+00,2.865042209625244141e+00,2.797677755355834961e+00,2.733408212661743164e+00,2.672025442123413086e+00,2.613338947296142578e+00,2.557174921035766602e+00,2.503374099731445312e+00,2.451790571212768555e+00,2.402289867401123047e+00,2.354748487472534180e+00,2.309051990509033203e+00,2.265095710754394531e+00,2.222781658172607422e+00,2.182019472122192383e+00,2.142725229263305664e+00,2.104821443557739258e+00,2.068234920501708984e+00,2.032899141311645508e+00,1.998750209808349609e+00,1.965729713439941406e+00,1.933782458305358887e+00,1.902856945991516113e+00,1.872905015945434570e+00,1.843881487846374512e+00
5.000000000000000000e+00,5.000000000000000000e+00,5.000000000000000000e+00,5.000000000000000000e+00,5.000000000000000000e+00,5.000000000000000000e+00,5.000000000000000000e+00,5.000000000000000000e+00,5.000000000000000000e+00,5.000000000000000000e+00,5.000000000000000000e+00,5.000000000000000000e+00,5.000000000000000000e+00,5.000000000000000000e+00,5.000000000000000000e+00,5.000000000000000000e+00,5.000000000000000000e+00,5.000000000000000000e+00,5.000000000000000000e+00,5.000000000000000000e+00,5.000000000000000000e+00,5.000000000000000000e+00,5.000000000000000000e+00,5.000000000000000000e+00,5.000000000000000000e+00,5.000000000000000000e+00,5.000000000000000000e+00,5.000000000000000000e+00,5.000000000000000000e+00,5.000000000000000000e+00,5.000000000000000000e+00,5.000000000000000000e+00,5.000000000000000000e+00,5.000000000000000000e+00,5.000000000000000000e+00,5.000000000000000000e+00,5.000000000000000000e+00,5.000000000000000000e+00,5.000000000000000000e+00,4.850700855255126953e+00,4.660698413848876953e+00,1.662186980247497559e+00,1.608508348464965820e+00,1.587869882583618164e+00,1.584163904190063477e+00,1.605085372924804688e+00,3.773784637451171875e+00,1.661149501800537109e+00,1.599362015724182129e+00,1.579282879829406738e+00,1.560452938079833984e+00,1.564017176628112793e+00,1.570717334747314453e+00,3.088171720504760742e+00,3.010049104690551758e+00,2.935781478881835938e+00,2.865090370178222656e+00,2.797723531723022461e+00,2.733452081680297852e+00,2.672067403793334961e+00,2.613379001617431641e+00,2.557213306427001953e+00,2.503410816192626953e+00,2.451825857162475586e+00,2.402323722839355469e+00,2.354780912399291992e+00,2.309083461761474609e+00,2.265125989913940430e+00,2.222810506820678711e+00,2.182047367095947266e+00,2.142752170562744141e+00,2.104847431182861328e+00,2.068260192871093750e+00,2.032923460006713867e+00,1.998773574829101562e+00,1.965752363204956055e+00,1.933804273605346680e+00,1.902878165245056152e+00,1.872925519943237305e+00,1.843901395797729492e+00
5.000000000000000000e+00,5.000000000000000000e+00,5.000000000000000000e+00,5.000000000000000000e+00,5.000000000000000000e+00,5.000000000000000000e+00,5.000000000000000000e+00,5.000000000000000000e+00,5.000000000000000000e+00,5.000000000000000000e+00,5.000000000000000000e+00,5.000000000000000000e+00,5.000000000000000000e+00,5.000000000000000000e+00,5.000000000000000000e+00,5.000000000000000000e+00,5.000000000000000000e+00,5.000000000000000000e+00,5.000000000000000000e+00,5.000000000000000000e+00,5.000000000000000000e+00,5.000000000000000000e+00,5.000000000000000000e+00,5.000000000000000000e+00,5.000000000000000000e+00,5.000000000000000000e+00,5.000000000000000000e+00,5.000000000000000000e+00,5.000000000000000000e+00,5.000000000000000000e+00,5.000000000000000000e+00,5.000000000000000000e+00,5.000000000000000000e+00,5.000000000000000000e+00,5.000000000000000000e+00,5.000000000000000000e+00,5.000000000000000000e+00,5.000000000000000000e+00,5.000000000000000000e+00,4.850839138031005859e+00,4.660826683044433594e+00,1.672466635704040527e+00,1.615486860275268555e+00,1.588994741439819336e+00,1.583236932754516602e+00,1.605842232704162598e+00,3.773868083953857422e+00,3.657852888107299805e+00,1.595841169357299805e+00,1.575798153877258301e+00,1.558217406272888184e+00,1.557518362998962402e+00,1.564981460571289062e+00,3.088227748870849609e+00,3.010102272033691406e+00,2.935832023620605469e+00,2.865138530731201172e+00,2.797769546508789062e+00,2.733495950698852539e+00,2.672109365463256836e+00,2.613419055938720703e+00,2.557251691818237305e+00,2.503447532653808594e+00,2.451861143112182617e+00,2.402357578277587891e+00,2.354813575744628906e+00,2.309114694595336914e+00,2.265156030654907227e+00,2.222839593887329102e+00,2.182075262069702148e+00,2.142779111862182617e+00,2.104873418807983398e+00,2.068285226821899414e+00,2.032947540283203125e+00,1.998797178268432617e+00,1.965775132179260254e+00,1.933826327323913574e+00,1.902899503707885742e+00,1.872946262359619141e+00,1.843921422958374023e+00
5.000000000000000000e+00,5.000000000000000000e+00,5.000000000000000000e+00,5.000000000000000000e+00,5.000000000000000000e+00,5.000000000000000000e+00,5.000000000000000000e+00,5.000000000000000000e+00,5.000000000000000000e+00,5.000000000000000000e+00,5.000000000000000000e+00,5.000000000000000000e+00,5.000000000000000000e+00,5.000000000000000000e+00,5.000000000000000000e+00,5.000000000000000000e+00,5.000000000000000000e+00,5.000000000000000000e+00,5.000000000000000000e+00,5.000000000000000000e+00,5.000000000000000000e+00,5.000000000000000000e+00,5.000000000000000000e+00,5.000000000000000000e+00,5.000000000000000000e+00,5.000000000000000000e+00,5.000000000000000000e+00,5.000000000000000000e+00,5.000000000000000000e+00,5.000000000000000000e+00,5.000000000000000000e+00,5.000000000000000000e+00,5.000000000000000000e+00,5.000000000000000000e+00,5.000000000000000000e+00,5.000000000000000000e+00,5.000000000000000000e+00,5.000000000000000000e+00,5.000000000000000000e+00,4.850977420806884766e+00,4.660954475402832031e+00,1.680132865905761719e+00,1.622526526451110840e+00,1.590567827224731445e+00,1.582311153411865234e+00,1.604263544082641602e+00,3.773952245712280273e+00,3.657931804656982422e+00,1.607031702995300293e+00,1.576870918273925781e+00,1.558789849281311035e+00,1.557554364204406738e+00,1.564766287803649902e+00,3.088284015655517578e+00,3.010155677795410156e+00,2.935883045196533203e+00,2.865187168121337891e+00,2.797815799713134766e+00,2.733540058135986328e+00,2.672151327133178711e+00,2.613459348678588867e+00,2.557290315628051758e+00,2.503484487533569336e+00,2.451896429061889648e+00,2.402391672134399414e+00,2.354846239089965820e+00,2.309146165847778320e+00,2.265186309814453125e+00,2.222868680953979492e+00,2.182103395462036133e+00,2.142806291580200195e+00,2.104899406433105469e+00,2.068310499191284180e+00,2.032972097396850586e+00,1.998820781707763672e+00,1.965797901153564453e+00,1.933848381042480469e+00,1.902920842170715332e+00,1.872967004776000977e+00,1.843941450119018555e+00
5.000000000000000000e+00,5.000000000000000000e+00,5.000000000000000000e+00,5.000000000000000000e+00,5.000000000000000000e+00,5.000000000000000000e+00,5.000000000000000000e+00,5.000000000000000000e+00,5.000000000000000000e+00,5.000000000000000000e+00,5.000000000000000000e+00,5.000000000000000000e+00,5.000000000000000000e+00,5.000000000000000000e+00,5.000000000000000000e+00,5.000000000000000000e+00,5.000000000000000000e+00,5.000000000000000000e+00,5.000000000000000000e+00,5.000000000000000000e+00,5.000000000000000000e+00,5.000000000000000000e+00,5.000000000000000000e+00,5.000000000000000000e+00,5.000000000000000000e+00,5.000000000000000000e+00,5.000000000000000000e+00,5.000000000000000000e+00,5.000000000000000000e+00,5.000000000000000000e+00,5.000000000000000000e+00,5.000000000000000000e+00,5.000000000000000000e+00,5.000000000000000000e+00,5.000000000000000000e+00,5.000000000000000000e+00,5.000000000000000000e+00,5.000000000000000000e+00,5.000000000000000000e+00,4.851116180419921875e+00,4.661082267761230469e+00,4.485375881195068359e+00,1.629627704620361328e+00,1.592619299888610840e+00,1.582213878631591797e+00,1.602687954902648926e+00,3.774035692214965820e+00,3.658010482788085938e+00,1.600436329841613770e+00,1.581710696220397949e+00,1.563019394874572754e+00,1.566262722015380859e+00,1.571868896484375000e+00,3.088340044021606445e+00,3.010209083557128906e+00,2.935933589935302734e+00,2.865235328674316406e+00,2.797861814498901367e+00,2.733583927154541016e+00,2.672193288803100586e+00,2.613499402999877930e+00,2.557328701019287109e+00,2.503521442413330078e+00,2.451931953430175781e+00,2.402425527572631836e+00,2.354878902435302734e+00,2.309177398681640625e+00,2.265216350555419922e+00,2.222897768020629883e+00,2.182131290435791016e+00,2.142833232879638672e+00,2.104925632476806641e+00,2.068335533142089844e+00,2.032996177673339844e+00,1.998844027519226074e+00,1.965820550918579102e+00,1.933870315551757812e+00,1.902942061424255371e+00,1.872987389564514160e+00,1.843961358070373535e+00
5.000000000000000000e+00,5.000000000000000000e+00,5.000000000000000000e+00,5.000000000000000000e+00,5.000000000000000000e+00,5.000000000000000000e+00,5.000000000000000000e+00,5.000000000000000000e+00,5.000000000000000000e+00,5.000000000000000000e+00,5.000000000000000000e+00,5.000000000000000000e+00,5.000000000000000000e+00,5.000000000000000000e+00,5.000000000000000000e+00,5.000000000000000000e+00,5.000000000000000000e+00,5.000000000000000000e+00,5.000000000000000000e+00,5.000000000000000000e+00,5.000000000000000000e+00,5.000000000000000000e+00,5.000000000000000000e+00,5.000000000000000000e+00,5.000000000000000000e+00,5.000000000000000000e+00,5.000000000000000000e+00,5.000000000000000000e+00,5.000000000000000000e+00,5.000000000000000000e+00,5.000000000000000000e+00,5.000000000000000000e+00,5.000000000000000000e+00,5.000000000000000000e+00,5.000000000000000000e+00,5.000000000000000000e+00,5.000000000000000000e+00,5.000000000000000000e+00,5.000000000000000000e+00,4.851254463195800781e+00,4.661209583282470703e+00,1.685639619827270508e+00,1.638400673866271973e+00,1.599411964416503906e+00,1.589342832565307617e+00,1.612419605255126953e+00,3.774119377136230469e+00,3.658088922500610352e+00,1.608367800712585449e+00,1.589204311370849609e+00,1.575098156929016113e+00,1.577353119850158691e+00,3.170694112777709961e+00,3.088396072387695312e+00,3.010262250900268555e+00,2.935984134674072266e+00,2.865283489227294922e+00,2.797907829284667969e+00,2.733627796173095703e+00,2.672235250473022461e+00,2.613539695739746094e+00,2.557367086410522461e+00,2.503558158874511719e+00,2.451967239379882812e+00,2.402459383010864258e+00,2.354911327362060547e+00,2.309208869934082031e+00,2.265246629714965820e+00,2.222926855087280273e+00,2.182159423828125000e+00,2.142860174179077148e+00,2.104951620101928711e+00,2.068360805511474609e+00,2.033020496368408203e+00,1.998867630958557129e+00,1.965843319892883301e+00,1.933892369270324707e+00,1.902963399887084961e+00,1.873008131980895996e+00,1.843981385231018066e+00
5.000000000000000000e+00,5.000000000000000000e+00,5.000000000000000000e+00,5.000000000000000000e+00,5.000000000000000000e+00,5.000000000000000000e+00,5.000000000000000000e+00,5.000000000000000000e+00,5.000000000000000000e+00,5.000000000000000000e+00,5.000000000000000000e+00,5.000000000000000000e+00,5.000000000000000000e+00,5.000000000000000000e+00,5.000000000000000000e+00,5.000000000000000000e+00,5.000000000000000000e+00,5.000000000000000000e+00,5.000000000000000000e+00,5.000000000000000000e+00,5.000000000000000000e+00,5.000000000000000000e+00,5.000000000000000000e+00,5.000000000000000000e+00,5.000000000000000000e+00,5.000000000000000000e+00,5.000000000000000000e+00,5.000000000000000000e+00,5.000000000000000000e+00,5.000000000000000000e+00,5.000000000000000000e+00,5.000000000000000000e+00,5.000000000000000000e+00,5.000000000000000000e+00,5.000000000000000000e+00,5.000000000000000000e+00,5.000000000000000000e+00,5.000000000000000000e+00,5.000000000000000000e+00,4.851392745971679688e+00,1.725573658943176270e+00,1.676831483840942383e+00,1.638138294219970703e+00,1.609815120697021484e+00,1.604799389839172363e+00,1.628035783767700195e+00,3.774203538894653320e+00,3.658168077468872070e+00,1.616378426551818848e+00,1.592166066169738770e+00,1.587365150451660156e+00,1.588601827621459961e+00,3.170753479003906250e+00,3.088452339172363281e+00,3.010315656661987305e+00,2.936035156250000000e+00,2.865331888198852539e+00,2.797954082489013672e+00,2.733671903610229492e+00,2.672277450561523438e+00,2.613579988479614258e+00,2.557405710220336914e+00,2.503595113754272461e+00,2.452002525329589844e+00,2.402493476867675781e+00,2.354944229125976562e+00,2.309240341186523438e+00,2.265276908874511719e+00,2.222955942153930664e+00,2.182187318801879883e+00,2.142887353897094727e+00,2.104977607727050781e+00,2.068386077880859375e+00,2.033045053482055664e+00,1.998891234397888184e+00,1.965866088867187500e+00,1.933914422988891602e+00,1.902984738349914551e+00,1.873028874397277832e+00,1.844001412391662598e+00
5.000000000000000000e+00,5.000000000000000000e+00,5.000000000000000000e+00,5.000000000000000000e+00,5.000000000000000000e+00,5.000000000000000000e+00,5.000000000000000000e+00,5.000000000000000000e+00,5.000000000000000000e+00,5.000000000000000000e+00,5.000000000000000000e+00,5.000000000000000000e+00,5.000000000000000000e+00,5.000000000000000000e+00,5.000000000000000000e+00,5.000000000000000000e+00,5.000000000000000000e+00,5.000000000000000000e+00,5.000000000000000000e+00,5.000000000000000000e+00,5.000000000000000000e+00,5.000000000000000000e+00,5.000000000000000000e+00,5.000000000000000000e+00,5.000000000000000000e+00,5.000000000000000000e+00,5.000000000000000000e+00,5.000000000000000000e+00,5.000000000000000000e+00,5.000000000000000000e+00,5.000000000000000000e+00,5.000000000000000000e+00,5.000000000000000000e+00,5.000000000000000000e+00,5.000000000000000000e+00,5.000000000000000000e+00,5.000000000000000000e+00,5.000000000000000000e+00,5.000000000000000000e+00,1.822607636451721191e+00,1.727230072021484375e+00,1.688643217086791992e+00,1.660707354545593262e+00,1.627418398857116699e+00,1.643153429031372070e+00,3.897930622100830078e+00,3.774287223815917969e+00,1.659833908081054688e+00,1.620261192321777344e+00,1.604181766510009766e+00,1.599824547767639160e+00,1.618806004524230957e+00,3.170812368392944336e+00,3.088508367538452148e+00,3.010368824005126953e+00,2.936085700988769531e+00,2.865380048751831055e+00,2.797999858856201172e+00,2.733715772628784180e+00,2.672319412231445312e+00,2.613620042800903320e+00,2.557444095611572266e+00,2.503632068634033203e+00,2.452037811279296875e+00,2.402527332305908203e+00,2.354976654052734375e+00,2.309271574020385742e+00,2.265306949615478516e+00,2.222985029220581055e+00,2.182215452194213867e+00,2.142914295196533203e+00,2.105003833770751953e+00,2.068411111831665039e+00,2.033069133758544922e+00,1.998914599418640137e+00,1.965888738632202148e+00,1.933936238288879395e+00,1.903005957603454590e+00,1.873049378395080566e+00,1.844021320343017578e+00
5.000000000000000000e+00,5.000000000000000000e+00,5.000000000000000000e+00,5.000000000000000000e+00,5.000000000000000000e+00,5.000000000000000000e+00,5.000000000000000000e+00,5.000000000000000000e+00,5.000000000000000000e+00,5.000000000000000000e+00,5.000000000000000000e+00,5.000000000000000000e+00,5.000000000000000000e+00,5.000000000000000000e+00,5.000000000000000000e+00,5.000000000000000000e+00,5.000000000000000000e+00,5.000000000000000000e+00,5.000000000000000000e+00,5.000000000000000000e+00,5.000000000000000000e+00,5.000000000000000000e+00,5.000000000000000000e+00,5.000000000000000000e+00,5.000000000000000000e+00,5.000000000000000000e+00,5.000000000000000000e+00,5.000000000000000000e+00,5.000000000000000000e+00,5.000000000000000000e+00,5.000000000000000000e+00,5.000000000000000000e+00,5.000000000000000000e+00,5.000000000000000000e+00,5.000000000000000000e+00,5.000000000000000000e+00,5.000000000000000000e+00,5.000000000000000000e+00,5.000000000000000000e+00,1.787444710731506348e+00,1.746219038963317871e+00,1.716874122619628906e+00,1.696128726005554199e+00,1.763711690902709961e+00,4.030045032501220703e+00,3.898019790649414062e+00,3.774370670318603516e+00,1.650006294250488281e+00,1.619817018508911133e+00,1.608440041542053223e+00,1.606454014778137207e+00,1.642457485198974609e+00,3.170871496200561523e+00,3.088564395904541016e+00,3.010421991348266602e+00,2.936136245727539062e+00,2.865428209304809570e+00,2.798045873641967773e+00,2.733759641647338867e+00,2.672361373901367188e+00,2.613660097122192383e+00,2.557482481002807617e+00,2.503668785095214844e+00,2.452073097229003906e+00,2.402561187744140625e+00,2.355009317398071289e+00,2.309302806854248047e+00,2.265336990356445312e+00,2.223013877868652344e+00,2.182243347167968750e+00,2.142941236495971680e+00,2.105029821395874023e+00,2.068436145782470703e+00,2.033093452453613281e+00,1.998938083648681641e+00,1.965911507606506348e+00,1.933958292007446289e+00,1.903027296066284180e+00,1.873070001602172852e+00,1.844041347503662109e+00
5.000000000000000000e+00,5.000000000000000000e+00,5.000000000000000000e+00,5.000000000000000000e+00,5.000000000000000000e+00,5.000000000000000000e+00,5.000000000000000000e+00,5.000000000000000000e+00,5.000000000000000000e+00,5.000000000000000000e+00,5.000000000000000000e+00,5.000000000000000000e+00,5.000000000000000000e+00,5.000000000000000000e+00,5.000000000000000000e+00,5.000000000000000000e+00,5.000000000000000000e+00,5.000000000000000000e+00,5.000000000000000000e+00,5.000000000000000000e+00,5.000000000000000000e+00,5.000000000000000000e+00,5.000000000000000000e+00,5.000000000000000000e+00,5.000000000000000000e+00,5.000000000000000000e+00,5.000000000000000000e+00,5.000000000000000000e+00,5.000000000000000000e+00,5.000000000000000000e+00,5.000000000000000000e+00,5.000000000000000000e+00,5.000000000000000000e+00,5.000000000000000000e+00,5.000000000000000000e+00,5.000000000000000000e+00,5.000000000000000000e+00,5.000000000000000000e+00,5.000000000000000000e+00,1.807761788368225098e+00,1.766261458396911621e+00,1.746771693229675293e+00,1.771036267280578613e+00,4.171429157257080078e+00,4.030140399932861328e+00,3.898109674453735352e+00,3.774454832077026367e+00,1.646809458732604980e+00,1.618814587593078613e+00,1.609593272209167480e+00,1.607871055603027344e+00,3.257748365402221680e+00,3.170930862426757812e+00,3.088620662689208984e+00,3.010475635528564453e+00,2.936187267303466797e+00,2.865476846694946289e+00,2.798092126846313477e+00,2.733803749084472656e+00,2.672403335571289062e+00,2.613700389862060547e+00,2.557521104812622070e+00,2.503705739974975586e+00,2.452108621597290039e+00,2.402595281600952148e+00,2.355041980743408203e+00,2.309334278106689453e+00,2.265367269515991211e+00,2.223043203353881836e+00,2.182271480560302734e+00,2.142968416213989258e+00,2.105055809020996094e+00,2.068461418151855469e+00,2.033117771148681641e+00,1.998961687088012695e+00,1.965934276580810547e+00,1.933980345726013184e+00,1.903048634529113770e+00,1.873090744018554688e+00,1.844061493873596191e+00
5.000000000000000000e+00,5.000000000000000000e+00,5.000000000000000000e+00,5.000000000000000000e+00,5.000000000000000000e+00,5.000000000000000000e+00,5.000000000000000000e+00,5.000000000000000000e+00,5.000000000000000000e+00,5.000000000000000000e+00,5.000000000000000000e+00,5.000000000000000000e+00,5.000000000000000000e+00,5.000000000000000000e+00,5.000000000000000000e+00,5.000000000000000000e+00,5.000000000000000000e+00,5.000000000000000000e+00,5.000000000000000000e+00,5.000000000000000000e+00,5.000000000000000000e+00,5.000000000000000000e+00,5.000000000000000000e+00,5.000000000000000000e+00,5.000000000000000000e+00,5.000000000000000000e+00,5.000000000000000000e+00,5.000000000000000000e+00,5.000000000000000000e+00,5.000000000000000000e+00,5.000000000000000000e+00,5.000000000000000000e+00,5.000000000000000000e+00,5.000000000000000000e+00,5.000000000000000000e+00,5.000000000000000000e+00,5.000000000000000000e+00,5.000000000000000000e+00,1.883493423461914062e+00,1.829562664031982422e+00,1.792446017265319824e+00,1.777836561203002930e+00,4.323094367980957031e+00,4.171531677246093750e+00,4.030236244201660156e+00,3.898198843002319336e+00,3.774538516998291016e+00,1.643624901771545410e+00,1.618300676345825195e+00,1.610387206077575684e+00,1.609290599822998047e+00,3.257810592651367188e+00,3.170989990234375000e+00,3.088676691055297852e+00,3.010528802871704102e+00,2.936237812042236328e+00,2.865525007247924805e+00,2.798138141632080078e+00,2.733847618103027344e+00,2.672445297241210938e+00,2.613740444183349609e+00,2.557559490203857422e+00,2.503742694854736328e+00,2.452143907546997070e+00,2.402629137039184570e+00,2.355074644088745117e+00,2.309365749359130859e+00,2.265397548675537109e+00,2.223072052001953125e+00,2.182299375534057617e+00,2.142995357513427734e+00,2.105081796646118164e+00,2.068486690521240234e+00,2.033142089843750000e+00,1.998985052108764648e+00,1.965956807136535645e+00,1.934002280235290527e+00,1.903069853782653809e+00,1.873111248016357422e+00,1.844081282615661621e+00
5.000000000000000000e+00,5.000000000000000000e+00,5.000000000000000000e+00,5.000000000000000000e+00,5.000000000000000000e+00,5.000000000000000000e+00,5.000000000000000000e+00,5.000000000000000000e+00,5.000000000000000000e+00,5.000000000000000000e+00,5.000000000000000000e+00,5.000000000000000000e+00,5.000000000000000000e+00,5.000000000000000000e+00,5.000000000000000000e+00,5.000000000000000000e+00,5.000000000000000000e+00,5.000000000000000000e+00,5.000000000000000000e+00,5.000000000000000000e+00,5.000000000000000000e+00,5.000000000000000000e+00,5.000000000000000000e+00,5.000000000000000000e+00,5.000000000000000000e+00,5.000000000000000000e+00,5.000000000000000000e+00,5.000000000000000000e+00,5.000000000000000000e+00,5.000000000000000000e+00,5.000000000000000000e+00,5.000000000000000000e+00,5.000000000000000000e+00,5.000000000000000000e+00,5.000000000000000000e+00,5.000000000000000000e+00,5.000000000000000000e+00,5.000000000000000000e+00,1.901278257369995117e+00,1.853509783744812012e+00,1.821103096008300781e+00,1.870248556137084961e+00,4.323204517364501953e+00,4.171634197235107422e+00,4.030331611633300781e+00,3.898288488388061523e+00,3.774622440338134766e+00,1.642136812210083008e+00,1.617787122726440430e+00,1.611181616783142090e+00,1.610712766647338867e+00,3.257873296737670898e+00,3.171049118041992188e+00,3.088732957839965820e+00,3.010582208633422852e+00,2.936288595199584961e+00,2.865573406219482422e+00,2.798184394836425781e+00,2.733891725540161133e+00,2.672487497329711914e+00,2.613780975341796875e+00,2.557598114013671875e+00,2.503779649734497070e+00,2.452179431915283203e+00,2.402663230895996094e+00,2.355107307434082031e+00,2.309397220611572266e+00,2.265427827835083008e+00,2.223101377487182617e+00,2.182327508926391602e+00,2.143022298812866211e+00,2.105108022689819336e+00,2.068511724472045898e+00,2.033166408538818359e+00,1.999008655548095703e+00,1.965979695320129395e+00,1.934024333953857422e+00,1.903091192245483398e+00,1.873131990432739258e+00,1.844101428985595703e+00
5.000000000000000000e+00,5.000000000000000000e+00,5.000000000000000000e+00,5.000000000000000000e+00,5.000000000000000000e+00,5.000000000000000000e+00,5.000000000000000000e+00,5.000000000000000000e+00,5.000000000000000000e+00,5.000000000000000000e+00,5.000000000000000000e+00,5.000000000000000000e+00,5.000000000000000000e+00,5.000000000000000000e+00,5.000000000000000000e+00,5.000000000000000000e+00,5.000000000000000000e+00,5.000000000000000000e+00,5.000000000000000000e+00,5.000000000000000000e+00,5.000000000000000000e+00,5.000000000000000000e+00,5.000000000000000000e+00,5.000000000000000000e+00,5.000000000000000000e+00,5.000000000000000000e+00,5.000000000000000000e+00,5.000000000000000000e+00,5.000000000000000000e+00,5.000000000000000000e+00,5.000000000000000000e+00,5.000000000000000000e+00,5.000000000000000000e+00,5.000000000000000000e+00,5.000000000000000000e+00,5.000000000000000000e+00,5.000000000000000000e+00,2.043127059936523438e+00,1.928318977355957031e+00,1.886272788047790527e+00,1.885680198669433594e+00,4.486322402954101562e+00,4.323314189910888672e+00,4.171736240386962891e+00,4.030426979064941406e+00,3.898377656936645508e+00,3.774706125259399414e+00,1.641997337341308594e+00,1.617696642875671387e+00,1.611976861953735352e+00,1.611753821372985840e+00,3.257935523986816406e+00,3.171108245849609375e+00,3.088788986206054688e+00,3.010635375976562500e+00,2.936339378356933594e+00,2.865621566772460938e+00,2.798230171203613281e+00,2.733935594558715820e+00,2.672529458999633789e+00,2.613821029663085938e+00,2.557636499404907227e+00,2.503816366195678711e+00,2.452214717864990234e+00,2.402697086334228516e+00,2.355139732360839844e+00,2.309428453445434570e+00,2.265457868576049805e+00,2.223130226135253906e+00,2.182355403900146484e+00,2.143049240112304688e+00,2.105134010314941406e+00,2.068536996841430664e+00,2.033190727233886719e+00,1.999032258987426758e+00,1.966002464294433594e+00,1.934046387672424316e+00,1.903112530708312988e+00,1.873152613639831543e+00,1.844121456146240234e+00
5.000000000000000000e+00,5.000000000000000000e+00,5.000000000000000000e+00,5.000000000000000000e+00,5.000000000000000000e+00,5.000000000000000000e+00,5.000000000000000000e+00,5.000000000000000000e+00,5.000000000000000000e+00,5.000000000000000000e+00,5.000000000000000000e+00,5.000000000000000000e+00,5.000000000000000000e+00,5.000000000000000000e+00,5.000000000000000000e+00,5.000000000000000000e+00,5.000000000000000000e+00,5.000000000000000000e+00,5.000000000000000000e+00,5.000000000000000000e+00,5.000000000000000000e+00,5.000000000000000000e+00,5.000000000000000000e+00,5.000000000000000000e+00,5.000000000000000000e+00,5.000000000000000000e+00,5.000000000000000000e+00,5.000000000000000000e+00,5.000000000000000000e+00,5.000000000000000000e+00,5.000000000000000000e+00,5.000000000000000000e+00,5.000000000000000000e+00,5.000000000000000000e+00,5.000000000000000000e+00,5.000000000000000000e+00,5.000000000000000000e+00,2.020072698593139648e+00,1.969773292541503906e+00,1.934213161468505859e+00,4.662230968475341797e+00,4.486440181732177734e+00,4.323423862457275391e+00,4.171838760375976562e+00,4.030522823333740234e+00,3.898466825485229492e+00,3.774789810180664062e+00,1.643840074539184570e+00,1.619418501853942871e+00,1.613566637039184570e+00,1.613146543502807617e+00,3.257997751235961914e+00,3.171167373657226562e+00,3.088845014572143555e+00,3.010688781738281250e+00,2.936389923095703125e+00,2.865669965744018555e+00,2.798276185989379883e+00,2.733979463577270508e+00,2.672571420669555664e+00,2.613861083984375000e+00,2.557674884796142578e+00,2.503853082656860352e+00,2.452250003814697266e+00,2.402730941772460938e+00,2.355172395706176758e+00,2.309459686279296875e+00,2.265487909317016602e+00,2.223159313201904297e+00,2.182383298873901367e+00,2.143076181411743164e+00,2.105159997940063477e+00,2.068562030792236328e+00,2.033215045928955078e+00,1.999055504798889160e+00,1.966025114059448242e+00,1.934068202972412109e+00,1.903133749961853027e+00,1.873173117637634277e+00,1.844141364097595215e+00
5.000000000000000000e+00,5.000000000000000000e+00,5.000000000000000000e+00,5.000000000000000000e+00,5.000000000000000000e+00,5.000000000000000000e+00,5.000000000000000000e+00,5.000000000000000000e+00,5.000000000000000000e+00,5.000000000000000000e+00,5.000000000000000000e+00,5.000000000000000000e+00,5.000000000000000000e+00,5.000000000000000000e+00,5.000000000000000000e+00,5.000000000000000000e+00,5.000000000000000000e+00,5.000000000000000000e+00,5.000000000000000000e+00,5.000000000000000000e+00,5.000000000000000000e+00,5.000000000000000000e+00,5.000000000000000000e+00,5.000000000000000000e+00,5.000000000000000000e+00,5.000000000000000000e+00,5.000000000000000000e+00,5.000000000000000000e+00,5.000000000000000000e+00,5.000000000000000000e+00,5.000000000000000000e+00,5.000000000000000000e+00,5.000000000000000000e+00,5.000000000000000000e+00,5.000000000000000000e+00,5.000000000000000000e+00,5.000000000000000000e+00,2.007007122039794922e+00,1.982707262039184570e+00,1.994311213493347168e+00,4.662358283996582031e+00,4.486558437347412109e+00,4.323533535003662109e+00,4.171941280364990234e+00,4.030618190765380859e+00,3.898556709289550781e+00,3.774873971939086914e+00,1.645687103271484375e+00,1.621016502380371094e+00,1.615192651748657227e+00,1.636699795722961426e+00,3.258060455322265625e+00,3.171226739883422852e+00,3.088901281356811523e+00,3.010742187500000000e+00,2.936440706253051758e+00,2.865718364715576172e+00,2.798322439193725586e+00,2.734023571014404297e+00,2.672613382339477539e+00,2.613901376724243164e+00,2.557713508605957031e+00,2.503890275955200195e+00,2.452285528182983398e+00,2.402765035629272461e+00,2.355205059051513672e+00,2.309491157531738281e+00,2.265518188476562500e+00,2.223188400268554688e+00,2.182411432266235352e+00,2.143103361129760742e+00,2.105186223983764648e+00,2.068587303161621094e+00,2.033239364624023438e+00,1.999079108238220215e+00,1.966047883033752441e+00,1.934090256690979004e+00,1.903155088424682617e+00,1.873193860054016113e+00,1.844161391258239746e+00
4.875369071960449219e+00,4.874158859252929688e+00,4.872949123382568359e+00,4.871739387512207031e+00,4.870531082153320312e+00,4.869323253631591797e+00,4.868115425109863281e+00,4.866908550262451172e+00,4.865702152252197266e+00,4.864496707916259766e+00,4.863291740417480469e+00,4.862087249755859375e+00,4.860883235931396484e+00,4.859680175781250000e+00,4.858477115631103516e+00,4.857275485992431641e+00,4.856073856353759766e+00,4.854872703552246094e+00,4.853672981262207031e+00,4.852473258972167969e+00,4.851274013519287109e+00,4.850075721740722656e+00,4.848877429962158203e+00,4.847680091857910156e+00,4.846483707427978516e+00,4.845287322998046875e+00,4.844091892242431641e+00,4.842896938323974609e+00,4.841702461242675781e+00,4.840508937835693359e+00,4.839315414428710938e+00,4.838122844696044922e+00,4.836930751800537109e+00,4.835739135742187500e+00,4.834548473358154297e+00,4.833358287811279297e+00,4.832168579101562500e+00,2.002389669418334961e+00,1.990534543991088867e+00,2.003635168075561523e+00,4.662486076354980469e+00,4.486676216125488281e+00,4.323643207550048828e+00,4.172043323516845703e+00,4.030713558197021484e+00,3.898645877838134766e+00,3.774957656860351562e+00,1.647538304328918457e+00,1.622617840766906738e+00,1.616821765899658203e+00,3.349849224090576172e+00,3.258122920989990234e+00,3.171285629272460938e+00,3.088957309722900391e+00,3.010795354843139648e+00,2.936491489410400391e+00,2.865766525268554688e+00,2.798368453979492188e+00,2.734067440032958984e+00,2.672655344009399414e+00,2.613941431045532227e+00,2.557751893997192383e+00,2.503926992416381836e+00,2.452320814132690430e+00,2.402798891067504883e+00,2.355237722396850586e+00,2.309522628784179688e+00,2.265548229217529297e+00,2.223217487335205078e+00,2.182439565658569336e+00,2.143130302429199219e+00,2.105212211608886719e+00,2.068612337112426758e+00,2.033263683319091797e+00,1.999102711677551270e+00,1.966070652008056641e+00,1.934112429618835449e+00,1.903176426887512207e+00,1.873214602470397949e+00,1.844181418418884277e+00
3.778193235397338867e+00,3.777466297149658203e+00,3.776739597320556641e+00,3.776013135910034180e+00,3.775287151336669922e+00,3.774561405181884766e+00,3.773835420608520508e+00,3.773110151290893555e+00,3.772385358810424805e+00,3.771660566329956055e+00,3.770936250686645508e+00,3.770211696624755859e+00,3.769487857818603516e+00,3.768764257431030273e+00,3.768040895462036133e+00,3.767318010330200195e+00,3.766595363616943359e+00,3.765872478485107422e+00,3.765150308609008789e+00,3.764428377151489258e+00,3.763706684112548828e+00,3.762985467910766602e+00,3.762264013290405273e+00,3.761543035507202148e+00,3.760822534561157227e+00,3.760102510452270508e+00,3.759382486343383789e+00,3.758662700653076172e+00,3.757942914962768555e+00,3.757223844528198242e+00,3.756505012512207031e+00,3.755786418914794922e+00,3.755068063735961914e+00,3.754349708557128906e+00,3.753631830215454102e+00,3.752914428710937500e+00,3.752197027206420898e+00,1.997163176536560059e+00,1.997219085693359375e+00,2.006895542144775391e+00,3.749330520629882812e+00,3.748614788055419922e+00,3.747899055480957031e+00,3.747183799743652344e+00,3.746468305587768555e+00,3.745753765106201172e+00,3.745039224624633789e+00,1.649393558502197266e+00,1.624222278594970703e+00,1.618454337120056152e+00,3.349915027618408203e+00,3.258185148239135742e+00,3.171344757080078125e+00,3.089013338088989258e+00,3.010848522186279297e+00,2.936542034149169922e+00,2.865814685821533203e+00,2.798414468765258789e+00,2.734111547470092773e+00,2.672697305679321289e+00,2.613981723785400391e+00,2.557790279388427734e+00,2.503963708877563477e+00,2.452356100082397461e+00,2.402832984924316406e+00,2.355270147323608398e+00,2.309553861618041992e+00,2.265578508377075195e+00,2.223246574401855469e+00,2.182467460632324219e+00,2.143157243728637695e+00,2.105238199234008789e+00,2.068637609481811523e+00,2.033288002014160156e+00,1.999126076698303223e+00,1.966093301773071289e+00,1.934134244918823242e+00,1.903197646141052246e+00,1.873234987258911133e+00,1.844201326370239258e+00
3.084126949310302734e+00,3.083642721176147461e+00,3.083158493041992188e+00,3.082674026489257812e+00,3.082190036773681641e+00,3.081706285476684570e+00,3.081222772598266602e+00,3.080739259719848633e+00,3.080255746841430664e+00,3.079772472381591797e+00,3.079289436340332031e+00,3.078806638717651367e+00,3.078323841094970703e+00,3.077841281890869141e+00,3.077358722686767578e+00,3.076876401901245117e+00,3.076394319534301758e+00,3.075912237167358398e+00,3.075430393218994141e+00,3.074948787689208984e+00,3.074467182159423828e+00,3.073985815048217773e+00,3.073504447937011719e+00,3.073023319244384766e+00,3.072542428970336914e+00,3.072061538696289062e+00,3.071580886840820312e+00,3.071100473403930664e+00,3.070620059967041016e+00,3.070139884948730469e+00,3.069659709930419922e+00,3.069179773330688477e+00,3.068700075149536133e+00,3.068220615386962891e+00,3.067741155624389648e+00,3.067261934280395508e+00,3.066782474517822266e+00,1.996491909027099609e+00,1.993752002716064453e+00,2.006422519683837891e+00,3.064867734909057617e+00,3.064389228820800781e+00,3.063910961151123047e+00,3.063432931900024414e+00,3.062954902648925781e+00,3.062477111816406250e+00,3.061999559402465820e+00,1.672748208045959473e+00,1.642261743545532227e+00,1.623611688613891602e+00,3.060090303421020508e+00,3.059613466262817383e+00,3.059136629104614258e+00,3.058660030364990234e+00,3.010902166366577148e+00,2.936592817306518555e+00,2.865863323211669922e+00,2.798460483551025391e+00,2.734155654907226562e+00,2.672739505767822266e+00,2.614022016525268555e+00,2.557828903198242188e+00,2.504000902175903320e+00,2.452391624450683594e+00,2.402866840362548828e+00,2.355303049087524414e+00,2.309585332870483398e+00,2.265608787536621094e+00,2.223275661468505859e+00,2.182495594024658203e+00,2.143184423446655273e+00,2.105264425277709961e+00,2.068662881851196289e+00,2.033312320709228516e+00,1.999149680137634277e+00,1.966116070747375488e+00,1.934156298637390137e+00,1.903218984603881836e+00,1.873255729675292969e+00,1.844221353530883789e+00
2.605489969253540039e+00,2.605144262313842773e+00,2.604798555374145508e+00,2.604453086853027344e+00,2.604107618331909180e+00,2.603762388229370117e+00,2.603416919708251953e+00,2.603071689605712891e+00,2.602726697921752930e+00,2.602381706237792969e+00,2.602036714553833008e+00,2.601691722869873047e+00,2.601346969604492188e+00,2.601002454757690430e+00,2.600657939910888672e+00,2.600313425064086914e+00,2.599969148635864258e+00,2.599624633789062500e+00,2.599280595779418945e+00,2.598936319351196289e+00,2.598592519760131836e+00,2.598248481750488281e+00,2.597904682159423828e+00,2.597560882568359375e+00,2.597217321395874023e+00,2.596873760223388672e+00,2.596530437469482422e+00,2.596186876296997070e+00,2.595843553543090820e+00,2.595500469207763672e+00,2.595157384872436523e+00,2.594814300537109375e+00,2.594471454620361328e+00,2.594128370285034180e+00,2.593785762786865234e+00,2.593443155288696289e+00,2.593100547790527344e+00,2.592758178710937500e+00,2.592415571212768555e+00,2.012816190719604492e+00,2.591731309890747070e+00,2.591389179229736328e+00,2.591047286987304688e+00,2.590705394744873047e+00,2.590363264083862305e+00,2.590021610260009766e+00,2.589679956436157227e+00,1.657183647155761719e+00,1.634574532508850098e+00,2.588655710220336914e+00,2.588314294815063477e+00,2.587973117828369141e+00,2.587631940841674805e+00,2.587291002273559570e+00,2.586950063705444336e+00,2.586609125137329102e+00,2.586268424987792969e+00,2.585927724838256836e+00,2.585587263107299805e+00,2.585246801376342773e+00,2.584906101226806641e+00,2.557867288589477539e+00,2.504037618637084961e+00,2.452426910400390625e+00,2.402900934219360352e+00,2.355335474014282227e+00,2.309616565704345703e+00,2.265638828277587891e+00,2.223304748535156250e+00,2.182523488998413086e+00,2.143211364746093750e+00,2.105290412902832031e+00,2.068687915802001953e+00,2.033336639404296875e+00,1.999173283576965332e+00,1.966138839721679688e+00,1.934178352355957031e+00,1.903240323066711426e+00,1.873276472091674805e+00,1.844241499900817871e+00
2.255473136901855469e+00,2.255213260650634766e+00,2.254953622817993164e+00,2.254693984985351562e+00,2.254434347152709961e+00,2.254174947738647461e+00,2.253915309906005859e+00,2.253655910491943359e+00,2.253396749496459961e+00,2.253137350082397461e+00,2.252877950668334961e+00,2.252619028091430664e+00,2.252359867095947266e+00,2.252100706100463867e+00,2.251841545104980469e+00,2.251582860946655273e+00,2.251323938369750977e+00,2.251065015792846680e+00,2.250806331634521484e+00,2.250547647476196289e+00,2.250288963317871094e+00,2.250030279159545898e+00,2.249771833419799805e+00,2.249513387680053711e+00,2.249255657196044922e+00,2.248997688293457031e+00,2.248740196228027344e+00,2.248482704162597656e+00,2.248225212097167969e+00,2.247967720031738281e+00,2.247710227966308594e+00,2.247452974319458008e+00,2.247195720672607422e+00,2.246938705444335938e+00,2.246681451797485352e+00,2.246424436569213867e+00,2.246167421340942383e+00,2.245910406112670898e+00,2.245653390884399414e+00,2.245396614074707031e+00,2.245139837265014648e+00,2.244883060455322266e+00,2.244626283645629883e+00,2.244369745254516602e+00,2.244113206863403320e+00,2.243856906890869141e+00,2.243600368499755859e+00,1.652902245521545410e+00,1.613423466682434082e+00,1.611528038978576660e+00,2.242575168609619141e+00,2.242319107055664062e+00,2.242062807083129883e+00,2.241806983947753906e+00,2.241550922393798828e+00,2.241295099258422852e+00,2.241039276123046875e+00,2.240783452987670898e+00,2.240527629852294922e+00,2.240272045135498047e+00,2.240016460418701172e+00,2.239760875701904297e+00,2.239505290985107422e+00,2.239249706268310547e+00,2.238994359970092773e+00,2.238739013671875000e+00,2.238483905792236328e+00,2.238228797912597656e+00,2.223333597183227539e+00,2.182551383972167969e+00,2.143238306045532227e+00,2.105316400527954102e+00,2.068712949752807617e+00,2.033360958099365234e+00,1.999196529388427734e+00,1.966161489486694336e+00,1.934200286865234375e+00,1.903261542320251465e+00,1.873296976089477539e+00,1.844261288642883301e+00
1.988390207290649414e+00,1.988188266754150391e+00,1.987986683845520020e+00,1.987784743309020996e+00,1.987582921981811523e+00,1.987381219863891602e+00,1.987179517745971680e+00,1.986977815628051758e+00,1.986776351928710938e+00,1.986574769020080566e+00,1.986373186111450195e+00,1.986171722412109375e+00,1.985970139503479004e+00,1.985768795013427734e+00,1.985567331314086914e+00,1.985366225242614746e+00,1.985164880752563477e+00,1.984963655471801758e+00,1.984762430191040039e+00,1.984561204910278320e+00,1.984359979629516602e+00,1.984159111976623535e+00,1.983958005905151367e+00,1.983757019042968750e+00,1.983556032180786133e+00,1.983355045318603516e+00,1.983154177665710449e+00,1.982953310012817383e+00,1.982752680778503418e+00,1.982551813125610352e+00,1.982351064682006836e+00,1.982150435447692871e+00,1.981949687004089355e+00,1.981749057769775391e+00,1.981548786163330078e+00,1.981348156929016113e+00,1.981147646903991699e+00,1.980947256088256836e+00,1.980746746063232422e+00,1.980546355247497559e+00,1.980346083641052246e+00,1.980145931243896484e+00,1.979945659637451172e+00,1.979745388031005859e+00,1.979545235633850098e+00,1.979345083236694336e+00,1.979145050048828125e+00,1.658268094062805176e+00,1.590429902076721191e+00,1.568547487258911133e+00,1.978345155715942383e+00,1.978145360946655273e+00,1.977945446968078613e+00,1.977745652198791504e+00,1.977546095848083496e+00,1.977346301078796387e+00,1.977146625518798828e+00,1.976946949958801270e+00,1.976747274398803711e+00,1.976547718048095703e+00,1.976348161697387695e+00,1.976148962974548340e+00,1.975949406623840332e+00,1.975750088691711426e+00,1.975550651550292969e+00,1.975351333618164062e+00,1.975152015686035156e+00,1.974952936172485352e+00,1.974753737449645996e+00,1.974554538726806641e+00,1.974355459213256836e+00,1.974156379699707031e+00,1.973957300186157227e+00,1.973758220672607422e+00,1.973559498786926270e+00,1.966184258460998535e+00,1.934222340583801270e+00,1.903282880783081055e+00,1.873317718505859375e+00,1.844281435012817383e+00
1.777863860130310059e+00,1.777702450752258301e+00,1.777541041374206543e+00,1.777379631996154785e+00,1.777218222618103027e+00,1.777057170867919922e+00,1.776895880699157715e+00,1.776734590530395508e+00,1.776573300361633301e+00,1.776412129402160645e+00,1.776250958442687988e+00,1.776090025901794434e+00,1.775928854942321777e+00,1.775767803192138672e+00,1.775606751441955566e+00,1.775445699691772461e+00,1.775284647941589355e+00,1.775123715400695801e+00,1.774963021278381348e+00,1.774802088737487793e+00,1.774641156196594238e+00,1.774480342864990234e+00,1.774319529533386230e+00,1.774158716201782227e+00,1.773997902870178223e+00,1.773837327957153320e+00,1.773676633834838867e+00,1.773515939712524414e+00,1.773355245590209961e+00,1.773194670677185059e+00,1.773034095764160156e+00,1.772873640060424805e+00,1.772713184356689453e+00,1.772552609443664551e+00,1.772392153739929199e+00,1.772231698036193848e+00,1.772071242332458496e+00,1.771910905838012695e+00,1.771750688552856445e+00,1.771590352058410645e+00,1.771430015563964844e+00,1.771269798278808594e+00,1.771109580993652344e+00,1.770949363708496094e+00,1.770789265632629395e+00,1.770629167556762695e+00,1.770469069480895996e+00,1.770308971405029297e+00,1.571618556976318359e+00,1.531036019325256348e+00,1.535753488540649414e+00,1.575047254562377930e+00,1.769508957862854004e+00,1.769349098205566406e+00,1.769189119338989258e+00,1.769029259681701660e+00,1.768869400024414062e+00,1.768709778785705566e+00,1.768550038337707520e+00,1.768390297889709473e+00,1.768230557441711426e+00,1.768070816993713379e+00,1.767911195755004883e+00,1.767751574516296387e+00,1.767592072486877441e+00,1.767432570457458496e+00,1.767272949218750000e+00,1.767113447189331055e+00,1.766953945159912109e+00,1.766794443130493164e+00,1.766635060310363770e+00,1.766475796699523926e+00,1.766316413879394531e+00,1.766157150268554688e+00,1.765997767448425293e+00,1.765838503837585449e+00,1.765679240226745605e+00,1.765520215034484863e+00,1.765360951423645020e+00,1.765201807022094727e+00
1.607649326324462891e+00,1.607517361640930176e+00,1.607385516166687012e+00,1.607253551483154297e+00,1.607121586799621582e+00,1.606989622116088867e+00,1.606857776641845703e+00,1.606725931167602539e+00,1.606594204902648926e+00,1.606462359428405762e+00,1.606330513954162598e+00,1.606198668479919434e+00,1.606066942214965820e+00,1.605935215950012207e+00,1.605803489685058594e+00,1.605671882629394531e+00,1.605540275573730469e+00,1.605408549308776855e+00,1.605276942253112793e+00,1.605145335197448730e+00,1.605013728141784668e+00,1.604882240295410156e+00,1.604750752449035645e+00,1.604619145393371582e+00,1.604487657546997070e+00,1.604356169700622559e+00,1.604224681854248047e+00,1.604093313217163086e+00,1.603961944580078125e+00,1.603830575942993164e+00,1.603699207305908203e+00,1.603567838668823242e+00,1.603436470031738281e+00,1.603305220603942871e+00,1.603174090385437012e+00,1.603042721748352051e+00,1.602911472320556641e+00,1.602780222892761230e+00,1.602649092674255371e+00,1.602517843246459961e+00,1.602386713027954102e+00,1.602255702018737793e+00,1.602124571800231934e+00,1.601993441581726074e+00,1.601862430572509766e+00,1.601731300354003906e+00,1.601600289344787598e+00,1.601469278335571289e+00,1.601338386535644531e+00,1.601207494735717773e+00,1.489980936050415039e+00,1.519382476806640625e+00,1.600814700126647949e+00,1.600683808326721191e+00,1.600553035736083984e+00,1.600422263145446777e+00,1.600291371345520020e+00,1.600160598754882812e+00,1.600029826164245605e+00,1.599899053573608398e+00,1.599768280982971191e+00,1.599637746810913086e+00,1.599506974220275879e+00,1.599376320838928223e+00,1.599245667457580566e+00,1.599115014076232910e+00,1.598984479904174805e+00,1.598853945732116699e+00,1.598723411560058594e+00,1.598592877388000488e+00,1.598462343215942383e+00,1.598331809043884277e+00,1.598201394081115723e+00,1.598070859909057617e+00,1.597940564155578613e+00,1.597810149192810059e+00,1.597679734230041504e+00,1.597549438476562500e+00,1.597419023513793945e+00,1.597288727760314941e+00
1.467180132865905762e+00,1.467070102691650391e+00,1.466960191726684570e+00,1.466850280761718750e+00,1.466740369796752930e+00,1.466630697250366211e+00,1.466520786285400391e+00,1.466410875320434570e+00,1.466301083564758301e+00,1.466191291809082031e+00,1.466081500053405762e+00,1.465971827507019043e+00,1.465862035751342773e+00,1.465752243995666504e+00,1.465642571449279785e+00,1.465532779693603516e+00,1.465423107147216797e+00,1.465313434600830078e+00,1.465203881263732910e+00,1.465094208717346191e+00,1.464984655380249023e+00,1.464874982833862305e+00,1.464765310287475586e+00,1.464655756950378418e+00,1.464546203613281250e+00,1.464436769485473633e+00,1.464327216148376465e+00,1.464217662811279297e+00,1.464108228683471680e+00,1.463998675346374512e+00,1.463889241218566895e+00,1.463779926300048828e+00,1.463670492172241211e+00,1.463561058044433594e+00,1.463451623916625977e+00,1.463342189788818359e+00,1.463232874870300293e+00,1.463123559951782227e+00,1.463014245033264160e+00,1.462904930114746094e+00,1.462795615196228027e+00,1.462686419486999512e+00,1.462577104568481445e+00,1.462467789649963379e+00,1.462358713150024414e+00,1.462249517440795898e+00,1.462140321731567383e+00,1.462031126022338867e+00,1.461921930313110352e+00,1.461812734603881836e+00,1.461703658103942871e+00,1.461594581604003906e+00,1.461485505104064941e+00,1.461376428604125977e+00,1.461267352104187012e+00,1.461158275604248047e+00,1.461049199104309082e+00,1.460940241813659668e+00,1.460831284523010254e+00,1.460722327232360840e+00,1.460613250732421875e+00,1.460504293441772461e+00,1.460395336151123047e+00,1.460286378860473633e+00,1.460177659988403320e+00,1.460068702697753906e+00,1.459959864616394043e+00,1.459851026535034180e+00,1.459742188453674316e+00,1.459633350372314453e+00,1.459524512290954590e+00,1.459415793418884277e+00,1.459306955337524414e+00,1.459198236465454102e+00,1.459089517593383789e+00,1.458980679512023926e+00,1.458871960639953613e+00,1.458763480186462402e+00,1.458654761314392090e+00,1.458546042442321777e+00
1.349285364151000977e+00,1.349192380905151367e+00,1.349099516868591309e+00,1.349006533622741699e+00,1.348913669586181641e+00,1.348820686340332031e+00,1.348727822303771973e+00,1.348634839057922363e+00,1.348542094230651855e+00,1.348449230194091797e+00,1.348356246948242188e+00,1.348263382911682129e+00,1.348170638084411621e+00,1.348077774047851562e+00,1.347984910011291504e+00,1.347892284393310547e+00,1.347799420356750488e+00,1.347706675529479980e+00,1.347613930702209473e+00,1.347521066665649414e+00,1.347428321838378906e+00,1.347335815429687500e+00,1.347243070602416992e+00,1.347150325775146484e+00,1.347057700157165527e+00,1.346964955329895020e+00,1.346872329711914062e+00,1.346779704093933105e+00,1.346687078475952148e+00,1.346594452857971191e+00,1.346501827239990234e+00,1.346409201622009277e+00,1.346316695213317871e+00,1.346224069595336914e+00,1.346131563186645508e+00,1.346039056777954102e+00,1.345946550369262695e+00,1.345853924751281738e+00,1.345761418342590332e+00,1.345668911933898926e+00,1.345576524734497070e+00,1.345484137535095215e+00,1.345391631126403809e+00,1.345299124717712402e+00,1.345206737518310547e+00,1.345114350318908691e+00,1.345021843910217285e+00,1.344929456710815430e+00,1.344837188720703125e+00,1.344744801521301270e+00,1.344652414321899414e+00,1.344560146331787109e+00,1.344467759132385254e+00,1.344375371932983398e+00,1.344283223152160645e+00,1.344190955162048340e+00,1.344098567962646484e+00,1.344006299972534180e+00,1.343914031982421875e+00,1.343821883201599121e+00,1.343729615211486816e+00,1.343637466430664062e+00,1.343545198440551758e+00,1.343453049659729004e+00,1.343360900878906250e+00,1.343268632888793945e+00,1.343176484107971191e+00,1.343084454536437988e+00,1.342992305755615234e+00,1.342900156974792480e+00,1.342808127403259277e+00,1.342715978622436523e+00,1.342623949050903320e+00,1.342531800270080566e+00,1.342439889907836914e+00,1.342347860336303711e+00,1.342255830764770508e+00,1.342163801193237305e+00,1.342071771621704102e+00,1.341979742050170898e+00
1.248928308486938477e+00,1.248848676681518555e+00,1.248769044876098633e+00,1.248689413070678711e+00,1.248609781265258789e+00,1.248530268669128418e+00,1.248450636863708496e+00,1.248371005058288574e+00,1.248291373252868652e+00,1.248211860656738281e+00,1.248132228851318359e+00,1.248052716255187988e+00,1.247973203659057617e+00,1.247893691062927246e+00,1.247814059257507324e+00,1.247734546661376953e+00,1.247655034065246582e+00,1.247575521469116211e+00,1.247496128082275391e+00,1.247416615486145020e+00,1.247337102890014648e+00,1.247257709503173828e+00,1.247178196907043457e+00,1.247098803520202637e+00,1.247019290924072266e+00,1.246940016746520996e+00,1.246860623359680176e+00,1.246781110763549805e+00,1.246701717376708984e+00,1.246622323989868164e+00,1.246543049812316895e+00,1.246463775634765625e+00,1.246384382247924805e+00,1.246304988861083984e+00,1.246225714683532715e+00,1.246146321296691895e+00,1.246067047119140625e+00,1.245987772941589355e+00,1.245908498764038086e+00,1.245829224586486816e+00,1.245749950408935547e+00,1.245670676231384277e+00,1.245591402053833008e+00,1.245512127876281738e+00,1.245433092117309570e+00,1.245353817939758301e+00,1.245274543762207031e+00,1.245195388793945312e+00,1.245116233825683594e+00,1.245036959648132324e+00,1.244957804679870605e+00,1.244878768920898438e+00,1.244799613952636719e+00,1.244720458984375000e+00,1.244641304016113281e+00,1.244562149047851562e+00,1.244483113288879395e+00,1.244404077529907227e+00,1.244324922561645508e+00,1.244245886802673340e+00,1.244166851043701172e+00,1.244087696075439453e+00,1.244008660316467285e+00,1.243929624557495117e+00,1.243850708007812500e+00,1.243771672248840332e+00,1.243692636489868164e+00,1.243613600730895996e+00,1.243534684181213379e+00,1.243455648422241211e+00,1.243376731872558594e+00,1.243297815322875977e+00,1.243218898773193359e+00,1.243139863014221191e+00,1.243060946464538574e+00,1.242982029914855957e+00,1.242903113365173340e+00,1.242824316024780273e+00,1.242745399475097656e+00,1.242666602134704590e+00
1.162466526031494141e+00,1.162397503852844238e+00,1.162328481674194336e+00,1.162259578704833984e+00,1.162190556526184082e+00,1.162121534347534180e+00,1.162052512168884277e+00,1.161983609199523926e+00,1.161914706230163574e+00,1.161845803260803223e+00,1.161776781082153320e+00,1.161707878112792969e+00,1.161638975143432617e+00,1.161569952964782715e+00,1.161501049995422363e+00,1.161432266235351562e+00,1.161363363265991211e+00,1.161294460296630859e+00,1.161225557327270508e+00,1.161156654357910156e+00,1.161087870597839355e+00,1.161019086837768555e+00,1.160950183868408203e+00,1.160881400108337402e+00,1.160812497138977051e+00,1.160743713378906250e+00,1.160674810409545898e+00,1.160606026649475098e+00,1.160537362098693848e+00,1.160468578338623047e+00,1.160399794578552246e+00,1.160331010818481445e+00,1.160262227058410645e+00,1.160193443298339844e+00,1.160124778747558594e+00,1.160055994987487793e+00,1.159987330436706543e+00,1.159918546676635742e+00,1.159849762916564941e+00,1.159781098365783691e+00,1.159712433815002441e+00,1.159643769264221191e+00,1.159575104713439941e+00,1.159506440162658691e+00,1.159437775611877441e+00,1.159369111061096191e+00,1.159300446510314941e+00,1.159231781959533691e+00,1.159163236618041992e+00,1.159094572067260742e+00,1.159025907516479492e+00,1.158957362174987793e+00,1.158888697624206543e+00,1.158820152282714844e+00,1.158751606941223145e+00,1.158683061599731445e+00,1.158614397048950195e+00,1.158545851707458496e+00,1.158477306365966797e+00,1.158408761024475098e+00,1.158340215682983398e+00,1.158271789550781250e+00,1.158203244209289551e+00,1.158134698867797852e+00,1.158066272735595703e+00,1.157997727394104004e+00,1.157929301261901855e+00,1.157860875129699707e+00,1.157792329788208008e+00,1.157723903656005859e+00,1.157655477523803711e+00,1.157586932182312012e+00,1.157518506050109863e+00,1.157450079917907715e+00,1.157381772994995117e+00,1.157313346862792969e+00,1.157244920730590820e+00,1.157176494598388672e+00,1.157108068466186523e+00,1.157039761543273926e+00
1.087200880050659180e+00,1.087140440940856934e+00,1.087080121040344238e+00,1.087019801139831543e+00,1.086959362030029297e+00,1.086899161338806152e+00,1.086838722229003906e+00,1.086778402328491211e+00,1.086718082427978516e+00,1.086657762527465820e+00,1.086597442626953125e+00,1.086537241935729980e+00,1.086476922035217285e+00,1.086416602134704590e+00,1.086356401443481445e+00,1.086296081542968750e+00,1.086235761642456055e+00,1.086175560951232910e+00,1.086115360260009766e+00,1.086055040359497070e+00,1.085994839668273926e+00,1.085934638977050781e+00,1.085874319076538086e+00,1.085814118385314941e+00,1.085753917694091797e+00,1.085693836212158203e+00,1.085633516311645508e+00,1.085573315620422363e+00,1.085513234138488770e+00,1.085453033447265625e+00,1.085392832756042480e+00,1.085332751274108887e+00,1.085272550582885742e+00,1.085212349891662598e+00,1.085152268409729004e+00,1.085092067718505859e+00,1.085031986236572266e+00,1.084971785545349121e+00,1.084911704063415527e+00,1.084851622581481934e+00,1.084791541099548340e+00,1.084731340408325195e+00,1.084671258926391602e+00,1.084611177444458008e+00,1.084551215171813965e+00,1.084491133689880371e+00,1.084431052207946777e+00,1.084370970726013184e+00,1.084310889244079590e+00,1.084250807762145996e+00,1.084190845489501953e+00,1.084130883216857910e+00,1.084070801734924316e+00,1.084010720252990723e+00,1.083950757980346680e+00,1.083890795707702637e+00,1.083830714225769043e+00,1.083770751953125000e+00,1.083710789680480957e+00,1.083650827407836914e+00,1.083590865135192871e+00,1.083530902862548828e+00,1.083470940589904785e+00,1.083410978317260742e+00,1.083351016044616699e+00,1.083291053771972656e+00,1.083231210708618164e+00,1.083171248435974121e+00,1.083111286163330078e+00,1.083051323890686035e+00,1.082991480827331543e+00,1.082931637763977051e+00,1.082871675491333008e+00,1.082811832427978516e+00,1.082751989364624023e+00,1.082692027091979980e+00,1.082632184028625488e+00,1.082572340965270996e+00,1.082512497901916504e+00,1.082452654838562012e+00
1.021088838577270508e+00,1.021035552024841309e+00,1.020982384681701660e+00,1.020929217338562012e+00,1.020875930786132812e+00,1.020822644233703613e+00,1.020769476890563965e+00,1.020716309547424316e+00,1.020663142204284668e+00,1.020609855651855469e+00,1.020556688308715820e+00,1.020503520965576172e+00,1.020450234413146973e+00,1.020397067070007324e+00,1.020343899726867676e+00,1.020290851593017578e+00,1.020237684249877930e+00,1.020184516906738281e+00,1.020131349563598633e+00,1.020078182220458984e+00,1.020025014877319336e+00,1.019971966743469238e+00,1.019918799400329590e+00,1.019865632057189941e+00,1.019812464714050293e+00,1.019759416580200195e+00,1.019706249237060547e+00,1.019653201103210449e+00,1.019600152969360352e+00,1.019546985626220703e+00,1.019493937492370605e+00,1.019440889358520508e+00,1.019387722015380859e+00,1.019334673881530762e+00,1.019281625747680664e+00,1.019228577613830566e+00,1.019175529479980469e+00,1.019122481346130371e+00,1.019069433212280273e+00,1.019016385078430176e+00,1.018963336944580078e+00,1.018910408020019531e+00,1.018857359886169434e+00,1.018804311752319336e+00,1.018751263618469238e+00,1.018698334693908691e+00,1.018645286560058594e+00,1.018592238426208496e+00,1.018539309501647949e+00,1.018486380577087402e+00,1.018433332443237305e+00,1.018380403518676758e+00,1.018327474594116211e+00,1.018274426460266113e+00,1.018221616744995117e+00,1.018168568611145020e+00,1.018115639686584473e+00,1.018062710762023926e+00,1.018009781837463379e+00,1.017956852912902832e+00,1.017903923988342285e+00,1.017850995063781738e+00,1.017798066139221191e+00,1.017745256423950195e+00,1.017692327499389648e+00,1.017639398574829102e+00,1.017586469650268555e+00,1.017533659934997559e+00,1.017480850219726562e+00,1.017427921295166016e+00,1.017374992370605469e+00,1.017322182655334473e+00,1.017269253730773926e+00,1.017216444015502930e+00,1.017163634300231934e+00,1.017110824584960938e+00,1.017058014869689941e+00,1.017005085945129395e+00,1.016952276229858398e+00,1.016899466514587402e+00
9.625565409660339355e-01,9.625091552734375000e-01,9.624618887901306152e-01,9.624145627021789551e-01,9.623672366142272949e-01,9.623200297355651855e-01,9.622726440429687500e-01,9.622254371643066406e-01,9.621780514717102051e-01,9.621308445930480957e-01,9.620835185050964355e-01,9.620362520217895508e-01,9.619890451431274414e-01,9.619417190551757812e-01,9.618945121765136719e-01,9.618471860885620117e-01,9.618000388145446777e-01,9.617527127265930176e-01,9.617055058479309082e-01,9.616583585739135742e-01,9.616110324859619141e-01,9.615638852119445801e-01,9.615165591239929199e-01,9.614694118499755859e-01,9.614221453666687012e-01,9.613749980926513672e-01,9.613278508186340332e-01,9.612805843353271484e-01,9.612334370613098145e-01,9.611861705780029297e-01,9.611390233039855957e-01,9.610919356346130371e-01,9.610446691513061523e-01,9.609975814819335938e-01,9.609503149986267090e-01,9.609032273292541504e-01,9.608560204505920410e-01,9.608088731765747070e-01,9.607617855072021484e-01,9.607145786285400391e-01,9.606674909591674805e-01,9.606202840805053711e-01,9.605732560157775879e-01,9.605260491371154785e-01,9.604789614677429199e-01,9.604319334030151367e-01,9.603847265243530273e-01,9.603376984596252441e-01,9.602904915809631348e-01,9.602434635162353516e-01,9.601963162422180176e-01,9.601492881774902344e-01,9.601022601127624512e-01,9.600551128387451172e-01,9.600080847740173340e-01,9.599609375000000000e-01,9.599139094352722168e-01,9.598669409751892090e-01,9.598197937011718750e-01,9.597728252410888672e-01,9.597256779670715332e-01,9.596787095069885254e-01,9.596316218376159668e-01,9.595846533775329590e-01,9.595376253128051758e-01,9.594905376434326172e-01,9.594435691833496094e-01,9.593965411186218262e-01,9.593495726585388184e-01,9.593024849891662598e-01,9.592555165290832520e-01,9.592086076736450195e-01,9.591615200042724609e-01,9.591146111488342285e-01,9.590675830841064453e-01,9.590206146240234375e-01,9.589735865592956543e-01,9.589266777038574219e-01,9.588797688484191895e-01,9.588327407836914062e-01
9.103707671165466309e-01,9.103285074234008789e-01,9.102862477302551270e-01,9.102438688278198242e-01,9.102016091346740723e-01,9.101592302322387695e-01,9.101169705390930176e-01,9.100745916366577148e-01,9.100323319435119629e-01,9.099900722503662109e-01,9.099477529525756836e-01,9.099054932594299316e-01,9.098631739616394043e-01,9.098209142684936523e-01,9.097785949707031250e-01,9.097363352775573730e-01,9.096941351890563965e-01,9.096518158912658691e-01,9.096096158027648926e-01,9.095672965049743652e-01,9.095250964164733887e-01,9.094828963279724121e-01,9.094405770301818848e-01,9.093983769416809082e-01,9.093560576438903809e-01,9.093139171600341797e-01,9.092715978622436523e-01,9.092293977737426758e-01,9.091872572898864746e-01,9.091449975967407227e-01,9.091027975082397461e-01,9.090605378150939941e-01,9.090183973312377930e-01,9.089761376380920410e-01,9.089339971542358398e-01,9.088917970657348633e-01,9.088495969772338867e-01,9.088074564933776855e-01,9.087651968002319336e-01,9.087230563163757324e-01,9.086808562278747559e-01,9.086387157440185547e-01,9.085965752601623535e-01,9.085543751716613770e-01,9.085122346878051758e-01,9.084700345993041992e-01,9.084279537200927734e-01,9.083857536315917969e-01,9.083436727523803711e-01,9.083015322685241699e-01,9.082593321800231934e-01,9.082172513008117676e-01,9.081751108169555664e-01,9.081330299377441406e-01,9.080909490585327148e-01,9.080487489700317383e-01,9.080066680908203125e-01,9.079645276069641113e-01,9.079225063323974609e-01,9.078803062438964844e-01,9.078382849693298340e-01,9.077962040901184082e-01,9.077540636062622070e-01,9.077120423316955566e-01,9.076699018478393555e-01,9.076278805732727051e-01,9.075857400894165039e-01,9.075437188148498535e-01,9.075016975402832031e-01,9.074595570564270020e-01,9.074175953865051270e-01,9.073754549026489258e-01,9.073334336280822754e-01,9.072913527488708496e-01,9.072493314743041992e-01,9.072073698043823242e-01,9.071652889251708984e-01,9.071232676506042480e-01,9.070811867713928223e-01,9.070392251014709473e-01
