5.000000000000000000e+00,5.000000000000000000e+00,5.000000000000000000e+00,5.000000000000000000e+00,5.000000000000000000e+00,5.000000000000000000e+00,5.000000000000000000e+00,5.000000000000000000e+00,5.000000000000000000e+00,5.000000000000000000e+00,5.000000000000000000e+00,5.000000000000000000e+00,5.000000000000000000e+00,5.000000000000000000e+00,5.000000000000000000e+00,5.000000000000000000e+00,5.000000000000000000e+00,5.000000000000000000e+00,5.000000000000000000e+00,5.000000000000000000e+00,5.000000000000000000e+00,5.000000000000000000e+00,5.000000000000000000e+00,5.000000000000000000e+00,5.000000000000000000e+00,5.000000000000000000e+00,5.000000000000000000e+00,5.000000000000000000e+00,5.000000000000000000e+00,5.000000000000000000e+00,5.000000000000000000e+00,5.000000000000000000e+00,5.000000000000000000e+00,5.000000000000000000e+00,5.000000000000000000e+00,5.000000000000000000e+00,5.000000000000000000e+00,5.000000000000000000e+00,5.000000000000000000e+00,4.849108219146728516e+00,4.659229755401611328e+00,4.483662128448486328e+00,4.320845127105712891e+00,4.169438838958740234e+00,4.028284072875976562e+00,3.896373987197875977e+00,3.772829055786132812e+00,1.306062340736389160e+00,1.286861300468444824e+00,1.265959978103637695e+00,1.273982644081115723e+00,3.256541490554809570e+00,3.169788360595703125e+00,1.223554968833923340e+00,1.194300889968872070e+00,1.168608307838439941e+00,1.147261977195739746e+00,1.125270485877990723e+00,1.113113880157470703e+00,1.104687809944152832e+00,1.099067211151123047e+00,1.123622059822082520e+00,2.502998828887939453e+00,2.451431274414062500e+00,2.401945352554321289e+00,2.354418039321899414e+00,2.308734893798828125e+00,2.264791011810302734e+00,2.222488403320312500e+00,2.181737422943115234e+00,2.142453670501708984e+00,2.104559659957885742e+00,2.067982673645019531e+00,2.032655715942382812e+00,1.998515248298645020e+00,1.965502738952636719e+00,1.933563113212585449e+00,1.902644872665405273e+00,1.872699975967407227e+00,1.843682885169982910e+00
5.000000000000000000e+00,5.000000000000000000e+00,5.000000000000000000e+00,5.000000000000000000e+00,5.000000000000000000e+00,5.000000000000000000e+00,5.000000000000000000e+00,5.000000000000000000e+00,5.000000000000000000e+00,5.000000000000000000e+00,5.000000000000000000e+00,5.000000000000000000e+00,5.000000000000000000e+00,5.000000000000000000e+00,5.000000000000000000e+00,5.000000000000000000e+00,5.000000000000000000e+00,5.000000000000000000e+00,5.000000000000000000e+00,5.000000000000000000e+00,5.000000000000000000e+00,5.000000000000000000e+00,5.000000000000000000e+00,5.000000000000000000e+00,5.000000000000000000e+00,5.000000000000000000e+00,5.000000000000000000e+00,5.000000000000000000e+00,5.000000000000000000e+00,5.000000000000000000e+00,5.000000000000000000e+00,5.000000000000000000e+00,5.000000000000000000e+00,5.000000000000000000e+00,5.000000000000000000e+00,5.000000000000000000e+00,5.000000000000000000e+00,5.000000000000000000e+00,5.000000000000000000e+00,4.849246501922607422e+00,4.659358501434326172e+00,4.483781337738037109e+00,4.320955753326416016e+00,4.169541835784912109e+00,4.028379917144775391e+00,3.896463632583618164e+00,3.772912979125976562e+00,1.307145714759826660e+00,1.283019900321960449e+00,1.256183147430419922e+00,3.348242998123168945e+00,3.256604433059692383e+00,3.169847965240478516e+00,1.229578971862792969e+00,1.200592398643493652e+00,1.172553539276123047e+00,1.149750232696533203e+00,1.128055214881896973e+00,1.109190583229064941e+00,1.100823640823364258e+00,1.092581868171691895e+00,1.096988797187805176e+00,1.133918046951293945e+00,2.451466798782348633e+00,2.401979446411132812e+00,2.354450702667236328e+00,2.308766365051269531e+00,2.264821052551269531e+00,2.222517490386962891e+00,2.181765317916870117e+00,2.142480850219726562e+00,2.104585886001586914e+00,2.068007946014404297e+00,2.032680034637451172e+00,1.998538851737976074e+00,1.965525507926940918e+00,1.933585166931152344e+00,1.902666211128234863e+00,1.872720718383789062e+00,1.843702912330627441e+00
5.000000000000000000e+00,5.000000000000000000e+00,5.000000000000000000e+00,5.000000000000000000e+00,5.000000000000000000e+00,5.000000000000000000e+00,5.000000000000000000e+00,5.000000000000000000e+00,5.000000000000000000e+00,5.000000000000000000e+00,5.000000000000000000e+00,5.000000000000000000e+00,5.000000000000000000e+00,5.000000000000000000e+00,5.000000000000000000e+00,5.000000000000000000e+00,5.000000000000000000e+00,5.000000000000000000e+00,5.000000000000000000e+00,5.000000000000000000e+00,5.000000000000000000e+00,5.000000000000000000e+00,5.000000000000000000e+00,5.000000000000000000e+00,5.000000000000000000e+00,5.000000000000000000e+00,5.000000000000000000e+00,5.000000000000000000e+00,5.000000000000000000e+00,5.000000000000000000e+00,5.000000000000000000e+00,5.000000000000000000e+00,5.000000000000000000e+00,5.000000000000000000e+00,5.000000000000000000e+00,5.000000000000000000e+00,5.000000000000000000e+00,5.000000000000000000e+00,5.000000000000000000e+00,4.849385738372802734e+00,4.659486293792724609e+00,4.483899593353271484e+00,4.321065902709960938e+00,4.169644355773925781e+00,4.028475761413574219e+00,3.896553277969360352e+00,3.772996902465820312e+00,1.303158760070800781e+00,1.276541113853454590e+00,1.250635266304016113e+00,3.348309278488159180e+00,3.256666898727416992e+00,3.169907331466674805e+00,3.087650299072265625e+00,1.205639004707336426e+00,1.178617596626281738e+00,1.152249336242675781e+00,1.130853772163391113e+00,1.108926296234130859e+00,1.096789598464965820e+00,1.087953686714172363e+00,1.079259037971496582e+00,1.108377218246459961e+00,2.451502323150634766e+00,2.402013540267944336e+00,2.354483604431152344e+00,2.308797836303710938e+00,2.264851331710815430e+00,2.222546815872192383e+00,2.181793451309204102e+00,2.142507791519165039e+00,2.104611873626708984e+00,2.068033218383789062e+00,2.032704591751098633e+00,1.998562335968017578e+00,1.965548515319824219e+00,1.933607220649719238e+00,1.902687549591064453e+00,1.872741341590881348e+00,1.843723058700561523e+00
5.000000000000000000e+00,5.000000000000000000e+00,5.000000000000000000e+00,5.000000000000000000e+00,5.000000000000000000e+00,5.000000000000000000e+00,5.000000000000000000e+00,5.000000000000000000e+00,5.000000000000000000e+00,5.000000000000000000e+00,5.000000000000000000e+00,5.000000000000000000e+00,5.000000000000000000e+00,5.000000000000000000e+00,5.000000000000000000e+00,5.000000000000000000e+00,5.000000000000000000e+00,5.000000000000000000e+00,5.000000000000000000e+00,5.000000000000000000e+00,5.000000000000000000e+00,5.000000000000000000e+00,5.000000000000000000e+00,5.000000000000000000e+00,5.000000000000000000e+00,5.000000000000000000e+00,5.000000000000000000e+00,5.000000000000000000e+00,5.000000000000000000e+00,5.000000000000000000e+00,5.000000000000000000e+00,5.000000000000000000e+00,5.000000000000000000e+00,5.000000000000000000e+00,5.000000000000000000e+00,5.000000000000000000e+00,5.000000000000000000e+00,5.000000000000000000e+00,5.000000000000000000e+00,4.849524497985839844e+00,4.659615039825439453e+00,4.484018802642822266e+00,4.321176052093505859e+00,4.169746875762939453e+00,4.028571605682373047e+00,3.896643400192260742e+00,3.773081302642822266e+00,1.298659086227416992e+00,1.270109176635742188e+00,3.445328712463378906e+00,3.348375320434570312e+00,3.256729602813720703e+00,3.169966459274291992e+00,1.462823510169982910e+00,1.208561301231384277e+00,1.182613372802734375e+00,1.157432556152343750e+00,1.133666157722473145e+00,1.111801743507385254e+00,1.094780802726745605e+00,1.085004687309265137e+00,1.075442194938659668e+00,1.090662002563476562e+00,2.451537847518920898e+00,2.402047634124755859e+00,2.354516267776489258e+00,2.308829307556152344e+00,2.264881849288940430e+00,2.222576141357421875e+00,2.181821584701538086e+00,2.142534971237182617e+00,2.104638099670410156e+00,2.068058490753173828e+00,2.032728910446166992e+00,1.998585939407348633e+00,1.965571284294128418e+00,1.933629274368286133e+00,1.902709126472473145e+00,1.872762084007263184e+00,1.843743324279785156e+00
5.000000000000000000e+00,5.000000000000000000e+00,5.000000000000000000e+00,5.000000000000000000e+00,5.000000000000000000e+00,5.000000000000000000e+00,5.000000000000000000e+00,5.000000000000000000e+00,5.000000000000000000e+00,5.000000000000000000e+00,5.000000000000000000e+00,5.000000000000000000e+00,5.000000000000000000e+00,5.000000000000000000e+00,5.000000000000000000e+00,5.000000000000000000e+00,5.000000000000000000e+00,5.000000000000000000e+00,5.000000000000000000e+00,5.000000000000000000e+00,5.000000000000000000e+00,5.000000000000000000e+00,5.000000000000000000e+00,5.000000000000000000e+00,5.000000000000000000e+00,5.000000000000000000e+00,5.000000000000000000e+00,5.000000000000000000e+00,5.000000000000000000e+00,5.000000000000000000e+00,5.000000000000000000e+00,5.000000000000000000e+00,5.000000000000000000e+00,5.000000000000000000e+00,5.000000000000000000e+00,5.000000000000000000e+00,5.000000000000000000e+00,5.000000000000000000e+00,5.000000000000000000e+00,4.849663257598876953e+00,4.659742832183837891e+00,4.484137535095214844e+00,4.321286678314208984e+00,4.169849872589111328e+00,4.028667926788330078e+00,3.896732807159423828e+00,3.773165464401245117e+00,3.657193899154663086e+00,3.548138856887817383e+00,3.445399045944213867e+00,3.348441600799560547e+00,3.256792068481445312e+00,3.170025825500488281e+00,1.462496638298034668e+00,1.412112593650817871e+00,1.185425043106079102e+00,1.160450816154479980e+00,1.136588215827941895e+00,1.115032315254211426e+00,1.094569683074951172e+00,1.084477543830871582e+00,1.074931621551513672e+00,1.091153144836425781e+00,2.451573133468627930e+00,2.402081727981567383e+00,2.354548931121826172e+00,2.308860778808593750e+00,2.264912128448486328e+00,2.222605228424072266e+00,2.181849718093872070e+00,2.142562150955200195e+00,2.104664325714111328e+00,2.068083763122558594e+00,2.032753229141235352e+00,1.998609542846679688e+00,1.965594053268432617e+00,1.933651447296142578e+00,1.902730584144592285e+00,1.872782707214355469e+00,1.843763351440429688e+00
5.000000000000000000e+00,5.000000000000000000e+00,5.000000000000000000e+00,5.000000000000000000e+00,5.000000000000000000e+00,5.000000000000000000e+00,5.000000000000000000e+00,5.000000000000000000e+00,5.000000000000000000e+00,5.000000000000000000e+00,5.000000000000000000e+00,5.000000000000000000e+00,5.000000000000000000e+00,5.000000000000000000e+00,5.000000000000000000e+00,5.000000000000000000e+00,5.000000000000000000e+00,5.000000000000000000e+00,5.000000000000000000e+00,5.000000000000000000e+00,5.000000000000000000e+00,5.000000000000000000e+00,5.000000000000000000e+00,5.000000000000000000e+00,5.000000000000000000e+00,5.000000000000000000e+00,5.000000000000000000e+00,5.000000000000000000e+00,5.000000000000000000e+00,5.000000000000000000e+00,5.000000000000000000e+00,5.000000000000000000e+00,5.000000000000000000e+00,5.000000000000000000e+00,5.000000000000000000e+00,5.000000000000000000e+00,5.000000000000000000e+00,5.000000000000000000e+00,5.000000000000000000e+00,4.849802494049072266e+00,4.659871578216552734e+00,4.484256267547607422e+00,4.321396827697753906e+00,4.169952392578125000e+00,4.028763294219970703e+00,3.896822452545166016e+00,3.773249387741088867e+00,3.657272815704345703e+00,3.548213005065917969e+00,3.445469141006469727e+00,3.348508119583129883e+00,3.256855010986328125e+00,3.170085430145263672e+00,1.465378046035766602e+00,1.412484765052795410e+00,1.188250064849853516e+00,1.163505196571350098e+00,1.140159249305725098e+00,1.114860415458679199e+00,1.095957279205322266e+00,1.086359620094299316e+00,1.077014207839965820e+00,1.093045353889465332e+00,2.451608657836914062e+00,2.402115821838378906e+00,2.354581832885742188e+00,2.308892250061035156e+00,2.264942407608032227e+00,2.222634315490722656e+00,2.181877851486206055e+00,2.142589330673217773e+00,2.104690551757812500e+00,2.068109035491943359e+00,2.032777786254882812e+00,1.998633146286010742e+00,1.965616941452026367e+00,1.933673501014709473e+00,1.902751922607421875e+00,1.872803449630737305e+00,1.843783378601074219e+00
5.000000000000000000e+00,5.000000000000000000e+00,5.000000000000000000e+00,5.000000000000000000e+00,5.000000000000000000e+00,5.000000000000000000e+00,5.000000000000000000e+00,5.000000000000000000e+00,5.000000000000000000e+00,5.000000000000000000e+00,5.000000000000000000e+00,5.000000000000000000e+00,5.000000000000000000e+00,5.000000000000000000e+00,5.000000000000000000e+00,5.000000000000000000e+00,5.000000000000000000e+00,5.000000000000000000e+00,5.000000000000000000e+00,5.000000000000000000e+00,5.000000000000000000e+00,5.000000000000000000e+00,5.000000000000000000e+00,5.000000000000000000e+00,5.000000000000000000e+00,5.000000000000000000e+00,5.000000000000000000e+00,5.000000000000000000e+00,5.000000000000000000e+00,5.000000000000000000e+00,5.000000000000000000e+00,5.000000000000000000e+00,5.000000000000000000e+00,5.000000000000000000e+00,5.000000000000000000e+00,5.000000000000000000e+00,5.000000000000000000e+00,5.000000000000000000e+00,5.000000000000000000e+00,4.849941253662109375e+00,4.659999370574951172e+00,4.484375000000000000e+00,4.321506977081298828e+00,4.170055389404296875e+00,4.028859138488769531e+00,3.896912097930908203e+00,3.773333311080932617e+00,3.657351732254028320e+00,3.548287391662597656e+00,3.445539236068725586e+00,3.348574161529541016e+00,3.256917715072631836e+00,3.170144796371459961e+00,1.468270897865295410e+00,1.412857413291931152e+00,1.393942236900329590e+00,1.167529821395874023e+00,1.138125181198120117e+00,1.113571047782897949e+00,1.096156120300292969e+00,1.089300751686096191e+00,1.079905033111572266e+00,1.094850540161132812e+00,2.451644420623779297e+00,2.402149915695190430e+00,2.354614496231079102e+00,2.308923721313476562e+00,2.264972686767578125e+00,2.222663402557373047e+00,2.181905984878540039e+00,2.142616271972656250e+00,2.104716777801513672e+00,2.068134307861328125e+00,2.032802104949951172e+00,1.998656868934631348e+00,1.965639710426330566e+00,1.933695554733276367e+00,1.902773261070251465e+00,1.872824192047119141e+00,1.843803405761718750e+00
5.000000000000000000e+00,5.000000000000000000e+00,5.000000000000000000e+00,5.000000000000000000e+00,5.000000000000000000e+00,5.000000000000000000e+00,5.000000000000000000e+00,5.000000000000000000e+00,5.000000000000000000e+00,5.000000000000000000e+00,5.000000000000000000e+00,5.000000000000000000e+00,5.000000000000000000e+00,5.000000000000000000e+00,5.000000000000000000e+00,5.000000000000000000e+00,5.000000000000000000e+00,5.000000000000000000e+00,5.000000000000000000e+00,5.000000000000000000e+00,5.000000000000000000e+00,5.000000000000000000e+00,5.000000000000000000e+00,5.000000000000000000e+00,5.000000000000000000e+00,5.000000000000000000e+00,5.000000000000000000e+00,5.000000000000000000e+00,5.000000000000000000e+00,5.000000000000000000e+00,5.000000000000000000e+00,5.000000000000000000e+00,5.000000000000000000e+00,5.000000000000000000e+00,5.000000000000000000e+00,5.000000000000000000e+00,5.000000000000000000e+00,5.000000000000000000e+00,5.000000000000000000e+00,4.850080490112304688e+00,4.660128116607666016e+00,4.484494209289550781e+00,4.321617126464843750e+00,4.170157909393310547e+00,4.028955459594726562e+00,3.897002220153808594e+00,3.773417949676513672e+00,3.657430648803710938e+00,3.548361539840698242e+00,3.445609331130981445e+00,3.348640441894531250e+00,3.256980180740356445e+00,3.170203924179077148e+00,1.471174955368041992e+00,1.413975954055786133e+00,1.397290110588073730e+00,1.165365815162658691e+00,1.134117007255554199e+00,1.110934853553771973e+00,1.096223592758178711e+00,1.092257976531982422e+00,1.082811355590820312e+00,1.096661686897277832e+00,2.451679706573486328e+00,2.402184009552001953e+00,2.354647397994995117e+00,2.308955430984497070e+00,2.265003204345703125e+00,2.222692728042602539e+00,2.181934118270874023e+00,2.142643451690673828e+00,2.104742765426635742e+00,2.068159580230712891e+00,2.032826662063598633e+00,1.998680472373962402e+00,1.965662479400634766e+00,1.933717846870422363e+00,1.902794599533081055e+00,1.872845053672790527e+00,1.843823552131652832e+00
5.000000000000000000e+00,5.000000000000000000e+00,5.000000000000000000e+00,5.000000000000000000e+00,5.000000000000000000e+00,5.000000000000000000e+00,5.000000000000000000e+00,5.000000000000000000e+00,5.000000000000000000e+00,5.000000000000000000e+00,5.000000000000000000e+00,5.000000000000000000e+00,5.000000000000000000e+00,5.000000000000000000e+00,5.000000000000000000e+00,5.000000000000000000e+00,5.000000000000000000e+00,5.000000000000000000e+00,5.000000000000000000e+00,5.000000000000000000e+00,5.000000000000000000e+00,5.000000000000000000e+00,5.000000000000000000e+00,5.000000000000000000e+00,5.000000000000000000e+00,5.000000000000000000e+00,5.000000000000000000e+00,5.000000000000000000e+00,5.000000000000000000e+00,5.000000000000000000e+00,5.000000000000000000e+00,5.000000000000000000e+00,5.000000000000000000e+00,5.000000000000000000e+00,5.000000000000000000e+00,5.000000000000000000e+00,5.000000000000000000e+00,5.000000000000000000e+00,5.000000000000000000e+00,4.850219249725341797e+00,4.660256385803222656e+00,4.484612464904785156e+00,4.321727752685546875e+00,4.170260906219482422e+00,4.029051303863525391e+00,3.897091865539550781e+00,3.773501873016357422e+00,3.657510042190551758e+00,3.548436403274536133e+00,3.445679426193237305e+00,3.348706483840942383e+00,3.257042884826660156e+00,3.170263290405273438e+00,1.471309065818786621e+00,1.416623592376708984e+00,1.400293231010437012e+00,1.161380648612976074e+00,1.129820585250854492e+00,1.108991861343383789e+00,1.096291184425354004e+00,1.092978596687316895e+00,1.085733294486999512e+00,1.099638581275939941e+00,2.451715230941772461e+00,2.402218103408813477e+00,2.354680061340332031e+00,2.308986902236938477e+00,2.265033483505249023e+00,2.222721815109252930e+00,2.181962251663208008e+00,2.142670631408691406e+00,2.104768991470336914e+00,2.068184852600097656e+00,2.032850980758666992e+00,1.998704075813293457e+00,1.965685248374938965e+00,1.933739900588989258e+00,1.902815937995910645e+00,1.872865796089172363e+00,1.843843579292297363e+00
5.000000000000000000e+00,5.000000000000000000e+00,5.000000000000000000e+00,5.000000000000000000e+00,5.000000000000000000e+00,5.000000000000000000e+00,5.000000000000000000e+00,5.000000000000000000e+00,5.000000000000000000e+00,5.000000000000000000e+00,5.000000000000000000e+00,5.000000000000000000e+00,5.000000000000000000e+00,5.000000000000000000e+00,5.000000000000000000e+00,5.000000000000000000e+00,5.000000000000000000e+00,5.000000000000000000e+00,5.000000000000000000e+00,5.000000000000000000e+00,5.000000000000000000e+00,5.000000000000000000e+00,5.000000000000000000e+00,5.000000000000000000e+00,5.000000000000000000e+00,5.000000000000000000e+00,5.000000000000000000e+00,5.000000000000000000e+00,5.000000000000000000e+00,5.000000000000000000e+00,5.000000000000000000e+00,5.000000000000000000e+00,5.000000000000000000e+00,5.000000000000000000e+00,5.000000000000000000e+00,5.000000000000000000e+00,5.000000000000000000e+00,5.000000000000000000e+00,5.000000000000000000e+00,4.850358486175537109e+00,4.660384654998779297e+00,4.484731197357177734e+00,4.321837902069091797e+00,4.170363426208496094e+00,4.029147148132324219e+00,3.897181510925292969e+00,3.773585796356201172e+00,3.657588958740234375e+00,3.548510551452636719e+00,3.445749759674072266e+00,3.348773002624511719e+00,3.257105588912963867e+00,3.170322656631469727e+00,1.455351233482360840e+00,1.421668648719787598e+00,1.403717756271362305e+00,1.156875610351562500e+00,1.126161813735961914e+00,1.108944535255432129e+00,1.096358776092529297e+00,1.093045711517333984e+00,1.088671207427978516e+00,1.112357616424560547e+00,2.451750755310058594e+00,2.402252197265625000e+00,2.354712724685668945e+00,2.309018373489379883e+00,2.265063524246215820e+00,2.222751140594482422e+00,2.181990385055541992e+00,2.142697811126708984e+00,2.104795217514038086e+00,2.068210124969482422e+00,2.032875299453735352e+00,1.998727679252624512e+00,1.965708136558532715e+00,1.933761954307556152e+00,1.902837395668029785e+00,1.872886419296264648e+00,1.843863606452941895e+00
5.000000000000000000e+00,5.000000000000000000e+00,5.000000000000000000e+00,5.000000000000000000e+00,5.000000000000000000e+00,5.000000000000000000e+00,5.000000000000000000e+00,5.000000000000000000e+00,5.000000000000000000e+00,5.000000000000000000e+00,5.000000000000000000e+00,5.000000000000000000e+00,5.000000000000000000e+00,5.000000000000000000e+00,5.000000000000000000e+00,5.000000000000000000e+00,5.000000000000000000e+00,5.000000000000000000e+00,5.000000000000000000e+00,5.000000000000000000e+00,5.000000000000000000e+00,5.000000000000000000e+00,5.000000000000000000e+00,5.000000000000000000e+00,5.000000000000000000e+00,5.000000000000000000e+00,5.000000000000000000e+00,5.000000000000000000e+00,5.000000000000000000e+00,5.000000000000000000e+00,5.000000000000000000e+00,5.000000000000000000e+00,5.000000000000000000e+00,5.000000000000000000e+00,5.000000000000000000e+00,5.000000000000000000e+00,5.000000000000000000e+00,5.000000000000000000e+00,5.000000000000000000e+00,4.850497245788574219e+00,4.660512924194335938e+00,4.484850406646728516e+00,4.321948528289794922e+00,4.170466423034667969e+00,4.029242992401123047e+00,3.897271156311035156e+00,3.773669958114624023e+00,3.657667875289916992e+00,3.548584938049316406e+00,3.445819854736328125e+00,3.348839282989501953e+00,3.257168292999267578e+00,1.512285828590393066e+00,1.450023651123046875e+00,1.429900765419006348e+00,1.410664916038513184e+00,1.155566930770874023e+00,1.123465776443481445e+00,1.108897209167480469e+00,1.096426367759704590e+00,1.093112826347351074e+00,1.089819312095642090e+00,1.125374436378479004e+00,2.451786279678344727e+00,2.402286291122436523e+00,2.354745388031005859e+00,2.309049606323242188e+00,2.265093803405761719e+00,2.222780227661132812e+00,2.182018518447875977e+00,2.142724752426147461e+00,2.104821443557739258e+00,2.068235397338867188e+00,2.032899856567382812e+00,1.998751163482666016e+00,1.965731143951416016e+00,1.933784008026123047e+00,1.902858734130859375e+00,1.872907161712646484e+00,1.843883752822875977e+00
5.000000000000000000e+00,5.000000000000000000e+00,5.000000000000000000e+00,5.000000000000000000e+00,5.000000000000000000e+00,5.000000000000000000e+00,5.000000000000000000e+00,5.000000000000000000e+00,5.000000000000000000e+00,5.000000000000000000e+00,5.000000000000000000e+00,5.000000000000000000e+00,5.000000000000000000e+00,5.000000000000000000e+00,5.000000000000000000e+00,5.000000000000000000e+00,5.000000000000000000e+00,5.000000000000000000e+00,5.000000000000000000e+00,5.000000000000000000e+00,5.000000000000000000e+00,5.000000000000000000e+00,5.000000000000000000e+00,5.000000000000000000e+00,5.000000000000000000e+00,5.000000000000000000e+00,5.000000000000000000e+00,5.000000000000000000e+00,5.000000000000000000e+00,5.000000000000000000e+00,5.000000000000000000e+00,5.000000000000000000e+00,5.000000000000000000e+00,5.000000000000000000e+00,5.000000000000000000e+00,5.000000000000000000e+00,5.000000000000000000e+00,5.000000000000000000e+00,5.000000000000000000e+00,4.850636482238769531e+00,4.660641193389892578e+00,4.484969139099121094e+00,4.322058677673339844e+00,4.170568943023681641e+00,4.029338836669921875e+00,3.897361040115356445e+00,3.773753881454467773e+00,3.657746791839599609e+00,3.548659324645996094e+00,3.445889949798583984e+00,3.348905324935913086e+00,3.257230997085571289e+00,1.483221411705017090e+00,1.460567116737365723e+00,1.440107107162475586e+00,1.422369956970214844e+00,1.156375288963317871e+00,1.122274398803710938e+00,1.108849883079528809e+00,1.095606803894042969e+00,1.090762734413146973e+00,1.086539030075073242e+00,1.115714669227600098e+00,2.451821804046630859e+00,2.402320384979248047e+00,2.354778289794921875e+00,2.309081315994262695e+00,2.265124082565307617e+00,2.222809314727783203e+00,2.182046651840209961e+00,2.142751932144165039e+00,2.104847431182861328e+00,2.068260669708251953e+00,2.032924175262451172e+00,1.998774766921997070e+00,1.965753912925720215e+00,1.933806061744689941e+00,1.902880311012268066e+00,1.872927904129028320e+00,1.843903779983520508e+00
5.000000000000000000e+00,5.000000000000000000e+00,5.000000000000000000e+00,5.000000000000000000e+00,5.000000000000000000e+00,5.000000000000000000e+00,5.000000000000000000e+00,5.000000000000000000e+00,5.000000000000000000e+00,5.000000000000000000e+00,5.000000000000000000e+00,5.000000000000000000e+00,5.000000000000000000e+00,5.000000000000000000e+00,5.000000000000000000e+00,5.000000000000000000e+00,5.000000000000000000e+00,5.000000000000000000e+00,5.000000000000000000e+00,5.000000000000000000e+00,5.000000000000000000e+00,5.000000000000000000e+00,5.000000000000000000e+00,5.000000000000000000e+00,5.000000000000000000e+00,5.000000000000000000e+00,5.000000000000000000e+00,5.000000000000000000e+00,5.000000000000000000e+00,5.000000000000000000e+00,5.000000000000000000e+00,5.000000000000000000e+00,5.000000000000000000e+00,5.000000000000000000e+00,5.000000000000000000e+00,5.000000000000000000e+00,5.000000000000000000e+00,5.000000000000000000e+00,5.000000000000000000e+00,4.850775241851806641e+00,4.660769462585449219e+00,4.485087871551513672e+00,4.322169303894042969e+00,4.170671463012695312e+00,4.029434680938720703e+00,3.897450685501098633e+00,3.773838520050048828e+00,3.657826185226440430e+00,3.548733949661254883e+00,3.445960044860839844e+00,3.348971605300903320e+00,1.536331295967102051e+00,1.492577672004699707e+00,1.468567490577697754e+00,1.450168728828430176e+00,1.441962957382202148e+00,1.157184600830078125e+00,1.122011423110961914e+00,1.108358263969421387e+00,1.095093369483947754e+00,1.086451888084411621e+00,1.082261443138122559e+00,1.093023538589477539e+00,2.451857328414916992e+00,2.402354478836059570e+00,2.354811191558837891e+00,2.309112787246704102e+00,2.265154600143432617e+00,2.222838640213012695e+00,2.182074785232543945e+00,2.142779111862182617e+00,2.104873657226562500e+00,2.068285942077636719e+00,2.032948732376098633e+00,1.998798370361328125e+00,1.965776681900024414e+00,1.933828115463256836e+00,1.902901649475097656e+00,1.872948527336120605e+00,1.843924045562744141e+00
5.000000000000000000e+00,5.000000000000000000e+00,5.000000000000000000e+00,5.000000000000000000e+00,5.000000000000000000e+00,5.000000000000000000e+00,5.000000000000000000e+00,5.000000000000000000e+00,5.000000000000000000e+00,5.000000000000000000e+00,5.000000000000000000e+00,5.000000000000000000e+00,5.000000000000000000e+00,5.000000000000000000e+00,5.000000000000000000e+00,5.000000000000000000e+00,5.000000000000000000e+00,5.000000000000000000e+00,5.000000000000000000e+00,5.000000000000000000e+00,5.000000000000000000e+00,5.000000000000000000e+00,5.000000000000000000e+00,5.000000000000000000e+00,5.000000000000000000e+00,5.000000000000000000e+00,5.000000000000000000e+00,5.000000000000000000e+00,5.000000000000000000e+00,5.000000000000000000e+00,5.000000000000000000e+00,5.000000000000000000e+00,5.000000000000000000e+00,5.000000000000000000e+00,5.000000000000000000e+00,5.000000000000000000e+00,5.000000000000000000e+00,5.000000000000000000e+00,5.000000000000000000e+00,4.850914478302001953e+00,4.660897731781005859e+00,4.485206604003906250e+00,4.322279453277587891e+00,4.170774459838867188e+00,4.029531002044677734e+00,3.897540330886840820e+00,3.773922443389892578e+00,3.657905101776123047e+00,3.548808336257934570e+00,3.446030378341674805e+00,3.349038124084472656e+00,1.521247386932373047e+00,1.497463703155517578e+00,1.479075789451599121e+00,1.470540642738342285e+00,1.462829947471618652e+00,1.167141318321228027e+00,1.121448397636413574e+00,1.107808828353881836e+00,1.094580531120300293e+00,1.083348035812377930e+00,1.078017354011535645e+00,1.073891639709472656e+00,2.451892852783203125e+00,2.402388572692871094e+00,2.354843854904174805e+00,2.309144258499145508e+00,2.265184879302978516e+00,2.222867965698242188e+00,2.182102918624877930e+00,2.142806291580200195e+00,2.104899883270263672e+00,2.068311214447021484e+00,2.032973051071166992e+00,1.998821973800659180e+00,1.965799570083618164e+00,1.933850169181823730e+00,1.902922987937927246e+00,1.872969269752502441e+00,1.843944072723388672e+00
5.000000000000000000e+00,5.000000000000000000e+00,5.000000000000000000e+00,5.000000000000000000e+00,5.000000000000000000e+00,5.000000000000000000e+00,5.000000000000000000e+00,5.000000000000000000e+00,5.000000000000000000e+00,5.000000000000000000e+00,5.000000000000000000e+00,5.000000000000000000e+00,5.000000000000000000e+00,5.000000000000000000e+00,5.000000000000000000e+00,5.000000000000000000e+00,5.000000000000000000e+00,5.000000000000000000e+00,5.000000000000000000e+00,5.000000000000000000e+00,5.000000000000000000e+00,5.000000000000000000e+00,5.000000000000000000e+00,5.000000000000000000e+00,5.000000000000000000e+00,5.000000000000000000e+00,5.000000000000000000e+00,5.000000000000000000e+00,5.000000000000000000e+00,5.000000000000000000e+00,5.000000000000000000e+00,5.000000000000000000e+00,5.000000000000000000e+00,5.000000000000000000e+00,5.000000000000000000e+00,5.000000000000000000e+00,5.000000000000000000e+00,5.000000000000000000e+00,5.000000000000000000e+00,4.851052761077880859e+00,4.661026000976562500e+00,4.485325813293457031e+00,4.322390079498291016e+00,4.170877456665039062e+00,4.029626846313476562e+00,3.897629976272583008e+00,3.774006605148315430e+00,3.657984256744384766e+00,3.548882484436035156e+00,3.446100473403930664e+00,3.349104404449462891e+00,1.522640109062194824e+00,1.498900294303894043e+00,1.490311980247497559e+00,1.486857414245605469e+00,1.513009190559387207e+00,2.865225553512573242e+00,1.124975204467773438e+00,1.107259988784790039e+00,1.094067931175231934e+00,1.081466794013977051e+00,1.074038863182067871e+00,1.069712877273559570e+00,1.114028930664062500e+00,2.402422666549682617e+00,2.354876518249511719e+00,2.309175729751586914e+00,2.265215158462524414e+00,2.222897052764892578e+00,2.182131052017211914e+00,2.142833471298217773e+00,2.104926109313964844e+00,2.068336486816406250e+00,2.032997608184814453e+00,1.998845696449279785e+00,1.965822339057922363e+00,1.933872222900390625e+00,1.902944445610046387e+00,1.872990012168884277e+00,1.843964219093322754e+00
5.000000000000000000e+00,5.000000000000000000e+00,5.000000000000000000e+00,5.000000000000000000e+00,5.000000000000000000e+00,5.000000000000000000e+00,5.000000000000000000e+00,5.000000000000000000e+00,5.000000000000000000e+00,5.000000000000000000e+00,5.000000000000000000e+00,5.000000000000000000e+00,5.000000000000000000e+00,5.000000000000000000e+00,5.000000000000000000e+00,5.000000000000000000e+00,5.000000000000000000e+00,5.000000000000000000e+00,5.000000000000000000e+00,5.000000000000000000e+00,5.000000000000000000e+00,5.000000000000000000e+00,5.000000000000000000e+00,5.000000000000000000e+00,5.000000000000000000e+00,5.000000000000000000e+00,5.000000000000000000e+00,5.000000000000000000e+00,5.000000000000000000e+00,5.000000000000000000e+00,5.000000000000000000e+00,5.000000000000000000e+00,5.000000000000000000e+00,5.000000000000000000e+00,5.000000000000000000e+00,5.000000000000000000e+00,5.000000000000000000e+00,5.000000000000000000e+00,5.000000000000000000e+00,4.851191043853759766e+00,4.661154270172119141e+00,4.485444545745849609e+00,4.322500228881835938e+00,4.170979976654052734e+00,4.029722690582275391e+00,3.897719621658325195e+00,3.774090528488159180e+00,3.658063173294067383e+00,3.548956871032714844e+00,3.446170568466186523e+00,1.574966788291931152e+00,1.524035334587097168e+00,1.501461863517761230e+00,1.499356627464294434e+00,1.495860099792480469e+00,2.935973644256591797e+00,2.865273952484130859e+00,1.135120272636413574e+00,1.106711745262145996e+00,1.093555927276611328e+00,1.080966472625732422e+00,1.071574568748474121e+00,1.065566420555114746e+00,1.093319177627563477e+00,2.402456760406494141e+00,2.354909420013427734e+00,2.309207439422607422e+00,2.265245437622070312e+00,2.222926139831542969e+00,2.182159185409545898e+00,2.142860412597656250e+00,2.104952096939086914e+00,2.068361759185791016e+00,2.033021926879882812e+00,1.998869299888610840e+00,1.965845108032226562e+00,1.933894515037536621e+00,1.902965784072875977e+00,1.873010635375976562e+00,1.843984246253967285e+00
5.000000000000000000e+00,5.000000000000000000e+00,5.000000000000000000e+00,5.000000000000000000e+00,5.000000000000000000e+00,5.000000000000000000e+00,5.000000000000000000e+00,5.000000000000000000e+00,5.000000000000000000e+00,5.000000000000000000e+00,5.000000000000000000e+00,5.000000000000000000e+00,5.000000000000000000e+00,5.000000000000000000e+00,5.000000000000000000e+00,5.000000000000000000e+00,5.000000000000000000e+00,5.000000000000000000e+00,5.000000000000000000e+00,5.000000000000000000e+00,5.000000000000000000e+00,5.000000000000000000e+00,5.000000000000000000e+00,5.000000000000000000e+00,5.000000000000000000e+00,5.000000000000000000e+00,5.000000000000000000e+00,5.000000000000000000e+00,5.000000000000000000e+00,5.000000000000000000e+00,5.000000000000000000e+00,5.000000000000000000e+00,5.000000000000000000e+00,5.000000000000000000e+00,5.000000000000000000e+00,5.000000000000000000e+00,5.000000000000000000e+00,5.000000000000000000e+00,5.000000000000000000e+00,4.851329326629638672e+00,4.661282062530517578e+00,4.485563278198242188e+00,4.322610378265380859e+00,4.171082973480224609e+00,4.029818534851074219e+00,3.897809743881225586e+00,3.774174928665161133e+00,3.658142566680908203e+00,3.549031257629394531e+00,3.446240663528442383e+00,1.559315323829650879e+00,1.526241540908813477e+00,1.510358095169067383e+00,1.508511662483215332e+00,1.504972338676452637e+00,2.936024427413940430e+00,2.865322589874267578e+00,1.142349004745483398e+00,1.106163978576660156e+00,1.093044400215148926e+00,1.080466628074645996e+00,1.069121718406677246e+00,1.062465786933898926e+00,1.073365330696105957e+00,2.402490854263305664e+00,2.354942083358764648e+00,2.309238910675048828e+00,2.265275955200195312e+00,2.222955465316772461e+00,2.182187318801879883e+00,2.142887592315673828e+00,2.104978322982788086e+00,2.068387031555175781e+00,2.033046245574951172e+00,1.998892903327941895e+00,1.965867996215820312e+00,1.933916568756103516e+00,1.902987122535705566e+00,1.873031616210937500e+00,1.844004273414611816e+00
5.000000000000000000e+00,5.000000000000000000e+00,5.000000000000000000e+00,5.000000000000000000e+00,5.000000000000000000e+00,5.000000000000000000e+00,5.000000000000000000e+00,5.000000000000000000e+00,5.000000000000000000e+00,5.000000000000000000e+00,5.000000000000000000e+00,5.000000000000000000e+00,5.000000000000000000e+00,5.000000000000000000e+00,5.000000000000000000e+00,5.000000000000000000e+00,5.000000000000000000e+00,5.000000000000000000e+00,5.000000000000000000e+00,5.000000000000000000e+00,5.000000000000000000e+00,5.000000000000000000e+00,5.000000000000000000e+00,5.000000000000000000e+00,5.000000000000000000e+00,5.000000000000000000e+00,5.000000000000000000e+00,5.000000000000000000e+00,5.000000000000000000e+00,5.000000000000000000e+00,5.000000000000000000e+00,5.000000000000000000e+00,5.000000000000000000e+00,5.000000000000000000e+00,5.000000000000000000e+00,5.000000000000000000e+00,5.000000000000000000e+00,5.000000000000000000e+00,5.000000000000000000e+00,4.851467609405517578e+00,4.661409378051757812e+00,4.485681533813476562e+00,4.322721004486083984e+00,4.171185493469238281e+00,4.029914379119873047e+00,3.897899389266967773e+00,3.774259090423583984e+00,3.658221483230590820e+00,3.549105882644653320e+00,3.446310997009277344e+00,1.551899194717407227e+00,1.528897523880004883e+00,1.519454717636108398e+00,1.517691373825073242e+00,3.010357141494750977e+00,2.936075448989868164e+00,2.865370988845825195e+00,1.148340463638305664e+00,1.105616807937622070e+00,1.092533349990844727e+00,1.079967260360717773e+00,1.067687034606933594e+00,1.060054302215576172e+00,1.054492473602294922e+00,2.402524948120117188e+00,2.354974746704101562e+00,2.309270381927490234e+00,2.265306234359741211e+00,2.222984552383422852e+00,2.182215452194213867e+00,2.142914772033691406e+00,2.105004549026489258e+00,2.068412303924560547e+00,2.033070802688598633e+00,1.998916506767272949e+00,1.965890765190124512e+00,1.933938741683959961e+00,1.903008460998535156e+00,1.873052239418029785e+00,1.844024300575256348e+00
5.000000000000000000e+00,5.000000000000000000e+00,5.000000000000000000e+00,5.000000000000000000e+00,5.000000000000000000e+00,5.000000000000000000e+00,5.000000000000000000e+00,5.000000000000000000e+00,5.000000000000000000e+00,5.000000000000000000e+00,5.000000000000000000e+00,5.000000000000000000e+00,5.000000000000000000e+00,5.000000000000000000e+00,5.000000000000000000e+00,5.000000000000000000e+00,5.000000000000000000e+00,5.000000000000000000e+00,5.000000000000000000e+00,5.000000000000000000e+00,5.000000000000000000e+00,5.000000000000000000e+00,5.000000000000000000e+00,5.000000000000000000e+00,5.000000000000000000e+00,5.000000000000000000e+00,5.000000000000000000e+00,5.000000000000000000e+00,5.000000000000000000e+00,5.000000000000000000e+00,5.000000000000000000e+00,5.000000000000000000e+00,5.000000000000000000e+00,5.000000000000000000e+00,5.000000000000000000e+00,5.000000000000000000e+00,5.000000000000000000e+00,5.000000000000000000e+00,5.000000000000000000e+00,4.851605892181396484e+00,4.661537170410156250e+00,4.485799789428710938e+00,4.322831153869628906e+00,4.171288490295410156e+00,4.030010223388671875e+00,3.897989034652709961e+00,3.774343252182006836e+00,3.658300399780273438e+00,3.549180269241333008e+00,3.446381092071533203e+00,1.556758403778076172e+00,1.532365560531616211e+00,1.528661727905273438e+00,1.526876688003540039e+00,3.010410785675048828e+00,2.936126232147216797e+00,2.865419626235961914e+00,2.798038244247436523e+00,1.112902522087097168e+00,1.092022895812988281e+00,1.079534769058227539e+00,1.067517518997192383e+00,1.060023188591003418e+00,1.054032921791076660e+00,2.402559041976928711e+00,2.355007648468017578e+00,2.309301853179931641e+00,2.265336513519287109e+00,2.223013877868652344e+00,2.182243585586547852e+00,2.142941951751708984e+00,2.105030775070190430e+00,2.068437576293945312e+00,2.033095121383666992e+00,1.998939990997314453e+00,1.965913534164428711e+00,1.933960795402526855e+00,1.903029918670654297e+00,1.873072981834411621e+00,1.844044446945190430e+00
5.000000000000000000e+00,5.000000000000000000e+00,5.000000000000000000e+00,5.000000000000000000e+00,5.000000000000000000e+00,5.000000000000000000e+00,5.000000000000000000e+00,5.000000000000000000e+00,5.000000000000000000e+00,5.000000000000000000e+00,5.000000000000000000e+00,5.000000000000000000e+00,5.000000000000000000e+00,5.000000000000000000e+00,5.000000000000000000e+00,5.000000000000000000e+00,5.000000000000000000e+00,5.000000000000000000e+00,5.000000000000000000e+00,5.000000000000000000e+00,5.000000000000000000e+00,5.000000000000000000e+00,5.000000000000000000e+00,5.000000000000000000e+00,5.000000000000000000e+00,5.000000000000000000e+00,5.000000000000000000e+00,5.000000000000000000e+00,5.000000000000000000e+00,5.000000000000000000e+00,5.000000000000000000e+00,5.000000000000000000e+00,5.000000000000000000e+00,5.000000000000000000e+00,5.000000000000000000e+00,5.000000000000000000e+00,5.000000000000000000e+00,5.000000000000000000e+00,5.000000000000000000e+00,4.851743698120117188e+00,4.661664485931396484e+00,4.485918045043945312e+00,4.322940826416015625e+00,4.171391487121582031e+00,4.030106544494628906e+00,3.898078680038452148e+00,3.774427175521850586e+00,3.658379316329956055e+00,3.549254655838012695e+00,1.607692837715148926e+00,1.561648130416870117e+00,1.540933609008789062e+00,1.538762927055358887e+00,3.088608026504516602e+00,3.010464429855346680e+00,2.936177253723144531e+00,2.865468025207519531e+00,2.798084497451782227e+00,1.119465947151184082e+00,1.091836810111999512e+00,1.079545855522155762e+00,1.067528486251831055e+00,1.058400511741638184e+00,1.054164528846740723e+00,1.074904203414916992e+00,2.355040550231933594e+00,2.309333324432373047e+00,2.265366792678833008e+00,2.223042964935302734e+00,2.182271718978881836e+00,2.142968893051147461e+00,2.105057001113891602e+00,2.068462848663330078e+00,2.033119678497314453e+00,1.998963594436645508e+00,1.965936541557312012e+00,1.933982849121093750e+00,1.903051257133483887e+00,1.873093724250793457e+00,1.844064474105834961e+00
4.871664047241210938e+00,4.870442867279052734e+00,4.869222164154052734e+00,4.868002891540527344e+00,4.866783142089843750e+00,4.865564823150634766e+00,4.864346981048583984e+00,4.863129138946533203e+00,4.861912250518798828e+00,4.860696315765380859e+00,4.859480857849121094e+00,4.858265876770019531e+00,4.857051372528076172e+00,4.855837345123291016e+00,4.854624748229980469e+00,4.853412151336669922e+00,4.852200031280517578e+00,4.850988864898681641e+00,4.849778175354003906e+00,4.848567962646484375e+00,4.847358226776123047e+00,4.846149444580078125e+00,4.844941139221191406e+00,4.843733310699462891e+00,4.842526435852050781e+00,4.841320037841796875e+00,4.840113639831542969e+00,4.838908672332763672e+00,4.837703704833984375e+00,4.836499691009521484e+00,4.835296154022216797e+00,4.834093093872070312e+00,4.832890987396240234e+00,4.831689357757568359e+00,4.830488204956054688e+00,4.829287528991699219e+00,4.828087806701660156e+00,4.826888561248779297e+00,4.825689792633056641e+00,4.824491500854492188e+00,4.661792278289794922e+00,4.486035823822021484e+00,4.323050498962402344e+00,4.171493053436279297e+00,4.030202388763427734e+00,3.898168802261352539e+00,3.774511814117431641e+00,3.658458232879638672e+00,3.549328804016113281e+00,1.592669606208801270e+00,1.566355228424072266e+00,1.551243066787719727e+00,1.549043297767639160e+00,3.088664531707763672e+00,3.010518074035644531e+00,2.936228275299072266e+00,2.865516662597656250e+00,2.798130750656127930e+00,1.127968072891235352e+00,1.091848254203796387e+00,1.079557061195373535e+00,1.067539334297180176e+00,1.056103348731994629e+00,1.054296255111694336e+00,1.058028578758239746e+00,2.355073213577270508e+00,2.309364795684814453e+00,2.265397071838378906e+00,2.223072052001953125e+00,2.182299852371215820e+00,2.142996072769165039e+00,2.105082988739013672e+00,2.068488121032714844e+00,2.033143997192382812e+00,1.998987197875976562e+00,1.965959429740905762e+00,1.934004902839660645e+00,1.903072834014892578e+00,1.873114347457885742e+00,1.844084501266479492e+00
3.776540994644165039e+00,3.775807142257690430e+00,3.775073528289794922e+00,3.774340629577636719e+00,3.773607492446899414e+00,3.772874832153320312e+00,3.772142171859741211e+00,3.771409988403320312e+00,3.770678043365478516e+00,3.769946813583374023e+00,3.769215583801269531e+00,3.768484592437744141e+00,3.767753601074218750e+00,3.767023324966430664e+00,3.766293525695800781e+00,3.765563488006591797e+00,3.764833927154541016e+00,3.764104366302490234e+00,3.763375282287597656e+00,3.762646913528442383e+00,3.761918544769287109e+00,3.761190176010131836e+00,3.760462284088134766e+00,3.759734630584716797e+00,3.759007215499877930e+00,3.758280515670776367e+00,3.757553577423095703e+00,3.756827116012573242e+00,3.756100893020629883e+00,3.755374908447265625e+00,3.754649639129638672e+00,3.753924131393432617e+00,3.753198862075805664e+00,3.752474069595336914e+00,3.751749515533447266e+00,3.751025438308715820e+00,3.750301599502563477e+00,3.749577760696411133e+00,3.748854398727416992e+00,3.748131036758422852e+00,3.747408628463745117e+00,3.746685981750488281e+00,3.745963573455810547e+00,3.745241403579711914e+00,3.744519710540771484e+00,3.743798732757568359e+00,3.743077278137207031e+00,3.658537626266479492e+00,3.549403667449951172e+00,1.597153663635253906e+00,1.570899605751037598e+00,1.561691522598266602e+00,3.171035528182983398e+00,3.088720798492431641e+00,3.010571479797363281e+00,2.936279058456420898e+00,2.865565061569213867e+00,2.798177003860473633e+00,2.733885526657104492e+00,1.096470952033996582e+00,1.079568147659301758e+00,1.067576885223388672e+00,1.056143522262573242e+00,1.052250981330871582e+00,1.048500537872314453e+00,2.355105876922607422e+00,2.309396266937255859e+00,2.265427350997924805e+00,2.223101377487182617e+00,2.182327985763549805e+00,2.143023252487182617e+00,2.105109214782714844e+00,2.068513393402099609e+00,2.033168315887451172e+00,1.999010801315307617e+00,1.965982198715209961e+00,1.934026956558227539e+00,1.903094172477722168e+00,1.873135089874267578e+00,1.844104766845703125e+00
3.083408117294311523e+00,3.082919120788574219e+00,3.082429885864257812e+00,3.081941127777099609e+00,3.081452131271362305e+00,3.080963611602783203e+00,3.080475330352783203e+00,3.079987049102783203e+00,3.079499006271362305e+00,3.079010963439941406e+00,3.078522920608520508e+00,3.078035593032836914e+00,3.077548027038574219e+00,3.077060699462890625e+00,3.076573371887207031e+00,3.076086282730102539e+00,3.075599431991577148e+00,3.075112819671630859e+00,3.074626207351684570e+00,3.074139833450317383e+00,3.073653459548950195e+00,3.073167324066162109e+00,3.072681427001953125e+00,3.072195768356323242e+00,3.071709871292114258e+00,3.071224451065063477e+00,3.070739030838012695e+00,3.070254087448120117e+00,3.069768905639648438e+00,3.069283962249755859e+00,3.068799257278442383e+00,3.068314552307128906e+00,3.067830324172973633e+00,3.067346096038818359e+00,3.066861867904663086e+00,3.066377878189086914e+00,3.065894126892089844e+00,3.065410614013671875e+00,3.064927101135253906e+00,3.064443826675415039e+00,3.063960552215576172e+00,3.063477277755737305e+00,3.062994480133056641e+00,3.062511920928955078e+00,3.062029123306274414e+00,3.061546802520751953e+00,3.061064481735229492e+00,3.060582160949707031e+00,3.060100555419921875e+00,1.601886868476867676e+00,1.578113675117492676e+00,1.572281599044799805e+00,3.058173894882202148e+00,3.057692766189575195e+00,3.010624885559082031e+00,2.936330080032348633e+00,2.865613460540771484e+00,2.798223257064819336e+00,2.733929634094238281e+00,1.104626178741455078e+00,1.079579353332519531e+00,1.067617893218994141e+00,1.056183695793151855e+00,1.047774553298950195e+00,1.048630833625793457e+00,2.355138778686523438e+00,2.309427738189697266e+00,2.265457630157470703e+00,2.223130464553833008e+00,2.182356119155883789e+00,2.143050432205200195e+00,2.105135440826416016e+00,2.068538665771484375e+00,2.033192873001098633e+00,1.999034404754638672e+00,1.966004967689514160e+00,1.934049010276794434e+00,1.903115630149841309e+00,1.873155832290649414e+00,1.844124913215637207e+00
2.605249881744384766e+00,2.604900598526000977e+00,2.604551315307617188e+00,2.604202508926391602e+00,2.603853464126586914e+00,2.603504419326782227e+00,2.603155612945556641e+00,2.602807044982910156e+00,2.602458238601684570e+00,2.602109909057617188e+00,2.601761579513549805e+00,2.601413249969482422e+00,2.601064920425415039e+00,2.600716829299926758e+00,2.600368976593017578e+00,2.600020885467529297e+00,2.599673032760620117e+00,2.599325180053710938e+00,2.598977565765380859e+00,2.598630189895629883e+00,2.598282575607299805e+00,2.597935199737548828e+00,2.597587823867797852e+00,2.597240686416625977e+00,2.596893548965454102e+00,2.596546649932861328e+00,2.596199750900268555e+00,2.595852851867675781e+00,2.595505952835083008e+00,2.595159292221069336e+00,2.594812870025634766e+00,2.594466447830200195e+00,2.594120025634765625e+00,2.593773841857910156e+00,2.593427419662475586e+00,2.593081474304199219e+00,2.592735528945922852e+00,2.592389583587646484e+00,2.592043876647949219e+00,2.591697931289672852e+00,2.591352462768554688e+00,2.591006994247436523e+00,2.590661525726318359e+00,2.590316057205200195e+00,2.589970827102661133e+00,2.589625835418701172e+00,2.589280605316162109e+00,2.588935613632202148e+00,1.658548235893249512e+00,1.613368749618530273e+00,1.598759412765502930e+00,2.587556838989257812e+00,2.587212085723876953e+00,2.586867809295654297e+00,2.586523294448852539e+00,2.586179018020629883e+00,2.585834980010986328e+00,2.585490942001342773e+00,2.585146903991699219e+00,1.110896229743957520e+00,1.079590439796447754e+00,1.067658782005310059e+00,1.056223750114440918e+00,1.045031070709228516e+00,1.046172618865966797e+00,2.355171442031860352e+00,2.309459209442138672e+00,2.265487909317016602e+00,2.223159790039062500e+00,2.182384252548217773e+00,2.143077611923217773e+00,2.105161666870117188e+00,2.068563938140869141e+00,2.033217191696166992e+00,1.999058127403259277e+00,1.966027855873107910e+00,1.934071183204650879e+00,1.903136968612670898e+00,1.873176455497741699e+00,1.844144940376281738e+00
2.255437374114990234e+00,2.255177497863769531e+00,2.254917621612548828e+00,2.254657983779907227e+00,2.254398345947265625e+00,2.254138708114624023e+00,2.253879070281982422e+00,2.253619670867919922e+00,2.253360271453857422e+00,2.253100872039794922e+00,2.252841472625732422e+00,2.252582073211669922e+00,2.252322912216186523e+00,2.252063989639282227e+00,2.251804828643798828e+00,2.251545667648315430e+00,2.251286745071411133e+00,2.251028060913085938e+00,2.250768899917602539e+00,2.250510215759277344e+00,2.250251531600952148e+00,2.249992847442626953e+00,2.249734163284301758e+00,2.249475717544555664e+00,2.249216079711914062e+00,2.248955726623535156e+00,2.248695373535156250e+00,2.248435258865356445e+00,2.248175144195556641e+00,2.247915029525756836e+00,2.247655153274536133e+00,2.247395038604736328e+00,2.247135400772094727e+00,2.246875524520874023e+00,2.246615648269653320e+00,2.246355772018432617e+00,2.246096134185791016e+00,2.245836734771728516e+00,2.245577096939086914e+00,2.245317697525024414e+00,2.245058059692382812e+00,2.244798660278320312e+00,2.244539499282836914e+00,2.244280338287353516e+00,2.244021177291870117e+00,2.243762016296386719e+00,2.243502855300903320e+00,2.243243932723999023e+00,1.643836975097656250e+00,1.599897742271423340e+00,1.583689928054809570e+00,2.242208480834960938e+00,2.241949796676635742e+00,2.241691350936889648e+00,2.241432666778564453e+00,2.241173982620239258e+00,2.240915536880493164e+00,2.240657091140747070e+00,2.240398883819580078e+00,1.133084416389465332e+00,1.082230806350708008e+00,1.067699790000915527e+00,1.056263804435729980e+00,1.045070290565490723e+00,1.041747570037841797e+00,1.045125246047973633e+00,2.238334178924560547e+00,2.238076448440551758e+00,2.223188877105712891e+00,2.182412385940551758e+00,2.143104553222656250e+00,2.105187892913818359e+00,2.068589210510253906e+00,2.033241748809814453e+00,1.999081730842590332e+00,1.966050624847412109e+00,1.934093475341796875e+00,1.903158307075500488e+00,1.873197197914123535e+00,1.844164967536926270e+00
1.988361477851867676e+00,1.988159537315368652e+00,1.987957715988159180e+00,1.987755775451660156e+00,1.987553954124450684e+00,1.987352252006530762e+00,1.987150311470031738e+00,1.986948609352111816e+00,1.986746907234191895e+00,1.986545324325561523e+00,1.986343860626220703e+00,1.986142277717590332e+00,1.985940814018249512e+00,1.985739350318908691e+00,1.985537767410278320e+00,1.985336422920227051e+00,1.985135078430175781e+00,1.984933853149414062e+00,1.984732627868652344e+00,1.984531402587890625e+00,1.984330177307128906e+00,1.984129071235656738e+00,1.983927726745605469e+00,1.983726739883422852e+00,1.983525753021240234e+00,1.983324766159057617e+00,1.983123898506164551e+00,1.982923030853271484e+00,1.982722163200378418e+00,1.982521414756774902e+00,1.982320427894592285e+00,1.982119679450988770e+00,1.981919050216674805e+00,1.981718420982360840e+00,1.981517791748046875e+00,1.981317281723022461e+00,1.981116771697998047e+00,1.980916261672973633e+00,1.980715632438659668e+00,1.980515241622924805e+00,1.980314970016479492e+00,1.980114579200744629e+00,1.979914426803588867e+00,1.979714155197143555e+00,1.979514002799987793e+00,1.979313850402832031e+00,1.979113459587097168e+00,1.978913426399230957e+00,1.643775820732116699e+00,1.590081453323364258e+00,1.555055141448974609e+00,1.571400284767150879e+00,1.977913737297058105e+00,1.977713942527770996e+00,1.977513909339904785e+00,1.977314114570617676e+00,1.977114439010620117e+00,1.976914763450622559e+00,1.976715207099914551e+00,1.976515650749206543e+00,1.088418483734130859e+00,1.067740797996520996e+00,1.065003871917724609e+00,1.056483149528503418e+00,1.051555991172790527e+00,1.975318789482116699e+00,1.975119471549987793e+00,1.974920153617858887e+00,1.974720954895019531e+00,1.974521875381469727e+00,1.974322438240051270e+00,1.974123358726501465e+00,1.973924279212951660e+00,1.973725318908691406e+00,1.973526358604431152e+00,1.966073393821716309e+00,1.934115529060363770e+00,1.903179645538330078e+00,1.873218059539794922e+00,1.844185113906860352e+00
1.777840137481689453e+00,1.777678728103637695e+00,1.777517080307006836e+00,1.777355670928955078e+00,1.777194380760192871e+00,1.777033090591430664e+00,1.776871800422668457e+00,1.776710510253906250e+00,1.776549220085144043e+00,1.776388049125671387e+00,1.776226758956909180e+00,1.776065587997436523e+00,1.775904417037963867e+00,1.775743365287780762e+00,1.775582313537597656e+00,1.775421261787414551e+00,1.775260329246520996e+00,1.775099277496337891e+00,1.774938225746154785e+00,1.774777293205261230e+00,1.774616360664367676e+00,1.774455547332763672e+00,1.774294734001159668e+00,1.774133920669555664e+00,1.773973107337951660e+00,1.773812413215637207e+00,1.773651480674743652e+00,1.773490786552429199e+00,1.773330211639404297e+00,1.773169517517089844e+00,1.773008942604064941e+00,1.772848367691040039e+00,1.772687911987304688e+00,1.772527337074279785e+00,1.772366642951965332e+00,1.772206187248229980e+00,1.772045850753784180e+00,1.771885395050048828e+00,1.771725058555603027e+00,1.771564722061157227e+00,1.771404504776000977e+00,1.771244168281555176e+00,1.771083712577819824e+00,1.770923495292663574e+00,1.770763397216796875e+00,1.770603179931640625e+00,1.770443081855773926e+00,1.770282983779907227e+00,1.770122885704040527e+00,1.769962787628173828e+00,1.529416561126708984e+00,1.529223561286926270e+00,1.572328090667724609e+00,1.769322752952575684e+00,1.769162893295288086e+00,1.769003033638000488e+00,1.768843173980712891e+00,1.768683314323425293e+00,1.768523335456848145e+00,1.768363595008850098e+00,1.768203854560852051e+00,1.087132453918457031e+00,1.062804937362670898e+00,1.053183674812316895e+00,1.045118331909179688e+00,1.042802214622497559e+00,1.767246007919311523e+00,1.767086505889892578e+00,1.766927003860473633e+00,1.766767501831054688e+00,1.766608119010925293e+00,1.766448736190795898e+00,1.766289353370666504e+00,1.766129970550537109e+00,1.765970468521118164e+00,1.765811204910278320e+00,1.765651941299438477e+00,1.765492677688598633e+00,1.765333533287048340e+00,1.765174388885498047e+00
1.607629299163818359e+00,1.607497334480285645e+00,1.607365369796752930e+00,1.607233405113220215e+00,1.607101440429687500e+00,1.606969475746154785e+00,1.606837391853332520e+00,1.606705546379089355e+00,1.606573700904846191e+00,1.606441855430603027e+00,1.606310009956359863e+00,1.606178283691406250e+00,1.606046557426452637e+00,1.605914711952209473e+00,1.605782866477966309e+00,1.605651140213012695e+00,1.605519533157348633e+00,1.605387806892395020e+00,1.605256199836730957e+00,1.605124592781066895e+00,1.604992985725402832e+00,1.604861378669738770e+00,1.604729652404785156e+00,1.604598164558410645e+00,1.604466676712036133e+00,1.604335188865661621e+00,1.604203701019287109e+00,1.604072213172912598e+00,1.603940844535827637e+00,1.603809475898742676e+00,1.603677868843078613e+00,1.603546500205993652e+00,1.603415250778198242e+00,1.603283882141113281e+00,1.603152632713317871e+00,1.603021264076232910e+00,1.602890014648437500e+00,1.602758884429931641e+00,1.602627515792846680e+00,1.602496266365051270e+00,1.602365136146545410e+00,1.602234005928039551e+00,1.602102875709533691e+00,1.601971745491027832e+00,1.601840615272521973e+00,1.601709604263305664e+00,1.601578474044799805e+00,1.601447463035583496e+00,1.601316452026367188e+00,1.601185441017150879e+00,1.522503972053527832e+00,1.482296466827392578e+00,1.475536346435546875e+00,1.600661754608154297e+00,1.600530743598937988e+00,1.600399971008300781e+00,1.600269079208374023e+00,1.600138306617736816e+00,1.600007534027099609e+00,1.599876761436462402e+00,1.599745988845825195e+00,1.117348074913024902e+00,1.063930630683898926e+00,1.049264788627624512e+00,1.036346554756164551e+00,1.019481182098388672e+00,1.012375712394714355e+00,1.598831295967102051e+00,1.598700761795043945e+00,1.598570227622985840e+00,1.598439455032348633e+00,1.598309040069580078e+00,1.598178505897521973e+00,1.598048090934753418e+00,1.597917675971984863e+00,1.597787261009216309e+00,1.597656846046447754e+00,1.597526431083679199e+00,1.597395896911621094e+00,1.597265601158142090e+00
1.467162966728210449e+00,1.467052936553955078e+00,1.466942906379699707e+00,1.466832995414733887e+00,1.466723084449768066e+00,1.466613173484802246e+00,1.466503381729125977e+00,1.466393470764160156e+00,1.466283679008483887e+00,1.466173887252807617e+00,1.466063976287841797e+00,1.465954184532165527e+00,1.465844392776489258e+00,1.465734601020812988e+00,1.465624928474426270e+00,1.465515136718750000e+00,1.465405464172363281e+00,1.465295791625976562e+00,1.465185999870300293e+00,1.465076327323913574e+00,1.464966654777526855e+00,1.464857101440429688e+00,1.464747428894042969e+00,1.464637875556945801e+00,1.464528322219848633e+00,1.464418768882751465e+00,1.464309096336364746e+00,1.464199542999267578e+00,1.464090108871459961e+00,1.463980555534362793e+00,1.463871121406555176e+00,1.463761687278747559e+00,1.463652253150939941e+00,1.463542819023132324e+00,1.463433265686035156e+00,1.463323831558227539e+00,1.463214516639709473e+00,1.463105082511901855e+00,1.462995767593383789e+00,1.462886452674865723e+00,1.462777137756347656e+00,1.462667822837829590e+00,1.462558507919311523e+00,1.462449193000793457e+00,1.462339997291564941e+00,1.462230801582336426e+00,1.462121605873107910e+00,1.462012410163879395e+00,1.461903214454650879e+00,1.461794018745422363e+00,1.461684703826904297e+00,1.461575627326965332e+00,1.461466550827026367e+00,1.461357474327087402e+00,1.461248397827148438e+00,1.461139321327209473e+00,1.461030244827270508e+00,1.460921168327331543e+00,1.460812091827392578e+00,1.460703015327453613e+00,1.460594058036804199e+00,1.460485100746154785e+00,1.063318610191345215e+00,1.040935635566711426e+00,1.021251678466796875e+00,1.004726052284240723e+00,9.915555119514465332e-01,9.792357087135314941e-01,9.705374836921691895e-01,9.654771089553833008e-01,9.620055556297302246e-01,1.459396243095397949e+00,1.459287405014038086e+00,9.032793641090393066e-01,1.459069848060607910e+00,1.458961009979248047e+00,1.458852291107177734e+00,1.458743691444396973e+00,1.458634972572326660e+00,1.458526253700256348e+00
1.349270462989807129e+00,1.349177479743957520e+00,1.349084496498107910e+00,1.348991513252258301e+00,1.348898530006408691e+00,1.348805665969848633e+00,1.348712563514709473e+00,1.348619699478149414e+00,1.348526835441589355e+00,1.348433852195739746e+00,1.348340988159179688e+00,1.348248124122619629e+00,1.348155260086059570e+00,1.348062515258789062e+00,1.347969532012939453e+00,1.347876787185668945e+00,1.347783923149108887e+00,1.347691178321838379e+00,1.347598433494567871e+00,1.347505688667297363e+00,1.347412943840026855e+00,1.347320199012756348e+00,1.347227334976196289e+00,1.347134709358215332e+00,1.347041964530944824e+00,1.346949338912963867e+00,1.346856594085693359e+00,1.346763968467712402e+00,1.346671342849731445e+00,1.346578717231750488e+00,1.346485972404479980e+00,1.346393346786499023e+00,1.346300721168518066e+00,1.346208214759826660e+00,1.346115589141845703e+00,1.346023082733154297e+00,1.345930576324462891e+00,1.345837950706481934e+00,1.345745325088500977e+00,1.345652937889099121e+00,1.345560431480407715e+00,1.345467925071716309e+00,1.345375418663024902e+00,1.345283031463623047e+00,1.345190525054931641e+00,1.345098137855529785e+00,1.345005631446838379e+00,1.344913244247436523e+00,1.344820857048034668e+00,1.344728469848632812e+00,1.344636082649230957e+00,1.344543695449829102e+00,1.344451427459716797e+00,1.344359040260314941e+00,1.344266653060913086e+00,1.344174385070800781e+00,1.344081997871398926e+00,1.343989729881286621e+00,1.343897461891174316e+00,1.343805193901062012e+00,1.343713045120239258e+00,1.343620777130126953e+00,1.066104412078857422e+00,1.035485744476318359e+00,1.010086178779602051e+00,9.893075227737426758e-01,9.710305333137512207e-01,9.569805264472961426e-01,9.458221793174743652e-01,9.282669425010681152e-01,9.109186530113220215e-01,9.085294008255004883e-01,8.969757556915283203e-01,8.981018662452697754e-01,1.342422842979431152e+00,1.342330694198608398e+00,1.342238664627075195e+00,1.342146635055541992e+00,1.342054605484008789e+00,1.341962575912475586e+00
1.248915195465087891e+00,1.248835444450378418e+00,1.248755812644958496e+00,1.248676061630249023e+00,1.248596429824829102e+00,1.248516798019409180e+00,1.248437285423278809e+00,1.248357653617858887e+00,1.248278021812438965e+00,1.248198390007019043e+00,1.248118758201599121e+00,1.248039245605468750e+00,1.247959613800048828e+00,1.247880101203918457e+00,1.247800588607788086e+00,1.247720956802368164e+00,1.247641444206237793e+00,1.247561931610107422e+00,1.247482419013977051e+00,1.247402906417846680e+00,1.247323393821716309e+00,1.247244000434875488e+00,1.247164487838745117e+00,1.247085094451904297e+00,1.247005581855773926e+00,1.246926188468933105e+00,1.246846675872802734e+00,1.246767282485961914e+00,1.246687889099121094e+00,1.246608495712280273e+00,1.246529102325439453e+00,1.246449708938598633e+00,1.246370434761047363e+00,1.246291041374206543e+00,1.246211647987365723e+00,1.246132254600524902e+00,1.246052980422973633e+00,1.245973706245422363e+00,1.245894312858581543e+00,1.245815038681030273e+00,1.245735764503479004e+00,1.245656490325927734e+00,1.245577216148376465e+00,1.245497941970825195e+00,1.245418667793273926e+00,1.245339512825012207e+00,1.245260238647460938e+00,1.245181083679199219e+00,1.245101809501647949e+00,1.245022654533386230e+00,1.244943380355834961e+00,1.244864225387573242e+00,1.244785070419311523e+00,1.244705915451049805e+00,1.244626760482788086e+00,1.244547724723815918e+00,1.244468569755554199e+00,1.244389414787292480e+00,1.244310259819030762e+00,1.244231224060058594e+00,1.244152069091796875e+00,1.244073033332824707e+00,1.068619728088378906e+00,1.032417058944702148e+00,1.001348495483398438e+00,9.696156382560729980e-01,9.496304392814636230e-01,9.338778853416442871e-01,9.174730181694030762e-01,9.119861721992492676e-01,9.039614796638488770e-01,9.345164299011230469e-01,9.252063632011413574e-01,1.243124961853027344e+00,1.243045926094055176e+00,1.242967009544372559e+00,1.242888092994689941e+00,1.242809176445007324e+00,1.242730379104614258e+00,1.242651462554931641e+00
1.162454724311828613e+00,1.162385702133178711e+00,1.162316679954528809e+00,1.162247657775878906e+00,1.162178754806518555e+00,1.162109732627868652e+00,1.162040591239929199e+00,1.161971688270568848e+00,1.161902666091918945e+00,1.161833763122558594e+00,1.161764860153198242e+00,1.161695837974548340e+00,1.161626935005187988e+00,1.161558032035827637e+00,1.161489009857177734e+00,1.161420106887817383e+00,1.161351203918457031e+00,1.161282300949096680e+00,1.161213397979736328e+00,1.161144614219665527e+00,1.161075711250305176e+00,1.161006808280944824e+00,1.160937905311584473e+00,1.160869002342224121e+00,1.160800218582153320e+00,1.160731434822082520e+00,1.160662531852722168e+00,1.160593748092651367e+00,1.160524964332580566e+00,1.160456180572509766e+00,1.160387277603149414e+00,1.160318493843078613e+00,1.160249710083007812e+00,1.160181045532226562e+00,1.160112261772155762e+00,1.160043478012084961e+00,1.159974813461303711e+00,1.159906029701232910e+00,1.159837245941162109e+00,1.159768462181091309e+00,1.159699797630310059e+00,1.159631133079528809e+00,1.159562468528747559e+00,1.159493803977966309e+00,1.159425020217895508e+00,1.159356355667114258e+00,1.159287691116333008e+00,1.159219026565551758e+00,1.159150362014770508e+00,1.159081697463989258e+00,1.159013152122497559e+00,1.158944487571716309e+00,1.158875942230224609e+00,1.158807277679443359e+00,1.158738613128662109e+00,1.158670067787170410e+00,1.158601522445678711e+00,1.158532857894897461e+00,1.158464312553405762e+00,1.158395767211914062e+00,1.158327341079711914e+00,1.158258795738220215e+00,1.079192042350769043e+00,1.049853444099426270e+00,1.034444212913513184e+00,9.829832911491394043e-01,9.519357085227966309e-01,9.416560530662536621e-01,1.157779216766357422e+00,1.157710671424865723e+00,1.157642126083374023e+00,1.157573699951171875e+00,1.157505273818969727e+00,1.157436847686767578e+00,1.157368421554565430e+00,1.157299995422363281e+00,1.157231569290161133e+00,1.157163143157958984e+00,1.157094717025756836e+00,1.157026290893554688e+00
1.087190270423889160e+00,1.087129950523376465e+00,1.087069511413574219e+00,1.087009072303771973e+00,1.086948752403259277e+00,1.086888432502746582e+00,1.086828112602233887e+00,1.086767792701721191e+00,1.086707353591918945e+00,1.086647033691406250e+00,1.086586713790893555e+00,1.086526393890380859e+00,1.086466073989868164e+00,1.086405754089355469e+00,1.086345553398132324e+00,1.086285233497619629e+00,1.086224913597106934e+00,1.086164712905883789e+00,1.086104393005371094e+00,1.086044073104858398e+00,1.085983872413635254e+00,1.085923671722412109e+00,1.085863351821899414e+00,1.085803151130676270e+00,1.085742950439453125e+00,1.085682749748229980e+00,1.085622429847717285e+00,1.085562229156494141e+00,1.085502028465270996e+00,1.085441946983337402e+00,1.085381746292114258e+00,1.085321545600891113e+00,1.085261344909667969e+00,1.085201263427734375e+00,1.085140943527221680e+00,1.085080862045288086e+00,1.085020780563354492e+00,1.084960579872131348e+00,1.084900498390197754e+00,1.084840297698974609e+00,1.084780216217041016e+00,1.084720134735107422e+00,1.084659934043884277e+00,1.084599852561950684e+00,1.084539771080017090e+00,1.084479689598083496e+00,1.084419608116149902e+00,1.084359526634216309e+00,1.084299445152282715e+00,1.084239482879638672e+00,1.084179282188415527e+00,1.084119319915771484e+00,1.084059238433837891e+00,1.083999276161193848e+00,1.083939194679260254e+00,1.083879232406616211e+00,1.083819150924682617e+00,1.083759188652038574e+00,1.083699107170104980e+00,1.083639144897460938e+00,1.083579182624816895e+00,1.083519220352172852e+00,1.083459258079528809e+00,1.083399295806884766e+00,1.083339333534240723e+00,1.083279371261596680e+00,1.083219289779663086e+00,1.083159446716308594e+00,1.083099484443664551e+00,1.083039522171020508e+00,1.082979679107666016e+00,1.082919716835021973e+00,1.082859873771667480e+00,1.082799911499023438e+00,1.082739949226379395e+00,1.082680106163024902e+00,1.082620263099670410e+00,1.082560420036315918e+00,1.082500457763671875e+00,1.082440614700317383e+00
1.021079301834106445e+00,1.021026015281677246e+00,1.020972728729248047e+00,1.020919561386108398e+00,1.020866274833679199e+00,1.020813107490539551e+00,1.020759820938110352e+00,1.020706534385681152e+00,1.020653367042541504e+00,1.020600080490112305e+00,1.020546913146972656e+00,1.020493745803833008e+00,1.020440578460693359e+00,1.020387411117553711e+00,1.020334124565124512e+00,1.020280957221984863e+00,1.020227789878845215e+00,1.020174622535705566e+00,1.020121455192565918e+00,1.020068287849426270e+00,1.020015120506286621e+00,1.019961953163146973e+00,1.019908785820007324e+00,1.019855618476867676e+00,1.019802570343017578e+00,1.019749402999877930e+00,1.019696354866027832e+00,1.019643187522888184e+00,1.019590139389038086e+00,1.019536972045898438e+00,1.019483804702758789e+00,1.019430756568908691e+00,1.019377708435058594e+00,1.019324541091918945e+00,1.019271492958068848e+00,1.019218444824218750e+00,1.019165396690368652e+00,1.019112348556518555e+00,1.019059181213378906e+00,1.019006133079528809e+00,1.018953084945678711e+00,1.018900156021118164e+00,1.018847107887268066e+00,1.018794059753417969e+00,1.018741011619567871e+00,1.018688082695007324e+00,1.018634915351867676e+00,1.018581986427307129e+00,1.018528938293457031e+00,1.018476009368896484e+00,1.018422961235046387e+00,1.018370032310485840e+00,1.018317103385925293e+00,1.018264055252075195e+00,1.018211007118225098e+00,1.018158078193664551e+00,1.018105149269104004e+00,1.018052220344543457e+00,1.017999291419982910e+00,1.017946362495422363e+00,1.017893433570861816e+00,1.017840504646301270e+00,1.017787456512451172e+00,1.017734646797180176e+00,1.017681717872619629e+00,1.017628788948059082e+00,1.017575860023498535e+00,1.017523050308227539e+00,1.017470121383666992e+00,1.017417192459106445e+00,1.017364263534545898e+00,1.017311453819274902e+00,1.017258524894714355e+00,1.017205715179443359e+00,1.017152905464172363e+00,1.017099976539611816e+00,1.017047166824340820e+00,1.016994357109069824e+00,1.016941428184509277e+00,1.016888618469238281e+00
9.625478386878967285e-01,9.625004529953002930e-01,9.624530673027038574e-01,9.624058008193969727e-01,9.623584151268005371e-01,9.623111486434936523e-01,9.622638225555419922e-01,9.622165560722351074e-01,9.621692299842834473e-01,9.621220231056213379e-01,9.620746970176696777e-01,9.620273113250732422e-01,9.619801044464111328e-01,9.619327783584594727e-01,9.618855714797973633e-01,9.618383049964904785e-01,9.617910981178283691e-01,9.617437720298767090e-01,9.616964459419250488e-01,9.616492986679077148e-01,9.616019725799560547e-01,9.615548253059387207e-01,9.615075588226318359e-01,9.614603519439697266e-01,9.614130854606628418e-01,9.613659381866455078e-01,9.613186717033386230e-01,9.612714052200317383e-01,9.612242579460144043e-01,9.611770510673522949e-01,9.611299037933349609e-01,9.610826373100280762e-01,9.610355496406555176e-01,9.609882831573486328e-01,9.609410762786865234e-01,9.608939886093139648e-01,9.608467817306518555e-01,9.607996344566345215e-01,9.607524275779724121e-01,9.607053399085998535e-01,9.606581330299377441e-01,9.606110453605651855e-01,9.605638980865478516e-01,9.605166912078857422e-01,9.604696035385131836e-01,9.604224562644958496e-01,9.603753685951232910e-01,9.603282213211059570e-01,9.602811932563781738e-01,9.602340459823608398e-01,9.601868391036987305e-01,9.601398110389709473e-01,9.600926637649536133e-01,9.600456357002258301e-01,9.599985480308532715e-01,9.599515199661254883e-01,9.599043726921081543e-01,9.598573446273803711e-01,9.598102569580078125e-01,9.597631692886352539e-01,9.597161412239074707e-01,9.596690535545349121e-01,9.596220254898071289e-01,9.595749378204345703e-01,9.595279693603515625e-01,9.594808816909790039e-01,9.594337940216064453e-01,9.593868851661682129e-01,9.593397974967956543e-01,9.592928290367126465e-01,9.592458009719848633e-01,9.591988325119018555e-01,9.591518044471740723e-01,9.591048359870910645e-01,9.590578079223632812e-01,9.590107798576354980e-01,9.589638113975524902e-01,9.589167833328247070e-01,9.588698744773864746e-01,9.588228464126586914e-01
9.103627800941467285e-01,9.103205204010009766e-01,9.102781414985656738e-01,9.102358222007751465e-01,9.101935029029846191e-01,9.101512432098388672e-01,9.101088643074035645e-01,9.100664854049682617e-01,9.100242257118225098e-01,9.099819064140319824e-01,9.099396467208862305e-01,9.098973274230957031e-01,9.098550677299499512e-01,9.098127484321594238e-01,9.097703695297241211e-01,9.097281694412231445e-01,9.096858501434326172e-01,9.096436500549316406e-01,9.096013307571411133e-01,9.095590710639953613e-01,9.095168113708496094e-01,9.094746112823486328e-01,9.094322919845581055e-01,9.093899726867675781e-01,9.093478322029113770e-01,9.093055129051208496e-01,9.092633128166198730e-01,9.092210531234741211e-01,9.091788530349731445e-01,9.091365933418273926e-01,9.090943336486816406e-01,9.090521931648254395e-01,9.090099334716796875e-01,9.089677333831787109e-01,9.089254736900329590e-01,9.088833332061767578e-01,9.088411331176757812e-01,9.087989926338195801e-01,9.087567329406738281e-01,9.087144732475280762e-01,9.086723923683166504e-01,9.086301326751708984e-01,9.085880517959594727e-01,9.085457921028137207e-01,9.085037112236022949e-01,9.084615111351013184e-01,9.084193110466003418e-01,9.083771705627441406e-01,9.083349704742431641e-01,9.082928895950317383e-01,9.082506895065307617e-01,9.082086086273193359e-01,9.081664085388183594e-01,9.081243872642517090e-01,9.080821871757507324e-01,9.080400466918945312e-01,9.079979658126831055e-01,9.079557657241821289e-01,9.079137444496154785e-01,9.078716039657592773e-01,9.078295230865478516e-01,9.077873826026916504e-01,9.077452421188354492e-01,9.077032208442687988e-01,9.076610803604125977e-01,9.076190590858459473e-01,9.075769186019897461e-01,9.075348973274230957e-01,9.074927568435668945e-01,9.074507355690002441e-01,9.074086546897888184e-01,9.073665142059326172e-01,9.073245525360107422e-01,9.072824120521545410e-01,9.072404503822326660e-01,9.071983098983764648e-01,9.071563482284545898e-01,9.071142673492431641e-01,9.070721864700317383e-01,9.070302248001098633e-01
8.635452985763549805e-01,8.635072708129882812e-01,8.634691238403320312e-01,8.634310364723205566e-01,8.633930087089538574e-01,8.633548617362976074e-01,8.633168339729309082e-01,8.632787466049194336e-01,8.632407188415527344e-01,8.632025718688964844e-01,8.631644845008850098e-01,8.631264567375183105e-01,8.630883693695068359e-01,8.630504012107849121e-01,8.630123138427734375e-01,8.629742860794067383e-01,8.629361987113952637e-01,8.628982305526733398e-01,8.628601431846618652e-01,8.628220558166503906e-01,8.627840876579284668e-01,8.627460002899169922e-01,8.627080321311950684e-01,8.626699447631835938e-01,8.626319766044616699e-01,8.625939488410949707e-01,8.625559210777282715e-01,8.625179529190063477e-01,8.624799251556396484e-01,8.624419569969177246e-01,8.624039292335510254e-01,8.623659610748291016e-01,8.623279333114624023e-01,8.622899651527404785e-01,8.622519969940185547e-01,8.622139692306518555e-01,8.621760010719299316e-01,8.621379733085632324e-01,8.621000647544860840e-01,8.620620965957641602e-01,8.620241880416870117e-01,8.619861602783203125e-01,8.619481921195983887e-01,8.619102835655212402e-01,8.618722558021545410e-01,8.618343472480773926e-01,8.617963790893554688e-01,8.617584705352783203e-01,8.617205023765563965e-01,8.616826534271240234e-01,8.616446852684020996e-01,8.616067171096801758e-01,8.615688085556030273e-01,8.615308403968811035e-01,8.614929914474487305e-01,8.614550232887268066e-01,8.614171743392944336e-01,8.613792061805725098e-01,8.613412976264953613e-01,8.613034486770629883e-01,8.612654805183410645e-01,8.612276315689086914e-01,8.611897230148315430e-01,8.611518740653991699e-01,8.611139655113220215e-01,8.610761165618896484e-01,8.610382080078125000e-01,8.610002994537353516e-01,8.609624505043029785e-01,8.609245419502258301e-01,8.608867526054382324e-01,8.608488440513610840e-01,8.608110547065734863e-01,8.607731461524963379e-01,8.607352375984191895e-01,8.606974482536315918e-01,8.606595993041992188e-01,8.606218099594116211e-01,8.605839014053344727e-01,8.605461120605468750e-01
8.213077187538146973e-01,8.212732076644897461e-01,8.212388157844543457e-01,8.212043046951293945e-01,8.211699128150939941e-01,8.211354613304138184e-01,8.211009502410888672e-01,8.210665583610534668e-01,8.210321068763732910e-01,8.209977149963378906e-01,8.209632039070129395e-01,8.209288120269775391e-01,8.208943605422973633e-01,8.208599686622619629e-01,8.208255171775817871e-01,8.207910656929016113e-01,8.207567334175109863e-01,8.207222819328308105e-01,8.206878900527954102e-01,8.206534385681152344e-01,8.206191062927246094e-01,8.205846548080444336e-01,8.205502033233642578e-01,8.205158710479736328e-01,8.204814791679382324e-01,8.204470872879028320e-01,8.204126954078674316e-01,8.203783631324768066e-01,8.203439116477966309e-01,8.203095793724060059e-01,8.202751874923706055e-01,8.202407956123352051e-01,8.202064633369445801e-01,8.201720714569091797e-01,8.201377391815185547e-01,8.201033473014831543e-01,8.200690150260925293e-01,8.200346231460571289e-01,8.200002312660217285e-01,8.199659585952758789e-01,8.199315667152404785e-01,8.198972344398498535e-01,8.198628425598144531e-01,8.198285698890686035e-01,8.197942376136779785e-01,8.197599053382873535e-01,8.197255730628967285e-01,8.196911811828613281e-01,8.196569085121154785e-01,8.196225762367248535e-01,8.195883035659790039e-01,8.195539116859436035e-01,8.195196390151977539e-01,8.194853067398071289e-01,8.194509744644165039e-01,8.194167017936706543e-01,8.193823695182800293e-01,8.193480968475341797e-01,8.193137645721435547e-01,8.192795515060424805e-01,8.192452192306518555e-01,8.192109465599060059e-01,8.191766738891601562e-01,8.191423416137695312e-01,8.191081285476684570e-01,8.190737962722778320e-01,8.190395832061767578e-01,8.190052509307861328e-01,8.189710378646850586e-01,8.189367651939392090e-01,8.189024329185485840e-01,8.188682198524475098e-01,8.188339471817016602e-01,8.187997341156005859e-01,8.187654614448547363e-01,8.187312483787536621e-01,8.186969757080078125e-01,8.186627626419067383e-01,8.186284899711608887e-01,8.185942173004150391e-01
7.830092906951904297e-01,7.829779386520385742e-01,7.829465866088867188e-01,7.829153537750244141e-01,7.828840017318725586e-01,7.828527092933654785e-01,7.828213572502136230e-01,7.827901244163513184e-01,7.827587723731994629e-01,7.827274799346923828e-01,7.826961874961853027e-01,7.826648354530334473e-01,7.826336026191711426e-01,7.826022505760192871e-01,7.825710177421569824e-01,7.825397253036499023e-01,7.825084328651428223e-01,7.824771404266357422e-01,7.824458479881286621e-01,7.824146151542663574e-01,7.823833227157592773e-01,7.823520898818969727e-01,7.823207378387451172e-01,7.822895646095275879e-01,7.822582125663757324e-01,7.822270393371582031e-01,7.821957468986511230e-01,7.821644544601440430e-01,7.821332216262817383e-01,7.821019291877746582e-01,7.820707559585571289e-01,7.820394635200500488e-01,7.820082306861877441e-01,7.819769978523254395e-01,7.819457054138183594e-01,7.819145321846008301e-01,7.818832397460937500e-01,7.818520665168762207e-01,7.818207740783691406e-01,7.817896008491516113e-01,7.817583680152893066e-01,7.817271947860717773e-01,7.816959023475646973e-01,7.816646695137023926e-01,7.816334962844848633e-01,7.816022634506225586e-01,7.815710902214050293e-01,7.815398573875427246e-01,7.815086841583251953e-01,7.814774513244628906e-01,7.814462184906005859e-01,7.814150452613830566e-01,7.813838124275207520e-01,7.813526988029479980e-01,7.813214659690856934e-01,7.812902927398681641e-01,7.812591195106506348e-01,7.812279462814331055e-01,7.811967730522155762e-01,7.811655402183532715e-01,7.811344265937805176e-01,7.811031937599182129e-01,7.810720801353454590e-01,7.810409069061279297e-01,7.810097336769104004e-01,7.809785604476928711e-01,7.809473872184753418e-01,7.809162735939025879e-01,7.808850407600402832e-01,7.808539867401123047e-01,7.808227539062500000e-01,7.807916402816772461e-01,7.807604670524597168e-01,7.807294130325317383e-01,7.806982398033142090e-01,7.806670665740966797e-01,7.806359529495239258e-01,7.806047797203063965e-01,7.805737257003784180e-01,7.805425524711608887e-01
7.481234669685363770e-01,7.480949163436889648e-01,7.480663061141967773e-01,7.480377554893493652e-01,7.480091452598571777e-01,7.479805946350097656e-01,7.479519844055175781e-01,7.479233741760253906e-01,7.478948235511779785e-01,7.478662133216857910e-01,7.478376626968383789e-01,7.478090524673461914e-01,7.477805614471435547e-01,7.477519512176513672e-01,7.477233409881591797e-01,7.476948499679565430e-01,7.476662397384643555e-01,7.476377487182617188e-01,7.476091384887695312e-01,7.475806474685668945e-01,7.475520372390747070e-01,7.475235462188720703e-01,7.474949359893798828e-01,7.474663853645324707e-01,7.474378943443298340e-01,7.474092841148376465e-01,7.473807930946350098e-01,7.473522424697875977e-01,7.473237514495849609e-01,7.472952008247375488e-01,7.472666501998901367e-01,7.472381591796875000e-01,7.472095489501953125e-01,7.471811175346374512e-01,7.471525669097900391e-01,7.471240758895874023e-01,7.470955252647399902e-01,7.470670342445373535e-01,7.470384836196899414e-01,7.470099329948425293e-01,7.469815015792846680e-01,7.469529509544372559e-01,7.469244599342346191e-01,7.468959689140319824e-01,7.468674778938293457e-01,7.468389868736267090e-01,7.468104362487792969e-01,7.467820048332214355e-01,7.467534542083740234e-01,7.467250227928161621e-01,7.466964721679687500e-01,7.466680407524108887e-01,7.466395497322082520e-01,7.466111183166503906e-01,7.465825676918029785e-01,7.465540766716003418e-01,7.465256452560424805e-01,7.464971542358398438e-01,7.464687228202819824e-01,7.464402318000793457e-01,7.464118003845214844e-01,7.463833093643188477e-01,7.463548183441162109e-01,7.463263869285583496e-01,7.462978959083557129e-01,7.462695240974426270e-01,7.462410330772399902e-01,7.462126016616821289e-01,7.461841106414794922e-01,7.461557388305664062e-01,7.461272478103637695e-01,7.460987567901611328e-01,7.460703849792480469e-01,7.460418939590454102e-01,7.460135221481323242e-01,7.459850311279296875e-01,7.459566593170166016e-01,7.459282279014587402e-01,7.458997368812561035e-01,7.458713650703430176e-01
7.162136435508728027e-01,7.161874771118164062e-01,7.161612510681152344e-01,7.161350250244140625e-01,7.161088585853576660e-01,7.160826325416564941e-01,7.160564661026000977e-01,7.160302400588989258e-01,7.160040736198425293e-01,7.159779071807861328e-01,7.159516811370849609e-01,7.159255146980285645e-01,7.158992886543273926e-01,7.158731818199157715e-01,7.158469557762145996e-01,7.158207893371582031e-01,7.157946228981018066e-01,7.157684564590454102e-01,7.157422304153442383e-01,7.157160639762878418e-01,7.156898975372314453e-01,7.156637310981750488e-01,7.156376242637634277e-01,7.156113982200622559e-01,7.155852913856506348e-01,7.155591249465942383e-01,7.155328989028930664e-01,7.155067920684814453e-01,7.154806256294250488e-01,7.154545187950134277e-01,7.154282927513122559e-01,7.154021859169006348e-01,7.153760194778442383e-01,7.153499126434326172e-01,7.153237462043762207e-01,7.152975797653198242e-01,7.152714729309082031e-01,7.152453064918518066e-01,7.152191996574401855e-01,7.151930332183837891e-01,7.151669859886169434e-01,7.151408195495605469e-01,7.151146531105041504e-01,7.150885462760925293e-01,7.150624394416809082e-01,7.150363326072692871e-01,7.150101661682128906e-01,7.149841189384460449e-01,7.149579524993896484e-01,7.149319052696228027e-01,7.149057388305664062e-01,7.148796319961547852e-01,7.148535251617431641e-01,7.148274183273315430e-01,7.148013114929199219e-01,7.147752046585083008e-01,7.147491574287414551e-01,7.147229909896850586e-01,7.146968841552734375e-01,7.146708369255065918e-01,7.146447300910949707e-01,7.146186232566833496e-01,7.145925164222717285e-01,7.145664691925048828e-01,7.145403623580932617e-01,7.145143151283264160e-01,7.144882082939147949e-01,7.144621014595031738e-01,7.144360542297363281e-01,7.144099473953247070e-01,7.143839001655578613e-01,7.143577933311462402e-01,7.143318057060241699e-01,7.143056988716125488e-01,7.142795920372009277e-01,7.142535448074340820e-01,7.142274975776672363e-01,7.142014503479003906e-01,7.141753435134887695e-01,7.141493558883666992e-01
6.869146227836608887e-01,6.868904829025268555e-01,6.868664026260375977e-01,6.868422627449035645e-01,6.868182420730590820e-01,6.867941021919250488e-01,6.867699623107910156e-01,6.867458820343017578e-01,6.867218017578125000e-01,6.866977214813232422e-01,6.866736412048339844e-01,6.866495609283447266e-01,6.866254210472106934e-01,6.866014003753662109e-01,6.865772604942321777e-01,6.865531802177429199e-01,6.865290999412536621e-01,6.865050196647644043e-01,6.864809989929199219e-01,6.864568591117858887e-01,6.864328384399414062e-01,6.864087581634521484e-01,6.863846182823181152e-01,6.863605976104736328e-01,6.863365173339843750e-01,6.863124966621398926e-01,6.862884163856506348e-01,6.862643957138061523e-01,6.862403154373168945e-01,6.862162351608276367e-01,6.861921548843383789e-01,6.861680746078491211e-01,6.861440539360046387e-01,6.861199736595153809e-01,6.860960125923156738e-01,6.860719323158264160e-01,6.860479116439819336e-01,6.860238313674926758e-01,6.859997510910034180e-01,6.859757304191589355e-01,6.859517097473144531e-01,6.859276890754699707e-01,6.859036087989807129e-01,6.858795881271362305e-01,6.858555674552917480e-01,6.858315467834472656e-01,6.858075261116027832e-01,6.857834458351135254e-01,6.857594847679138184e-01,6.857354044914245605e-01,6.857114434242248535e-01,6.856873631477355957e-01,6.856634020805358887e-01,6.856393218040466309e-01,6.856153011322021484e-01,6.855913400650024414e-01,6.855672597885131836e-01,6.855432987213134766e-01,6.855192780494689941e-01,6.854953169822692871e-01,6.854712367057800293e-01,6.854472756385803223e-01,6.854232549667358398e-01,6.853992342948913574e-01,6.853752732276916504e-01,6.853512525558471680e-01,6.853272914886474609e-01,6.853032708168029785e-01,6.852793097496032715e-01,6.852552890777587891e-01,6.852312684059143066e-01,6.852073073387145996e-01,6.851832866668701172e-01,6.851593255996704102e-01,6.851353645324707031e-01,6.851114034652709961e-01,6.850873827934265137e-01,6.850634217262268066e-01,6.850394606590270996e-01,6.850154399871826172e-01
6.599184870719909668e-01,6.598962545394897461e-01,6.598739624023437500e-01,6.598517298698425293e-01,6.598294973373413086e-01,6.598072648048400879e-01,6.597850322723388672e-01,6.597627997398376465e-01,6.597405076026916504e-01,6.597183346748352051e-01,6.596961021423339844e-01,6.596738100051879883e-01,6.596516370773315430e-01,6.596293449401855469e-01,6.596071720123291016e-01,6.595849394798278809e-01,6.595627069473266602e-01,6.595404744148254395e-01,6.595182418823242188e-01,6.594960093498229980e-01,6.594737768173217773e-01,6.594516038894653320e-01,6.594293713569641113e-01,6.594071984291076660e-01,6.593849658966064453e-01,6.593627929687500000e-01,6.593405604362487793e-01,6.593183279037475586e-01,6.592960953712463379e-01,6.592738628387451172e-01,6.592516899108886719e-01,6.592295169830322266e-01,6.592073440551757812e-01,6.591851115226745605e-01,6.591628789901733398e-01,6.591407060623168945e-01,6.591184735298156738e-01,6.590963006019592285e-01,6.590741276741027832e-01,6.590519547462463379e-01,6.590297222137451172e-01,6.590075492858886719e-01,6.589853763580322266e-01,6.589631438255310059e-01,6.589410305023193359e-01,6.589187979698181152e-01,6.588966250419616699e-01,6.588744521141052246e-01,6.588522791862487793e-01,6.588301062583923340e-01,6.588078737258911133e-01,6.587857604026794434e-01,6.587635874748229980e-01,6.587414145469665527e-01,6.587192416191101074e-01,6.586970686912536621e-01,6.586748957633972168e-01,6.586527824401855469e-01,6.586306095123291016e-01,6.586083769798278809e-01,6.585862636566162109e-01,6.585640907287597656e-01,6.585419774055480957e-01,6.585198044776916504e-01,6.584976315498352051e-01,6.584754586219787598e-01,6.584532856941223145e-01,6.584311723709106445e-01,6.584089994430541992e-01,6.583868861198425293e-01,6.583647131919860840e-01,6.583425998687744141e-01,6.583204269409179688e-01,6.582983136177062988e-01,6.582762002944946289e-01,6.582540273666381836e-01,6.582319140434265137e-01,6.582097411155700684e-01,6.581876277923583984e-01,6.581655144691467285e-01
6.349639892578125000e-01,6.349434256553649902e-01,6.349228024482727051e-01,6.349022388458251953e-01,6.348816156387329102e-01,6.348610520362854004e-01,6.348404884338378906e-01,6.348198652267456055e-01,6.347993016242980957e-01,6.347786784172058105e-01,6.347581148147583008e-01,6.347375512123107910e-01,6.347169876098632812e-01,6.346963644027709961e-01,6.346757411956787109e-01,6.346552371978759766e-01,6.346346139907836914e-01,6.346140503883361816e-01,6.345934867858886719e-01,6.345729231834411621e-01,6.345523595809936523e-01,6.345317959785461426e-01,6.345111727714538574e-01,6.344906091690063477e-01,6.344700455665588379e-01,6.344494819641113281e-01,6.344289183616638184e-01,6.344083547592163086e-01,6.343878507614135742e-01,6.343672275543212891e-01,6.343466639518737793e-01,6.343261599540710449e-01,6.343055367469787598e-01,6.342850327491760254e-01,6.342644691467285156e-01,6.342439651489257812e-01,6.342233419418334961e-01,6.342028379440307617e-01,6.341822743415832520e-01,6.341617107391357422e-01,6.341412067413330078e-01,6.341206431388854980e-01,6.341001391410827637e-01,6.340795755386352539e-01,6.340590119361877441e-01,6.340384483337402344e-01,6.340179443359375000e-01,6.339973807334899902e-01,6.339768767356872559e-01,6.339563727378845215e-01,6.339358091354370117e-01,6.339153051376342773e-01,6.338947415351867676e-01,6.338742375373840332e-01,6.338536739349365234e-01,6.338331699371337891e-01,6.338126659393310547e-01,6.337921023368835449e-01,6.337715983390808105e-01,6.337510943412780762e-01,6.337305903434753418e-01,6.337100267410278320e-01,6.336895227432250977e-01,6.336690187454223633e-01,6.336484551429748535e-01,6.336280107498168945e-01,6.336074471473693848e-01,6.335870027542114258e-01,6.335664391517639160e-01,6.335459947586059570e-01,6.335254311561584473e-01,6.335049271583557129e-01,6.334844231605529785e-01,6.334639191627502441e-01,6.334434747695922852e-01,6.334229111671447754e-01,6.334024667739868164e-01,6.333819627761840820e-01,6.333613991737365723e-01,6.333409547805786133e-01
6.118280887603759766e-01,6.118090152740478516e-01,6.117898821830749512e-01,6.117707490921020508e-01,6.117516160011291504e-01,6.117324829101562500e-01,6.117134094238281250e-01,6.116942763328552246e-01,6.116752028465270996e-01,6.116560697555541992e-01,6.116369366645812988e-01,6.116178035736083984e-01,6.115986704826354980e-01,6.115795969963073730e-01,6.115604639053344727e-01,6.115413904190063477e-01,6.115222573280334473e-01,6.115031838417053223e-01,6.114840507507324219e-01,6.114649772644042969e-01,6.114459037780761719e-01,6.114267706871032715e-01,6.114076972007751465e-01,6.113885641098022461e-01,6.113694906234741211e-01,6.113503575325012207e-01,6.113312840461730957e-01,6.113122105598449707e-01,6.112930774688720703e-01,6.112740039825439453e-01,6.112549304962158203e-01,6.112358570098876953e-01,6.112167239189147949e-01,6.111977100372314453e-01,6.111785769462585449e-01,6.111595034599304199e-01,6.111404299736022949e-01,6.111212968826293945e-01,6.111022830009460449e-01,6.110831499099731445e-01,6.110641360282897949e-01,6.110450029373168945e-01,6.110259294509887695e-01,6.110068559646606445e-01,6.109877824783325195e-01,6.109687685966491699e-01,6.109496355056762695e-01,6.109306216239929199e-01,6.109115481376647949e-01,6.108924746513366699e-01,6.108734011650085449e-01,6.108543276786804199e-01,6.108352541923522949e-01,6.108161807060241699e-01,6.107971668243408203e-01,6.107780933380126953e-01,6.107590198516845703e-01,6.107399463653564453e-01,6.107208728790283203e-01,6.107018589973449707e-01,6.106827855110168457e-01,6.106637716293334961e-01,6.106446981430053711e-01,6.106256842613220215e-01,6.106066107749938965e-01,6.105875968933105469e-01,6.105685234069824219e-01,6.105494499206542969e-01,6.105304360389709473e-01,6.105113625526428223e-01,6.104923486709594727e-01,6.104732751846313477e-01,6.104542613029479980e-01,6.104351878166198730e-01,6.104161739349365234e-01,6.103971600532531738e-01,6.103780865669250488e-01,6.103590726852416992e-01,6.103400588035583496e-01,6.103210449218750000e-01
5.903189182281494141e-01,5.903010964393615723e-01,5.902832746505737305e-01,5.902654528617858887e-01,5.902476906776428223e-01,5.902298688888549805e-01,5.902120471000671387e-01,5.901942849159240723e-01,5.901764631271362305e-01,5.901587009429931641e-01,5.901408791542053223e-01,5.901231169700622559e-01,5.901052951812744141e-01,5.900875329971313477e-01,5.900697708129882812e-01,5.900519490242004395e-01,5.900341868400573730e-01,5.900163650512695312e-01,5.899986028671264648e-01,5.899808406829833984e-01,5.899630784988403320e-01,5.899452567100524902e-01,5.899274349212646484e-01,5.899097323417663574e-01,5.898919105529785156e-01,5.898741483688354492e-01,5.898563861846923828e-01,5.898386240005493164e-01,5.898208618164062500e-01,5.898030996322631836e-01,5.897852778434753418e-01,5.897675156593322754e-01,5.897497534751892090e-01,5.897319912910461426e-01,5.897142291069030762e-01,5.896964669227600098e-01,5.896787047386169434e-01,5.896609425544738770e-01,5.896431207656860352e-01,5.896254181861877441e-01,5.896075963973999023e-01,5.895898938179016113e-01,5.895721316337585449e-01,5.895543694496154785e-01,5.895366072654724121e-01,5.895188450813293457e-01,5.895010828971862793e-01,5.894833207130432129e-01,5.894656181335449219e-01,5.894478559494018555e-01,5.894300937652587891e-01,5.894123315811157227e-01,5.893946290016174316e-01,5.893768668174743652e-01,5.893591046333312988e-01,5.893413424491882324e-01,5.893235802650451660e-01,5.893058776855468750e-01,5.892881155014038086e-01,5.892704129219055176e-01,5.892526507377624512e-01,5.892349481582641602e-01,5.892171859741210938e-01,5.891994237899780273e-01,5.891817212104797363e-01,5.891639590263366699e-01,5.891462564468383789e-01,5.891284942626953125e-01,5.891107916831970215e-01,5.890930294990539551e-01,5.890752673149108887e-01,5.890575647354125977e-01,5.890398621559143066e-01,5.890221595764160156e-01,5.890043973922729492e-01,5.889866948127746582e-01,5.889689326286315918e-01,5.889512300491333008e-01,5.889335274696350098e-01,5.889157652854919434e-01
5.702706575393676758e-01,5.702540278434753418e-01,5.702373981475830078e-01,5.702208280563354492e-01,5.702041983604431152e-01,5.701876282691955566e-01,5.701709985733032227e-01,5.701543688774108887e-01,5.701377987861633301e-01,5.701211690902709961e-01,5.701045393943786621e-01,5.700879693031311035e-01,5.700713396072387695e-01,5.700547695159912109e-01,5.700381398200988770e-01,5.700215697288513184e-01,5.700049400329589844e-01,5.699883699417114258e-01,5.699717402458190918e-01,5.699551701545715332e-01,5.699385404586791992e-01,5.699219703674316406e-01,5.699053406715393066e-01,5.698887705802917480e-01,5.698722004890441895e-01,5.698556303977966309e-01,5.698390007019042969e-01,5.698224306106567383e-01,5.698058605194091797e-01,5.697892308235168457e-01,5.697726607322692871e-01,5.697560906410217285e-01,5.697395205497741699e-01,5.697228908538818359e-01,5.697063207626342773e-01,5.696897506713867188e-01,5.696731209754943848e-01,5.696566104888916016e-01,5.696399807929992676e-01,5.696234107017517090e-01,5.696068406105041504e-01,5.695902705192565918e-01,5.695737004280090332e-01,5.695571303367614746e-01,5.695405602455139160e-01,5.695239901542663574e-01,5.695074200630187988e-01,5.694908499717712402e-01,5.694742798805236816e-01,5.694577097892761230e-01,5.694411396980285645e-01,5.694245696067810059e-01,5.694079995155334473e-01,5.693914294242858887e-01,5.693748593330383301e-01,5.693583488464355469e-01,5.693417787551879883e-01,5.693252086639404297e-01,5.693086385726928711e-01,5.692920684814453125e-01,5.692754983901977539e-01,5.692589282989501953e-01,5.692424178123474121e-01,5.692258477210998535e-01,5.692093372344970703e-01,5.691927671432495117e-01,5.691761970520019531e-01,5.691596269607543945e-01,5.691430568695068359e-01,5.691265463829040527e-01,5.691099762916564941e-01,5.690934658050537109e-01,5.690768957138061523e-01,5.690603852272033691e-01,5.690438151359558105e-01,5.690272450447082520e-01,5.690107345581054688e-01,5.689941644668579102e-01,5.689776539802551270e-01,5.689610838890075684e-01
