5.000000000000000000e+00,5.000000000000000000e+00,5.000000000000000000e+00,5.000000000000000000e+00,5.000000000000000000e+00,5.000000000000000000e+00,5.000000000000000000e+00,5.000000000000000000e+00,5.000000000000000000e+00,5.000000000000000000e+00,5.000000000000000000e+00,5.000000000000000000e+00,5.000000000000000000e+00,5.000000000000000000e+00,5.000000000000000000e+00,5.000000000000000000e+00,5.000000000000000000e+00,5.000000000000000000e+00,5.000000000000000000e+00,5.000000000000000000e+00,5.000000000000000000e+00,5.000000000000000000e+00,5.000000000000000000e+00,5.000000000000000000e+00,5.000000000000000000e+00,5.000000000000000000e+00,5.000000000000000000e+00,5.000000000000000000e+00,5.000000000000000000e+00,5.000000000000000000e+00,5.000000000000000000e+00,5.000000000000000000e+00,5.000000000000000000e+00,5.000000000000000000e+00,5.000000000000000000e+00,5.000000000000000000e+00,5.000000000000000000e+00,5.000000000000000000e+00,5.000000000000000000e+00,4.853785991668701172e+00,4.663513183593750000e+00,4.487595558166503906e+00,4.324467658996582031e+00,4.172782897949218750e+00,4.031378746032714844e+00,3.899244308471679688e+00,3.775496721267700195e+00,3.659362077713012695e+00,3.550158739089965820e+00,3.447284460067749023e+00,3.350203990936279297e+00,3.258441925048828125e+00,3.171572446823120117e+00,3.089214563369750977e+00,3.011025905609130859e+00,2.936697244644165039e+00,2.865949630737304688e+00,2.798530817031860352e+00,2.734210968017578125e+00,1.159350514411926270e+00,1.131542444229125977e+00,1.127220749855041504e+00,2.504008531570434570e+00,1.169768691062927246e+00,1.115939855575561523e+00,1.091804027557373047e+00,1.069230675697326660e+00,1.050547719001770020e+00,1.032506465911865234e+00,1.016622304916381836e+00,1.003491759300231934e+00,9.902359247207641602e-01,9.769794940948486328e-01,9.640733003616333008e-01,9.603249430656433105e-01,9.579442739486694336e-01,9.555754661560058594e-01,9.532183408737182617e-01,9.510810375213623047e-01,1.844135761260986328e+00
5.000000000000000000e+00,5.000000000000000000e+00,5.000000000000000000e+00,5.000000000000000000e+00,5.000000000000000000e+00,5.000000000000000000e+00,5.000000000000000000e+00,5.000000000000000000e+00,5.000000000000000000e+00,5.000000000000000000e+00,5.000000000000000000e+00,5.000000000000000000e+00,5.000000000000000000e+00,5.000000000000000000e+00,5.000000000000000000e+00,5.000000000000000000e+00,5.000000000000000000e+00,5.000000000000000000e+00,5.000000000000000000e+00,5.000000000000000000e+00,5.000000000000000000e+00,5.000000000000000000e+00,5.000000000000000000e+00,5.000000000000000000e+00,5.000000000000000000e+00,5.000000000000000000e+00,5.000000000000000000e+00,5.000000000000000000e+00,5.000000000000000000e+00,5.000000000000000000e+00,5.000000000000000000e+00,5.000000000000000000e+00,5.000000000000000000e+00,5.000000000000000000e+00,5.000000000000000000e+00,5.000000000000000000e+00,5.000000000000000000e+00,5.000000000000000000e+00,5.000000000000000000e+00,4.853925704956054688e+00,4.663641929626464844e+00,4.487714767456054688e+00,4.324578285217285156e+00,4.172886371612548828e+00,4.031475067138671875e+00,3.899334430694580078e+00,3.775581121444702148e+00,3.659441471099853516e+00,3.550233602523803711e+00,3.447354793548583984e+00,3.350270748138427734e+00,3.258504629135131836e+00,3.171631813049316406e+00,3.089271068572998047e+00,3.011079311370849609e+00,2.936748266220092773e+00,2.865998268127441406e+00,2.798577308654785156e+00,2.734255313873291016e+00,1.162832736968994141e+00,1.136844635009765625e+00,1.126193284988403320e+00,1.128027200698852539e+00,1.204727411270141602e+00,1.154473662376403809e+00,1.093995451927185059e+00,1.073767423629760742e+00,1.054926991462707520e+00,1.036736249923706055e+00,1.019162178039550781e+00,1.005130887031555176e+00,9.919027686119079590e-01,9.786020517349243164e-01,9.656531810760498047e-01,9.553124308586120605e-01,9.525883197784423828e-01,9.498797059059143066e-01,9.471864700317382812e-01,9.445084333419799805e-01,1.844155788421630859e+00
5.000000000000000000e+00,5.000000000000000000e+00,5.000000000000000000e+00,5.000000000000000000e+00,5.000000000000000000e+00,5.000000000000000000e+00,5.000000000000000000e+00,5.000000000000000000e+00,5.000000000000000000e+00,5.000000000000000000e+00,5.000000000000000000e+00,5.000000000000000000e+00,5.000000000000000000e+00,5.000000000000000000e+00,5.000000000000000000e+00,5.000000000000000000e+00,5.000000000000000000e+00,5.000000000000000000e+00,5.000000000000000000e+00,5.000000000000000000e+00,5.000000000000000000e+00,5.000000000000000000e+00,5.000000000000000000e+00,5.000000000000000000e+00,5.000000000000000000e+00,5.000000000000000000e+00,5.000000000000000000e+00,5.000000000000000000e+00,5.000000000000000000e+00,5.000000000000000000e+00,5.000000000000000000e+00,5.000000000000000000e+00,5.000000000000000000e+00,5.000000000000000000e+00,5.000000000000000000e+00,5.000000000000000000e+00,5.000000000000000000e+00,5.000000000000000000e+00,5.000000000000000000e+00,4.854064941406250000e+00,4.663770675659179688e+00,4.487833976745605469e+00,4.324688911437988281e+00,4.172989368438720703e+00,4.031571388244628906e+00,3.899424552917480469e+00,3.775665283203125000e+00,3.659520387649536133e+00,3.550307989120483398e+00,3.447424888610839844e+00,3.350337028503417969e+00,3.258567571640014648e+00,3.171691656112670898e+00,3.089327573776245117e+00,3.011133193969726562e+00,2.936799287796020508e+00,2.866047143936157227e+00,2.798623561859130859e+00,2.734299421310424805e+00,2.672866106033325195e+00,1.133175015449523926e+00,1.118412971496582031e+00,1.114353895187377930e+00,1.116664886474609375e+00,1.194853186607360840e+00,1.149169921875000000e+00,1.078033208847045898e+00,1.059303045272827148e+00,1.041000843048095703e+00,1.023283243179321289e+00,1.006775379180908203e+00,9.935752749443054199e-01,9.802299737930297852e-01,9.673572778701782227e-01,9.549622535705566406e-01,9.458537101745605469e-01,9.425817131996154785e-01,9.399296641349792480e-01,9.372924566268920898e-01,9.346699714660644531e-01
5.000000000000000000e+00,5.000000000000000000e+00,5.000000000000000000e+00,5.000000000000000000e+00,5.000000000000000000e+00,5.000000000000000000e+00,5.000000000000000000e+00,5.000000000000000000e+00,5.000000000000000000e+00,5.000000000000000000e+00,5.000000000000000000e+00,5.000000000000000000e+00,5.000000000000000000e+00,5.000000000000000000e+00,5.000000000000000000e+00,5.000000000000000000e+00,5.000000000000000000e+00,5.000000000000000000e+00,5.000000000000000000e+00,5.000000000000000000e+00,5.000000000000000000e+00,5.000000000000000000e+00,5.000000000000000000e+00,5.000000000000000000e+00,5.000000000000000000e+00,5.000000000000000000e+00,5.000000000000000000e+00,5.000000000000000000e+00,5.000000000000000000e+00,5.000000000000000000e+00,5.000000000000000000e+00,5.000000000000000000e+00,5.000000000000000000e+00,5.000000000000000000e+00,5.000000000000000000e+00,5.000000000000000000e+00,5.000000000000000000e+00,5.000000000000000000e+00,5.000000000000000000e+00,4.854204177856445312e+00,4.663899421691894531e+00,4.487953186035156250e+00,4.324799537658691406e+00,4.173092365264892578e+00,4.031667232513427734e+00,3.899514436721801758e+00,3.775749921798706055e+00,3.659599781036376953e+00,3.550382614135742188e+00,3.447495460510253906e+00,3.350403547286987305e+00,3.258630752563476562e+00,3.171751260757446289e+00,3.089383840560913086e+00,3.011186599731445312e+00,2.936850309371948242e+00,2.866095542907714844e+00,2.798670053482055664e+00,2.734343767166137695e+00,2.672908306121826172e+00,1.129230499267578125e+00,1.111380696296691895e+00,1.102131009101867676e+00,1.103617548942565918e+00,2.402958393096923828e+00,2.355382442474365234e+00,1.146629095077514648e+00,1.063110351562500000e+00,1.044890880584716797e+00,1.027285456657409668e+00,1.010174870491027832e+00,9.952533841133117676e-01,9.820560812950134277e-01,9.692839384078979492e-01,9.568397998809814453e-01,9.440190196037292480e-01,9.373387098312377930e-01,9.327831864356994629e-01,9.301858544349670410e-01,9.276030063629150391e-01
5.000000000000000000e+00,5.000000000000000000e+00,5.000000000000000000e+00,5.000000000000000000e+00,5.000000000000000000e+00,5.000000000000000000e+00,5.000000000000000000e+00,5.000000000000000000e+00,5.000000000000000000e+00,5.000000000000000000e+00,5.000000000000000000e+00,5.000000000000000000e+00,5.000000000000000000e+00,5.000000000000000000e+00,5.000000000000000000e+00,5.000000000000000000e+00,5.000000000000000000e+00,5.000000000000000000e+00,5.000000000000000000e+00,5.000000000000000000e+00,5.000000000000000000e+00,5.000000000000000000e+00,5.000000000000000000e+00,5.000000000000000000e+00,5.000000000000000000e+00,5.000000000000000000e+00,5.000000000000000000e+00,5.000000000000000000e+00,5.000000000000000000e+00,5.000000000000000000e+00,5.000000000000000000e+00,5.000000000000000000e+00,5.000000000000000000e+00,5.000000000000000000e+00,5.000000000000000000e+00,5.000000000000000000e+00,5.000000000000000000e+00,5.000000000000000000e+00,5.000000000000000000e+00,4.854343891143798828e+00,4.664028167724609375e+00,4.488072395324707031e+00,4.324910163879394531e+00,4.173195362091064453e+00,4.031763553619384766e+00,3.899604558944702148e+00,3.775834321975708008e+00,3.659679412841796875e+00,3.550457000732421875e+00,3.447565555572509766e+00,3.350469827651977539e+00,3.258693218231201172e+00,3.171810626983642578e+00,3.089440584182739258e+00,3.011240482330322266e+00,2.936901330947875977e+00,2.866144180297851562e+00,2.798716306686401367e+00,2.734388113021850586e+00,1.155199289321899414e+00,1.125004172325134277e+00,1.106996893882751465e+00,1.094949841499328613e+00,1.107002496719360352e+00,1.095941066741943359e+00,2.355415344238281250e+00,1.257304191589355469e+00,1.230245471000671387e+00,1.048595070838928223e+00,1.030865550041198730e+00,1.013725757598876953e+00,9.976559281349182129e-01,9.840419292449951172e-01,9.712184071540832520e-01,9.587249159812927246e-01,9.460736513137817383e-01,9.346632361412048340e-01,9.289757013320922852e-01,9.233568906784057617e-01,9.206420779228210449e-01
5.000000000000000000e+00,5.000000000000000000e+00,5.000000000000000000e+00,5.000000000000000000e+00,5.000000000000000000e+00,5.000000000000000000e+00,5.000000000000000000e+00,5.000000000000000000e+00,5.000000000000000000e+00,5.000000000000000000e+00,5.000000000000000000e+00,5.000000000000000000e+00,5.000000000000000000e+00,5.000000000000000000e+00,5.000000000000000000e+00,5.000000000000000000e+00,5.000000000000000000e+00,5.000000000000000000e+00,5.000000000000000000e+00,5.000000000000000000e+00,5.000000000000000000e+00,5.000000000000000000e+00,5.000000000000000000e+00,5.000000000000000000e+00,5.000000000000000000e+00,5.000000000000000000e+00,5.000000000000000000e+00,5.000000000000000000e+00,5.000000000000000000e+00,5.000000000000000000e+00,5.000000000000000000e+00,5.000000000000000000e+00,5.000000000000000000e+00,5.000000000000000000e+00,5.000000000000000000e+00,5.000000000000000000e+00,5.000000000000000000e+00,5.000000000000000000e+00,5.000000000000000000e+00,4.854483127593994141e+00,4.664156913757324219e+00,4.488191604614257812e+00,4.325020790100097656e+00,4.173298358917236328e+00,4.031859874725341797e+00,3.899694204330444336e+00,3.775918483734130859e+00,3.659758329391479492e+00,3.550531864166259766e+00,3.447636127471923828e+00,3.350536346435546875e+00,3.258756160736083984e+00,3.171870231628417969e+00,3.089497089385986328e+00,3.011293888092041016e+00,2.936952352523803711e+00,2.866192817687988281e+00,2.798762559890747070e+00,2.734432220458984375e+00,1.151268959045410156e+00,1.120739459991455078e+00,1.107054948806762695e+00,1.091092109680175781e+00,2.452567815780639648e+00,1.091862797737121582e+00,2.355448007583618164e+00,1.256048798561096191e+00,1.229063987731933594e+00,1.052325725555419922e+00,1.034470796585083008e+00,1.017690062522888184e+00,1.001644849777221680e+00,9.860978722572326660e-01,9.731606841087341309e-01,9.606174230575561523e-01,9.481372237205505371e-01,9.353168606758117676e-01,9.263476729393005371e-01,9.207605123519897461e-01,9.152404665946960449e-01
5.000000000000000000e+00,5.000000000000000000e+00,5.000000000000000000e+00,5.000000000000000000e+00,5.000000000000000000e+00,5.000000000000000000e+00,5.000000000000000000e+00,5.000000000000000000e+00,5.000000000000000000e+00,5.000000000000000000e+00,5.000000000000000000e+00,5.000000000000000000e+00,5.000000000000000000e+00,5.000000000000000000e+00,5.000000000000000000e+00,5.000000000000000000e+00,5.000000000000000000e+00,5.000000000000000000e+00,5.000000000000000000e+00,5.000000000000000000e+00,5.000000000000000000e+00,5.000000000000000000e+00,5.000000000000000000e+00,5.000000000000000000e+00,5.000000000000000000e+00,5.000000000000000000e+00,5.000000000000000000e+00,5.000000000000000000e+00,5.000000000000000000e+00,5.000000000000000000e+00,5.000000000000000000e+00,5.000000000000000000e+00,5.000000000000000000e+00,5.000000000000000000e+00,5.000000000000000000e+00,5.000000000000000000e+00,5.000000000000000000e+00,5.000000000000000000e+00,5.000000000000000000e+00,4.854622364044189453e+00,4.664285659790039062e+00,4.488310813903808594e+00,4.325131416320800781e+00,4.173401355743408203e+00,4.031955718994140625e+00,3.899784564971923828e+00,3.776003122329711914e+00,3.659837722778320312e+00,3.550606489181518555e+00,3.447706222534179688e+00,3.350602626800537109e+00,3.258818864822387695e+00,3.171929597854614258e+00,3.089553356170654297e+00,3.011347770690917969e+00,2.937003374099731445e+00,2.866241455078125000e+00,2.798809051513671875e+00,2.734476566314697266e+00,1.153679013252258301e+00,1.127272248268127441e+00,1.107520818710327148e+00,1.087041735649108887e+00,2.452603101730346680e+00,1.089705824851989746e+00,2.355480670928955078e+00,1.254817366600036621e+00,1.227884769439697266e+00,1.210482001304626465e+00,1.038545250892639160e+00,1.021841049194335938e+00,1.005665898323059082e+00,9.899948835372924805e-01,9.751107096672058105e-01,9.625174403190612793e-01,9.502097964286804199e-01,9.373337030410766602e-01,9.248018860816955566e-01,9.181786775588989258e-01,9.126894474029541016e-01
5.000000000000000000e+00,5.000000000000000000e+00,5.000000000000000000e+00,5.000000000000000000e+00,5.000000000000000000e+00,5.000000000000000000e+00,5.000000000000000000e+00,5.000000000000000000e+00,5.000000000000000000e+00,5.000000000000000000e+00,5.000000000000000000e+00,5.000000000000000000e+00,5.000000000000000000e+00,5.000000000000000000e+00,5.000000000000000000e+00,5.000000000000000000e+00,5.000000000000000000e+00,5.000000000000000000e+00,5.000000000000000000e+00,5.000000000000000000e+00,5.000000000000000000e+00,5.000000000000000000e+00,5.000000000000000000e+00,5.000000000000000000e+00,5.000000000000000000e+00,5.000000000000000000e+00,5.000000000000000000e+00,5.000000000000000000e+00,5.000000000000000000e+00,5.000000000000000000e+00,5.000000000000000000e+00,5.000000000000000000e+00,5.000000000000000000e+00,5.000000000000000000e+00,5.000000000000000000e+00,5.000000000000000000e+00,5.000000000000000000e+00,5.000000000000000000e+00,5.000000000000000000e+00,4.854762077331542969e+00,4.664414405822753906e+00,4.488430023193359375e+00,4.325242519378662109e+00,4.173504352569580078e+00,4.032052516937255859e+00,3.899874210357666016e+00,3.776087284088134766e+00,3.659916877746582031e+00,3.550680875778198242e+00,3.447776794433593750e+00,3.350669145584106445e+00,3.258881807327270508e+00,3.171989202499389648e+00,3.089610099792480469e+00,3.011401414871215820e+00,2.937054395675659180e+00,2.866289854049682617e+00,2.798855304718017578e+00,2.734520673751831055e+00,1.157289862632751465e+00,1.128208518028259277e+00,1.101964354515075684e+00,1.085899233818054199e+00,1.079370498657226562e+00,2.403095006942749023e+00,1.285602211952209473e+00,1.253588199615478516e+00,1.227893590927124023e+00,1.212404489517211914e+00,1.197166800498962402e+00,1.025181412696838379e+00,1.009719252586364746e+00,9.939225912094116211e-01,9.786124825477600098e-01,9.644249677658081055e-01,9.521045088768005371e-01,9.393592476844787598e-01,9.267736077308654785e-01,9.156113862991333008e-01,9.101526141166687012e-01
5.000000000000000000e+00,5.000000000000000000e+00,5.000000000000000000e+00,5.000000000000000000e+00,5.000000000000000000e+00,5.000000000000000000e+00,5.000000000000000000e+00,5.000000000000000000e+00,5.000000000000000000e+00,5.000000000000000000e+00,5.000000000000000000e+00,5.000000000000000000e+00,5.000000000000000000e+00,5.000000000000000000e+00,5.000000000000000000e+00,5.000000000000000000e+00,5.000000000000000000e+00,5.000000000000000000e+00,5.000000000000000000e+00,5.000000000000000000e+00,5.000000000000000000e+00,5.000000000000000000e+00,5.000000000000000000e+00,5.000000000000000000e+00,5.000000000000000000e+00,5.000000000000000000e+00,5.000000000000000000e+00,5.000000000000000000e+00,5.000000000000000000e+00,5.000000000000000000e+00,5.000000000000000000e+00,5.000000000000000000e+00,5.000000000000000000e+00,5.000000000000000000e+00,5.000000000000000000e+00,5.000000000000000000e+00,5.000000000000000000e+00,5.000000000000000000e+00,5.000000000000000000e+00,4.854901790618896484e+00,4.664543151855468750e+00,4.488549232482910156e+00,4.325353145599365234e+00,4.173607826232910156e+00,4.032148361206054688e+00,3.899964570999145508e+00,3.776171684265136719e+00,3.659996271133422852e+00,3.550755739212036133e+00,3.447847127914428711e+00,3.350735664367675781e+00,3.258944511413574219e+00,3.172048568725585938e+00,3.089666366577148438e+00,3.011455059051513672e+00,2.937105417251586914e+00,2.866338729858398438e+00,2.798901796340942383e+00,2.734565019607543945e+00,1.156128287315368652e+00,1.124346494674682617e+00,1.098791122436523438e+00,2.504305124282836914e+00,1.071193456649780273e+00,2.403129100799560547e+00,1.285165786743164062e+00,1.252755641937255859e+00,1.229871749877929688e+00,1.214209794998168945e+00,1.198909640312194824e+00,1.037338376045227051e+00,1.012079358100891113e+00,9.971232414245605469e-01,9.824504256248474121e-01,9.674890041351318359e-01,9.539709687232971191e-01,9.413936138153076172e-01,9.287537336349487305e-01,9.165844321250915527e-01,9.081512689590454102e-01
5.000000000000000000e+00,5.000000000000000000e+00,5.000000000000000000e+00,5.000000000000000000e+00,5.000000000000000000e+00,5.000000000000000000e+00,5.000000000000000000e+00,5.000000000000000000e+00,5.000000000000000000e+00,5.000000000000000000e+00,5.000000000000000000e+00,5.000000000000000000e+00,5.000000000000000000e+00,5.000000000000000000e+00,5.000000000000000000e+00,5.000000000000000000e+00,5.000000000000000000e+00,5.000000000000000000e+00,5.000000000000000000e+00,5.000000000000000000e+00,5.000000000000000000e+00,5.000000000000000000e+00,5.000000000000000000e+00,5.000000000000000000e+00,5.000000000000000000e+00,5.000000000000000000e+00,5.000000000000000000e+00,5.000000000000000000e+00,5.000000000000000000e+00,5.000000000000000000e+00,5.000000000000000000e+00,5.000000000000000000e+00,5.000000000000000000e+00,5.000000000000000000e+00,5.000000000000000000e+00,5.000000000000000000e+00,5.000000000000000000e+00,5.000000000000000000e+00,5.000000000000000000e+00,4.855041027069091797e+00,4.664671897888183594e+00,4.488668441772460938e+00,4.325463771820068359e+00,4.173710823059082031e+00,4.032244682312011719e+00,3.900054693222045898e+00,3.776255846023559570e+00,3.660075187683105469e+00,3.550830125808715820e+00,3.447917461395263672e+00,3.350801944732666016e+00,3.259007692337036133e+00,3.172108411788940430e+00,3.089722871780395508e+00,3.011508703231811523e+00,2.937156677246093750e+00,2.866387367248535156e+00,2.798948049545288086e+00,2.734609127044677734e+00,1.153184413909912109e+00,1.120915174484252930e+00,1.094577431678771973e+00,2.504342317581176758e+00,2.452709913253784180e+00,2.403163433074951172e+00,1.284729599952697754e+00,1.252341270446777344e+00,1.231745123863220215e+00,1.216002821922302246e+00,1.200657606124877930e+00,1.190165877342224121e+00,1.014330625534057617e+00,9.993082284927368164e-01,9.847242236137390137e-01,9.705596566200256348e-01,9.566155076026916504e-01,9.434366822242736816e-01,9.309019446372985840e-01,9.188355207443237305e-01,9.080947041511535645e-01
5.000000000000000000e+00,5.000000000000000000e+00,5.000000000000000000e+00,5.000000000000000000e+00,5.000000000000000000e+00,5.000000000000000000e+00,5.000000000000000000e+00,5.000000000000000000e+00,5.000000000000000000e+00,5.000000000000000000e+00,5.000000000000000000e+00,5.000000000000000000e+00,5.000000000000000000e+00,5.000000000000000000e+00,5.000000000000000000e+00,5.000000000000000000e+00,5.000000000000000000e+00,5.000000000000000000e+00,5.000000000000000000e+00,5.000000000000000000e+00,5.000000000000000000e+00,5.000000000000000000e+00,5.000000000000000000e+00,5.000000000000000000e+00,5.000000000000000000e+00,5.000000000000000000e+00,5.000000000000000000e+00,5.000000000000000000e+00,5.000000000000000000e+00,5.000000000000000000e+00,5.000000000000000000e+00,5.000000000000000000e+00,5.000000000000000000e+00,5.000000000000000000e+00,5.000000000000000000e+00,5.000000000000000000e+00,5.000000000000000000e+00,5.000000000000000000e+00,5.000000000000000000e+00,4.855180740356445312e+00,4.664800643920898438e+00,4.488787651062011719e+00,4.325574398040771484e+00,4.173813819885253906e+00,4.032341003417968750e+00,3.900144338607788086e+00,3.776340484619140625e+00,3.660154819488525391e+00,3.550904989242553711e+00,3.447987794876098633e+00,3.350868463516235352e+00,3.259070634841918945e+00,3.172167778015136719e+00,3.089779376983642578e+00,3.011562347412109375e+00,2.937207460403442383e+00,2.866435766220092773e+00,2.798994541168212891e+00,2.734653472900390625e+00,2.673204421997070312e+00,1.120459318161010742e+00,1.091603398323059082e+00,2.504379510879516602e+00,2.452745199203491211e+00,2.403197526931762695e+00,1.283290505409240723e+00,1.250741243362426758e+00,1.232555150985717773e+00,1.216925740242004395e+00,1.201687693595886230e+00,1.196203470230102539e+00,1.196559786796569824e+00,1.001502752304077148e+00,9.868552088737487793e-01,9.726297855377197266e-01,9.588590264320373535e-01,9.456887841224670410e-01,9.331935048103332520e-01,9.210978150367736816e-01,9.088701009750366211e-01
5.000000000000000000e+00,5.000000000000000000e+00,5.000000000000000000e+00,5.000000000000000000e+00,5.000000000000000000e+00,5.000000000000000000e+00,5.000000000000000000e+00,5.000000000000000000e+00,5.000000000000000000e+00,5.000000000000000000e+00,5.000000000000000000e+00,5.000000000000000000e+00,5.000000000000000000e+00,5.000000000000000000e+00,5.000000000000000000e+00,5.000000000000000000e+00,5.000000000000000000e+00,5.000000000000000000e+00,5.000000000000000000e+00,5.000000000000000000e+00,5.000000000000000000e+00,5.000000000000000000e+00,5.000000000000000000e+00,5.000000000000000000e+00,5.000000000000000000e+00,5.000000000000000000e+00,5.000000000000000000e+00,5.000000000000000000e+00,5.000000000000000000e+00,5.000000000000000000e+00,5.000000000000000000e+00,5.000000000000000000e+00,5.000000000000000000e+00,5.000000000000000000e+00,5.000000000000000000e+00,5.000000000000000000e+00,5.000000000000000000e+00,5.000000000000000000e+00,5.000000000000000000e+00,4.855319976806640625e+00,4.664929389953613281e+00,4.488907337188720703e+00,4.325685024261474609e+00,4.173916816711425781e+00,4.032436847686767578e+00,3.900234699249267578e+00,3.776425123214721680e+00,3.660233736038208008e+00,3.550979375839233398e+00,3.448058128356933594e+00,3.350934743881225586e+00,3.259133338928222656e+00,3.172227382659912109e+00,3.089835882186889648e+00,3.011615991592407227e+00,2.937258720397949219e+00,2.866484642028808594e+00,2.799041032791137695e+00,2.734697580337524414e+00,2.673246622085571289e+00,2.614495992660522461e+00,2.558272600173950195e+00,2.504416465759277344e+00,2.452780961990356445e+00,2.403231620788574219e+00,1.281518220901489258e+00,1.249305367469787598e+00,1.233251094818115234e+00,1.217604160308837891e+00,1.204412221908569336e+00,1.202531933784484863e+00,1.202963113784790039e+00,1.025391697883605957e+00,9.890543818473815918e-01,9.750477671623229980e-01,9.614321589469909668e-01,9.481949210166931152e-01,9.338012337684631348e-01,9.205632209777832031e-01,9.104418754577636719e-01
5.000000000000000000e+00,5.000000000000000000e+00,5.000000000000000000e+00,5.000000000000000000e+00,5.000000000000000000e+00,5.000000000000000000e+00,5.000000000000000000e+00,5.000000000000000000e+00,5.000000000000000000e+00,5.000000000000000000e+00,5.000000000000000000e+00,5.000000000000000000e+00,5.000000000000000000e+00,5.000000000000000000e+00,5.000000000000000000e+00,5.000000000000000000e+00,5.000000000000000000e+00,5.000000000000000000e+00,5.000000000000000000e+00,5.000000000000000000e+00,5.000000000000000000e+00,5.000000000000000000e+00,5.000000000000000000e+00,5.000000000000000000e+00,5.000000000000000000e+00,5.000000000000000000e+00,5.000000000000000000e+00,5.000000000000000000e+00,5.000000000000000000e+00,5.000000000000000000e+00,5.000000000000000000e+00,5.000000000000000000e+00,5.000000000000000000e+00,5.000000000000000000e+00,5.000000000000000000e+00,5.000000000000000000e+00,5.000000000000000000e+00,5.000000000000000000e+00,5.000000000000000000e+00,4.855459690093994141e+00,4.665058135986328125e+00,4.489026546478271484e+00,4.325796127319335938e+00,4.174019813537597656e+00,4.032533168792724609e+00,3.900324344635009766e+00,3.776509284973144531e+00,3.660313367843627930e+00,3.551054239273071289e+00,3.448128461837768555e+00,3.351001501083374023e+00,3.259196281433105469e+00,3.172286987304687500e+00,3.089892387390136719e+00,3.011669635772705078e+00,2.937309503555297852e+00,2.866533041000366211e+00,2.799087047576904297e+00,2.734742164611816406e+00,2.673288822174072266e+00,2.614536523818969727e+00,2.558311462402343750e+00,2.504453659057617188e+00,2.452816724777221680e+00,2.403265714645385742e+00,1.280737280845642090e+00,1.250020503997802734e+00,1.233947992324829102e+00,1.220007538795471191e+00,1.207408428192138672e+00,1.208096742630004883e+00,1.209435343742370605e+00,1.209799766540527344e+00,9.946157336235046387e-01,9.778640866279602051e-01,9.617975950241088867e-01,9.462505578994750977e-01,9.325612187385559082e-01,9.211512804031372070e-01,9.126268625259399414e-01
5.000000000000000000e+00,5.000000000000000000e+00,5.000000000000000000e+00,5.000000000000000000e+00,5.000000000000000000e+00,5.000000000000000000e+00,5.000000000000000000e+00,5.000000000000000000e+00,5.000000000000000000e+00,5.000000000000000000e+00,5.000000000000000000e+00,5.000000000000000000e+00,5.000000000000000000e+00,5.000000000000000000e+00,5.000000000000000000e+00,5.000000000000000000e+00,5.000000000000000000e+00,5.000000000000000000e+00,5.000000000000000000e+00,5.000000000000000000e+00,5.000000000000000000e+00,5.000000000000000000e+00,5.000000000000000000e+00,5.000000000000000000e+00,5.000000000000000000e+00,5.000000000000000000e+00,5.000000000000000000e+00,5.000000000000000000e+00,5.000000000000000000e+00,5.000000000000000000e+00,5.000000000000000000e+00,5.000000000000000000e+00,5.000000000000000000e+00,5.000000000000000000e+00,5.000000000000000000e+00,5.000000000000000000e+00,5.000000000000000000e+00,5.000000000000000000e+00,5.000000000000000000e+00,4.855598926544189453e+00,4.665186882019042969e+00,4.489145755767822266e+00,4.325906753540039062e+00,4.174122810363769531e+00,4.032629489898681641e+00,3.900414705276489258e+00,3.776593923568725586e+00,3.660392761230468750e+00,3.551128864288330078e+00,3.448198795318603516e+00,3.351067781448364258e+00,3.259258985519409180e+00,3.172346353530883789e+00,3.089948892593383789e+00,3.011723279953002930e+00,2.937360763549804688e+00,2.866581916809082031e+00,2.799133539199829102e+00,2.734786272048950195e+00,2.673330783843994141e+00,2.614577054977416992e+00,2.558350086212158203e+00,2.504490613937377930e+00,2.452852249145507812e+00,2.403300046920776367e+00,1.281366467475891113e+00,1.250736474990844727e+00,1.236011981964111328e+00,1.223081946372985840e+00,1.210419535636901855e+00,1.213713169097900391e+00,1.215977549552917480e+00,2.068930625915527344e+00,1.014515638351440430e+00,9.764481186866760254e-01,9.601290822029113770e-01,9.440164566040039062e-01,9.318429231643676758e-01,9.207050800323486328e-01,9.146017432212829590e-01
5.000000000000000000e+00,5.000000000000000000e+00,5.000000000000000000e+00,5.000000000000000000e+00,5.000000000000000000e+00,5.000000000000000000e+00,5.000000000000000000e+00,5.000000000000000000e+00,5.000000000000000000e+00,5.000000000000000000e+00,5.000000000000000000e+00,5.000000000000000000e+00,5.000000000000000000e+00,5.000000000000000000e+00,5.000000000000000000e+00,5.000000000000000000e+00,5.000000000000000000e+00,5.000000000000000000e+00,5.000000000000000000e+00,5.000000000000000000e+00,5.000000000000000000e+00,5.000000000000000000e+00,5.000000000000000000e+00,5.000000000000000000e+00,5.000000000000000000e+00,5.000000000000000000e+00,5.000000000000000000e+00,5.000000000000000000e+00,5.000000000000000000e+00,5.000000000000000000e+00,5.000000000000000000e+00,5.000000000000000000e+00,5.000000000000000000e+00,5.000000000000000000e+00,5.000000000000000000e+00,5.000000000000000000e+00,5.000000000000000000e+00,5.000000000000000000e+00,5.000000000000000000e+00,4.855738639831542969e+00,4.665315628051757812e+00,4.489264965057373047e+00,4.326017379760742188e+00,4.174226284027099609e+00,4.032725811004638672e+00,3.900504350662231445e+00,3.776678085327148438e+00,3.660471677780151367e+00,3.551203250885009766e+00,3.448269128799438477e+00,3.351134300231933594e+00,3.259321928024291992e+00,3.172406196594238281e+00,3.090005636215209961e+00,3.011777162551879883e+00,2.937411785125732422e+00,2.866630315780639648e+00,2.799179792404174805e+00,2.734830379486083984e+00,2.673373222351074219e+00,2.614617586135864258e+00,2.558388948440551758e+00,2.504527807235717773e+00,2.452887773513793945e+00,2.403334379196166992e+00,1.281996369361877441e+00,1.252441883087158203e+00,1.239167690277099609e+00,1.226171851158142090e+00,1.215539693832397461e+00,1.219382047653198242e+00,1.222591042518615723e+00,2.068955898284912109e+00,9.926974177360534668e-01,9.745355248451232910e-01,9.579399824142456055e-01,9.427856206893920898e-01,9.309322237968444824e-01,9.217330217361450195e-01,9.165852665901184082e-01
5.000000000000000000e+00,5.000000000000000000e+00,5.000000000000000000e+00,5.000000000000000000e+00,5.000000000000000000e+00,5.000000000000000000e+00,5.000000000000000000e+00,5.000000000000000000e+00,5.000000000000000000e+00,5.000000000000000000e+00,5.000000000000000000e+00,5.000000000000000000e+00,5.000000000000000000e+00,5.000000000000000000e+00,5.000000000000000000e+00,5.000000000000000000e+00,5.000000000000000000e+00,5.000000000000000000e+00,5.000000000000000000e+00,5.000000000000000000e+00,5.000000000000000000e+00,5.000000000000000000e+00,5.000000000000000000e+00,5.000000000000000000e+00,5.000000000000000000e+00,5.000000000000000000e+00,5.000000000000000000e+00,5.000000000000000000e+00,5.000000000000000000e+00,5.000000000000000000e+00,5.000000000000000000e+00,5.000000000000000000e+00,5.000000000000000000e+00,5.000000000000000000e+00,5.000000000000000000e+00,5.000000000000000000e+00,5.000000000000000000e+00,5.000000000000000000e+00,5.000000000000000000e+00,4.855877876281738281e+00,4.665444374084472656e+00,4.489384174346923828e+00,4.326128005981445312e+00,4.174329280853271484e+00,4.032822132110595703e+00,3.900594711303710938e+00,3.776762485504150391e+00,3.660551309585571289e+00,3.551278114318847656e+00,3.448339700698852539e+00,3.351200580596923828e+00,3.259384632110595703e+00,3.172465562820434570e+00,3.090061902999877930e+00,3.011830568313598633e+00,2.937462806701660156e+00,2.866678953170776367e+00,2.799226045608520508e+00,2.734874725341796875e+00,2.673415660858154297e+00,2.614658117294311523e+00,2.558427572250366211e+00,2.504564762115478516e+00,2.452923297882080078e+00,1.327285408973693848e+00,1.279603362083435059e+00,1.254998207092285156e+00,1.242004871368408203e+00,1.229277253150939941e+00,1.221225857734680176e+00,1.225104331970214844e+00,1.229007363319396973e+00,2.068981170654296875e+00,9.919766783714294434e-01,9.722802639007568359e-01,9.557608962059020996e-01,9.418534636497497559e-01,9.311563372611999512e-01,9.227634072303771973e-01,9.185773730278015137e-01
5.000000000000000000e+00,5.000000000000000000e+00,5.000000000000000000e+00,5.000000000000000000e+00,5.000000000000000000e+00,5.000000000000000000e+00,5.000000000000000000e+00,5.000000000000000000e+00,5.000000000000000000e+00,5.000000000000000000e+00,5.000000000000000000e+00,5.000000000000000000e+00,5.000000000000000000e+00,5.000000000000000000e+00,5.000000000000000000e+00,5.000000000000000000e+00,5.000000000000000000e+00,5.000000000000000000e+00,5.000000000000000000e+00,5.000000000000000000e+00,5.000000000000000000e+00,5.000000000000000000e+00,5.000000000000000000e+00,5.000000000000000000e+00,5.000000000000000000e+00,5.000000000000000000e+00,5.000000000000000000e+00,5.000000000000000000e+00,5.000000000000000000e+00,5.000000000000000000e+00,5.000000000000000000e+00,5.000000000000000000e+00,5.000000000000000000e+00,5.000000000000000000e+00,5.000000000000000000e+00,5.000000000000000000e+00,5.000000000000000000e+00,5.000000000000000000e+00,5.000000000000000000e+00,4.856017589569091797e+00,4.665573120117187500e+00,4.489503383636474609e+00,4.326239109039306641e+00,4.174432277679443359e+00,4.032918453216552734e+00,3.900684356689453125e+00,3.776846647262573242e+00,3.660630226135253906e+00,3.551352500915527344e+00,3.448409795761108398e+00,3.351267099380493164e+00,3.259447574615478516e+00,3.172525167465209961e+00,3.090118408203125000e+00,3.011884450912475586e+00,2.937514066696166992e+00,2.866727352142333984e+00,2.799272298812866211e+00,2.734918832778930664e+00,2.673457860946655273e+00,2.614698410034179688e+00,2.558466434478759766e+00,2.504601955413818359e+00,2.452959060668945312e+00,1.315500259399414062e+00,1.274024009704589844e+00,1.259162664413452148e+00,1.245187878608703613e+00,1.232474923133850098e+00,1.228912949562072754e+00,1.232950210571289062e+00,1.236419081687927246e+00,2.069006681442260742e+00,9.912570118904113770e-01,9.700356721878051758e-01,9.535916447639465332e-01,9.409231543540954590e-01,9.322078824043273926e-01,9.237960577011108398e-01,9.205781817436218262e-01
5.000000000000000000e+00,5.000000000000000000e+00,5.000000000000000000e+00,5.000000000000000000e+00,5.000000000000000000e+00,5.000000000000000000e+00,5.000000000000000000e+00,5.000000000000000000e+00,5.000000000000000000e+00,5.000000000000000000e+00,5.000000000000000000e+00,5.000000000000000000e+00,5.000000000000000000e+00,5.000000000000000000e+00,5.000000000000000000e+00,5.000000000000000000e+00,5.000000000000000000e+00,5.000000000000000000e+00,5.000000000000000000e+00,5.000000000000000000e+00,5.000000000000000000e+00,5.000000000000000000e+00,5.000000000000000000e+00,5.000000000000000000e+00,5.000000000000000000e+00,5.000000000000000000e+00,5.000000000000000000e+00,5.000000000000000000e+00,5.000000000000000000e+00,5.000000000000000000e+00,5.000000000000000000e+00,5.000000000000000000e+00,5.000000000000000000e+00,5.000000000000000000e+00,5.000000000000000000e+00,5.000000000000000000e+00,5.000000000000000000e+00,5.000000000000000000e+00,5.000000000000000000e+00,4.856157302856445312e+00,4.665702342987060547e+00,4.489622592926025391e+00,4.326349735260009766e+00,4.174535274505615234e+00,4.033014774322509766e+00,3.900774717330932617e+00,3.776931285858154297e+00,3.660709857940673828e+00,3.551427364349365234e+00,3.448480367660522461e+00,3.351333856582641602e+00,3.259510278701782227e+00,3.172584533691406250e+00,3.090174913406372070e+00,3.011938095092773438e+00,2.937564849853515625e+00,2.866775989532470703e+00,2.799318790435791016e+00,2.734963178634643555e+00,2.673500061035156250e+00,2.614738941192626953e+00,2.558505058288574219e+00,2.504639148712158203e+00,1.344008445739746094e+00,1.299060344696044922e+00,1.281886219978332520e+00,1.265670180320739746e+00,1.251146793365478516e+00,1.236953020095825195e+00,1.238286375999450684e+00,1.241691231727600098e+00,2.105653762817382812e+00,2.069031953811645508e+00,9.905383586883544922e-01,9.678012132644653320e-01,9.520813226699829102e-01,9.418476223945617676e-01,9.332617521286010742e-01,9.248310923576354980e-01,9.225876927375793457e-01
5.000000000000000000e+00,5.000000000000000000e+00,5.000000000000000000e+00,5.000000000000000000e+00,5.000000000000000000e+00,5.000000000000000000e+00,5.000000000000000000e+00,5.000000000000000000e+00,5.000000000000000000e+00,5.000000000000000000e+00,5.000000000000000000e+00,5.000000000000000000e+00,5.000000000000000000e+00,5.000000000000000000e+00,5.000000000000000000e+00,5.000000000000000000e+00,5.000000000000000000e+00,5.000000000000000000e+00,5.000000000000000000e+00,5.000000000000000000e+00,5.000000000000000000e+00,5.000000000000000000e+00,5.000000000000000000e+00,5.000000000000000000e+00,5.000000000000000000e+00,5.000000000000000000e+00,5.000000000000000000e+00,5.000000000000000000e+00,5.000000000000000000e+00,5.000000000000000000e+00,5.000000000000000000e+00,5.000000000000000000e+00,5.000000000000000000e+00,5.000000000000000000e+00,5.000000000000000000e+00,5.000000000000000000e+00,5.000000000000000000e+00,5.000000000000000000e+00,5.000000000000000000e+00,4.856297016143798828e+00,4.665831089019775391e+00,4.489741802215576172e+00,4.326460361480712891e+00,4.174638748168945312e+00,4.033110618591308594e+00,3.900864839553833008e+00,3.777015924453735352e+00,3.660788774490356445e+00,3.551501750946044922e+00,3.448550701141357422e+00,3.351400136947631836e+00,3.259573221206665039e+00,3.172644376754760742e+00,3.090231418609619141e+00,3.011991500854492188e+00,2.937615871429443359e+00,2.866824865341186523e+00,2.799365043640136719e+00,2.735007286071777344e+00,2.673542261123657227e+00,2.614779233932495117e+00,2.558543682098388672e+00,1.371886014938354492e+00,1.326415061950683594e+00,1.307991385459899902e+00,1.290990471839904785e+00,1.274425864219665527e+00,1.258039474487304688e+00,1.256335854530334473e+00,1.257188439369201660e+00,2.143622159957885742e+00,2.105679750442504883e+00,2.069057226181030273e+00,9.898207783699035645e-01,9.655771255493164062e-01,9.516887664794921875e-01,9.429234862327575684e-01,9.343180656433105469e-01,9.266288280487060547e-01,9.244530797004699707e-01
5.000000000000000000e+00,5.000000000000000000e+00,5.000000000000000000e+00,5.000000000000000000e+00,5.000000000000000000e+00,5.000000000000000000e+00,5.000000000000000000e+00,5.000000000000000000e+00,5.000000000000000000e+00,5.000000000000000000e+00,5.000000000000000000e+00,5.000000000000000000e+00,5.000000000000000000e+00,5.000000000000000000e+00,5.000000000000000000e+00,5.000000000000000000e+00,5.000000000000000000e+00,5.000000000000000000e+00,5.000000000000000000e+00,5.000000000000000000e+00,5.000000000000000000e+00,5.000000000000000000e+00,5.000000000000000000e+00,5.000000000000000000e+00,5.000000000000000000e+00,5.000000000000000000e+00,5.000000000000000000e+00,5.000000000000000000e+00,5.000000000000000000e+00,5.000000000000000000e+00,5.000000000000000000e+00,5.000000000000000000e+00,5.000000000000000000e+00,5.000000000000000000e+00,5.000000000000000000e+00,5.000000000000000000e+00,5.000000000000000000e+00,5.000000000000000000e+00,5.000000000000000000e+00,4.856436252593994141e+00,4.665959835052490234e+00,4.489861011505126953e+00,4.326570987701416016e+00,4.174741744995117188e+00,4.033206939697265625e+00,3.900954723358154297e+00,3.777100086212158203e+00,3.660868406295776367e+00,3.551576614379882812e+00,3.448621034622192383e+00,3.351466655731201172e+00,3.259636402130126953e+00,3.172703981399536133e+00,3.090287685394287109e+00,3.012045145034790039e+00,2.937666893005371094e+00,2.866873264312744141e+00,2.799411535263061523e+00,2.735051631927490234e+00,2.673584699630737305e+00,2.614819765090942383e+00,1.399268746376037598e+00,1.354946494102478027e+00,1.335181951522827148e+00,1.316448330879211426e+00,1.297744274139404297e+00,1.284825086593627930e+00,1.278147816658020020e+00,1.278764605522155762e+00,2.182985067367553711e+00,2.143649339675903320e+00,2.105706214904785156e+00,2.069082736968994141e+00,9.891042113304138184e-01,9.646278619766235352e-01,9.527407288551330566e-01,9.438718557357788086e-01,9.351666569709777832e-01,9.266942143440246582e-01,9.230560064315795898e-01
5.000000000000000000e+00,5.000000000000000000e+00,5.000000000000000000e+00,5.000000000000000000e+00,5.000000000000000000e+00,5.000000000000000000e+00,5.000000000000000000e+00,5.000000000000000000e+00,5.000000000000000000e+00,5.000000000000000000e+00,5.000000000000000000e+00,5.000000000000000000e+00,5.000000000000000000e+00,5.000000000000000000e+00,5.000000000000000000e+00,5.000000000000000000e+00,5.000000000000000000e+00,5.000000000000000000e+00,5.000000000000000000e+00,5.000000000000000000e+00,5.000000000000000000e+00,5.000000000000000000e+00,5.000000000000000000e+00,5.000000000000000000e+00,5.000000000000000000e+00,5.000000000000000000e+00,5.000000000000000000e+00,5.000000000000000000e+00,5.000000000000000000e+00,5.000000000000000000e+00,5.000000000000000000e+00,5.000000000000000000e+00,5.000000000000000000e+00,5.000000000000000000e+00,5.000000000000000000e+00,5.000000000000000000e+00,5.000000000000000000e+00,5.000000000000000000e+00,5.000000000000000000e+00,4.856575965881347656e+00,4.666088581085205078e+00,4.489980697631835938e+00,4.326682090759277344e+00,4.174844741821289062e+00,4.033303260803222656e+00,3.901044845581054688e+00,3.777184724807739258e+00,3.660947799682617188e+00,3.551651000976562500e+00,3.448691368103027344e+00,3.351532936096191406e+00,3.259699106216430664e+00,3.172763109207153320e+00,3.090344190597534180e+00,3.012098789215087891e+00,2.937717914581298828e+00,2.866921901702880859e+00,2.799458026885986328e+00,2.735095977783203125e+00,2.673626899719238281e+00,2.614860057830810547e+00,1.388397574424743652e+00,1.360073089599609375e+00,1.340665698051452637e+00,1.321556568145751953e+00,1.312775850296020508e+00,1.304111242294311523e+00,1.301369190216064453e+00,2.223820686340332031e+00,2.183013200759887695e+00,2.143676519393920898e+00,2.105732202529907227e+00,2.069108009338378906e+00,9.924527406692504883e-01,9.680697917938232422e-01,9.535129666328430176e-01,9.446299076080322266e-01,9.359107613563537598e-01,9.274728894233703613e-01,9.216632246971130371e-01
5.000000000000000000e+00,5.000000000000000000e+00,5.000000000000000000e+00,5.000000000000000000e+00,5.000000000000000000e+00,5.000000000000000000e+00,5.000000000000000000e+00,5.000000000000000000e+00,5.000000000000000000e+00,5.000000000000000000e+00,5.000000000000000000e+00,5.000000000000000000e+00,5.000000000000000000e+00,5.000000000000000000e+00,5.000000000000000000e+00,5.000000000000000000e+00,5.000000000000000000e+00,5.000000000000000000e+00,5.000000000000000000e+00,5.000000000000000000e+00,5.000000000000000000e+00,5.000000000000000000e+00,5.000000000000000000e+00,5.000000000000000000e+00,5.000000000000000000e+00,5.000000000000000000e+00,5.000000000000000000e+00,5.000000000000000000e+00,5.000000000000000000e+00,5.000000000000000000e+00,5.000000000000000000e+00,5.000000000000000000e+00,5.000000000000000000e+00,5.000000000000000000e+00,5.000000000000000000e+00,5.000000000000000000e+00,5.000000000000000000e+00,5.000000000000000000e+00,5.000000000000000000e+00,4.856715202331542969e+00,4.666217327117919922e+00,4.490099906921386719e+00,4.326792716979980469e+00,4.174948215484619141e+00,4.033399581909179688e+00,3.901134729385375977e+00,3.777268886566162109e+00,3.661026954650878906e+00,3.551725864410400391e+00,3.448761940002441406e+00,3.351599454879760742e+00,3.259761810302734375e+00,3.172822952270507812e+00,3.090400934219360352e+00,3.012152433395385742e+00,2.937768936157226562e+00,2.866970539093017578e+00,2.799504280090332031e+00,2.735140085220336914e+00,2.673669338226318359e+00,1.429332494735717773e+00,1.381411314010620117e+00,1.362096071243286133e+00,1.343527793884277344e+00,1.338686347007751465e+00,1.332916975021362305e+00,1.324787378311157227e+00,2.266212940216064453e+00,2.223849773406982422e+00,2.183041334152221680e+00,2.143703699111938477e+00,2.105758666992187500e+00,2.069133281707763672e+00,9.962129592895507812e-01,9.719042181968688965e-01,9.542865753173828125e-01,9.453890919685363770e-01,9.366559386253356934e-01,9.282528162002563477e-01,9.212929010391235352e-01
5.000000000000000000e+00,5.000000000000000000e+00,5.000000000000000000e+00,5.000000000000000000e+00,5.000000000000000000e+00,5.000000000000000000e+00,5.000000000000000000e+00,5.000000000000000000e+00,5.000000000000000000e+00,5.000000000000000000e+00,5.000000000000000000e+00,5.000000000000000000e+00,5.000000000000000000e+00,5.000000000000000000e+00,5.000000000000000000e+00,5.000000000000000000e+00,5.000000000000000000e+00,5.000000000000000000e+00,5.000000000000000000e+00,5.000000000000000000e+00,5.000000000000000000e+00,5.000000000000000000e+00,5.000000000000000000e+00,5.000000000000000000e+00,5.000000000000000000e+00,5.000000000000000000e+00,5.000000000000000000e+00,5.000000000000000000e+00,5.000000000000000000e+00,5.000000000000000000e+00,5.000000000000000000e+00,5.000000000000000000e+00,5.000000000000000000e+00,5.000000000000000000e+00,5.000000000000000000e+00,5.000000000000000000e+00,5.000000000000000000e+00,5.000000000000000000e+00,5.000000000000000000e+00,4.856853961944580078e+00,4.666346549987792969e+00,4.490219116210937500e+00,4.326903820037841797e+00,4.175051212310791016e+00,4.033495903015136719e+00,3.901225090026855469e+00,3.777353525161743164e+00,3.661106348037719727e+00,3.551800727844238281e+00,3.448832273483276367e+00,3.351665496826171875e+00,3.259824514389038086e+00,3.172882318496704102e+00,3.090457201004028320e+00,3.012206315994262695e+00,2.937820196151733398e+00,2.867019176483154297e+00,2.799550771713256836e+00,2.735184431076049805e+00,2.673711776733398438e+00,1.418342113494873047e+00,1.383498311042785645e+00,1.364342808723449707e+00,1.352527618408203125e+00,1.349029898643493652e+00,1.345030188560485840e+00,2.310253143310546875e+00,2.266243457794189453e+00,2.223879098892211914e+00,2.183069705963134766e+00,2.143730878829956055e+00,2.105784654617309570e+00,2.069158554077148438e+00,9.988464713096618652e-01,9.757691621780395508e-01,9.550613760948181152e-01,9.461495876312255859e-01,9.374024271965026855e-01,9.290341138839721680e-01,9.210602641105651855e-01
5.000000000000000000e+00,5.000000000000000000e+00,5.000000000000000000e+00,5.000000000000000000e+00,5.000000000000000000e+00,5.000000000000000000e+00,5.000000000000000000e+00,5.000000000000000000e+00,5.000000000000000000e+00,5.000000000000000000e+00,5.000000000000000000e+00,5.000000000000000000e+00,5.000000000000000000e+00,5.000000000000000000e+00,5.000000000000000000e+00,5.000000000000000000e+00,5.000000000000000000e+00,5.000000000000000000e+00,5.000000000000000000e+00,5.000000000000000000e+00,5.000000000000000000e+00,5.000000000000000000e+00,5.000000000000000000e+00,5.000000000000000000e+00,5.000000000000000000e+00,5.000000000000000000e+00,5.000000000000000000e+00,5.000000000000000000e+00,5.000000000000000000e+00,5.000000000000000000e+00,5.000000000000000000e+00,5.000000000000000000e+00,5.000000000000000000e+00,5.000000000000000000e+00,5.000000000000000000e+00,5.000000000000000000e+00,5.000000000000000000e+00,5.000000000000000000e+00,5.000000000000000000e+00,4.856992244720458984e+00,4.666475296020507812e+00,4.490338325500488281e+00,4.327014446258544922e+00,4.175154209136962891e+00,4.033592224121093750e+00,3.901314735412597656e+00,3.777437686920166016e+00,3.661185503005981445e+00,3.551875114440917969e+00,3.448902368545532227e+00,3.351732254028320312e+00,3.259887456893920898e+00,3.172941923141479492e+00,3.090513944625854492e+00,3.012259960174560547e+00,2.937871217727661133e+00,2.867067813873291016e+00,2.799597024917602539e+00,2.735228776931762695e+00,1.461142182350158691e+00,1.407536506652832031e+00,1.385812997817993164e+00,1.367416262626647949e+00,1.363150119781494141e+00,1.359534740447998047e+00,2.356039047241210938e+00,2.310284614562988281e+00,2.266273736953735352e+00,2.223908424377441406e+00,2.183097839355468750e+00,2.143758058547973633e+00,2.105811119079589844e+00,2.069183826446533203e+00,1.001493930816650391e+00,9.796649217605590820e-01,9.558987617492675781e-01,9.469111561775207520e-01,9.381911754608154297e-01,9.298167824745178223e-01,9.215903878211975098e-01
5.000000000000000000e+00,5.000000000000000000e+00,5.000000000000000000e+00,5.000000000000000000e+00,5.000000000000000000e+00,5.000000000000000000e+00,5.000000000000000000e+00,5.000000000000000000e+00,5.000000000000000000e+00,5.000000000000000000e+00,5.000000000000000000e+00,5.000000000000000000e+00,5.000000000000000000e+00,5.000000000000000000e+00,5.000000000000000000e+00,5.000000000000000000e+00,5.000000000000000000e+00,5.000000000000000000e+00,5.000000000000000000e+00,5.000000000000000000e+00,5.000000000000000000e+00,5.000000000000000000e+00,5.000000000000000000e+00,5.000000000000000000e+00,5.000000000000000000e+00,5.000000000000000000e+00,5.000000000000000000e+00,5.000000000000000000e+00,5.000000000000000000e+00,5.000000000000000000e+00,5.000000000000000000e+00,5.000000000000000000e+00,5.000000000000000000e+00,5.000000000000000000e+00,5.000000000000000000e+00,5.000000000000000000e+00,5.000000000000000000e+00,5.000000000000000000e+00,5.000000000000000000e+00,4.857130527496337891e+00,4.666602611541748047e+00,4.490457534790039062e+00,4.327125072479248047e+00,4.175257682800292969e+00,4.033688545227050781e+00,3.901405096054077148e+00,3.777522325515747070e+00,3.661264896392822266e+00,3.551949739456176758e+00,3.448972940444946289e+00,3.351798772811889648e+00,3.259950160980224609e+00,3.173001289367675781e+00,3.090570211410522461e+00,3.012313604354858398e+00,2.937922239303588867e+00,2.867116451263427734e+00,2.799643516540527344e+00,2.735273122787475586e+00,1.449761152267456055e+00,1.407969832420349121e+00,1.388984203338623047e+00,1.376485824584960938e+00,1.373940944671630859e+00,1.370204329490661621e+00,2.356071710586547852e+00,2.310316324234008789e+00,2.266304254531860352e+00,2.223937749862670898e+00,2.183125972747802734e+00,2.143785238265991211e+00,2.105837345123291016e+00,2.069209098815917969e+00,2.033833742141723633e+00,9.822844266891479492e-01,9.596372842788696289e-01,9.476740360260009766e-01,9.389892816543579102e-01,9.306005835533142090e-01,9.223605394363403320e-01
5.000000000000000000e+00,5.000000000000000000e+00,5.000000000000000000e+00,5.000000000000000000e+00,5.000000000000000000e+00,5.000000000000000000e+00,5.000000000000000000e+00,5.000000000000000000e+00,5.000000000000000000e+00,5.000000000000000000e+00,5.000000000000000000e+00,5.000000000000000000e+00,5.000000000000000000e+00,5.000000000000000000e+00,5.000000000000000000e+00,5.000000000000000000e+00,5.000000000000000000e+00,5.000000000000000000e+00,5.000000000000000000e+00,5.000000000000000000e+00,5.000000000000000000e+00,5.000000000000000000e+00,5.000000000000000000e+00,5.000000000000000000e+00,5.000000000000000000e+00,5.000000000000000000e+00,5.000000000000000000e+00,5.000000000000000000e+00,5.000000000000000000e+00,5.000000000000000000e+00,5.000000000000000000e+00,5.000000000000000000e+00,5.000000000000000000e+00,5.000000000000000000e+00,5.000000000000000000e+00,5.000000000000000000e+00,5.000000000000000000e+00,5.000000000000000000e+00,5.000000000000000000e+00,4.857268810272216797e+00,4.666729927062988281e+00,4.490575790405273438e+00,4.327235698699951172e+00,4.175360679626464844e+00,4.033784866333007812e+00,3.901495456695556641e+00,3.777606487274169922e+00,3.661343812942504883e+00,3.552024126052856445e+00,3.449043035507202148e+00,3.351865053176879883e+00,3.260013341903686523e+00,3.173061132431030273e+00,3.090626955032348633e+00,3.012367486953735352e+00,2.937973499298095703e+00,2.867165327072143555e+00,2.799689769744873047e+00,2.735317230224609375e+00,1.439162731170654297e+00,1.411948800086975098e+00,1.392169713973999023e+00,1.387489557266235352e+00,1.384903907775878906e+00,2.403710365295410156e+00,2.356104612350463867e+00,2.310348033905029297e+00,2.266334533691406250e+00,2.223966836929321289e+00,2.183154106140136719e+00,2.143812417984008789e+00,2.105863571166992188e+00,2.069234609603881836e+00,2.033858299255371094e+00,9.848446846008300781e-01,9.634048938751220703e-01,9.484381079673767090e-01,9.397888183593750000e-01,9.313858747482299805e-01,9.231319427490234375e-01
5.000000000000000000e+00,5.000000000000000000e+00,5.000000000000000000e+00,5.000000000000000000e+00,5.000000000000000000e+00,5.000000000000000000e+00,5.000000000000000000e+00,5.000000000000000000e+00,5.000000000000000000e+00,5.000000000000000000e+00,5.000000000000000000e+00,5.000000000000000000e+00,5.000000000000000000e+00,5.000000000000000000e+00,5.000000000000000000e+00,5.000000000000000000e+00,5.000000000000000000e+00,5.000000000000000000e+00,5.000000000000000000e+00,5.000000000000000000e+00,5.000000000000000000e+00,5.000000000000000000e+00,5.000000000000000000e+00,5.000000000000000000e+00,5.000000000000000000e+00,5.000000000000000000e+00,5.000000000000000000e+00,5.000000000000000000e+00,5.000000000000000000e+00,5.000000000000000000e+00,5.000000000000000000e+00,5.000000000000000000e+00,5.000000000000000000e+00,5.000000000000000000e+00,5.000000000000000000e+00,5.000000000000000000e+00,5.000000000000000000e+00,5.000000000000000000e+00,5.000000000000000000e+00,4.857407093048095703e+00,4.666857719421386719e+00,4.490694046020507812e+00,4.327345848083496094e+00,4.175463676452636719e+00,4.033881187438964844e+00,3.901585102081298828e+00,3.777690887451171875e+00,3.661423444747924805e+00,3.552098989486694336e+00,3.449113607406616211e+00,3.351931810379028320e+00,3.260076284408569336e+00,3.173120498657226562e+00,3.090683221817016602e+00,3.012420892715454102e+00,2.938024282455444336e+00,2.867213726043701172e+00,2.799736261367797852e+00,1.485789656639099121e+00,1.437774300575256348e+00,1.416862487792968750e+00,1.401860117912292480e+00,1.398859024047851562e+00,1.396043181419372559e+00,2.403744459152221680e+00,2.356137514114379883e+00,2.310379505157470703e+00,2.266364812850952148e+00,2.223996162414550781e+00,2.183182477951049805e+00,2.143839597702026367e+00,2.105889797210693359e+00,2.069259881973266602e+00,2.033882856369018555e+00,9.874182939529418945e-01,9.662625789642333984e-01,9.492034912109375000e-01,9.405896663665771484e-01,9.321724772453308105e-01,9.239045381546020508e-01
5.000000000000000000e+00,5.000000000000000000e+00,5.000000000000000000e+00,5.000000000000000000e+00,5.000000000000000000e+00,5.000000000000000000e+00,5.000000000000000000e+00,5.000000000000000000e+00,5.000000000000000000e+00,5.000000000000000000e+00,5.000000000000000000e+00,5.000000000000000000e+00,5.000000000000000000e+00,5.000000000000000000e+00,5.000000000000000000e+00,5.000000000000000000e+00,5.000000000000000000e+00,5.000000000000000000e+00,5.000000000000000000e+00,5.000000000000000000e+00,5.000000000000000000e+00,5.000000000000000000e+00,5.000000000000000000e+00,5.000000000000000000e+00,5.000000000000000000e+00,5.000000000000000000e+00,5.000000000000000000e+00,5.000000000000000000e+00,5.000000000000000000e+00,5.000000000000000000e+00,5.000000000000000000e+00,5.000000000000000000e+00,5.000000000000000000e+00,5.000000000000000000e+00,5.000000000000000000e+00,5.000000000000000000e+00,5.000000000000000000e+00,5.000000000000000000e+00,5.000000000000000000e+00,4.857545375823974609e+00,4.666985511779785156e+00,4.490812301635742188e+00,4.327455997467041016e+00,4.175567150115966797e+00,4.033977031707763672e+00,3.901675224304199219e+00,3.777775526046752930e+00,3.661502838134765625e+00,3.552173376083374023e+00,3.449183940887451172e+00,3.351998090744018555e+00,3.260138988494873047e+00,3.173180341720581055e+00,3.090739965438842773e+00,3.012474775314331055e+00,2.938075542449951172e+00,2.867262601852416992e+00,2.799782752990722656e+00,1.473428010940551758e+00,1.442869782447814941e+00,1.421593189239501953e+00,1.414025664329528809e+00,1.410972356796264648e+00,2.453350782394409180e+00,2.403778791427612305e+00,2.356170415878295898e+00,2.310411214828491211e+00,2.266395330429077148e+00,2.224025487899780273e+00,2.183210611343383789e+00,2.143866777420043945e+00,2.105916023254394531e+00,2.069285154342651367e+00,2.033907413482666016e+00,9.900282621383666992e-01,9.687398672103881836e-01,9.499771595001220703e-01,9.413918852806091309e-01,9.330655336380004883e-01,9.248888492584228516e-01
4.874781131744384766e+00,4.873569965362548828e+00,4.872359752655029297e+00,4.871150016784667969e+00,4.869941234588623047e+00,4.868732452392578125e+00,4.867524623870849609e+00,4.866317272186279297e+00,4.865110397338867188e+00,4.863904476165771484e+00,4.862699031829833984e+00,4.861494064331054688e+00,4.860289573669433594e+00,4.859086036682128906e+00,4.857882499694824219e+00,4.856680393218994141e+00,4.855478286743164062e+00,4.854277133941650391e+00,4.853075981140136719e+00,4.851876258850097656e+00,4.850676536560058594e+00,4.849477767944335938e+00,4.848278999328613281e+00,4.847081661224365234e+00,4.845884323120117188e+00,4.844687461853027344e+00,4.843491554260253906e+00,4.842296123504638672e+00,4.841101169586181641e+00,4.839906692504882812e+00,4.838713169097900391e+00,4.837520122528076172e+00,4.836327552795410156e+00,4.835135936737060547e+00,4.833944797515869141e+00,4.832753658294677734e+00,4.831563472747802734e+00,4.830373764038085938e+00,4.829185009002685547e+00,4.827996730804443359e+00,4.667112827301025391e+00,4.490930557250976562e+00,4.327565670013427734e+00,4.175668716430664062e+00,4.034073352813720703e+00,3.901765108108520508e+00,3.777859926223754883e+00,3.661581993103027344e+00,3.552248239517211914e+00,3.449254512786865234e+00,3.352064609527587891e+00,3.260201930999755859e+00,3.173239946365356445e+00,3.090796470642089844e+00,3.012528419494628906e+00,2.938126564025878906e+00,2.867311000823974609e+00,1.529574394226074219e+00,1.469849586486816406e+00,1.447791695594787598e+00,1.430618047714233398e+00,1.426403999328613281e+00,2.505047559738159180e+00,2.453386306762695312e+00,2.403812885284423828e+00,2.356203079223632812e+00,2.310442686080932617e+00,2.266425609588623047e+00,2.224054574966430664e+00,2.183238744735717773e+00,2.143893957138061523e+00,2.105942249298095703e+00,2.069310665130615234e+00,2.033931970596313477e+00,9.937994480133056641e-01,9.724555015563964844e-01,9.516822099685668945e-01,9.425847530364990234e-01,9.342411756515502930e-01,9.260441660881042480e-01
3.777575016021728516e+00,3.776847600936889648e+00,3.776120662689208984e+00,3.775394201278686523e+00,3.774667978286743164e+00,3.773941516876220703e+00,3.773215770721435547e+00,3.772490501403808594e+00,3.771765232086181641e+00,3.771039962768554688e+00,3.770315408706665039e+00,3.769591093063354492e+00,3.768866777420043945e+00,3.768142938613891602e+00,3.767419576644897461e+00,3.766696453094482422e+00,3.765973091125488281e+00,3.765250444412231445e+00,3.764528036117553711e+00,3.763805866241455078e+00,3.763083696365356445e+00,3.762362241744995117e+00,3.761641025543212891e+00,3.760920047760009766e+00,3.760198831558227539e+00,3.759478569030761719e+00,3.758758306503295898e+00,3.758038043975830078e+00,3.757318496704101562e+00,3.756599187850952148e+00,3.755880117416381836e+00,3.755160808563232422e+00,3.754442453384399414e+00,3.753724098205566406e+00,3.753006219863891602e+00,3.752288103103637695e+00,3.751570701599121094e+00,3.750853776931762695e+00,3.750136375427246094e+00,3.749419689178466797e+00,3.748703479766845703e+00,3.747987508773803711e+00,3.747271299362182617e+00,3.746555805206298828e+00,3.745840549468994141e+00,3.745125770568847656e+00,3.744410753250122070e+00,3.661661386489868164e+00,3.552323102951049805e+00,3.449324607849121094e+00,3.352131128311157227e+00,3.260264873504638672e+00,3.173299312591552734e+00,3.090852975845336914e+00,3.012582063674926758e+00,2.938177585601806641e+00,2.867359876632690430e+00,1.535416483879089355e+00,1.474974036216735840e+00,1.452631354331970215e+00,1.442177176475524902e+00,1.463032484054565430e+00,2.505084753036499023e+00,2.453421831130981445e+00,2.403846979141235352e+00,2.356235980987548828e+00,2.310474157333374023e+00,2.266456127166748047e+00,2.224083900451660156e+00,2.183267116546630859e+00,2.143921136856079102e+00,2.105968475341796875e+00,2.069335937500000000e+00,2.033956289291381836e+00,1.999765992164611816e+00,9.764374494552612305e-01,9.554955959320068359e-01,9.437845945358276367e-01,9.354199171066284180e-01,9.272022247314453125e-01
3.083538293838500977e+00,3.083053588867187500e+00,3.082569360733032227e+00,3.082085132598876953e+00,3.081601142883300781e+00,3.081116914749145508e+00,3.080633163452148438e+00,3.080149650573730469e+00,3.079666137695312500e+00,3.079182624816894531e+00,3.078699588775634766e+00,3.078216552734375000e+00,3.077733516693115234e+00,3.077250957489013672e+00,3.076768398284912109e+00,3.076286077499389648e+00,3.075803518295288086e+00,3.075321435928344727e+00,3.074839591979980469e+00,3.074357748031616211e+00,3.073875904083251953e+00,3.073394298553466797e+00,3.072913169860839844e+00,3.072432041168212891e+00,3.071950674057006836e+00,3.071469783782958984e+00,3.070989131927490234e+00,3.070508241653442383e+00,3.070027828216552734e+00,3.069547653198242188e+00,3.069067478179931641e+00,3.068587303161621094e+00,3.068107604980468750e+00,3.067627906799316406e+00,3.067148447036743164e+00,3.066668748855590820e+00,3.066189527511596680e+00,3.065710544586181641e+00,3.065231561660766602e+00,3.064752817153930664e+00,3.064274072647094727e+00,3.063795566558837891e+00,3.063317060470581055e+00,3.062839031219482422e+00,3.062361001968383789e+00,3.061883211135864258e+00,3.061405181884765625e+00,3.060927629470825195e+00,3.060450077056884766e+00,3.059973001480102539e+00,3.059495449066162109e+00,3.059018611907958984e+00,3.058541774749755859e+00,3.058064699172973633e+00,3.012635946273803711e+00,2.938228607177734375e+00,2.867408275604248047e+00,1.511859536170959473e+00,1.488793253898620605e+00,1.461702227592468262e+00,1.463170170783996582e+00,2.559008836746215820e+00,2.505121946334838867e+00,2.453457593917846680e+00,2.403881311416625977e+00,2.356268882751464844e+00,2.310505867004394531e+00,2.266486406326293945e+00,2.224113225936889648e+00,2.183295249938964844e+00,2.143948316574096680e+00,2.105994701385498047e+00,2.069361209869384766e+00,2.033980846405029297e+00,1.999789834022521973e+00,9.801700115203857422e-01,9.593397378921508789e-01,9.449875354766845703e-01,9.366015791893005371e-01,9.283632636070251465e-01
2.604943752288818359e+00,2.604597806930541992e+00,2.604252099990844727e+00,2.603906631469726562e+00,2.603561162948608398e+00,2.603215456008911133e+00,2.602870225906372070e+00,2.602524995803833008e+00,2.602179765701293945e+00,2.601834535598754883e+00,2.601489543914794922e+00,2.601144790649414062e+00,2.600799798965454102e+00,2.600455045700073242e+00,2.600110530853271484e+00,2.599766016006469727e+00,2.599421501159667969e+00,2.599077224731445312e+00,2.598732948303222656e+00,2.598388910293579102e+00,2.598044633865356445e+00,2.597700595855712891e+00,2.597356796264648438e+00,2.597012996673583984e+00,2.596669197082519531e+00,2.596325635910034180e+00,2.595982074737548828e+00,2.595638513565063477e+00,2.595295190811157227e+00,2.594952106475830078e+00,2.594608783721923828e+00,2.594265699386596680e+00,2.593922615051269531e+00,2.593579769134521484e+00,2.593237161636352539e+00,2.592894315719604492e+00,2.592551708221435547e+00,2.592209100723266602e+00,2.591866493225097656e+00,2.591524362564086914e+00,2.591181993484497070e+00,2.590839862823486328e+00,2.590497732162475586e+00,2.590155839920043945e+00,2.589813947677612305e+00,2.589472055435180664e+00,2.589130163192749023e+00,2.588788747787475586e+00,2.588447093963623047e+00,2.588105678558349609e+00,2.587764263153076172e+00,2.587423086166381836e+00,2.587081909179687500e+00,2.586740732192993164e+00,2.586399793624877930e+00,2.586058855056762695e+00,1.550883173942565918e+00,1.504112362861633301e+00,1.488864660263061523e+00,1.493113875389099121e+00,2.584355831146240234e+00,2.559047460556030273e+00,2.505158901214599609e+00,2.453493118286132812e+00,2.403915405273437500e+00,2.356301784515380859e+00,2.310537338256835938e+00,2.266516923904418945e+00,2.224142551422119141e+00,2.183323621749877930e+00,2.143975734710693359e+00,2.106021165847778320e+00,2.069386482238769531e+00,2.034005165100097656e+00,1.999813437461853027e+00,9.832937121391296387e-01,9.632147550582885742e-01,9.461934566497802734e-01,9.377863407135009766e-01,9.295791387557983398e-01
2.254998683929443359e+00,2.254737615585327148e+00,2.254476547241210938e+00,2.254215717315673828e+00,2.253954648971557617e+00,2.253693819046020508e+00,2.253432989120483398e+00,2.253172159194946289e+00,2.252911567687988281e+00,2.252650976181030273e+00,2.252390384674072266e+00,2.252130031585693359e+00,2.251869440078735352e+00,2.251609086990356445e+00,2.251348972320556641e+00,2.251088619232177734e+00,2.250828266143798828e+00,2.250568151473999023e+00,2.250308275222778320e+00,2.250048160552978516e+00,2.249788284301757812e+00,2.249528408050537109e+00,2.249268531799316406e+00,2.249008655548095703e+00,2.248750448226928711e+00,2.248492717742919922e+00,2.248235225677490234e+00,2.247977495193481445e+00,2.247720003128051758e+00,2.247462511062622070e+00,2.247205018997192383e+00,2.246947526931762695e+00,2.246690273284912109e+00,2.246433258056640625e+00,2.246176004409790039e+00,2.245918750762939453e+00,2.245661735534667969e+00,2.245404720306396484e+00,2.245147705078125000e+00,2.244890928268432617e+00,2.244633913040161133e+00,2.244377374649047852e+00,2.244120359420776367e+00,2.243863821029663086e+00,2.243607282638549805e+00,2.243350744247436523e+00,2.243094205856323242e+00,2.242837905883789062e+00,2.242581367492675781e+00,2.242325305938720703e+00,2.242068767547607422e+00,2.241812705993652344e+00,2.241556644439697266e+00,2.241300344467163086e+00,2.241044521331787109e+00,2.240788459777832031e+00,1.542894959449768066e+00,1.501172542572021484e+00,1.472698330879211426e+00,1.466922760009765625e+00,2.239509582519531250e+00,2.239253997802734375e+00,2.238998413085937500e+00,2.238743066787719727e+00,2.238487482070922852e+00,2.238232135772705078e+00,2.237976789474487305e+00,2.237721681594848633e+00,2.224171638488769531e+00,2.183351755142211914e+00,2.144002914428710938e+00,2.106047153472900391e+00,2.069411993026733398e+00,2.034029722213745117e+00,1.999837040901184082e+00,9.867853522300720215e-01,9.669093489646911621e-01,9.474025964736938477e-01,9.389739632606506348e-01,9.308000802993774414e-01
1.988026261329650879e+00,1.987823367118835449e+00,1.987620472908020020e+00,1.987417697906494141e+00,1.987214803695678711e+00,1.987011909484863281e+00,1.986809253692626953e+00,1.986606478691101074e+00,1.986404061317443848e+00,1.986201286315917969e+00,1.985998868942260742e+00,1.985796213150024414e+00,1.985593676567077637e+00,1.985391378402709961e+00,1.985188841819763184e+00,1.984986662864685059e+00,1.984784245491027832e+00,1.984582066535949707e+00,1.984379649162292480e+00,1.984177589416503906e+00,1.983975410461425781e+00,1.983773231506347656e+00,1.983571290969848633e+00,1.983369112014770508e+00,1.983167290687561035e+00,1.982965230941772461e+00,1.982763409614562988e+00,1.982561469078063965e+00,1.982359528541564941e+00,1.982157826423645020e+00,1.981956005096435547e+00,1.981754422187805176e+00,1.981552720069885254e+00,1.981351256370544434e+00,1.981149554252624512e+00,1.980948090553283691e+00,1.980746507644653320e+00,1.980544924736022949e+00,1.980343699455261230e+00,1.980142235755920410e+00,1.979941010475158691e+00,1.979739665985107422e+00,1.979538440704345703e+00,1.979337215423583984e+00,1.979135870933532715e+00,1.978934884071350098e+00,1.978733658790588379e+00,1.978532791137695312e+00,1.978331685066223145e+00,1.978130817413330078e+00,1.977929830551147461e+00,1.977728843688964844e+00,1.977528095245361328e+00,1.977327227592468262e+00,1.977126598358154297e+00,1.976925730705261230e+00,1.976725220680236816e+00,1.506525635719299316e+00,1.458965659141540527e+00,1.445696949958801270e+00,1.975922703742980957e+00,1.975722312927246094e+00,1.975521802902221680e+00,1.975321531295776367e+00,1.975121140480041504e+00,1.974920868873596191e+00,1.974720478057861328e+00,1.974520206451416016e+00,1.974320173263549805e+00,1.974119901657104492e+00,1.973919868469238281e+00,1.973719716072082520e+00,1.973519802093505859e+00,1.973319768905639648e+00,1.973119854927062988e+00,9.975806474685668945e-01,9.699489474296569824e-01,9.503453969955444336e-01,9.401646852493286133e-01,9.320241212844848633e-01
1.777576565742492676e+00,1.777414321899414062e+00,1.777251958847045898e+00,1.777089953422546387e+00,1.776927709579467773e+00,1.776765584945678711e+00,1.776603460311889648e+00,1.776441454887390137e+00,1.776279330253601074e+00,1.776117324829101562e+00,1.775955438613891602e+00,1.775793313980102539e+00,1.775631546974182129e+00,1.775469541549682617e+00,1.775307774543762207e+00,1.775145888328552246e+00,1.774984240531921387e+00,1.774822354316711426e+00,1.774660468101501465e+00,1.774498939514160156e+00,1.774337172508239746e+00,1.774175524711608887e+00,1.774013876914978027e+00,1.773852348327636719e+00,1.773690700531005859e+00,1.773529052734375000e+00,1.773367643356323242e+00,1.773206114768981934e+00,1.773044705390930176e+00,1.772883296012878418e+00,1.772722005844116211e+00,1.772560477256774902e+00,1.772399306297302246e+00,1.772237896919250488e+00,1.772076487541198730e+00,1.771915435791015625e+00,1.771754026412963867e+00,1.771592974662780762e+00,1.771431803703308105e+00,1.771270751953125000e+00,1.771109580993652344e+00,1.770948410034179688e+00,1.770787477493286133e+00,1.770626306533813477e+00,1.770465493202209473e+00,1.770304441452026367e+00,1.770143628120422363e+00,1.769982576370239258e+00,1.769821643829345703e+00,1.769660949707031250e+00,1.769500017166137695e+00,1.769339323043823242e+00,1.769178509712219238e+00,1.769017934799194336e+00,1.768857121467590332e+00,1.768696546554565430e+00,1.768535852432250977e+00,1.768375158309936523e+00,1.444847226142883301e+00,1.424004793167114258e+00,1.434499382972717285e+00,1.767733097076416016e+00,1.767572760581970215e+00,1.767412304878234863e+00,1.767251729965209961e+00,1.767091512680053711e+00,1.766931056976318359e+00,1.766770839691162109e+00,1.766610503196716309e+00,1.766450405120849609e+00,1.766290068626403809e+00,1.766129970550537109e+00,1.765969753265380859e+00,1.765809535980224609e+00,1.765649437904357910e+00,1.765489339828491211e+00,9.730077385902404785e-01,9.540027976036071777e-01,9.413774013519287109e-01,9.332513809204101562e-01
1.607417464256286621e+00,1.607284784317016602e+00,1.607152223587036133e+00,1.607019543647766113e+00,1.606886982917785645e+00,1.606754302978515625e+00,1.606621742248535156e+00,1.606489300727844238e+00,1.606356620788574219e+00,1.606224298477172852e+00,1.606091737747192383e+00,1.605959296226501465e+00,1.605826854705810547e+00,1.605694532394409180e+00,1.605562090873718262e+00,1.605429649353027344e+00,1.605297327041625977e+00,1.605165004730224609e+00,1.605032682418823242e+00,1.604900360107421875e+00,1.604768276214599609e+00,1.604635953903198242e+00,1.604503631591796875e+00,1.604371547698974609e+00,1.604239225387573242e+00,1.604107260704040527e+00,1.603975057601928711e+00,1.603842973709106445e+00,1.603710889816284180e+00,1.603578925132751465e+00,1.603446722030639648e+00,1.603314638137817383e+00,1.603182792663574219e+00,1.603050708770751953e+00,1.602918863296508789e+00,1.602786898612976074e+00,1.602655053138732910e+00,1.602523088455200195e+00,1.602391123771667480e+00,1.602259397506713867e+00,1.602127432823181152e+00,1.601995825767517090e+00,1.601863980293273926e+00,1.601732254028320312e+00,1.601600408554077148e+00,1.601468801498413086e+00,1.601337075233459473e+00,1.601205348968505859e+00,1.601073741912841797e+00,1.600942015647888184e+00,1.600810527801513672e+00,1.600678920745849609e+00,1.600547432899475098e+00,1.600415825843811035e+00,1.600284218788146973e+00,1.600152850151062012e+00,1.600021243095397949e+00,1.599889874458312988e+00,1.599758386611938477e+00,1.408897519111633301e+00,1.386078834533691406e+00,1.397932410240173340e+00,1.599232912063598633e+00,1.599101424217224121e+00,1.598970293998718262e+00,1.598838925361633301e+00,1.598707675933837891e+00,1.598576426506042480e+00,1.598445296287536621e+00,1.598314046859741211e+00,1.598182797431945801e+00,1.598051667213439941e+00,1.597920536994934082e+00,1.597789525985717773e+00,1.597658395767211914e+00,1.597527384757995605e+00,1.597396254539489746e+00,9.864757657051086426e-01,9.426294565200805664e-01,9.408600926399230957e-01
1.466989517211914062e+00,1.466879010200500488e+00,1.466768503189086914e+00,1.466657996177673340e+00,1.466547608375549316e+00,1.466437101364135742e+00,1.466326713562011719e+00,1.466216206550598145e+00,1.466105937957763672e+00,1.465995550155639648e+00,1.465885281562805176e+00,1.465774774551391602e+00,1.465664505958557129e+00,1.465554237365722656e+00,1.465443849563598633e+00,1.465333700180053711e+00,1.465223312377929688e+00,1.465113162994384766e+00,1.465002894401550293e+00,1.464892625808715820e+00,1.464782476425170898e+00,1.464672327041625977e+00,1.464562177658081055e+00,1.464452028274536133e+00,1.464341878890991211e+00,1.464231729507446289e+00,1.464121699333190918e+00,1.464011669158935547e+00,1.463901519775390625e+00,1.463791489601135254e+00,1.463681459426879883e+00,1.463571548461914062e+00,1.463461518287658691e+00,1.463351607322692871e+00,1.463241577148437500e+00,1.463131546974182129e+00,1.463021636009216309e+00,1.462911725044250488e+00,1.462801933288574219e+00,1.462692022323608398e+00,1.462582230567932129e+00,1.462472319602966309e+00,1.462362527847290039e+00,1.462252736091613770e+00,1.462142825126647949e+00,1.462033152580261230e+00,1.461923360824584961e+00,1.461813688278198242e+00,1.461703896522521973e+00,1.461594223976135254e+00,1.461484432220458984e+00,1.461374759674072266e+00,1.461265087127685547e+00,1.461155414581298828e+00,1.461045861244201660e+00,1.460936188697814941e+00,1.460826754570007324e+00,1.460717082023620605e+00,1.460607409477233887e+00,1.460497975349426270e+00,1.380515336990356445e+00,1.369722366333007812e+00,1.460169434547424316e+00,1.460060000419616699e+00,1.459950447082519531e+00,1.459841132164001465e+00,1.459731578826904297e+00,1.459622144699096680e+00,1.459512829780578613e+00,1.459403395652770996e+00,1.459294080734252930e+00,1.459184646606445312e+00,1.459075331687927246e+00,1.458966016769409180e+00,1.458856701850891113e+00,1.458747386932373047e+00,1.458638072013854980e+00,9.893125295639038086e-01,9.571398496627807617e-01,9.423664808273315430e-01
1.349126338958740234e+00,1.349032998085021973e+00,1.348939418792724609e+00,1.348846077919006348e+00,1.348752617835998535e+00,1.348659276962280273e+00,1.348565816879272461e+00,1.348472476005554199e+00,1.348379015922546387e+00,1.348285675048828125e+00,1.348192334175109863e+00,1.348098993301391602e+00,1.348005771636962891e+00,1.347912311553955078e+00,1.347819089889526367e+00,1.347725868225097656e+00,1.347632527351379395e+00,1.347539305686950684e+00,1.347445964813232422e+00,1.347352862358093262e+00,1.347259640693664551e+00,1.347166419029235840e+00,1.347073197364807129e+00,1.346980094909667969e+00,1.346886873245239258e+00,1.346793651580810547e+00,1.346700668334960938e+00,1.346607446670532227e+00,1.346514344215393066e+00,1.346421241760253906e+00,1.346328258514404297e+00,1.346235036849975586e+00,1.346141934394836426e+00,1.346048951148986816e+00,1.345955967903137207e+00,1.345862984657287598e+00,1.345769882202148438e+00,1.345676898956298828e+00,1.345583915710449219e+00,1.345491051673889160e+00,1.345397949218750000e+00,1.345304965972900391e+00,1.345212101936340332e+00,1.345119118690490723e+00,1.345026254653930664e+00,1.344933390617370605e+00,1.344840526580810547e+00,1.344747662544250488e+00,1.344654679298400879e+00,1.344561934471130371e+00,1.344469070434570312e+00,1.344376325607299805e+00,1.344283461570739746e+00,1.344190716743469238e+00,1.344097852706909180e+00,1.344005107879638672e+00,1.343912363052368164e+00,1.343819618225097656e+00,1.343726873397827148e+00,1.343634128570556641e+00,1.343541502952575684e+00,1.343448758125305176e+00,1.343356132507324219e+00,1.343263387680053711e+00,1.343170762062072754e+00,1.343078136444091797e+00,1.342985391616821289e+00,1.342892885208129883e+00,1.342800259590148926e+00,1.342707753181457520e+00,1.342615127563476562e+00,1.342522501945495605e+00,1.342429995536804199e+00,1.342337369918823242e+00,1.342244982719421387e+00,1.342152357101440430e+00,1.342059969902038574e+00,9.889963865280151367e-01,9.592151641845703125e-01,9.431904554367065430e-01
1.248793959617614746e+00,1.248713850975036621e+00,1.248633861541748047e+00,1.248553752899169922e+00,1.248473763465881348e+00,1.248393654823303223e+00,1.248313546180725098e+00,1.248233675956726074e+00,1.248153567314147949e+00,1.248073577880859375e+00,1.247993588447570801e+00,1.247913718223571777e+00,1.247833728790283203e+00,1.247753620147705078e+00,1.247673749923706055e+00,1.247593760490417480e+00,1.247513890266418457e+00,1.247434020042419434e+00,1.247354149818420410e+00,1.247274160385131836e+00,1.247194409370422363e+00,1.247114419937133789e+00,1.247034549713134766e+00,1.246954679489135742e+00,1.246874809265136719e+00,1.246795058250427246e+00,1.246715188026428223e+00,1.246635437011718750e+00,1.246555566787719727e+00,1.246475815773010254e+00,1.246396064758300781e+00,1.246316194534301758e+00,1.246236562728881836e+00,1.246156692504882812e+00,1.246077060699462891e+00,1.245997309684753418e+00,1.245917558670043945e+00,1.245837807655334473e+00,1.245758056640625000e+00,1.245678424835205078e+00,1.245598673820495605e+00,1.245519161224365234e+00,1.245439410209655762e+00,1.245359778404235840e+00,1.245280146598815918e+00,1.245200514793395996e+00,1.245120882987976074e+00,1.245041251182556152e+00,1.244961738586425781e+00,1.244882106781005859e+00,1.244802594184875488e+00,1.244722962379455566e+00,1.244643330574035645e+00,1.244563817977905273e+00,1.244484305381774902e+00,1.244404792785644531e+00,1.244325280189514160e+00,1.244245767593383789e+00,1.244166254997253418e+00,1.244086861610412598e+00,1.244007229804992676e+00,1.243927836418151855e+00,1.243848323822021484e+00,1.243768930435180664e+00,1.243689537048339844e+00,1.243610024452209473e+00,1.243530631065368652e+00,1.243451237678527832e+00,1.243371844291687012e+00,1.243292450904846191e+00,1.243213057518005371e+00,1.243133783340454102e+00,1.243054389953613281e+00,1.242974996566772461e+00,1.242895722389221191e+00,1.242816448211669922e+00,1.242737054824829102e+00,9.864180684089660645e-01,9.608184695243835449e-01,9.431020617485046387e-01
1.162351608276367188e+00,1.162282347679138184e+00,1.162212967872619629e+00,1.162143468856811523e+00,1.162074208259582520e+00,1.162004828453063965e+00,1.161935567855834961e+00,1.161866188049316406e+00,1.161796927452087402e+00,1.161727547645568848e+00,1.161658167839050293e+00,1.161589026451110840e+00,1.161519646644592285e+00,1.161450386047363281e+00,1.161381125450134277e+00,1.161311864852905273e+00,1.161242604255676270e+00,1.161173462867736816e+00,1.161104083061218262e+00,1.161034822463989258e+00,1.160965681076049805e+00,1.160896420478820801e+00,1.160827279090881348e+00,1.160758018493652344e+00,1.160688877105712891e+00,1.160619735717773438e+00,1.160550475120544434e+00,1.160481333732604980e+00,1.160412192344665527e+00,1.160343050956726074e+00,1.160273909568786621e+00,1.160204768180847168e+00,1.160135626792907715e+00,1.160066604614257812e+00,1.159997463226318359e+00,1.159928321838378906e+00,1.159859299659729004e+00,1.159790158271789551e+00,1.159721136093139648e+00,1.159651994705200195e+00,1.159582972526550293e+00,1.159513950347900391e+00,1.159444808959960938e+00,1.159375905990600586e+00,1.159306764602661133e+00,1.159237861633300781e+00,1.159168839454650879e+00,1.159099817276000977e+00,1.159030795097351074e+00,1.158961772918701172e+00,1.158892869949340820e+00,1.158823847770690918e+00,1.158754944801330566e+00,1.158685922622680664e+00,1.158617138862609863e+00,1.158548116683959961e+00,1.158479213714599609e+00,1.158410310745239258e+00,1.158341407775878906e+00,1.158272504806518555e+00,1.158203601837158203e+00,1.158134698867797852e+00,1.158065795898437500e+00,1.157997012138366699e+00,1.157928109169006348e+00,1.157859206199645996e+00,1.157790422439575195e+00,1.157721638679504395e+00,1.157652854919433594e+00,1.157583951950073242e+00,1.157515168190002441e+00,1.157446384429931641e+00,1.157377600669860840e+00,1.157308816909790039e+00,1.157239913940429688e+00,1.157171249389648438e+00,1.157102465629577637e+00,9.839067459106445312e-01,9.622438549995422363e-01,9.438165426254272461e-01
1.087101697921752930e+00,1.087041139602661133e+00,1.086980342864990234e+00,1.086919784545898438e+00,1.086859107017517090e+00,1.086798429489135742e+00,1.086737751960754395e+00,1.086677074432373047e+00,1.086616516113281250e+00,1.086555838584899902e+00,1.086495280265808105e+00,1.086434602737426758e+00,1.086374044418334961e+00,1.086313366889953613e+00,1.086252808570861816e+00,1.086192250251770020e+00,1.086131572723388672e+00,1.086071014404296875e+00,1.086010456085205078e+00,1.085949897766113281e+00,1.085889339447021484e+00,1.085828781127929688e+00,1.085768222808837891e+00,1.085707664489746094e+00,1.085647225379943848e+00,1.085586667060852051e+00,1.085526227951049805e+00,1.085465669631958008e+00,1.085405230522155762e+00,1.085344672203063965e+00,1.085284233093261719e+00,1.085223674774169922e+00,1.085163235664367676e+00,1.085102796554565430e+00,1.085042238235473633e+00,1.084981799125671387e+00,1.084921360015869141e+00,1.084860920906066895e+00,1.084800481796264648e+00,1.084740042686462402e+00,1.084679603576660156e+00,1.084619164466857910e+00,1.084558844566345215e+00,1.084498405456542969e+00,1.084438085556030273e+00,1.084377646446228027e+00,1.084317207336425781e+00,1.084256887435913086e+00,1.084196448326110840e+00,1.084136128425598145e+00,1.084075808525085449e+00,1.084015488624572754e+00,1.083955049514770508e+00,1.083894848823547363e+00,1.083834409713745117e+00,1.083774089813232422e+00,1.083713769912719727e+00,1.083653450012207031e+00,1.083593249320983887e+00,1.083532929420471191e+00,1.083472609519958496e+00,1.083412289619445801e+00,1.083352088928222656e+00,1.083291769027709961e+00,1.083231568336486816e+00,1.083171248435974121e+00,1.083111047744750977e+00,1.083050847053527832e+00,1.082990527153015137e+00,1.082930326461791992e+00,1.082870125770568848e+00,1.082809925079345703e+00,1.082749724388122559e+00,1.082689523696899414e+00,1.082629323005676270e+00,1.082569122314453125e+00,1.082508921623229980e+00,9.839186072349548340e-01,9.623408317565917969e-01,9.444054365158081055e-01
1.021002769470214844e+00,1.020949125289916992e+00,1.020895719528198242e+00,1.020842194557189941e+00,1.020788550376892090e+00,1.020735144615173340e+00,1.020681619644165039e+00,1.020628094673156738e+00,1.020574569702148438e+00,1.020521163940429688e+00,1.020467638969421387e+00,1.020414233207702637e+00,1.020360708236694336e+00,1.020307183265686035e+00,1.020253777503967285e+00,1.020200371742248535e+00,1.020146965980529785e+00,1.020093441009521484e+00,1.020040035247802734e+00,1.019986629486083984e+00,1.019933104515075684e+00,1.019879817962646484e+00,1.019826292991638184e+00,1.019773006439208984e+00,1.019719481468200684e+00,1.019666194915771484e+00,1.019612789154052734e+00,1.019559383392333984e+00,1.019505977630615234e+00,1.019452571868896484e+00,1.019399285316467285e+00,1.019345879554748535e+00,1.019292593002319336e+00,1.019239187240600586e+00,1.019185900688171387e+00,1.019132494926452637e+00,1.019079208374023438e+00,1.019025802612304688e+00,1.018972516059875488e+00,1.018919229507446289e+00,1.018865942955017090e+00,1.018812656402587891e+00,1.018759250640869141e+00,1.018706083297729492e+00,1.018652677536010742e+00,1.018599390983581543e+00,1.018546104431152344e+00,1.018492817878723145e+00,1.018439650535583496e+00,1.018386363983154297e+00,1.018333077430725098e+00,1.018279790878295898e+00,1.018226623535156250e+00,1.018173336982727051e+00,1.018120050430297852e+00,1.018066883087158203e+00,1.018013715744018555e+00,1.017960429191589355e+00,1.017907261848449707e+00,1.017853975296020508e+00,1.017800807952880859e+00,1.017747640609741211e+00,1.017694473266601562e+00,1.017641305923461914e+00,1.017588138580322266e+00,1.017534971237182617e+00,1.017481803894042969e+00,1.017428636550903320e+00,1.017375349998474121e+00,1.017322301864624023e+00,1.017269134521484375e+00,1.017215967178344727e+00,1.017162799835205078e+00,1.017109751701354980e+00,1.017056584358215332e+00,1.017003417015075684e+00,1.016950368881225586e+00,1.016897201538085938e+00,9.667780995368957520e-01,9.461525082588195801e-01
9.624810218811035156e-01,9.624333977699279785e-01,9.623858928680419922e-01,9.623383283615112305e-01,9.622907638549804688e-01,9.622431993484497070e-01,9.621956944465637207e-01,9.621481895446777344e-01,9.621006250381469727e-01,9.620530605316162109e-01,9.620054960250854492e-01,9.619580507278442383e-01,9.619105458259582520e-01,9.618629813194274902e-01,9.618154764175415039e-01,9.617680311203002930e-01,9.617205262184143066e-01,9.616729617118835449e-01,9.616254568099975586e-01,9.615779519081115723e-01,9.615305662155151367e-01,9.614830613136291504e-01,9.614355564117431641e-01,9.613881111145019531e-01,9.613407254219055176e-01,9.612932205200195312e-01,9.612457752227783203e-01,9.611982703208923340e-01,9.611508250236511230e-01,9.611034989356994629e-01,9.610559940338134766e-01,9.610085487365722656e-01,9.609611034393310547e-01,9.609136581420898438e-01,9.608663320541381836e-01,9.608188867568969727e-01,9.607715010643005371e-01,9.607240557670593262e-01,9.606767296791076660e-01,9.606293439865112305e-01,9.605818986892700195e-01,9.605345129966735840e-01,9.604871273040771484e-01,9.604398012161254883e-01,9.603924155235290527e-01,9.603450298309326172e-01,9.602976441383361816e-01,9.602503776550292969e-01,9.602029919624328613e-01,9.601556658744812012e-01,9.601082801818847656e-01,9.600609540939331055e-01,9.600136876106262207e-01,9.599663615226745605e-01,9.599189758300781250e-01,9.598716497421264648e-01,9.598243236541748047e-01,9.597770571708679199e-01,9.597297310829162598e-01,9.596824645996093750e-01,9.596351385116577148e-01,9.595879316329956055e-01,9.595406055450439453e-01,9.594932794570922852e-01,9.594460129737854004e-01,9.593986868858337402e-01,9.593515396118164062e-01,9.593042135238647461e-01,9.592569470405578613e-01,9.592096805572509766e-01,9.591625332832336426e-01,9.591152667999267578e-01,9.590680003166198730e-01,9.590207338333129883e-01,9.589734673500061035e-01,9.589263200759887695e-01,9.588791131973266602e-01,9.588318467140197754e-01,9.587846398353576660e-01,9.587374925613403320e-01
9.103043079376220703e-01,9.102617502212524414e-01,9.102191925048828125e-01,9.101766943931579590e-01,9.101341366767883301e-01,9.100915789604187012e-01,9.100490212440490723e-01,9.100064635276794434e-01,9.099640250205993652e-01,9.099214673042297363e-01,9.098789691925048828e-01,9.098364114761352539e-01,9.097939729690551758e-01,9.097514748573303223e-01,9.097089171409606934e-01,9.096664190292358398e-01,9.096239209175109863e-01,9.095814824104309082e-01,9.095389842987060547e-01,9.094964861869812012e-01,9.094539880752563477e-01,9.094116091728210449e-01,9.093691110610961914e-01,9.093266129493713379e-01,9.092841148376464844e-01,9.092416763305664062e-01,9.091992974281311035e-01,9.091567993164062500e-01,9.091143608093261719e-01,9.090718626976013184e-01,9.090294241905212402e-01,9.089870452880859375e-01,9.089446067810058594e-01,9.089021682739257812e-01,9.088597297668457031e-01,9.088173508644104004e-01,9.087749719619750977e-01,9.087325334548950195e-01,9.086900949478149414e-01,9.086476564407348633e-01,9.086053371429443359e-01,9.085629582405090332e-01,9.085205197334289551e-01,9.084781408309936523e-01,9.084358215332031250e-01,9.083934426307678223e-01,9.083510041236877441e-01,9.083086252212524414e-01,9.082662463188171387e-01,9.082239270210266113e-01,9.081816077232360840e-01,9.081392288208007812e-01,9.080968499183654785e-01,9.080544710159301758e-01,9.080122113227844238e-01,9.079698324203491211e-01,9.079275131225585938e-01,9.078851342201232910e-01,9.078428745269775391e-01,9.078005552291870117e-01,9.077581763267517090e-01,9.077158570289611816e-01,9.076735377311706543e-01,9.076312780380249023e-01,9.075889587402343750e-01,9.075466394424438477e-01,9.075043201446533203e-01,9.074621200561523438e-01,9.074198007583618164e-01,9.073775410652160645e-01,9.073352217674255371e-01,9.072929024696350098e-01,9.072507023811340332e-01,9.072084426879882812e-01,9.071661829948425293e-01,9.071238636970520020e-01,9.070817232131958008e-01,9.070394039154052734e-01,9.069971442222595215e-01,9.069548845291137695e-01
8.634938001632690430e-01,8.634554743766784668e-01,8.634171485900878906e-01,8.633788824081420898e-01,8.633405566215515137e-01,8.633023500442504883e-01,8.632640838623046875e-01,8.632257580757141113e-01,8.631874918937683105e-01,8.631492853164672852e-01,8.631110191345214844e-01,8.630727529525756836e-01,8.630344867706298828e-01,8.629962205886840820e-01,8.629580140113830566e-01,8.629198074340820312e-01,8.628815412521362305e-01,8.628432750701904297e-01,8.628051280975341797e-01,8.627668619155883789e-01,8.627285957336425781e-01,8.626903891563415527e-01,8.626521229743957520e-01,8.626139760017395020e-01,8.625757694244384766e-01,8.625375628471374512e-01,8.624992966651916504e-01,8.624610900878906250e-01,8.624229431152343750e-01,8.623847365379333496e-01,8.623465299606323242e-01,8.623083233833312988e-01,8.622702360153198242e-01,8.622320294380187988e-01,8.621938228607177734e-01,8.621556162834167480e-01,8.621174693107604980e-01,8.620793223381042480e-01,8.620411753654479980e-01,8.620029687881469727e-01,8.619648218154907227e-01,8.619267344474792480e-01,8.618885874748229980e-01,8.618503808975219727e-01,8.618122339248657227e-01,8.617740869522094727e-01,8.617359995841979980e-01,8.616978526115417480e-01,8.616597056388854980e-01,8.616215586662292480e-01,8.615834116935729980e-01,8.615453839302062988e-01,8.615072369575500488e-01,8.614690899848937988e-01,8.614310026168823242e-01,8.613929152488708496e-01,8.613548278808593750e-01,8.613166809082031250e-01,8.612785935401916504e-01,8.612404465675354004e-01,8.612024784088134766e-01,8.611643314361572266e-01,8.611262440681457520e-01,8.610881567001342773e-01,8.610501289367675781e-01,8.610120415687561035e-01,8.609739542007446289e-01,8.609358668327331543e-01,8.608977794647216797e-01,8.608598113059997559e-01,8.608217239379882812e-01,8.607836365699768066e-01,8.607456088066101074e-01,8.607076406478881836e-01,8.606695532798767090e-01,8.606315255165100098e-01,8.605934381484985352e-01,8.605554103851318359e-01,8.605174422264099121e-01,8.604794144630432129e-01
8.212619423866271973e-01,8.212273120880126953e-01,8.211927413940429688e-01,8.211581110954284668e-01,8.211234807968139648e-01,8.210887908935546875e-01,8.210542798042297363e-01,8.210196495056152344e-01,8.209850192070007324e-01,8.209503889083862305e-01,8.209157586097717285e-01,8.208811879158020020e-01,8.208465576171875000e-01,8.208119869232177734e-01,8.207773566246032715e-01,8.207428455352783203e-01,8.207082152366638184e-01,8.206735849380493164e-01,8.206390142440795898e-01,8.206043839454650879e-01,8.205698728561401367e-01,8.205353021621704102e-01,8.205007314682006836e-01,8.204661011695861816e-01,8.204315304756164551e-01,8.203970193862915039e-01,8.203624486923217773e-01,8.203278779983520508e-01,8.202933073043823242e-01,8.202587962150573730e-01,8.202242851257324219e-01,8.201897144317626953e-01,8.201551437377929688e-01,8.201205730438232422e-01,8.200861215591430664e-01,8.200515508651733398e-01,8.200169801712036133e-01,8.199824690818786621e-01,8.199479579925537109e-01,8.199134469032287598e-01,8.198788762092590332e-01,8.198443651199340820e-01,8.198098540306091309e-01,8.197754025459289551e-01,8.197408318519592285e-01,8.197063207626342773e-01,8.196718096733093262e-01,8.196372985839843750e-01,8.196028470993041992e-01,8.195683360099792480e-01,8.195338249206542969e-01,8.194993138313293457e-01,8.194649219512939453e-01,8.194304108619689941e-01,8.193958997726440430e-01,8.193613886833190918e-01,8.193269371986389160e-01,8.192924857139587402e-01,8.192580342292785645e-01,8.192235231399536133e-01,8.191890716552734375e-01,8.191546797752380371e-01,8.191201686859130859e-01,8.190857172012329102e-01,8.190512657165527344e-01,8.190167546272277832e-01,8.189823627471923828e-01,8.189479112625122070e-01,8.189134597778320312e-01,8.188790082931518555e-01,8.188446760177612305e-01,8.188102245330810547e-01,8.187757730484008789e-01,8.187413215637207031e-01,8.187068700790405273e-01,8.186725378036499023e-01,8.186380863189697266e-01,8.186036348342895508e-01,8.185692429542541504e-01,8.185347914695739746e-01
7.829685807228088379e-01,7.829371094703674316e-01,7.829056382179260254e-01,7.828741669654846191e-01,7.828426957130432129e-01,7.828112244606018066e-01,7.827797532081604004e-01,7.827482819557189941e-01,7.827168703079223633e-01,7.826853990554809570e-01,7.826538681983947754e-01,7.826223969459533691e-01,7.825910449028015137e-01,7.825595736503601074e-01,7.825281023979187012e-01,7.824966311454772949e-01,7.824651598930358887e-01,7.824338078498840332e-01,7.824023365974426270e-01,7.823708653450012207e-01,7.823394536972045898e-01,7.823079824447631836e-01,7.822766304016113281e-01,7.822451591491699219e-01,7.822137475013732910e-01,7.821823358535766602e-01,7.821509242057800293e-01,7.821195125579833984e-01,7.820881009101867676e-01,7.820566892623901367e-01,7.820252180099487305e-01,7.819938659667968750e-01,7.819624543190002441e-01,7.819310426712036133e-01,7.818996310234069824e-01,7.818682789802551270e-01,7.818369269371032715e-01,7.818055152893066406e-01,7.817741036415100098e-01,7.817426919937133789e-01,7.817113399505615234e-01,7.816799879074096680e-01,7.816485762596130371e-01,7.816171646118164062e-01,7.815858721733093262e-01,7.815544605255126953e-01,7.815231084823608398e-01,7.814916968345642090e-01,7.814603447914123535e-01,7.814290523529052734e-01,7.813976407051086426e-01,7.813662886619567871e-01,7.813349366188049316e-01,7.813035845756530762e-01,7.812722921371459961e-01,7.812409400939941406e-01,7.812095284461975098e-01,7.811781764030456543e-01,7.811469435691833496e-01,7.811155915260314941e-01,7.810842394828796387e-01,7.810528874397277832e-01,7.810215353965759277e-01,7.809902429580688477e-01,7.809589505195617676e-01,7.809275984764099121e-01,7.808962464332580566e-01,7.808650135993957520e-01,7.808336615562438965e-01,7.808023691177368164e-01,7.807710170745849609e-01,7.807397246360778809e-01,7.807084918022155762e-01,7.806771397590637207e-01,7.806458473205566406e-01,7.806145548820495605e-01,7.805832028388977051e-01,7.805519700050354004e-01,7.805206775665283203e-01,7.804893851280212402e-01
