5.000000000000000000e+00,5.000000000000000000e+00,5.000000000000000000e+00,5.000000000000000000e+00,5.000000000000000000e+00,5.000000000000000000e+00,5.000000000000000000e+00,5.000000000000000000e+00,5.000000000000000000e+00,5.000000000000000000e+00,5.000000000000000000e+00,5.000000000000000000e+00,5.000000000000000000e+00,5.000000000000000000e+00,5.000000000000000000e+00,5.000000000000000000e+00,5.000000000000000000e+00,5.000000000000000000e+00,5.000000000000000000e+00,5.000000000000000000e+00,5.000000000000000000e+00,5.000000000000000000e+00,5.000000000000000000e+00,5.000000000000000000e+00,5.000000000000000000e+00,5.000000000000000000e+00,5.000000000000000000e+00,5.000000000000000000e+00,5.000000000000000000e+00,5.000000000000000000e+00,5.000000000000000000e+00,5.000000000000000000e+00,5.000000000000000000e+00,5.000000000000000000e+00,5.000000000000000000e+00,5.000000000000000000e+00,5.000000000000000000e+00,1.625546455383300781e+00,1.605680823326110840e+00,1.595346093177795410e+00,1.586607694625854492e+00,1.537244558334350586e+00,1.509611725807189941e+00,1.500598549842834473e+00,1.497649312019348145e+00,1.502873182296752930e+00,1.518194437026977539e+00,1.521210789680480957e+00,1.533532738685607910e+00,1.566804528236389160e+00,3.348670721054077148e+00,1.655960917472839355e+00,1.640110611915588379e+00,1.644063830375671387e+00,1.673555731773376465e+00,2.935555934906005859e+00,2.864869832992553711e+00,2.797507762908935547e+00,2.733241081237792969e+00,2.671860694885253906e+00,2.613176584243774414e+00,2.557014942169189453e+00,2.503216505050659180e+00,2.451634883880615234e+00,2.402136564254760742e+00,2.354597330093383789e+00,2.308903217315673828e+00,2.264948844909667969e+00,2.222636699676513672e+00,2.181876420974731445e+00,2.142584323883056641e+00,2.104682207107543945e+00,2.068097829818725586e+00,2.032763719558715820e+00,1.998616456985473633e+00,1.965597510337829590e+00,1.933652043342590332e+00,1.902728199958801270e+00,1.872777700424194336e+00,1.843755841255187988e+00
5.000000000000000000e+00,5.000000000000000000e+00,5.000000000000000000e+00,5.000000000000000000e+00,5.000000000000000000e+00,5.000000000000000000e+00,5.000000000000000000e+00,5.000000000000000000e+00,5.000000000000000000e+00,5.000000000000000000e+00,5.000000000000000000e+00,5.000000000000000000e+00,5.000000000000000000e+00,5.000000000000000000e+00,5.000000000000000000e+00,5.000000000000000000e+00,5.000000000000000000e+00,5.000000000000000000e+00,5.000000000000000000e+00,5.000000000000000000e+00,5.000000000000000000e+00,5.000000000000000000e+00,5.000000000000000000e+00,5.000000000000000000e+00,5.000000000000000000e+00,5.000000000000000000e+00,5.000000000000000000e+00,5.000000000000000000e+00,5.000000000000000000e+00,5.000000000000000000e+00,5.000000000000000000e+00,5.000000000000000000e+00,5.000000000000000000e+00,5.000000000000000000e+00,5.000000000000000000e+00,5.000000000000000000e+00,5.000000000000000000e+00,1.633799552917480469e+00,1.612348675727844238e+00,1.605324387550354004e+00,1.557424664497375488e+00,1.529744029045104980e+00,1.507691740989685059e+00,1.497534036636352539e+00,1.495833396911621094e+00,1.498185038566589355e+00,1.510565876960754395e+00,1.514286160469055176e+00,1.525866508483886719e+00,1.551449418067932129e+00,3.348737001419067383e+00,1.664158225059509277e+00,1.648908019065856934e+00,1.648536086082458496e+00,1.672556281089782715e+00,2.935606956481933594e+00,2.864918231964111328e+00,2.797554016113281250e+00,2.733285188674926758e+00,2.671902894973754883e+00,2.613216876983642578e+00,2.557053327560424805e+00,2.503253459930419922e+00,2.451670408248901367e+00,2.402170658111572266e+00,2.354630231857299805e+00,2.308934688568115234e+00,2.264979124069213867e+00,2.222665786743164062e+00,2.181904554367065430e+00,2.142611265182495117e+00,2.104708433151245117e+00,2.068123102188110352e+00,2.032788038253784180e+00,1.998640060424804688e+00,1.965620398521423340e+00,1.933674097061157227e+00,1.902749538421630859e+00,1.872798442840576172e+00,1.843775868415832520e+00
5.000000000000000000e+00,5.000000000000000000e+00,5.000000000000000000e+00,5.000000000000000000e+00,5.000000000000000000e+00,5.000000000000000000e+00,5.000000000000000000e+00,5.000000000000000000e+00,5.000000000000000000e+00,5.000000000000000000e+00,5.000000000000000000e+00,5.000000000000000000e+00,5.000000000000000000e+00,5.000000000000000000e+00,5.000000000000000000e+00,5.000000000000000000e+00,5.000000000000000000e+00,5.000000000000000000e+00,5.000000000000000000e+00,5.000000000000000000e+00,5.000000000000000000e+00,5.000000000000000000e+00,5.000000000000000000e+00,5.000000000000000000e+00,5.000000000000000000e+00,5.000000000000000000e+00,5.000000000000000000e+00,5.000000000000000000e+00,5.000000000000000000e+00,5.000000000000000000e+00,5.000000000000000000e+00,5.000000000000000000e+00,5.000000000000000000e+00,5.000000000000000000e+00,5.000000000000000000e+00,5.000000000000000000e+00,5.000000000000000000e+00,1.642787218093872070e+00,1.619071960449218750e+00,1.615428328514099121e+00,1.556220054626464844e+00,1.529224991798400879e+00,1.506267309188842773e+00,1.495222091674804688e+00,1.493159890174865723e+00,1.496392607688903809e+00,1.502274870872497559e+00,1.510831713676452637e+00,1.521978378295898438e+00,1.539428234100341797e+00,3.348803043365478516e+00,1.672437191009521484e+00,1.658086895942687988e+00,1.653542757034301758e+00,1.670462846755981445e+00,2.935657739639282227e+00,2.864966630935668945e+00,2.797600269317626953e+00,2.733329296112060547e+00,2.671944856643676758e+00,2.613257169723510742e+00,2.557091951370239258e+00,2.503290414810180664e+00,2.451705932617187500e+00,2.402204751968383789e+00,2.354662895202636719e+00,2.308965921401977539e+00,2.265009403228759766e+00,2.222694873809814453e+00,2.181932687759399414e+00,2.142638444900512695e+00,2.104734420776367188e+00,2.068148136138916016e+00,2.032812356948852539e+00,1.998663544654846191e+00,1.965643167495727539e+00,1.933696150779724121e+00,1.902770876884460449e+00,1.872819185256958008e+00,1.843796014785766602e+00
5.000000000000000000e+00,5.000000000000000000e+00,5.000000000000000000e+00,5.000000000000000000e+00,5.000000000000000000e+00,5.000000000000000000e+00,5.000000000000000000e+00,5.000000000000000000e+00,5.000000000000000000e+00,5.000000000000000000e+00,5.000000000000000000e+00,5.000000000000000000e+00,5.000000000000000000e+00,5.000000000000000000e+00,5.000000000000000000e+00,5.000000000000000000e+00,5.000000000000000000e+00,5.000000000000000000e+00,5.000000000000000000e+00,5.000000000000000000e+00,5.000000000000000000e+00,5.000000000000000000e+00,5.000000000000000000e+00,5.000000000000000000e+00,5.000000000000000000e+00,5.000000000000000000e+00,5.000000000000000000e+00,5.000000000000000000e+00,5.000000000000000000e+00,5.000000000000000000e+00,5.000000000000000000e+00,5.000000000000000000e+00,5.000000000000000000e+00,5.000000000000000000e+00,5.000000000000000000e+00,5.000000000000000000e+00,5.000000000000000000e+00,1.651874423027038574e+00,1.626065850257873535e+00,1.625660300254821777e+00,1.557836174964904785e+00,1.530785560607910156e+00,1.522779822349548340e+00,1.512404918670654297e+00,1.506805419921875000e+00,1.507501482963562012e+00,1.509145617485046387e+00,1.520082116127014160e+00,1.536145210266113281e+00,1.570855736732482910e+00,3.348869323730468750e+00,1.676343202590942383e+00,1.650692224502563477e+00,1.624017596244812012e+00,1.621099710464477539e+00,2.935708522796630859e+00,2.865015029907226562e+00,2.797646522521972656e+00,2.733373403549194336e+00,2.671987056732177734e+00,2.613297462463378906e+00,2.557130575180053711e+00,2.503327369689941406e+00,2.451741456985473633e+00,2.402238607406616211e+00,2.354695558547973633e+00,2.308997392654418945e+00,2.265039682388305664e+00,2.222724199295043945e+00,2.181960821151733398e+00,2.142665386199951172e+00,2.104760646820068359e+00,2.068173408508300781e+00,2.032836675643920898e+00,1.998687148094177246e+00,1.965665936470031738e+00,1.933718204498291016e+00,1.902792215347290039e+00,1.872839808464050293e+00,1.843816041946411133e+00
5.000000000000000000e+00,5.000000000000000000e+00,5.000000000000000000e+00,5.000000000000000000e+00,5.000000000000000000e+00,5.000000000000000000e+00,5.000000000000000000e+00,5.000000000000000000e+00,5.000000000000000000e+00,5.000000000000000000e+00,5.000000000000000000e+00,5.000000000000000000e+00,5.000000000000000000e+00,5.000000000000000000e+00,5.000000000000000000e+00,5.000000000000000000e+00,5.000000000000000000e+00,5.000000000000000000e+00,5.000000000000000000e+00,5.000000000000000000e+00,5.000000000000000000e+00,5.000000000000000000e+00,5.000000000000000000e+00,5.000000000000000000e+00,5.000000000000000000e+00,5.000000000000000000e+00,5.000000000000000000e+00,5.000000000000000000e+00,5.000000000000000000e+00,5.000000000000000000e+00,5.000000000000000000e+00,5.000000000000000000e+00,5.000000000000000000e+00,5.000000000000000000e+00,5.000000000000000000e+00,5.000000000000000000e+00,5.000000000000000000e+00,1.659876108169555664e+00,1.630957841873168945e+00,1.630976676940917969e+00,1.569329977035522461e+00,1.535056829452514648e+00,1.525755882263183594e+00,1.515224814414978027e+00,1.512113690376281738e+00,1.513375759124755859e+00,1.510672926902770996e+00,1.522176623344421387e+00,1.536534786224365234e+00,1.558735489845275879e+00,3.348935604095458984e+00,1.695980072021484375e+00,1.640044689178466797e+00,1.617285013198852539e+00,1.601230025291442871e+00,1.599504351615905762e+00,2.865063428878784180e+00,2.797692537307739258e+00,2.733417510986328125e+00,2.672029018402099609e+00,2.613337755203247070e+00,2.557169198989868164e+00,2.503364086151123047e+00,2.451776981353759766e+00,2.402272701263427734e+00,2.354728221893310547e+00,2.309028863906860352e+00,2.265069961547851562e+00,2.222753286361694336e+00,2.181988954544067383e+00,2.142692565917968750e+00,2.104786872863769531e+00,2.068198680877685547e+00,2.032860994338989258e+00,1.998710751533508301e+00,1.965688705444335938e+00,1.933740377426147461e+00,1.902813553810119629e+00,1.872860550880432129e+00,1.843836069107055664e+00
5.000000000000000000e+00,5.000000000000000000e+00,5.000000000000000000e+00,5.000000000000000000e+00,5.000000000000000000e+00,5.000000000000000000e+00,5.000000000000000000e+00,5.000000000000000000e+00,5.000000000000000000e+00,5.000000000000000000e+00,5.000000000000000000e+00,5.000000000000000000e+00,5.000000000000000000e+00,5.000000000000000000e+00,5.000000000000000000e+00,5.000000000000000000e+00,5.000000000000000000e+00,5.000000000000000000e+00,5.000000000000000000e+00,5.000000000000000000e+00,5.000000000000000000e+00,5.000000000000000000e+00,5.000000000000000000e+00,5.000000000000000000e+00,5.000000000000000000e+00,5.000000000000000000e+00,5.000000000000000000e+00,5.000000000000000000e+00,5.000000000000000000e+00,5.000000000000000000e+00,5.000000000000000000e+00,5.000000000000000000e+00,5.000000000000000000e+00,5.000000000000000000e+00,5.000000000000000000e+00,5.000000000000000000e+00,5.000000000000000000e+00,1.654362797737121582e+00,1.620706439018249512e+00,1.619527101516723633e+00,1.570367336273193359e+00,1.536925315856933594e+00,1.528346776962280273e+00,1.519808650016784668e+00,1.519150018692016602e+00,1.519371867179870605e+00,1.519593834877014160e+00,1.525681734085083008e+00,1.539786934852600098e+00,1.558116793632507324e+00,1.597535848617553711e+00,3.257313728332519531e+00,1.650968790054321289e+00,1.613241910934448242e+00,1.589684724807739258e+00,1.573810577392578125e+00,2.865112066268920898e+00,2.797738790512084961e+00,2.733461618423461914e+00,2.672071218490600586e+00,2.613378047943115234e+00,2.557207822799682617e+00,2.503401041030883789e+00,2.451812267303466797e+00,2.402306795120239258e+00,2.354761123657226562e+00,2.309060335159301758e+00,2.265100240707397461e+00,2.222782373428344727e+00,2.182016849517822266e+00,2.142719745635986328e+00,2.104812860488891602e+00,2.068223953247070312e+00,2.032885551452636719e+00,1.998734354972839355e+00,1.965711593627929688e+00,1.933762192726135254e+00,1.902835011482238770e+00,1.872881174087524414e+00,1.843856096267700195e+00
5.000000000000000000e+00,5.000000000000000000e+00,5.000000000000000000e+00,5.000000000000000000e+00,5.000000000000000000e+00,5.000000000000000000e+00,5.000000000000000000e+00,5.000000000000000000e+00,5.000000000000000000e+00,5.000000000000000000e+00,5.000000000000000000e+00,5.000000000000000000e+00,5.000000000000000000e+00,5.000000000000000000e+00,5.000000000000000000e+00,5.000000000000000000e+00,5.000000000000000000e+00,5.000000000000000000e+00,5.000000000000000000e+00,5.000000000000000000e+00,5.000000000000000000e+00,5.000000000000000000e+00,5.000000000000000000e+00,5.000000000000000000e+00,5.000000000000000000e+00,5.000000000000000000e+00,5.000000000000000000e+00,5.000000000000000000e+00,5.000000000000000000e+00,5.000000000000000000e+00,5.000000000000000000e+00,5.000000000000000000e+00,5.000000000000000000e+00,5.000000000000000000e+00,5.000000000000000000e+00,5.000000000000000000e+00,5.000000000000000000e+00,1.643842577934265137e+00,1.612059473991394043e+00,1.610390424728393555e+00,1.563469767570495605e+00,1.510076522827148438e+00,1.498075008392333984e+00,1.496852993965148926e+00,1.523325324058532715e+00,1.532852768898010254e+00,1.525627493858337402e+00,1.541603088378906250e+00,1.548260331153869629e+00,1.557712674140930176e+00,1.593449950218200684e+00,3.257375955581665039e+00,3.170571327209472656e+00,1.624440312385559082e+00,1.583397507667541504e+00,1.559441804885864258e+00,1.549620270729064941e+00,2.797785043716430664e+00,2.733505487442016602e+00,2.672113418579101562e+00,2.613418340682983398e+00,2.557246446609497070e+00,2.503437995910644531e+00,2.451847791671752930e+00,2.402340888977050781e+00,2.354793787002563477e+00,2.309091806411743164e+00,2.265130519866943359e+00,2.222811698913574219e+00,2.182044982910156250e+00,2.142746686935424805e+00,2.104839086532592773e+00,2.068249225616455078e+00,2.032909870147705078e+00,1.998757839202880859e+00,1.965734362602233887e+00,1.933784246444702148e+00,1.902856349945068359e+00,1.872901916503906250e+00,1.843876242637634277e+00
5.000000000000000000e+00,5.000000000000000000e+00,5.000000000000000000e+00,5.000000000000000000e+00,5.000000000000000000e+00,5.000000000000000000e+00,5.000000000000000000e+00,5.000000000000000000e+00,5.000000000000000000e+00,5.000000000000000000e+00,5.000000000000000000e+00,5.000000000000000000e+00,5.000000000000000000e+00,5.000000000000000000e+00,5.000000000000000000e+00,5.000000000000000000e+00,5.000000000000000000e+00,5.000000000000000000e+00,5.000000000000000000e+00,5.000000000000000000e+00,5.000000000000000000e+00,5.000000000000000000e+00,5.000000000000000000e+00,5.000000000000000000e+00,5.000000000000000000e+00,5.000000000000000000e+00,5.000000000000000000e+00,5.000000000000000000e+00,5.000000000000000000e+00,5.000000000000000000e+00,5.000000000000000000e+00,5.000000000000000000e+00,5.000000000000000000e+00,5.000000000000000000e+00,5.000000000000000000e+00,5.000000000000000000e+00,5.000000000000000000e+00,1.638601183891296387e+00,1.606327772140502930e+00,1.603690266609191895e+00,1.546007990837097168e+00,1.476386308670043945e+00,1.466438055038452148e+00,1.456881284713745117e+00,1.448986530303955078e+00,1.530064463615417480e+00,1.542732238769531250e+00,1.557860255241394043e+00,1.564658880233764648e+00,1.559592485427856445e+00,1.592361330986022949e+00,3.257438659667968750e+00,3.170630693435668945e+00,3.088329315185546875e+00,1.597026944160461426e+00,1.560193181037902832e+00,1.549287438392639160e+00,2.797831296920776367e+00,2.733549356460571289e+00,2.672155380249023438e+00,2.613458633422851562e+00,2.557285070419311523e+00,2.503475189208984375e+00,2.451883316040039062e+00,2.402374982833862305e+00,2.354826211929321289e+00,2.309123277664184570e+00,2.265160799026489258e+00,2.222840785980224609e+00,2.182073116302490234e+00,2.142773866653442383e+00,2.104865312576293945e+00,2.068274497985839844e+00,2.032934188842773438e+00,1.998781442642211914e+00,1.965757131576538086e+00,1.933806300163269043e+00,1.902877688407897949e+00,1.872922658920288086e+00,1.843896269798278809e+00
5.000000000000000000e+00,5.000000000000000000e+00,5.000000000000000000e+00,5.000000000000000000e+00,5.000000000000000000e+00,5.000000000000000000e+00,5.000000000000000000e+00,5.000000000000000000e+00,5.000000000000000000e+00,5.000000000000000000e+00,5.000000000000000000e+00,5.000000000000000000e+00,5.000000000000000000e+00,5.000000000000000000e+00,5.000000000000000000e+00,5.000000000000000000e+00,5.000000000000000000e+00,5.000000000000000000e+00,5.000000000000000000e+00,5.000000000000000000e+00,5.000000000000000000e+00,5.000000000000000000e+00,5.000000000000000000e+00,5.000000000000000000e+00,5.000000000000000000e+00,5.000000000000000000e+00,5.000000000000000000e+00,5.000000000000000000e+00,5.000000000000000000e+00,5.000000000000000000e+00,5.000000000000000000e+00,5.000000000000000000e+00,5.000000000000000000e+00,5.000000000000000000e+00,5.000000000000000000e+00,5.000000000000000000e+00,5.000000000000000000e+00,5.000000000000000000e+00,1.600636482238769531e+00,1.598455786705017090e+00,1.515567660331726074e+00,1.462079644203186035e+00,1.452322602272033691e+00,1.442895889282226562e+00,1.433819413185119629e+00,1.459691405296325684e+00,1.570597171783447266e+00,1.568955421447753906e+00,1.563797235488891602e+00,1.560097694396972656e+00,1.593296885490417480e+00,3.257501363754272461e+00,3.170689821243286133e+00,3.088385581970214844e+00,3.010246038436889648e+00,1.582005023956298828e+00,1.502474308013916016e+00,1.504553794860839844e+00,2.733593463897705078e+00,2.672197580337524414e+00,2.613498926162719727e+00,2.557323455810546875e+00,2.503512144088745117e+00,2.451918840408325195e+00,2.402409076690673828e+00,2.354859113693237305e+00,2.309154748916625977e+00,2.265191078186035156e+00,2.222869873046875000e+00,2.182101011276245117e+00,2.142801046371459961e+00,2.104891300201416016e+00,2.068299531936645508e+00,2.032958507537841797e+00,1.998805046081542969e+00,1.965780019760131836e+00,1.933828353881835938e+00,1.902899026870727539e+00,1.872943282127380371e+00,1.843916177749633789e+00
5.000000000000000000e+00,5.000000000000000000e+00,5.000000000000000000e+00,5.000000000000000000e+00,5.000000000000000000e+00,5.000000000000000000e+00,5.000000000000000000e+00,5.000000000000000000e+00,5.000000000000000000e+00,5.000000000000000000e+00,5.000000000000000000e+00,5.000000000000000000e+00,5.000000000000000000e+00,5.000000000000000000e+00,5.000000000000000000e+00,5.000000000000000000e+00,5.000000000000000000e+00,5.000000000000000000e+00,5.000000000000000000e+00,5.000000000000000000e+00,5.000000000000000000e+00,5.000000000000000000e+00,5.000000000000000000e+00,5.000000000000000000e+00,5.000000000000000000e+00,5.000000000000000000e+00,5.000000000000000000e+00,5.000000000000000000e+00,5.000000000000000000e+00,5.000000000000000000e+00,5.000000000000000000e+00,5.000000000000000000e+00,5.000000000000000000e+00,5.000000000000000000e+00,5.000000000000000000e+00,5.000000000000000000e+00,5.000000000000000000e+00,5.000000000000000000e+00,1.590181112289428711e+00,1.591136217117309570e+00,1.505294322967529297e+00,1.450813770294189453e+00,1.441209197044372559e+00,1.432153820991516113e+00,1.423211455345153809e+00,1.442670583724975586e+00,1.475111007690429688e+00,1.567594647407531738e+00,1.562945246696472168e+00,1.560852169990539551e+00,1.591753721237182617e+00,3.257563829421997070e+00,3.170749187469482422e+00,3.088441848754882812e+00,3.010299205780029297e+00,2.936013460159301758e+00,1.483061909675598145e+00,1.500217318534851074e+00,1.477682113647460938e+00,2.672239780426025391e+00,2.613539218902587891e+00,2.557361841201782227e+00,2.503549098968505859e+00,2.451954126358032227e+00,2.402442932128906250e+00,2.354891777038574219e+00,2.309186220169067383e+00,2.265221357345581055e+00,2.222898960113525391e+00,2.182129144668579102e+00,2.142827987670898438e+00,2.104917526245117188e+00,2.068324804306030273e+00,2.032983064651489258e+00,1.998828649520874023e+00,1.965802788734436035e+00,1.933850407600402832e+00,1.902920484542846680e+00,1.872964024543762207e+00,1.843936204910278320e+00
5.000000000000000000e+00,5.000000000000000000e+00,5.000000000000000000e+00,5.000000000000000000e+00,5.000000000000000000e+00,5.000000000000000000e+00,5.000000000000000000e+00,5.000000000000000000e+00,5.000000000000000000e+00,5.000000000000000000e+00,5.000000000000000000e+00,5.000000000000000000e+00,5.000000000000000000e+00,5.000000000000000000e+00,5.000000000000000000e+00,5.000000000000000000e+00,5.000000000000000000e+00,5.000000000000000000e+00,5.000000000000000000e+00,5.000000000000000000e+00,5.000000000000000000e+00,5.000000000000000000e+00,5.000000000000000000e+00,5.000000000000000000e+00,5.000000000000000000e+00,5.000000000000000000e+00,5.000000000000000000e+00,5.000000000000000000e+00,5.000000000000000000e+00,5.000000000000000000e+00,5.000000000000000000e+00,5.000000000000000000e+00,5.000000000000000000e+00,5.000000000000000000e+00,5.000000000000000000e+00,5.000000000000000000e+00,5.000000000000000000e+00,5.000000000000000000e+00,1.582948446273803711e+00,1.587527036666870117e+00,1.496509671211242676e+00,1.443163871765136719e+00,1.431100010871887207e+00,1.421570420265197754e+00,1.412759423255920410e+00,1.428225874900817871e+00,1.457483530044555664e+00,1.566132903099060059e+00,1.560620903968811035e+00,1.561343789100646973e+00,1.589321255683898926e+00,3.257626533508300781e+00,3.170808553695678711e+00,3.088498115539550781e+00,3.010352611541748047e+00,2.936064481735229492e+00,2.865354061126708984e+00,1.468039155006408691e+00,1.466179251670837402e+00,2.672281980514526367e+00,2.613579511642456055e+00,2.557400465011596680e+00,2.503586053848266602e+00,2.451989650726318359e+00,2.402477025985717773e+00,2.354924440383911133e+00,2.309217691421508789e+00,2.265251636505126953e+00,2.222928047180175781e+00,2.182157278060913086e+00,2.142855167388916016e+00,2.104943513870239258e+00,2.068350076675415039e+00,2.033007383346557617e+00,1.998852133750915527e+00,1.965825557708740234e+00,1.933872461318969727e+00,1.902941823005676270e+00,1.872984766960144043e+00,1.843956232070922852e+00
5.000000000000000000e+00,4.263442993164062500e+00,4.286905288696289062e+00,5.000000000000000000e+00,5.000000000000000000e+00,5.000000000000000000e+00,5.000000000000000000e+00,5.000000000000000000e+00,5.000000000000000000e+00,5.000000000000000000e+00,5.000000000000000000e+00,5.000000000000000000e+00,5.000000000000000000e+00,5.000000000000000000e+00,5.000000000000000000e+00,5.000000000000000000e+00,5.000000000000000000e+00,5.000000000000000000e+00,5.000000000000000000e+00,5.000000000000000000e+00,5.000000000000000000e+00,5.000000000000000000e+00,5.000000000000000000e+00,5.000000000000000000e+00,5.000000000000000000e+00,5.000000000000000000e+00,5.000000000000000000e+00,5.000000000000000000e+00,5.000000000000000000e+00,5.000000000000000000e+00,5.000000000000000000e+00,5.000000000000000000e+00,5.000000000000000000e+00,5.000000000000000000e+00,5.000000000000000000e+00,5.000000000000000000e+00,5.000000000000000000e+00,5.000000000000000000e+00,1.591890454292297363e+00,1.617676496505737305e+00,1.505996346473693848e+00,1.447714090347290039e+00,1.421981453895568848e+00,1.411914825439453125e+00,1.402459621429443359e+00,1.414067506790161133e+00,1.440418839454650879e+00,1.565944671630859375e+00,1.561001181602478027e+00,1.564103484153747559e+00,1.594258189201354980e+00,3.257689237594604492e+00,3.170867919921875000e+00,3.088554382324218750e+00,3.010406017303466797e+00,2.936115264892578125e+00,2.865402698516845703e+00,2.798015832901000977e+00,1.545698523521423340e+00,1.471978545188903809e+00,2.613619804382324219e+00,2.557439088821411133e+00,2.503623008728027344e+00,2.452025175094604492e+00,2.402511119842529297e+00,2.354957103729248047e+00,2.309249162673950195e+00,2.265281915664672852e+00,2.222957134246826172e+00,2.182185411453247070e+00,2.142882347106933594e+00,2.104969739913940430e+00,2.068375349044799805e+00,2.033031702041625977e+00,1.998875737190246582e+00,1.965848326683044434e+00,1.933894515037536621e+00,1.902963161468505859e+00,1.873005390167236328e+00,1.843976378440856934e+00
5.000000000000000000e+00,4.274515628814697266e+00,4.296066761016845703e+00,4.400575637817382812e+00,5.000000000000000000e+00,5.000000000000000000e+00,5.000000000000000000e+00,5.000000000000000000e+00,5.000000000000000000e+00,5.000000000000000000e+00,5.000000000000000000e+00,5.000000000000000000e+00,5.000000000000000000e+00,5.000000000000000000e+00,5.000000000000000000e+00,5.000000000000000000e+00,5.000000000000000000e+00,5.000000000000000000e+00,5.000000000000000000e+00,5.000000000000000000e+00,5.000000000000000000e+00,5.000000000000000000e+00,5.000000000000000000e+00,5.000000000000000000e+00,5.000000000000000000e+00,5.000000000000000000e+00,5.000000000000000000e+00,5.000000000000000000e+00,5.000000000000000000e+00,5.000000000000000000e+00,5.000000000000000000e+00,5.000000000000000000e+00,5.000000000000000000e+00,5.000000000000000000e+00,5.000000000000000000e+00,5.000000000000000000e+00,5.000000000000000000e+00,5.000000000000000000e+00,1.583515524864196777e+00,1.581640481948852539e+00,1.527468681335449219e+00,1.452293157577514648e+00,1.412978649139404297e+00,1.403038382530212402e+00,1.392869114875793457e+00,1.398211121559143066e+00,1.423749089241027832e+00,1.569484233856201172e+00,1.563669919967651367e+00,1.570467591285705566e+00,1.601866841316223145e+00,3.257751703262329102e+00,3.170927286148071289e+00,3.088610649108886719e+00,3.010459661483764648e+00,2.936166048049926758e+00,2.865451097488403320e+00,2.798062086105346680e+00,2.733769893646240234e+00,1.499057173728942871e+00,2.613660097122192383e+00,2.557477712631225586e+00,2.503659963607788086e+00,2.452060699462890625e+00,2.402544975280761719e+00,2.354990005493164062e+00,2.309280633926391602e+00,2.265312194824218750e+00,2.222986459732055664e+00,2.182213544845581055e+00,2.142909288406372070e+00,2.104995727539062500e+00,2.068400621414184570e+00,2.033056259155273438e+00,1.998899340629577637e+00,1.965871214866638184e+00,1.933916568756103516e+00,1.902984499931335449e+00,1.873026132583618164e+00,1.843996405601501465e+00
5.000000000000000000e+00,5.000000000000000000e+00,4.304741859436035156e+00,5.000000000000000000e+00,5.000000000000000000e+00,5.000000000000000000e+00,5.000000000000000000e+00,5.000000000000000000e+00,5.000000000000000000e+00,5.000000000000000000e+00,5.000000000000000000e+00,5.000000000000000000e+00,5.000000000000000000e+00,5.000000000000000000e+00,5.000000000000000000e+00,5.000000000000000000e+00,5.000000000000000000e+00,5.000000000000000000e+00,5.000000000000000000e+00,5.000000000000000000e+00,5.000000000000000000e+00,5.000000000000000000e+00,5.000000000000000000e+00,5.000000000000000000e+00,5.000000000000000000e+00,5.000000000000000000e+00,5.000000000000000000e+00,5.000000000000000000e+00,5.000000000000000000e+00,5.000000000000000000e+00,5.000000000000000000e+00,5.000000000000000000e+00,5.000000000000000000e+00,5.000000000000000000e+00,5.000000000000000000e+00,5.000000000000000000e+00,5.000000000000000000e+00,5.000000000000000000e+00,1.565527796745300293e+00,1.561176061630249023e+00,1.547402858734130859e+00,1.456901311874389648e+00,1.403591871261596680e+00,1.390702843666076660e+00,1.380281209945678711e+00,1.383070707321166992e+00,1.407721877098083496e+00,1.574640750885009766e+00,1.569041967391967773e+00,1.579810738563537598e+00,1.611848235130310059e+00,3.257814407348632812e+00,3.170986652374267578e+00,3.088666915893554688e+00,3.010513067245483398e+00,2.936217069625854492e+00,2.865499496459960938e+00,2.798108339309692383e+00,2.733814001083374023e+00,2.672408342361450195e+00,2.613700389862060547e+00,2.557516336441040039e+00,2.503696918487548828e+00,2.452096223831176758e+00,2.402579069137573242e+00,2.355022668838500977e+00,2.309312105178833008e+00,2.265342473983764648e+00,2.223015546798706055e+00,2.182241678237915039e+00,2.142936468124389648e+00,2.105021953582763672e+00,2.068425655364990234e+00,2.033080577850341797e+00,1.998922944068908691e+00,1.965893983840942383e+00,1.933938741683959961e+00,1.903005957603454590e+00,1.873046875000000000e+00,1.844016432762145996e+00
4.274205207824707031e+00,4.274107933044433594e+00,4.365665435791015625e+00,4.355035781860351562e+00,4.421555519104003906e+00,5.000000000000000000e+00,5.000000000000000000e+00,5.000000000000000000e+00,5.000000000000000000e+00,5.000000000000000000e+00,5.000000000000000000e+00,5.000000000000000000e+00,5.000000000000000000e+00,5.000000000000000000e+00,5.000000000000000000e+00,5.000000000000000000e+00,5.000000000000000000e+00,5.000000000000000000e+00,5.000000000000000000e+00,5.000000000000000000e+00,5.000000000000000000e+00,5.000000000000000000e+00,5.000000000000000000e+00,5.000000000000000000e+00,5.000000000000000000e+00,5.000000000000000000e+00,5.000000000000000000e+00,5.000000000000000000e+00,5.000000000000000000e+00,5.000000000000000000e+00,5.000000000000000000e+00,5.000000000000000000e+00,5.000000000000000000e+00,5.000000000000000000e+00,5.000000000000000000e+00,5.000000000000000000e+00,5.000000000000000000e+00,5.000000000000000000e+00,1.553683757781982422e+00,1.573482275009155273e+00,1.559705138206481934e+00,1.463387846946716309e+00,1.408611297607421875e+00,1.379360079765319824e+00,1.367918729782104492e+00,1.368283271789550781e+00,1.392096638679504395e+00,1.580942869186401367e+00,1.575299263000488281e+00,1.590162277221679688e+00,1.624305963516235352e+00,3.257877111434936523e+00,3.171046018600463867e+00,3.088722944259643555e+00,3.010566473007202148e+00,2.936267852783203125e+00,2.865547895431518555e+00,2.798154354095458984e+00,2.733858108520507812e+00,2.672450542449951172e+00,2.613740444183349609e+00,2.557554960250854492e+00,2.503733873367309570e+00,2.452131748199462891e+00,2.402613162994384766e+00,2.355055332183837891e+00,2.309343576431274414e+00,2.265372753143310547e+00,2.223044633865356445e+00,2.182269811630249023e+00,2.142963409423828125e+00,2.105048179626464844e+00,2.068450927734375000e+00,2.033104896545410156e+00,1.998946428298950195e+00,1.965916752815246582e+00,1.933960795402526855e+00,1.903027296066284180e+00,1.873067498207092285e+00,1.844036459922790527e+00
4.237550258636474609e+00,4.259912014007568359e+00,4.288158416748046875e+00,4.323173522949218750e+00,4.377775192260742188e+00,4.447842597961425781e+00,5.000000000000000000e+00,5.000000000000000000e+00,5.000000000000000000e+00,5.000000000000000000e+00,5.000000000000000000e+00,5.000000000000000000e+00,5.000000000000000000e+00,5.000000000000000000e+00,5.000000000000000000e+00,5.000000000000000000e+00,5.000000000000000000e+00,5.000000000000000000e+00,5.000000000000000000e+00,5.000000000000000000e+00,5.000000000000000000e+00,5.000000000000000000e+00,5.000000000000000000e+00,5.000000000000000000e+00,5.000000000000000000e+00,5.000000000000000000e+00,5.000000000000000000e+00,5.000000000000000000e+00,5.000000000000000000e+00,5.000000000000000000e+00,5.000000000000000000e+00,5.000000000000000000e+00,5.000000000000000000e+00,5.000000000000000000e+00,5.000000000000000000e+00,5.000000000000000000e+00,5.000000000000000000e+00,1.600125074386596680e+00,1.545424580574035645e+00,4.852428913116455078e+00,1.550130844116210938e+00,1.481390953063964844e+00,1.414104819297790527e+00,1.373231291770935059e+00,1.355950951576232910e+00,1.353808641433715820e+00,1.374191403388977051e+00,1.586869239807128906e+00,1.581606864929199219e+00,1.600650429725646973e+00,3.349663257598876953e+00,3.257939577102661133e+00,3.171105146408081055e+00,3.088779211044311523e+00,3.010620117187500000e+00,2.936318635940551758e+00,2.865596532821655273e+00,2.798200607299804688e+00,2.733902215957641602e+00,2.672492504119873047e+00,2.613780975341796875e+00,2.557593584060668945e+00,2.503771066665649414e+00,2.452167034149169922e+00,2.402647256851196289e+00,2.355087995529174805e+00,2.309375047683715820e+00,2.265402793884277344e+00,2.223073959350585938e+00,2.182297706604003906e+00,2.142990589141845703e+00,2.105074167251586914e+00,2.068476200103759766e+00,2.033129215240478516e+00,1.998969793319702148e+00,1.965939640998840332e+00,1.933982849121093750e+00,1.903048634529113770e+00,1.873088240623474121e+00,1.844056606292724609e+00
4.234185218811035156e+00,4.240711212158203125e+00,4.274134635925292969e+00,4.310708045959472656e+00,4.374196529388427734e+00,4.448075294494628906e+00,4.521322250366210938e+00,5.000000000000000000e+00,5.000000000000000000e+00,5.000000000000000000e+00,5.000000000000000000e+00,5.000000000000000000e+00,5.000000000000000000e+00,5.000000000000000000e+00,5.000000000000000000e+00,5.000000000000000000e+00,5.000000000000000000e+00,5.000000000000000000e+00,5.000000000000000000e+00,5.000000000000000000e+00,5.000000000000000000e+00,5.000000000000000000e+00,5.000000000000000000e+00,5.000000000000000000e+00,5.000000000000000000e+00,5.000000000000000000e+00,5.000000000000000000e+00,5.000000000000000000e+00,5.000000000000000000e+00,5.000000000000000000e+00,5.000000000000000000e+00,5.000000000000000000e+00,5.000000000000000000e+00,5.000000000000000000e+00,5.000000000000000000e+00,5.000000000000000000e+00,5.000000000000000000e+00,1.596578955650329590e+00,1.536462068557739258e+00,4.852567672729492188e+00,4.662406921386718750e+00,1.496343851089477539e+00,1.419641256332397461e+00,1.367156744003295898e+00,1.350027918815612793e+00,1.338736414909362793e+00,1.356741070747375488e+00,1.592012524604797363e+00,1.587965011596679688e+00,1.613317608833312988e+00,3.349729537963867188e+00,3.258002281188964844e+00,3.171164512634277344e+00,3.088835477828979492e+00,3.010673522949218750e+00,2.936369657516479492e+00,2.865644693374633789e+00,2.798246860504150391e+00,2.733946323394775391e+00,2.672534704208374023e+00,2.613821268081665039e+00,2.557632207870483398e+00,2.503808021545410156e+00,2.452202558517456055e+00,2.402681350708007812e+00,2.355120897293090820e+00,2.309406518936157227e+00,2.265433073043823242e+00,2.223103046417236328e+00,2.182325839996337891e+00,2.143017768859863281e+00,2.105100393295288086e+00,2.068501472473144531e+00,2.033153772354125977e+00,1.998993396759033203e+00,1.965962409973144531e+00,1.934004902839660645e+00,1.903069972991943359e+00,1.873108983039855957e+00,1.844076633453369141e+00
4.243628501892089844e+00,4.241210937500000000e+00,4.266528129577636719e+00,4.311713218688964844e+00,4.384202480316162109e+00,4.442782402038574219e+00,4.498761177062988281e+00,5.000000000000000000e+00,5.000000000000000000e+00,5.000000000000000000e+00,5.000000000000000000e+00,5.000000000000000000e+00,5.000000000000000000e+00,5.000000000000000000e+00,5.000000000000000000e+00,5.000000000000000000e+00,5.000000000000000000e+00,5.000000000000000000e+00,5.000000000000000000e+00,5.000000000000000000e+00,5.000000000000000000e+00,5.000000000000000000e+00,5.000000000000000000e+00,5.000000000000000000e+00,5.000000000000000000e+00,5.000000000000000000e+00,5.000000000000000000e+00,5.000000000000000000e+00,5.000000000000000000e+00,5.000000000000000000e+00,5.000000000000000000e+00,5.000000000000000000e+00,5.000000000000000000e+00,5.000000000000000000e+00,5.000000000000000000e+00,5.000000000000000000e+00,5.000000000000000000e+00,1.593232631683349609e+00,1.530002713203430176e+00,4.852706432342529297e+00,4.662535190582275391e+00,4.486707687377929688e+00,1.432598948478698730e+00,1.370500683784484863e+00,1.342894315719604492e+00,1.328445434570312500e+00,1.343809127807617188e+00,1.396184206008911133e+00,1.594005227088928223e+00,1.626076340675354004e+00,3.349795818328857422e+00,3.258064985275268555e+00,3.171223878860473633e+00,3.088891983032226562e+00,3.010726928710937500e+00,2.936420440673828125e+00,2.865693092346191406e+00,2.798293113708496094e+00,2.733990430831909180e+00,2.672576904296875000e+00,2.613861560821533203e+00,2.557670831680297852e+00,2.503844976425170898e+00,2.452237844467163086e+00,2.402715444564819336e+00,2.355153560638427734e+00,2.309437990188598633e+00,2.265463352203369141e+00,2.223132133483886719e+00,2.182353973388671875e+00,2.143044710159301758e+00,2.105126619338989258e+00,2.068526744842529297e+00,2.033178091049194336e+00,1.999017000198364258e+00,1.965985178947448730e+00,1.934026956558227539e+00,1.903091430664062500e+00,1.873129606246948242e+00,1.844096660614013672e+00
4.237496852874755859e+00,4.236449718475341797e+00,4.271091461181640625e+00,4.313861846923828125e+00,4.408686161041259766e+00,4.456097126007080078e+00,4.499628543853759766e+00,5.000000000000000000e+00,5.000000000000000000e+00,5.000000000000000000e+00,5.000000000000000000e+00,5.000000000000000000e+00,5.000000000000000000e+00,5.000000000000000000e+00,5.000000000000000000e+00,5.000000000000000000e+00,5.000000000000000000e+00,5.000000000000000000e+00,5.000000000000000000e+00,5.000000000000000000e+00,5.000000000000000000e+00,5.000000000000000000e+00,5.000000000000000000e+00,5.000000000000000000e+00,5.000000000000000000e+00,5.000000000000000000e+00,5.000000000000000000e+00,5.000000000000000000e+00,5.000000000000000000e+00,5.000000000000000000e+00,5.000000000000000000e+00,5.000000000000000000e+00,5.000000000000000000e+00,5.000000000000000000e+00,5.000000000000000000e+00,5.000000000000000000e+00,5.000000000000000000e+00,5.000000000000000000e+00,5.000000000000000000e+00,4.852845668792724609e+00,4.662663459777832031e+00,4.486826419830322266e+00,1.440573692321777344e+00,1.378005862236022949e+00,1.341786742210388184e+00,1.326647758483886719e+00,1.339225769042968750e+00,1.352570056915283203e+00,1.600162386894226074e+00,1.634104728698730469e+00,3.349861860275268555e+00,3.258127450942993164e+00,3.171283245086669922e+00,3.088948249816894531e+00,3.010780572891235352e+00,2.936471462249755859e+00,2.865741491317749023e+00,2.798339128494262695e+00,2.734034538269042969e+00,2.672619104385375977e+00,2.613901853561401367e+00,2.557709217071533203e+00,2.503881931304931641e+00,2.452273368835449219e+00,2.402749538421630859e+00,2.355186223983764648e+00,2.309469461441040039e+00,2.265493631362915039e+00,2.223161458969116211e+00,2.182382106781005859e+00,2.143071889877319336e+00,2.105152606964111328e+00,2.068552017211914062e+00,2.033202409744262695e+00,1.999040603637695312e+00,1.966008067131042480e+00,1.934049010276794434e+00,1.903112530708312988e+00,1.873150348663330078e+00,1.844116806983947754e+00
4.236728668212890625e+00,4.241793155670166016e+00,4.259472846984863281e+00,4.301139831542968750e+00,4.396077156066894531e+00,4.463751316070556641e+00,4.477553367614746094e+00,5.000000000000000000e+00,5.000000000000000000e+00,5.000000000000000000e+00,5.000000000000000000e+00,5.000000000000000000e+00,5.000000000000000000e+00,5.000000000000000000e+00,5.000000000000000000e+00,5.000000000000000000e+00,5.000000000000000000e+00,5.000000000000000000e+00,5.000000000000000000e+00,5.000000000000000000e+00,5.000000000000000000e+00,5.000000000000000000e+00,5.000000000000000000e+00,5.000000000000000000e+00,5.000000000000000000e+00,5.000000000000000000e+00,5.000000000000000000e+00,5.000000000000000000e+00,5.000000000000000000e+00,5.000000000000000000e+00,5.000000000000000000e+00,5.000000000000000000e+00,5.000000000000000000e+00,5.000000000000000000e+00,5.000000000000000000e+00,5.000000000000000000e+00,5.000000000000000000e+00,5.000000000000000000e+00,5.000000000000000000e+00,4.852984428405761719e+00,4.662791728973388672e+00,4.486945152282714844e+00,1.447689414024353027e+00,1.384075164794921875e+00,1.344010591506958008e+00,1.327785491943359375e+00,1.340879678726196289e+00,1.355252027511596680e+00,1.606367111206054688e+00,3.446981906890869141e+00,3.349928140640258789e+00,3.258190155029296875e+00,3.171342372894287109e+00,3.089004516601562500e+00,3.010833978652954102e+00,2.936522245407104492e+00,2.865790128707885742e+00,2.798385381698608398e+00,2.734078645706176758e+00,2.672661066055297852e+00,2.613942146301269531e+00,2.557747840881347656e+00,2.503918886184692383e+00,2.452308893203735352e+00,2.402783393859863281e+00,2.355219125747680664e+00,2.309500932693481445e+00,2.265523910522460938e+00,2.223190546035766602e+00,2.182410240173339844e+00,2.143098831176757812e+00,2.105178833007812500e+00,2.068577289581298828e+00,2.033226966857910156e+00,1.999064087867736816e+00,1.966030836105346680e+00,1.934071183204650879e+00,1.903133869171142578e+00,1.873171091079711914e+00,1.844136834144592285e+00
4.228685855865478516e+00,4.249566078186035156e+00,4.274164676666259766e+00,4.315802097320556641e+00,4.383656024932861328e+00,5.000000000000000000e+00,4.439476013183593750e+00,5.000000000000000000e+00,5.000000000000000000e+00,5.000000000000000000e+00,5.000000000000000000e+00,5.000000000000000000e+00,5.000000000000000000e+00,5.000000000000000000e+00,5.000000000000000000e+00,5.000000000000000000e+00,5.000000000000000000e+00,5.000000000000000000e+00,5.000000000000000000e+00,5.000000000000000000e+00,5.000000000000000000e+00,5.000000000000000000e+00,5.000000000000000000e+00,5.000000000000000000e+00,5.000000000000000000e+00,5.000000000000000000e+00,5.000000000000000000e+00,5.000000000000000000e+00,5.000000000000000000e+00,5.000000000000000000e+00,5.000000000000000000e+00,5.000000000000000000e+00,5.000000000000000000e+00,5.000000000000000000e+00,5.000000000000000000e+00,5.000000000000000000e+00,5.000000000000000000e+00,5.000000000000000000e+00,5.000000000000000000e+00,4.853123664855957031e+00,4.662919998168945312e+00,4.487063884735107422e+00,4.323989391326904297e+00,1.375340104103088379e+00,1.348941326141357422e+00,1.329832077026367188e+00,1.342637062072753906e+00,1.375599861145019531e+00,1.612620115280151367e+00,3.447052001953125000e+00,3.349994421005249023e+00,3.258252859115600586e+00,3.171401739120483398e+00,3.089060783386230469e+00,3.010887384414672852e+00,2.936573028564453125e+00,2.865838527679443359e+00,2.798431634902954102e+00,2.734122753143310547e+00,2.672703027725219727e+00,2.613982439041137695e+00,2.557786464691162109e+00,2.503955841064453125e+00,2.452344417572021484e+00,2.402817487716674805e+00,2.355251789093017578e+00,2.309532165527343750e+00,2.265554189682006836e+00,2.223219633102416992e+00,2.182438373565673828e+00,2.143126010894775391e+00,2.105205059051513672e+00,2.068602561950683594e+00,2.033251047134399414e+00,1.999087691307067871e+00,1.966053605079650879e+00,1.934093236923217773e+00,1.903155326843261719e+00,1.873191714286804199e+00,1.844156861305236816e+00
4.188530921936035156e+00,4.212827682495117188e+00,4.324801921844482422e+00,4.324514389038085938e+00,4.376563549041748047e+00,5.000000000000000000e+00,4.410706520080566406e+00,5.000000000000000000e+00,5.000000000000000000e+00,5.000000000000000000e+00,5.000000000000000000e+00,5.000000000000000000e+00,5.000000000000000000e+00,5.000000000000000000e+00,5.000000000000000000e+00,5.000000000000000000e+00,5.000000000000000000e+00,5.000000000000000000e+00,5.000000000000000000e+00,5.000000000000000000e+00,5.000000000000000000e+00,5.000000000000000000e+00,5.000000000000000000e+00,5.000000000000000000e+00,5.000000000000000000e+00,5.000000000000000000e+00,5.000000000000000000e+00,5.000000000000000000e+00,5.000000000000000000e+00,5.000000000000000000e+00,5.000000000000000000e+00,5.000000000000000000e+00,5.000000000000000000e+00,5.000000000000000000e+00,5.000000000000000000e+00,5.000000000000000000e+00,5.000000000000000000e+00,5.000000000000000000e+00,5.000000000000000000e+00,4.853261947631835938e+00,4.663048267364501953e+00,4.487182617187500000e+00,4.324100017547607422e+00,1.369527220726013184e+00,1.349800229072570801e+00,1.334659218788146973e+00,1.344398856163024902e+00,1.399417996406555176e+00,1.619795799255371094e+00,3.447122097015380859e+00,3.350060701370239258e+00,3.258315563201904297e+00,3.171461105346679688e+00,3.089117050170898438e+00,3.010941028594970703e+00,2.936623811721801758e+00,2.865886926651000977e+00,2.798477888107299805e+00,2.734166860580444336e+00,2.672745227813720703e+00,2.614022731781005859e+00,2.557825088500976562e+00,2.503993034362792969e+00,2.452379941940307617e+00,2.402851581573486328e+00,2.355284452438354492e+00,2.309563636779785156e+00,2.265584468841552734e+00,2.223248958587646484e+00,2.182466506958007812e+00,2.143153190612792969e+00,2.105231046676635742e+00,2.068627834320068359e+00,2.033275604248046875e+00,1.999111294746398926e+00,1.966076493263244629e+00,1.934115290641784668e+00,1.903176665306091309e+00,1.873212456703186035e+00,1.844177007675170898e+00
4.172196388244628906e+00,4.192480087280273438e+00,4.298243522644042969e+00,4.315494060516357422e+00,4.370239734649658203e+00,5.000000000000000000e+00,4.355404853820800781e+00,5.000000000000000000e+00,5.000000000000000000e+00,5.000000000000000000e+00,5.000000000000000000e+00,5.000000000000000000e+00,5.000000000000000000e+00,5.000000000000000000e+00,5.000000000000000000e+00,5.000000000000000000e+00,5.000000000000000000e+00,5.000000000000000000e+00,5.000000000000000000e+00,5.000000000000000000e+00,5.000000000000000000e+00,5.000000000000000000e+00,5.000000000000000000e+00,5.000000000000000000e+00,5.000000000000000000e+00,5.000000000000000000e+00,5.000000000000000000e+00,5.000000000000000000e+00,5.000000000000000000e+00,5.000000000000000000e+00,5.000000000000000000e+00,5.000000000000000000e+00,5.000000000000000000e+00,5.000000000000000000e+00,5.000000000000000000e+00,5.000000000000000000e+00,5.000000000000000000e+00,5.000000000000000000e+00,5.000000000000000000e+00,4.853401184082031250e+00,4.663177013397216797e+00,4.487301349639892578e+00,4.324210166931152344e+00,1.368568897247314453e+00,1.350139737129211426e+00,1.339521408081054688e+00,1.349043369293212891e+00,1.626250267028808594e+00,1.637407660484313965e+00,3.447192192077636719e+00,3.350126743316650391e+00,3.258378028869628906e+00,3.171520471572875977e+00,3.089173316955566406e+00,3.010994434356689453e+00,2.936674594879150391e+00,2.865935325622558594e+00,2.798524141311645508e+00,2.734210968017578125e+00,2.672787427902221680e+00,2.614063024520874023e+00,2.557863712310791016e+00,2.504029750823974609e+00,2.452415227890014648e+00,2.402885675430297852e+00,2.355317115783691406e+00,2.309595108032226562e+00,2.265614748001098633e+00,2.223278045654296875e+00,2.182494401931762695e+00,2.143180131912231445e+00,2.105257272720336914e+00,2.068653106689453125e+00,2.033299922943115234e+00,1.999134898185729980e+00,1.966099262237548828e+00,1.934137344360351562e+00,1.903198003768920898e+00,1.873233199119567871e+00,1.844197034835815430e+00
4.160783290863037109e+00,4.176925659179687500e+00,4.280676841735839844e+00,4.323227882385253906e+00,4.378069400787353516e+00,5.000000000000000000e+00,5.000000000000000000e+00,5.000000000000000000e+00,5.000000000000000000e+00,5.000000000000000000e+00,5.000000000000000000e+00,5.000000000000000000e+00,5.000000000000000000e+00,5.000000000000000000e+00,5.000000000000000000e+00,5.000000000000000000e+00,5.000000000000000000e+00,5.000000000000000000e+00,5.000000000000000000e+00,5.000000000000000000e+00,5.000000000000000000e+00,5.000000000000000000e+00,5.000000000000000000e+00,5.000000000000000000e+00,5.000000000000000000e+00,5.000000000000000000e+00,5.000000000000000000e+00,5.000000000000000000e+00,5.000000000000000000e+00,5.000000000000000000e+00,5.000000000000000000e+00,5.000000000000000000e+00,5.000000000000000000e+00,5.000000000000000000e+00,5.000000000000000000e+00,5.000000000000000000e+00,5.000000000000000000e+00,5.000000000000000000e+00,5.000000000000000000e+00,4.853539943695068359e+00,4.663305282592773438e+00,4.487420082092285156e+00,4.324320793151855469e+00,1.368673682212829590e+00,1.350479364395141602e+00,1.341920852661132812e+00,1.355829000473022461e+00,1.638939738273620605e+00,3.550124645233154297e+00,3.447262287139892578e+00,3.350193023681640625e+00,3.258440732955932617e+00,3.171579837799072266e+00,3.089229822158813477e+00,3.011048078536987305e+00,2.936725616455078125e+00,2.865983963012695312e+00,2.798570394515991211e+00,2.734255075454711914e+00,2.672829627990722656e+00,2.614103317260742188e+00,2.557902336120605469e+00,2.504066705703735352e+00,2.452450752258300781e+00,2.402919769287109375e+00,2.355350017547607422e+00,2.309626579284667969e+00,2.265645027160644531e+00,2.223307132720947266e+00,2.182522535324096680e+00,2.143207311630249023e+00,2.105283498764038086e+00,2.068678140640258789e+00,2.033324241638183594e+00,1.999158501625061035e+00,1.966122031211853027e+00,1.934159398078918457e+00,1.903219461441040039e+00,1.873253822326660156e+00,1.844217061996459961e+00
4.148252010345458984e+00,4.159177303314208984e+00,4.251710891723632812e+00,4.334192752838134766e+00,4.390674114227294922e+00,5.000000000000000000e+00,5.000000000000000000e+00,5.000000000000000000e+00,5.000000000000000000e+00,5.000000000000000000e+00,5.000000000000000000e+00,5.000000000000000000e+00,5.000000000000000000e+00,5.000000000000000000e+00,5.000000000000000000e+00,5.000000000000000000e+00,5.000000000000000000e+00,5.000000000000000000e+00,5.000000000000000000e+00,5.000000000000000000e+00,5.000000000000000000e+00,5.000000000000000000e+00,5.000000000000000000e+00,5.000000000000000000e+00,5.000000000000000000e+00,5.000000000000000000e+00,5.000000000000000000e+00,5.000000000000000000e+00,5.000000000000000000e+00,5.000000000000000000e+00,5.000000000000000000e+00,5.000000000000000000e+00,5.000000000000000000e+00,5.000000000000000000e+00,5.000000000000000000e+00,5.000000000000000000e+00,5.000000000000000000e+00,5.000000000000000000e+00,5.000000000000000000e+00,4.853679180145263672e+00,4.663433551788330078e+00,4.487538814544677734e+00,4.324430465698242188e+00,1.368743777275085449e+00,1.347917795181274414e+00,1.337986230850219727e+00,1.350478291511535645e+00,1.660888075828552246e+00,3.550199031829833984e+00,3.447332620620727539e+00,3.350259304046630859e+00,3.258503198623657227e+00,3.171639204025268555e+00,3.089286088943481445e+00,3.011101484298706055e+00,2.936776399612426758e+00,2.866032361984252930e+00,2.798616409301757812e+00,2.734298944473266602e+00,2.672871828079223633e+00,2.614143848419189453e+00,2.557940959930419922e+00,2.504103660583496094e+00,2.452486276626586914e+00,2.402953863143920898e+00,2.355382680892944336e+00,2.309658050537109375e+00,2.265675306320190430e+00,2.223336458206176758e+00,2.182550668716430664e+00,2.143234491348266602e+00,2.105309486389160156e+00,2.068703413009643555e+00,2.033348798751831055e+00,1.999181985855102539e+00,1.966144919395446777e+00,1.934181451797485352e+00,1.903240799903869629e+00,1.873274564743041992e+00,1.844237208366394043e+00
5.000000000000000000e+00,4.141241550445556641e+00,4.224523544311523438e+00,4.344731807708740234e+00,5.000000000000000000e+00,5.000000000000000000e+00,5.000000000000000000e+00,5.000000000000000000e+00,5.000000000000000000e+00,5.000000000000000000e+00,5.000000000000000000e+00,5.000000000000000000e+00,5.000000000000000000e+00,5.000000000000000000e+00,5.000000000000000000e+00,5.000000000000000000e+00,5.000000000000000000e+00,5.000000000000000000e+00,5.000000000000000000e+00,5.000000000000000000e+00,5.000000000000000000e+00,5.000000000000000000e+00,5.000000000000000000e+00,5.000000000000000000e+00,5.000000000000000000e+00,5.000000000000000000e+00,5.000000000000000000e+00,5.000000000000000000e+00,5.000000000000000000e+00,5.000000000000000000e+00,5.000000000000000000e+00,5.000000000000000000e+00,5.000000000000000000e+00,5.000000000000000000e+00,5.000000000000000000e+00,5.000000000000000000e+00,5.000000000000000000e+00,5.000000000000000000e+00,5.000000000000000000e+00,4.853817939758300781e+00,4.663561344146728516e+00,4.487657546997070312e+00,4.324541091918945312e+00,1.367947578430175781e+00,1.342928528785705566e+00,1.332436919212341309e+00,1.340934038162231445e+00,1.367738246917724609e+00,3.550273418426513672e+00,3.447402715682983398e+00,3.350325584411621094e+00,3.258565664291381836e+00,3.171698331832885742e+00,3.089342355728149414e+00,3.011154890060424805e+00,2.936827421188354492e+00,2.866080760955810547e+00,2.798662662506103516e+00,2.734343051910400391e+00,2.672913789749145508e+00,2.614184141159057617e+00,2.557979583740234375e+00,2.504140853881835938e+00,2.452521800994873047e+00,2.402987957000732422e+00,2.355415344238281250e+00,2.309689521789550781e+00,2.265705585479736328e+00,2.223365545272827148e+00,2.182578802108764648e+00,2.143261432647705078e+00,2.105335712432861328e+00,2.068728685379028320e+00,2.033373117446899414e+00,1.999205589294433594e+00,1.966167688369750977e+00,1.934203624725341797e+00,1.903262138366699219e+00,1.873295307159423828e+00,1.844257235527038574e+00
5.000000000000000000e+00,4.150902271270751953e+00,4.235238552093505859e+00,4.353769302368164062e+00,5.000000000000000000e+00,5.000000000000000000e+00,5.000000000000000000e+00,5.000000000000000000e+00,5.000000000000000000e+00,5.000000000000000000e+00,5.000000000000000000e+00,5.000000000000000000e+00,5.000000000000000000e+00,5.000000000000000000e+00,5.000000000000000000e+00,5.000000000000000000e+00,5.000000000000000000e+00,5.000000000000000000e+00,5.000000000000000000e+00,5.000000000000000000e+00,5.000000000000000000e+00,5.000000000000000000e+00,5.000000000000000000e+00,5.000000000000000000e+00,5.000000000000000000e+00,5.000000000000000000e+00,5.000000000000000000e+00,5.000000000000000000e+00,5.000000000000000000e+00,5.000000000000000000e+00,5.000000000000000000e+00,5.000000000000000000e+00,5.000000000000000000e+00,5.000000000000000000e+00,5.000000000000000000e+00,5.000000000000000000e+00,5.000000000000000000e+00,5.000000000000000000e+00,5.000000000000000000e+00,4.853956699371337891e+00,4.663689613342285156e+00,4.487776756286621094e+00,4.324651241302490234e+00,1.367152214050292969e+00,1.339976787567138672e+00,1.326933622360229492e+00,1.331523776054382324e+00,1.357422590255737305e+00,3.550347805023193359e+00,3.447472810745239258e+00,3.350391864776611328e+00,3.258628368377685547e+00,3.171757936477661133e+00,3.089398622512817383e+00,3.011208295822143555e+00,2.936878204345703125e+00,2.866129398345947266e+00,2.798708915710449219e+00,2.734387159347534180e+00,2.672955989837646484e+00,2.614224433898925781e+00,2.558018207550048828e+00,2.504177808761596680e+00,2.452557325363159180e+00,2.403022050857543945e+00,2.355448007583618164e+00,2.309720993041992188e+00,2.265735864639282227e+00,2.223394632339477539e+00,2.182606935501098633e+00,2.143288612365722656e+00,2.105361938476562500e+00,2.068753957748413086e+00,2.033397436141967773e+00,1.999229192733764648e+00,1.966190457344055176e+00,1.934225678443908691e+00,1.903283596038818359e+00,1.873315930366516113e+00,1.844277381896972656e+00
5.000000000000000000e+00,4.172452449798583984e+00,4.264359951019287109e+00,4.412687778472900391e+00,4.553763389587402344e+00,5.000000000000000000e+00,5.000000000000000000e+00,5.000000000000000000e+00,5.000000000000000000e+00,5.000000000000000000e+00,5.000000000000000000e+00,5.000000000000000000e+00,5.000000000000000000e+00,5.000000000000000000e+00,5.000000000000000000e+00,5.000000000000000000e+00,5.000000000000000000e+00,5.000000000000000000e+00,5.000000000000000000e+00,5.000000000000000000e+00,5.000000000000000000e+00,5.000000000000000000e+00,5.000000000000000000e+00,5.000000000000000000e+00,5.000000000000000000e+00,5.000000000000000000e+00,5.000000000000000000e+00,5.000000000000000000e+00,5.000000000000000000e+00,5.000000000000000000e+00,5.000000000000000000e+00,5.000000000000000000e+00,5.000000000000000000e+00,5.000000000000000000e+00,5.000000000000000000e+00,5.000000000000000000e+00,5.000000000000000000e+00,5.000000000000000000e+00,5.000000000000000000e+00,4.854094982147216797e+00,4.663818359375000000e+00,4.487895488739013672e+00,4.324761867523193359e+00,1.366357922554016113e+00,1.339271545410156250e+00,1.321886897087097168e+00,1.322244644165039062e+00,1.347261428833007812e+00,3.550422191619873047e+00,3.447542905807495117e+00,3.350457906723022461e+00,3.258691072463989258e+00,3.171817064285278320e+00,3.089454889297485352e+00,3.011261701583862305e+00,2.936929225921630859e+00,2.866177797317504883e+00,2.798755168914794922e+00,2.734431266784667969e+00,2.672998189926147461e+00,2.614264726638793945e+00,2.558056592941284180e+00,2.504214763641357422e+00,2.452592849731445312e+00,2.403056144714355469e+00,2.355480670928955078e+00,2.309752702713012695e+00,2.265766143798828125e+00,2.223423719406127930e+00,2.182635068893432617e+00,2.143315792083740234e+00,2.105388164520263672e+00,2.068779230117797852e+00,2.033421993255615234e+00,1.999252796173095703e+00,1.966213345527648926e+00,1.934247732162475586e+00,1.903304934501647949e+00,1.873336672782897949e+00,1.844297409057617188e+00
5.000000000000000000e+00,4.179887771606445312e+00,4.248720645904541016e+00,4.515354156494140625e+00,5.000000000000000000e+00,5.000000000000000000e+00,5.000000000000000000e+00,5.000000000000000000e+00,5.000000000000000000e+00,5.000000000000000000e+00,5.000000000000000000e+00,5.000000000000000000e+00,5.000000000000000000e+00,5.000000000000000000e+00,5.000000000000000000e+00,5.000000000000000000e+00,5.000000000000000000e+00,5.000000000000000000e+00,5.000000000000000000e+00,5.000000000000000000e+00,5.000000000000000000e+00,5.000000000000000000e+00,5.000000000000000000e+00,5.000000000000000000e+00,5.000000000000000000e+00,5.000000000000000000e+00,5.000000000000000000e+00,5.000000000000000000e+00,5.000000000000000000e+00,5.000000000000000000e+00,5.000000000000000000e+00,5.000000000000000000e+00,5.000000000000000000e+00,5.000000000000000000e+00,5.000000000000000000e+00,5.000000000000000000e+00,5.000000000000000000e+00,5.000000000000000000e+00,5.000000000000000000e+00,4.854232788085937500e+00,4.663945674896240234e+00,4.488014221191406250e+00,4.324872016906738281e+00,1.365564346313476562e+00,1.338567018508911133e+00,1.318508386611938477e+00,1.313094139099121094e+00,1.337251305580139160e+00,3.550496578216552734e+00,3.447613000869750977e+00,3.350523948669433594e+00,3.258753776550292969e+00,3.171876668930053711e+00,3.089511394500732422e+00,3.011315345764160156e+00,2.936980009078979492e+00,2.866226196289062500e+00,2.798801422119140625e+00,2.734475612640380859e+00,2.673040390014648438e+00,2.614305019378662109e+00,2.558095216751098633e+00,2.504251718521118164e+00,2.452628374099731445e+00,2.403090238571166992e+00,2.355513572692871094e+00,2.309784173965454102e+00,2.265796422958374023e+00,2.223452806472778320e+00,2.182662963867187500e+00,2.143342733383178711e+00,2.105414152145385742e+00,2.068804502487182617e+00,2.033446311950683594e+00,1.999276399612426758e+00,1.966235876083374023e+00,1.934269785881042480e+00,1.903326272964477539e+00,1.873357415199279785e+00,1.844317436218261719e+00
5.000000000000000000e+00,4.187391757965087891e+00,4.242918968200683594e+00,4.587177276611328125e+00,5.000000000000000000e+00,5.000000000000000000e+00,5.000000000000000000e+00,5.000000000000000000e+00,5.000000000000000000e+00,5.000000000000000000e+00,5.000000000000000000e+00,5.000000000000000000e+00,5.000000000000000000e+00,5.000000000000000000e+00,5.000000000000000000e+00,5.000000000000000000e+00,5.000000000000000000e+00,5.000000000000000000e+00,5.000000000000000000e+00,5.000000000000000000e+00,5.000000000000000000e+00,5.000000000000000000e+00,5.000000000000000000e+00,5.000000000000000000e+00,5.000000000000000000e+00,5.000000000000000000e+00,5.000000000000000000e+00,5.000000000000000000e+00,5.000000000000000000e+00,5.000000000000000000e+00,5.000000000000000000e+00,5.000000000000000000e+00,5.000000000000000000e+00,5.000000000000000000e+00,5.000000000000000000e+00,5.000000000000000000e+00,5.000000000000000000e+00,5.000000000000000000e+00,5.000000000000000000e+00,4.854370594024658203e+00,4.664072990417480469e+00,4.488132476806640625e+00,4.324982643127441406e+00,1.364771723747253418e+00,1.337863206863403320e+00,1.315578103065490723e+00,1.304051160812377930e+00,1.327937841415405273e+00,3.550570964813232422e+00,3.447683095932006836e+00,3.350590229034423828e+00,3.258816480636596680e+00,3.171936035156250000e+00,3.089567661285400391e+00,3.011368751525878906e+00,2.937031030654907227e+00,2.866274833679199219e+00,2.798847436904907227e+00,2.734519720077514648e+00,2.673082590103149414e+00,2.614345312118530273e+00,2.558133840560913086e+00,2.504288911819458008e+00,2.452663898468017578e+00,2.403124332427978516e+00,2.355546236038208008e+00,2.309815645217895508e+00,2.265826702117919922e+00,2.223482131958007812e+00,2.182691097259521484e+00,2.143369913101196289e+00,2.105440378189086914e+00,2.068829536437988281e+00,2.033470630645751953e+00,1.999300003051757812e+00,1.966258645057678223e+00,1.934291839599609375e+00,1.903347611427307129e+00,1.873378157615661621e+00,1.844337582588195801e+00
5.000000000000000000e+00,4.203840732574462891e+00,4.244752407073974609e+00,4.683100700378417969e+00,5.000000000000000000e+00,5.000000000000000000e+00,5.000000000000000000e+00,5.000000000000000000e+00,5.000000000000000000e+00,5.000000000000000000e+00,5.000000000000000000e+00,5.000000000000000000e+00,5.000000000000000000e+00,5.000000000000000000e+00,5.000000000000000000e+00,5.000000000000000000e+00,5.000000000000000000e+00,5.000000000000000000e+00,5.000000000000000000e+00,5.000000000000000000e+00,5.000000000000000000e+00,5.000000000000000000e+00,5.000000000000000000e+00,5.000000000000000000e+00,5.000000000000000000e+00,5.000000000000000000e+00,5.000000000000000000e+00,5.000000000000000000e+00,5.000000000000000000e+00,5.000000000000000000e+00,5.000000000000000000e+00,5.000000000000000000e+00,5.000000000000000000e+00,5.000000000000000000e+00,5.000000000000000000e+00,5.000000000000000000e+00,5.000000000000000000e+00,5.000000000000000000e+00,5.000000000000000000e+00,4.854508399963378906e+00,4.664200305938720703e+00,4.488250255584716797e+00,4.325092792510986328e+00,1.783349037170410156e+00,1.337647438049316406e+00,1.313637018203735352e+00,1.303254365921020508e+00,1.319535136222839355e+00,3.550645351409912109e+00,3.447753429412841797e+00,3.350656509399414062e+00,3.258879184722900391e+00,3.171995401382446289e+00,3.089623928070068359e+00,3.011422157287597656e+00,2.937081813812255859e+00,2.866323232650756836e+00,2.798893690109252930e+00,2.734563827514648438e+00,2.673124790191650391e+00,2.614385604858398438e+00,2.558172464370727539e+00,2.504325866699218750e+00,2.452699184417724609e+00,2.403158187866210938e+00,2.355578899383544922e+00,2.309847116470336914e+00,2.265856981277465820e+00,2.223511219024658203e+00,2.182719230651855469e+00,2.143397092819213867e+00,2.105466365814208984e+00,2.068854808807373047e+00,2.033495187759399414e+00,1.999323606491088867e+00,1.966281533241271973e+00,1.934314012527465820e+00,1.903369069099426270e+00,1.873398780822753906e+00,1.844357609748840332e+00
5.000000000000000000e+00,5.000000000000000000e+00,4.261848926544189453e+00,4.694039821624755859e+00,5.000000000000000000e+00,5.000000000000000000e+00,5.000000000000000000e+00,5.000000000000000000e+00,5.000000000000000000e+00,5.000000000000000000e+00,5.000000000000000000e+00,5.000000000000000000e+00,5.000000000000000000e+00,5.000000000000000000e+00,5.000000000000000000e+00,5.000000000000000000e+00,5.000000000000000000e+00,5.000000000000000000e+00,5.000000000000000000e+00,5.000000000000000000e+00,5.000000000000000000e+00,5.000000000000000000e+00,5.000000000000000000e+00,5.000000000000000000e+00,5.000000000000000000e+00,5.000000000000000000e+00,5.000000000000000000e+00,5.000000000000000000e+00,5.000000000000000000e+00,5.000000000000000000e+00,5.000000000000000000e+00,5.000000000000000000e+00,5.000000000000000000e+00,5.000000000000000000e+00,5.000000000000000000e+00,5.000000000000000000e+00,5.000000000000000000e+00,5.000000000000000000e+00,5.000000000000000000e+00,4.854646205902099609e+00,4.664327621459960938e+00,4.488368034362792969e+00,4.325201988220214844e+00,1.793130159378051758e+00,1.337861180305480957e+00,1.313125371932983398e+00,1.303667187690734863e+00,1.311238050460815430e+00,3.550719738006591797e+00,3.447823524475097656e+00,3.350722551345825195e+00,3.258941650390625000e+00,3.172054767608642578e+00,3.089679956436157227e+00,3.011475801467895508e+00,2.937132835388183594e+00,2.866371631622314453e+00,2.798939943313598633e+00,2.734607934951782227e+00,2.673166990280151367e+00,2.614426136016845703e+00,2.558211088180541992e+00,2.504362821578979492e+00,2.452734708786010742e+00,2.403192281723022461e+00,2.355611801147460938e+00,2.309878587722778320e+00,2.265887260437011719e+00,2.223540306091308594e+00,2.182747364044189453e+00,2.143424034118652344e+00,2.105492591857910156e+00,2.068880081176757812e+00,2.033519506454467773e+00,1.999347090721130371e+00,1.966304302215576172e+00,1.934336066246032715e+00,1.903390407562255859e+00,1.873419284820556641e+00,1.844377636909484863e+00
4.874903678894042969e+00,4.873692989349365234e+00,4.176939964294433594e+00,4.871273517608642578e+00,4.870064735412597656e+00,4.868856430053710938e+00,4.867649078369140625e+00,4.866441726684570312e+00,4.865235328674316406e+00,4.864029407501220703e+00,4.862824440002441406e+00,4.861619949340820312e+00,4.860415935516357422e+00,4.859212398529052734e+00,4.858009338378906250e+00,4.856807231903076172e+00,4.855605602264404297e+00,4.854404926300048828e+00,4.853204250335693359e+00,4.852004528045654297e+00,4.850805282592773438e+00,4.849606513977050781e+00,4.848408222198486328e+00,4.847210884094238281e+00,4.846014499664306641e+00,4.844817638397216797e+00,4.843622207641601562e+00,4.842426776885986328e+00,4.841232776641845703e+00,4.840038299560546875e+00,4.838845252990722656e+00,4.837652206420898438e+00,4.836460113525390625e+00,4.835268497467041016e+00,4.834077358245849609e+00,4.832887172698974609e+00,4.831697463989257812e+00,4.830508232116699219e+00,4.829319477081298828e+00,4.828131675720214844e+00,4.664454936981201172e+00,4.488486289978027344e+00,1.844092607498168945e+00,1.804951071739196777e+00,1.338075041770935059e+00,1.313386440277099609e+00,1.303146481513977051e+00,1.303044557571411133e+00,3.550794124603271484e+00,3.447893619537353516e+00,3.350788831710815430e+00,3.259004354476928711e+00,3.172114133834838867e+00,3.089736461639404297e+00,3.011529207229614258e+00,2.937183618545532227e+00,2.866420269012451172e+00,2.798985958099365234e+00,2.734652042388916016e+00,2.673208951950073242e+00,2.614466190338134766e+00,2.558249711990356445e+00,2.504399776458740234e+00,2.452770233154296875e+00,2.403226375579833984e+00,2.355644464492797852e+00,2.309910058975219727e+00,2.265917539596557617e+00,2.223569631576538086e+00,2.182775497436523438e+00,2.143451213836669922e+00,2.105518817901611328e+00,2.068905353546142578e+00,2.033543825149536133e+00,1.999370694160461426e+00,1.966327190399169922e+00,1.934358119964599609e+00,1.903411865234375000e+00,1.873440027236938477e+00,1.844397783279418945e+00
3.777707815170288086e+00,3.776980638504028320e+00,3.776253700256347656e+00,3.775527715682983398e+00,3.774801254272460938e+00,3.774075269699096680e+00,3.773350000381469727e+00,3.772624492645263672e+00,3.771899223327636719e+00,3.771174430847167969e+00,3.770450115203857422e+00,3.769725799560546875e+00,3.769001722335815430e+00,3.768277883529663086e+00,3.767554998397827148e+00,3.766831636428833008e+00,3.766108751296997070e+00,3.765386343002319336e+00,3.764663934707641602e+00,3.763941764831542969e+00,3.763220071792602539e+00,3.762498855590820312e+00,3.761777639389038086e+00,3.761056661605834961e+00,3.760335922241210938e+00,3.759615898132324219e+00,3.758895635604858398e+00,3.758175611495971680e+00,3.757456064224243164e+00,3.756736993789672852e+00,3.756017923355102539e+00,3.755299091339111328e+00,3.754580974578857422e+00,3.753862857818603516e+00,3.753144741058349609e+00,3.752427101135253906e+00,3.751709938049316406e+00,3.750992774963378906e+00,3.750275850296020508e+00,3.749559402465820312e+00,3.748843431472778320e+00,3.748127222061157227e+00,1.851598620414733887e+00,1.816928982734680176e+00,1.338289141654968262e+00,1.313647627830505371e+00,1.298272728919982910e+00,1.294952750205993652e+00,3.550868511199951172e+00,3.447963714599609375e+00,3.350855112075805664e+00,3.259067058563232422e+00,3.172173500061035156e+00,3.089792728424072266e+00,3.011582851409912109e+00,2.937234640121459961e+00,2.866468667984008789e+00,2.799032211303710938e+00,2.734696149826049805e+00,2.673251152038574219e+00,2.614506483078002930e+00,2.558288335800170898e+00,2.504436731338500977e+00,2.452805757522583008e+00,2.403260469436645508e+00,2.355677127838134766e+00,2.309941530227661133e+00,2.265947818756103516e+00,2.223598718643188477e+00,2.182803630828857422e+00,2.143478393554687500e+00,2.105544805526733398e+00,2.068930625915527344e+00,2.033568382263183594e+00,1.999394297599792480e+00,1.966349959373474121e+00,1.934380173683166504e+00,1.903433203697204590e+00,1.873460769653320312e+00,1.844417810440063477e+00
3.083666086196899414e+00,3.083181858062744141e+00,3.082697629928588867e+00,3.082213401794433594e+00,3.081729173660278320e+00,3.081245660781860352e+00,3.080761909484863281e+00,3.080278396606445312e+00,3.079794883728027344e+00,3.079311847686767578e+00,3.078828573226928711e+00,3.078345775604248047e+00,3.077862977981567383e+00,3.077380418777465820e+00,3.076897859573364258e+00,3.076415538787841797e+00,3.075933456420898438e+00,3.075451374053955078e+00,3.074969530105590820e+00,3.074487686157226562e+00,3.074006319046020508e+00,3.073524713516235352e+00,3.073043346405029297e+00,3.072562456130981445e+00,3.072081565856933594e+00,3.071600675582885742e+00,3.071119785308837891e+00,3.070639610290527344e+00,3.070159196853637695e+00,3.069678783416748047e+00,3.069198608398437500e+00,3.068718910217285156e+00,3.068239212036132812e+00,3.067759513854980469e+00,3.067279815673828125e+00,3.066800832748413086e+00,3.066321611404418945e+00,3.065842628479003906e+00,3.065363883972167969e+00,3.064885139465332031e+00,3.064406394958496094e+00,3.063927888870239258e+00,1.868866801261901855e+00,1.841796755790710449e+00,1.338503122329711914e+00,1.313909053802490234e+00,1.293435573577880859e+00,1.292375564575195312e+00,3.060583353042602539e+00,3.060106277465820312e+00,3.059629201889038086e+00,3.059152126312255859e+00,3.058675289154052734e+00,3.058198928833007812e+00,3.011636257171630859e+00,2.937285423278808594e+00,2.866516828536987305e+00,2.799078464508056641e+00,2.734740257263183594e+00,2.673293352127075195e+00,2.614546775817871094e+00,2.558326959609985352e+00,2.504473924636840820e+00,2.452841281890869141e+00,2.403294563293457031e+00,2.355710029602050781e+00,2.309973001480102539e+00,2.265978097915649414e+00,2.223628044128417969e+00,2.182831764221191406e+00,2.143505573272705078e+00,2.105571031570434570e+00,2.068955898284912109e+00,2.033592700958251953e+00,1.999417901039123535e+00,1.966372728347778320e+00,1.934402227401733398e+00,1.903454542160034180e+00,1.873481512069702148e+00,1.844437956809997559e+00
2.605063438415527344e+00,2.604717493057250977e+00,2.604371786117553711e+00,2.604026079177856445e+00,2.603680849075317383e+00,2.603335380554199219e+00,2.602990150451660156e+00,2.602645158767700195e+00,2.602299928665161133e+00,2.601954698562622070e+00,2.601609945297241211e+00,2.601265192031860352e+00,2.600920438766479492e+00,2.600575685501098633e+00,2.600231170654296875e+00,2.599886655807495117e+00,2.599542379379272461e+00,2.599197864532470703e+00,2.598853826522827148e+00,2.598509788513183594e+00,2.598165750503540039e+00,2.597821712493896484e+00,2.597478151321411133e+00,2.597134351730346680e+00,2.596790552139282227e+00,2.596446990966796875e+00,2.596103668212890625e+00,2.595760107040405273e+00,2.595416784286499023e+00,2.595073938369750977e+00,2.594730615615844727e+00,2.594387531280517578e+00,2.594044685363769531e+00,2.593701839447021484e+00,2.593359231948852539e+00,2.593016386032104492e+00,2.592673778533935547e+00,2.592331647872924805e+00,2.591989040374755859e+00,2.591646671295166016e+00,2.591304540634155273e+00,2.590962648391723633e+00,1.852718949317932129e+00,1.834392905235290527e+00,2.589936733245849609e+00,1.314170479774475098e+00,1.306029200553894043e+00,1.291305541992187500e+00,2.588570356369018555e+00,2.588228940963745117e+00,2.587887525558471680e+00,2.587546348571777344e+00,2.587205410003662109e+00,2.586864233016967773e+00,2.586523294448852539e+00,2.586182594299316406e+00,2.585841894149780273e+00,2.585501194000244141e+00,2.585160493850708008e+00,2.584820270538330078e+00,2.584479808807373047e+00,2.558365583419799805e+00,2.504510879516601562e+00,2.452876567840576172e+00,2.403328418731689453e+00,2.355742692947387695e+00,2.310004472732543945e+00,2.266008377075195312e+00,2.223657131195068359e+00,2.182859897613525391e+00,2.143532514572143555e+00,2.105597257614135742e+00,2.068981170654296875e+00,2.033617258071899414e+00,1.999441504478454590e+00,1.966395616531372070e+00,1.934424400329589844e+00,1.903475999832153320e+00,1.873502135276794434e+00,1.844457983970642090e+00
2.255102634429931641e+00,2.254841804504394531e+00,2.254581212997436523e+00,2.254320621490478516e+00,2.254060029983520508e+00,2.253799438476562500e+00,2.253539085388183594e+00,2.253278732299804688e+00,2.253018379211425781e+00,2.252758264541625977e+00,2.252497911453247070e+00,2.252237796783447266e+00,2.251977682113647461e+00,2.251717805862426758e+00,2.251457929611206055e+00,2.251197814941406250e+00,2.250938177108764648e+00,2.250678300857543945e+00,2.250418663024902344e+00,2.250159025192260742e+00,2.249899148941040039e+00,2.249639749526977539e+00,2.249380350112915039e+00,2.249120950698852539e+00,2.248862504959106445e+00,2.248604774475097656e+00,2.248347282409667969e+00,2.248089551925659180e+00,2.247832298278808594e+00,2.247574806213378906e+00,2.247317314147949219e+00,2.247060060501098633e+00,2.246802806854248047e+00,2.246545791625976562e+00,2.246288537979125977e+00,2.246031522750854492e+00,2.245774507522583008e+00,2.245517492294311523e+00,2.245260477066040039e+00,2.245003700256347656e+00,2.244746923446655273e+00,2.244490146636962891e+00,1.817830681800842285e+00,1.797785520553588867e+00,2.243720293045043945e+00,1.329796671867370605e+00,1.303170204162597656e+00,1.291686773300170898e+00,2.242694854736328125e+00,2.242438554763793945e+00,2.242182493209838867e+00,2.241926193237304688e+00,2.241670131683349609e+00,2.241414070129394531e+00,2.241158246994018555e+00,2.240902185440063477e+00,2.240646362304687500e+00,2.240390539169311523e+00,2.240134954452514648e+00,2.239879131317138672e+00,2.239623546600341797e+00,2.239368200302124023e+00,2.239112615585327148e+00,2.238857030868530273e+00,2.238601684570312500e+00,2.238346576690673828e+00,2.238091230392456055e+00,2.237835884094238281e+00,2.223686218261718750e+00,2.182888031005859375e+00,2.143559455871582031e+00,2.105623483657836914e+00,2.069006443023681641e+00,2.033641576766967773e+00,1.999465107917785645e+00,1.966418385505676270e+00,1.934446454048156738e+00,1.903497338294982910e+00,1.873522877693176270e+00,1.844478011131286621e+00
1.988104701042175293e+00,1.987902045249938965e+00,1.987699270248413086e+00,1.987496852874755859e+00,1.987294316291809082e+00,1.987091660499572754e+00,1.986889362335205078e+00,1.986686944961547852e+00,1.986484646797180176e+00,1.986282229423522949e+00,1.986079931259155273e+00,1.985877752304077148e+00,1.985675454139709473e+00,1.985473394393920898e+00,1.985271334648132324e+00,1.985069274902343750e+00,1.984867095947265625e+00,1.984665155410766602e+00,1.984463214874267578e+00,1.984261155128479004e+00,1.984059333801269531e+00,1.983857631683349609e+00,1.983655929565429688e+00,1.983453989028930664e+00,1.983252406120300293e+00,1.983050704002380371e+00,1.982849001884460449e+00,1.982647418975830078e+00,1.982445955276489258e+00,1.982244491577148438e+00,1.982042908668518066e+00,1.981841564178466797e+00,1.981640219688415527e+00,1.981438755989074707e+00,1.981237530708312988e+00,1.981036305427551270e+00,1.980835199356079102e+00,1.980633854866027832e+00,1.980432748794555664e+00,1.980231761932373047e+00,1.980030536651611328e+00,1.979829549789428711e+00,1.778520345687866211e+00,1.747186064720153809e+00,1.770303845405578613e+00,1.979025959968566895e+00,1.291161417961120605e+00,1.260415673255920410e+00,1.254558563232421875e+00,1.978222966194152832e+00,1.978022456169128418e+00,1.977821588516235352e+00,1.977621078491210938e+00,1.977420687675476074e+00,1.977220058441162109e+00,1.977019667625427246e+00,1.976819276809692383e+00,1.976619005203247070e+00,1.976418495178222656e+00,1.976218342781066895e+00,1.976018071174621582e+00,1.975817799568176270e+00,1.975617647171020508e+00,1.975417613983154297e+00,1.975217580795288086e+00,1.975017428398132324e+00,1.974817395210266113e+00,1.974617600440979004e+00,1.974417448043823242e+00,1.974217653274536133e+00,1.974017858505249023e+00,1.973818182945251465e+00,1.973618268966674805e+00,1.973418593406677246e+00,1.973219037055969238e+00,1.966441273689270020e+00,1.934468507766723633e+00,1.903518676757812500e+00,1.873543620109558105e+00,1.844498157501220703e+00
1.777637243270874023e+00,1.777475237846374512e+00,1.777313113212585449e+00,1.777151226997375488e+00,1.776989340782165527e+00,1.776827335357666016e+00,1.776665568351745605e+00,1.776503801345825195e+00,1.776342034339904785e+00,1.776180028915405273e+00,1.776018381118774414e+00,1.775856733322143555e+00,1.775694847106933594e+00,1.775533318519592285e+00,1.775371670722961426e+00,1.775210142135620117e+00,1.775048375129699707e+00,1.774886965751647949e+00,1.774725437164306641e+00,1.774564027786254883e+00,1.774402379989624023e+00,1.774241089820861816e+00,1.774079680442810059e+00,1.773918151855468750e+00,1.773756861686706543e+00,1.773595690727233887e+00,1.773434400558471680e+00,1.773272991180419922e+00,1.773111820220947266e+00,1.772950649261474609e+00,1.772789359092712402e+00,1.772628307342529297e+00,1.772467255592346191e+00,1.772306203842163086e+00,1.772145032882690430e+00,1.771984100341796875e+00,1.771823167800903320e+00,1.771661996841430664e+00,1.771501183509826660e+00,1.771340250968933105e+00,1.771179437637329102e+00,1.771018505096435547e+00,1.770857691764831543e+00,1.717473983764648438e+00,1.742366433143615723e+00,1.770375370979309082e+00,1.263072848320007324e+00,1.227146029472351074e+00,1.204849600791931152e+00,1.198411226272583008e+00,1.138412714004516602e+00,1.769411563873291016e+00,1.769251108169555664e+00,1.769090652465820312e+00,1.768930315971374512e+00,1.768769741058349609e+00,1.768609285354614258e+00,1.768449068069458008e+00,1.768288493156433105e+00,1.768128275871276855e+00,1.767968058586120605e+00,1.767807841300964355e+00,1.767647385597229004e+00,1.767487287521362305e+00,1.767327189445495605e+00,1.767166852951049805e+00,1.767006874084472656e+00,1.766846776008605957e+00,1.766686797142028809e+00,1.766526579856872559e+00,1.766366720199584961e+00,1.766206741333007812e+00,1.766046643257141113e+00,1.765886783599853516e+00,1.765726923942565918e+00,1.765567183494567871e+00,1.765407204627990723e+00,1.765247464179992676e+00,1.765087842941284180e+00,1.764927983283996582e+00
1.607465624809265137e+00,1.607333183288574219e+00,1.607200503349304199e+00,1.607068181037902832e+00,1.606935739517211914e+00,1.606803417205810547e+00,1.606670975685119629e+00,1.606538653373718262e+00,1.606406331062316895e+00,1.606273889541625977e+00,1.606141686439514160e+00,1.606009483337402344e+00,1.605877280235290527e+00,1.605744957923889160e+00,1.605612754821777344e+00,1.605480670928955078e+00,1.605348348617553711e+00,1.605216264724731445e+00,1.605084180831909180e+00,1.604952096939086914e+00,1.604819893836975098e+00,1.604687929153442383e+00,1.604555964469909668e+00,1.604423880577087402e+00,1.604291915893554688e+00,1.604159951210021973e+00,1.604028105735778809e+00,1.603896021842956543e+00,1.603764176368713379e+00,1.603632330894470215e+00,1.603500366210937500e+00,1.603368639945983887e+00,1.603236794471740723e+00,1.603105068206787109e+00,1.602973222732543945e+00,1.602841496467590332e+00,1.602709889411926270e+00,1.602578043937683105e+00,1.602446436882019043e+00,1.602314829826354980e+00,1.602183222770690918e+00,1.602051496505737305e+00,1.601919889450073242e+00,1.601788401603698730e+00,1.601656675338745117e+00,1.601525187492370605e+00,1.204981207847595215e+00,1.178746461868286133e+00,1.148801684379577637e+00,1.138843894004821777e+00,1.140299797058105469e+00,1.600736618041992188e+00,1.600605130195617676e+00,1.600473761558532715e+00,1.600342512130737305e+00,1.600211143493652344e+00,1.600079894065856934e+00,1.599948525428771973e+00,1.599817395210266113e+00,1.599686026573181152e+00,1.599554896354675293e+00,1.599423766136169434e+00,1.599292516708374023e+00,1.599161386489868164e+00,1.599030256271362305e+00,1.598899245262145996e+00,1.598768115043640137e+00,1.598637104034423828e+00,1.598506093025207520e+00,1.598374962806701660e+00,1.598243951797485352e+00,1.598113059997558594e+00,1.597982168197631836e+00,1.597851157188415527e+00,1.597720265388488770e+00,1.597589373588562012e+00,1.597458481788635254e+00,1.597327709197998047e+00,1.597196817398071289e+00,1.597066164016723633e+00
1.467028260231018066e+00,1.466917872428894043e+00,1.466807603836059570e+00,1.466697216033935547e+00,1.466586947441101074e+00,1.466476678848266602e+00,1.466366291046142578e+00,1.466256141662597656e+00,1.466145873069763184e+00,1.466035723686218262e+00,1.465925455093383789e+00,1.465815305709838867e+00,1.465705156326293945e+00,1.465594887733459473e+00,1.465484857559204102e+00,1.465374708175659180e+00,1.465264678001403809e+00,1.465154528617858887e+00,1.465044498443603516e+00,1.464934468269348145e+00,1.464824318885803223e+00,1.464714288711547852e+00,1.464604377746582031e+00,1.464494466781616211e+00,1.464384317398071289e+00,1.464274406433105469e+00,1.464164495468139648e+00,1.464054584503173828e+00,1.463944673538208008e+00,1.463834881782531738e+00,1.463724970817565918e+00,1.463615059852600098e+00,1.463505268096923828e+00,1.463395476341247559e+00,1.463285565376281738e+00,1.463175773620605469e+00,1.463066101074218750e+00,1.462956428527832031e+00,1.462846517562866211e+00,1.462736845016479492e+00,1.462627172470092773e+00,1.462517380714416504e+00,1.462407827377319336e+00,1.462298154830932617e+00,1.462188601493835449e+00,1.462078809738159180e+00,1.200276970863342285e+00,1.158638119697570801e+00,1.461750030517578125e+00,1.461640596389770508e+00,1.461531043052673340e+00,1.461421608924865723e+00,1.461311936378479004e+00,1.461202502250671387e+00,1.461093068122863770e+00,1.460983514785766602e+00,1.460874199867248535e+00,1.460764765739440918e+00,1.460655331611633301e+00,1.460545897483825684e+00,1.460436582565307617e+00,1.460327267646789551e+00,1.460217833518981934e+00,1.460108518600463867e+00,1.459999203681945801e+00,1.459890007972717285e+00,1.459780573844909668e+00,1.459671378135681152e+00,1.459562182426452637e+00,1.459452867507934570e+00,1.459343671798706055e+00,1.459234476089477539e+00,1.459125399589538574e+00,1.459016084671020508e+00,1.458907008171081543e+00,1.458797931671142578e+00,1.458688735961914062e+00,1.458579659461975098e+00,1.458470582962036133e+00,1.458361625671386719e+00
1.349158048629760742e+00,1.349064707756042480e+00,1.348971486091613770e+00,1.348878026008605957e+00,1.348784804344177246e+00,1.348691582679748535e+00,1.348598361015319824e+00,1.348505020141601562e+00,1.348411798477172852e+00,1.348318576812744141e+00,1.348225355148315430e+00,1.348132133483886719e+00,1.348039031028747559e+00,1.347945809364318848e+00,1.347852587699890137e+00,1.347759485244750977e+00,1.347666382789611816e+00,1.347573161125183105e+00,1.347480058670043945e+00,1.347387075424194336e+00,1.347293972969055176e+00,1.347200870513916016e+00,1.347107887268066406e+00,1.347014784812927246e+00,1.346921682357788086e+00,1.346828699111938477e+00,1.346735715866088867e+00,1.346642732620239258e+00,1.346549749374389648e+00,1.346456766128540039e+00,1.346363902091979980e+00,1.346270799636840820e+00,1.346177935600280762e+00,1.346085071563720703e+00,1.345992207527160645e+00,1.345899224281311035e+00,1.345806360244750977e+00,1.345713496208190918e+00,1.345620632171630859e+00,1.345527768135070801e+00,1.345435023307800293e+00,1.345342159271240234e+00,1.345249295234680176e+00,1.345156550407409668e+00,1.345063805580139160e+00,1.344970941543579102e+00,1.344878315925598145e+00,1.344785571098327637e+00,1.344692826271057129e+00,1.344600081443786621e+00,1.344507455825805664e+00,1.344414710998535156e+00,1.344321966171264648e+00,1.344229340553283691e+00,1.344136714935302734e+00,1.344044089317321777e+00,1.343951463699340820e+00,1.343858838081359863e+00,1.343766331672668457e+00,1.343673586845397949e+00,1.343581080436706543e+00,1.343488574028015137e+00,1.343396067619323730e+00,1.343303442001342773e+00,1.343210935592651367e+00,1.343118429183959961e+00,1.343025922775268555e+00,1.342933416366577148e+00,1.342841029167175293e+00,1.342748522758483887e+00,1.342656016349792480e+00,1.342563629150390625e+00,1.342471241950988770e+00,1.342378735542297363e+00,1.342286348342895508e+00,1.342194080352783203e+00,1.342101693153381348e+00,1.342009305953979492e+00,1.341916918754577637e+00,1.341824650764465332e+00
1.248820066452026367e+00,1.248740196228027344e+00,1.248660206794738770e+00,1.248580336570739746e+00,1.248500347137451172e+00,1.248420357704162598e+00,1.248340487480163574e+00,1.248260617256164551e+00,1.248180747032165527e+00,1.248100876808166504e+00,1.248021006584167480e+00,1.247941017150878906e+00,1.247861266136169434e+00,1.247781395912170410e+00,1.247701525688171387e+00,1.247621774673461914e+00,1.247541904449462891e+00,1.247462153434753418e+00,1.247382283210754395e+00,1.247302532196044922e+00,1.247222781181335449e+00,1.247143030166625977e+00,1.247063279151916504e+00,1.246983528137207031e+00,1.246903896331787109e+00,1.246824026107788086e+00,1.246744394302368164e+00,1.246664762496948242e+00,1.246585011482238770e+00,1.246505260467529297e+00,1.246425628662109375e+00,1.246345996856689453e+00,1.246266365051269531e+00,1.246186733245849609e+00,1.246107101440429688e+00,1.246027469635009766e+00,1.245947837829589844e+00,1.245868325233459473e+00,1.245788693428039551e+00,1.245709061622619629e+00,1.245629549026489258e+00,1.245550036430358887e+00,1.245470404624938965e+00,1.245390892028808594e+00,1.245311379432678223e+00,1.245231866836547852e+00,1.245152354240417480e+00,1.245072841644287109e+00,1.244993329048156738e+00,1.244913816452026367e+00,1.244834423065185547e+00,1.244755029678344727e+00,1.244675517082214355e+00,1.244596123695373535e+00,1.244516611099243164e+00,1.244437336921691895e+00,1.244357824325561523e+00,1.244278430938720703e+00,1.244199037551879883e+00,1.244119763374328613e+00,1.244040250778198242e+00,1.243960976600646973e+00,1.243881702423095703e+00,1.243802309036254883e+00,1.243722915649414062e+00,1.243643641471862793e+00,1.243564367294311523e+00,1.243485093116760254e+00,1.243405818939208984e+00,1.243326544761657715e+00,1.243247270584106445e+00,1.243167996406555176e+00,1.243088841438293457e+00,1.243009567260742188e+00,1.242930293083190918e+00,1.242851138114929199e+00,1.242771983146667480e+00,1.242692708969116211e+00,1.242613554000854492e+00,1.242534399032592773e+00
1.162373542785644531e+00,1.162304282188415527e+00,1.162235021591186523e+00,1.162165760993957520e+00,1.162096381187438965e+00,1.162027239799499512e+00,1.161957979202270508e+00,1.161888837814331055e+00,1.161819458007812500e+00,1.161750316619873047e+00,1.161681175231933594e+00,1.161611914634704590e+00,1.161542773246765137e+00,1.161473631858825684e+00,1.161404371261596680e+00,1.161335229873657227e+00,1.161266088485717773e+00,1.161196947097778320e+00,1.161127805709838867e+00,1.161058664321899414e+00,1.160989522933959961e+00,1.160920500755310059e+00,1.160851359367370605e+00,1.160782217979431152e+00,1.160713195800781250e+00,1.160644054412841797e+00,1.160575032234191895e+00,1.160505890846252441e+00,1.160436868667602539e+00,1.160367846488952637e+00,1.160298824310302734e+00,1.160229802131652832e+00,1.160160660743713379e+00,1.160091757774353027e+00,1.160022735595703125e+00,1.159953713417053223e+00,1.159884691238403320e+00,1.159815788269042969e+00,1.159746766090393066e+00,1.159677743911743164e+00,1.159608840942382812e+00,1.159539937973022461e+00,1.159471035003662109e+00,1.159402012825012207e+00,1.159333109855651855e+00,1.159264206886291504e+00,1.159195184707641602e+00,1.159126400947570801e+00,1.159057497978210449e+00,1.158988595008850098e+00,1.158919692039489746e+00,1.158850908279418945e+00,1.158782005310058594e+00,1.158713102340698242e+00,1.158644318580627441e+00,1.158575534820556641e+00,1.158506631851196289e+00,1.158437848091125488e+00,1.158369064331054688e+00,1.158300280570983887e+00,1.158231377601623535e+00,1.158162713050842285e+00,1.158093929290771484e+00,1.158025145530700684e+00,1.157956361770629883e+00,1.157887578010559082e+00,1.157818913459777832e+00,1.157750129699707031e+00,1.157681345939636230e+00,1.157612681388854980e+00,1.157544016838073730e+00,1.157475233078002930e+00,1.157406568527221680e+00,1.157337903976440430e+00,1.157269239425659180e+00,1.157200574874877930e+00,1.157131910324096680e+00,1.157063245773315430e+00,1.156994581222534180e+00,1.156925916671752930e+00
1.087120175361633301e+00,1.087059497833251953e+00,1.086998939514160156e+00,1.086938381195068359e+00,1.086877822875976562e+00,1.086817264556884766e+00,1.086756706237792969e+00,1.086696147918701172e+00,1.086635589599609375e+00,1.086575031280517578e+00,1.086514472961425781e+00,1.086454033851623535e+00,1.086393475532531738e+00,1.086332917213439941e+00,1.086272478103637695e+00,1.086211919784545898e+00,1.086151361465454102e+00,1.086090922355651855e+00,1.086030483245849609e+00,1.085969924926757812e+00,1.085909485816955566e+00,1.085849046707153320e+00,1.085788607597351074e+00,1.085728168487548828e+00,1.085667729377746582e+00,1.085607290267944336e+00,1.085546851158142090e+00,1.085486412048339844e+00,1.085425972938537598e+00,1.085365533828735352e+00,1.085305213928222656e+00,1.085244774818420410e+00,1.085184454917907715e+00,1.085124015808105469e+00,1.085063695907592773e+00,1.085003376007080078e+00,1.084942936897277832e+00,1.084882616996765137e+00,1.084822297096252441e+00,1.084761977195739746e+00,1.084701538085937500e+00,1.084641218185424805e+00,1.084580898284912109e+00,1.084520578384399414e+00,1.084460258483886719e+00,1.084399938583374023e+00,1.084339737892150879e+00,1.084279417991638184e+00,1.084219098091125488e+00,1.084158897399902344e+00,1.084098577499389648e+00,1.084038257598876953e+00,1.083978056907653809e+00,1.083917856216430664e+00,1.083857536315917969e+00,1.083797335624694824e+00,1.083737134933471680e+00,1.083676815032958984e+00,1.083616614341735840e+00,1.083556532859802246e+00,1.083496332168579102e+00,1.083436012268066406e+00,1.083375930786132812e+00,1.083315730094909668e+00,1.083255529403686523e+00,1.083195328712463379e+00,1.083135247230529785e+00,1.083075046539306641e+00,1.083014845848083496e+00,1.082954764366149902e+00,1.082894682884216309e+00,1.082834482192993164e+00,1.082774400711059570e+00,1.082714319229125977e+00,1.082654237747192383e+00,1.082594037055969238e+00,1.082533955574035645e+00,1.082473874092102051e+00,1.082413792610168457e+00,1.082353711128234863e+00
1.021018385887145996e+00,1.020964860916137695e+00,1.020911455154418945e+00,1.020857930183410645e+00,1.020804524421691895e+00,1.020751118659973145e+00,1.020697712898254395e+00,1.020644307136535645e+00,1.020590901374816895e+00,1.020537495613098145e+00,1.020484089851379395e+00,1.020430684089660645e+00,1.020377278327941895e+00,1.020323872566223145e+00,1.020270466804504395e+00,1.020217180252075195e+00,1.020163774490356445e+00,1.020110368728637695e+00,1.020057082176208496e+00,1.020003676414489746e+00,1.019950389862060547e+00,1.019896984100341797e+00,1.019843697547912598e+00,1.019790291786193848e+00,1.019737005233764648e+00,1.019683718681335449e+00,1.019630312919616699e+00,1.019577026367187500e+00,1.019523739814758301e+00,1.019470453262329102e+00,1.019417166709899902e+00,1.019363880157470703e+00,1.019310593605041504e+00,1.019257307052612305e+00,1.019204139709472656e+00,1.019150853157043457e+00,1.019097566604614258e+00,1.019044280052185059e+00,1.018991112709045410e+00,1.018937826156616211e+00,1.018884539604187012e+00,1.018831372261047363e+00,1.018778204917907715e+00,1.018724918365478516e+00,1.018671751022338867e+00,1.018618464469909668e+00,1.018565297126770020e+00,1.018512129783630371e+00,1.018458962440490723e+00,1.018405795097351074e+00,1.018352627754211426e+00,1.018299341201782227e+00,1.018246173858642578e+00,1.018193125724792480e+00,1.018139839172363281e+00,1.018086791038513184e+00,1.018033623695373535e+00,1.017980456352233887e+00,1.017927289009094238e+00,1.017874240875244141e+00,1.017821073532104492e+00,1.017767906188964844e+00,1.017714858055114746e+00,1.017661690711975098e+00,1.017608642578125000e+00,1.017555475234985352e+00,1.017502427101135254e+00,1.017449378967285156e+00,1.017396211624145508e+00,1.017343163490295410e+00,1.017290115356445312e+00,1.017237067222595215e+00,1.017184019088745117e+00,1.017130970954895020e+00,1.017077922821044922e+00,1.017024874687194824e+00,1.016971826553344727e+00,1.016918778419494629e+00,1.016865849494934082e+00,1.016812801361083984e+00
9.624943733215332031e-01,9.624468684196472168e-01,9.623993039131164551e-01,9.623517990112304688e-01,9.623043537139892578e-01,9.622568488121032715e-01,9.622094035148620605e-01,9.621619582176208496e-01,9.621145129203796387e-01,9.620669484138488770e-01,9.620195031166076660e-01,9.619720578193664551e-01,9.619246125221252441e-01,9.618772268295288086e-01,9.618297815322875977e-01,9.617823958396911621e-01,9.617348313331604004e-01,9.616874456405639648e-01,9.616400003433227539e-01,9.615926146507263184e-01,9.615452289581298828e-01,9.614978432655334473e-01,9.614504575729370117e-01,9.614029526710510254e-01,9.613555669784545898e-01,9.613082408905029297e-01,9.612608551979064941e-01,9.612134695053100586e-01,9.611661434173583984e-01,9.611187577247619629e-01,9.610713124275207520e-01,9.610239863395690918e-01,9.609766602516174316e-01,9.609293341636657715e-01,9.608819484710693359e-01,9.608346223831176758e-01,9.607872962951660156e-01,9.607399106025695801e-01,9.606925845146179199e-01,9.606452584266662598e-01,9.605979919433593750e-01,9.605506658554077148e-01,9.605033993721008301e-01,9.604560732841491699e-01,9.604086875915527344e-01,9.603614211082458496e-01,9.603141546249389648e-01,9.602668881416320801e-01,9.602196216583251953e-01,9.601723551750183105e-01,9.601250886917114258e-01,9.600777626037597656e-01,9.600304961204528809e-01,9.599832296371459961e-01,9.599360227584838867e-01,9.598887562751770020e-01,9.598415493965148926e-01,9.597943425178527832e-01,9.597470164299011230e-01,9.596998095512390137e-01,9.596526026725769043e-01,9.596053957939147949e-01,9.595581889152526855e-01,9.595109820365905762e-01,9.594637751579284668e-01,9.594165086746215820e-01,9.593693017959594727e-01,9.593220949172973633e-01,9.592749476432800293e-01,9.592278003692626953e-01,9.591805934906005859e-01,9.591334462165832520e-01,9.590861797332763672e-01,9.590390324592590332e-01,9.589918851852416992e-01,9.589447379112243652e-01,9.588976502418518066e-01,9.588505029678344727e-01,9.588033556938171387e-01,9.587561488151550293e-01
