5.000000000000000000e+00,5.000000000000000000e+00,5.000000000000000000e+00,5.000000000000000000e+00,5.000000000000000000e+00,5.000000000000000000e+00,5.000000000000000000e+00,5.000000000000000000e+00,5.000000000000000000e+00,5.000000000000000000e+00,5.000000000000000000e+00,5.000000000000000000e+00,5.000000000000000000e+00,5.000000000000000000e+00,5.000000000000000000e+00,5.000000000000000000e+00,5.000000000000000000e+00,5.000000000000000000e+00,5.000000000000000000e+00,5.000000000000000000e+00,5.000000000000000000e+00,5.000000000000000000e+00,5.000000000000000000e+00,5.000000000000000000e+00,5.000000000000000000e+00,5.000000000000000000e+00,5.000000000000000000e+00,5.000000000000000000e+00,5.000000000000000000e+00,5.000000000000000000e+00,5.000000000000000000e+00,5.000000000000000000e+00,5.000000000000000000e+00,5.000000000000000000e+00,5.000000000000000000e+00,5.000000000000000000e+00,5.000000000000000000e+00,5.000000000000000000e+00,5.000000000000000000e+00,5.000000000000000000e+00,5.000000000000000000e+00,4.496376514434814453e+00,4.332555770874023438e+00,4.180252552032470703e+00,4.038293361663818359e+00,3.905659675598144531e+00,3.781461000442504883e+00,3.664918422698974609e+00,3.555344104766845703e+00,3.452131986618041992e+00,3.354743003845214844e+00,3.262698411941528320e+00,3.175569772720336914e+00,3.092973470687866211e+00,3.014564990997314453e+00,2.940033912658691406e+00,2.869098901748657227e+00,2.801506280899047852e+00,2.737025022506713867e+00,2.675445318222045898e+00,2.616575717926025391e+00,2.560240745544433594e+00,2.506280660629272461e+00,2.454548358917236328e+00,2.404908180236816406e+00,2.357236385345458984e+00,2.311417341232299805e+00,2.267345666885375977e+00,2.224923372268676758e+00,2.184059381484985352e+00,2.144669055938720703e+00,2.106674909591674805e+00,2.070003032684326172e+00,2.034586191177368164e+00,2.000360727310180664e+00,1.967268228530883789e+00,1.935252308845520020e+00,1.904262065887451172e+00,1.874248385429382324e+00,1.845166444778442383e+00
5.000000000000000000e+00,5.000000000000000000e+00,5.000000000000000000e+00,5.000000000000000000e+00,5.000000000000000000e+00,5.000000000000000000e+00,5.000000000000000000e+00,5.000000000000000000e+00,5.000000000000000000e+00,5.000000000000000000e+00,5.000000000000000000e+00,5.000000000000000000e+00,5.000000000000000000e+00,5.000000000000000000e+00,5.000000000000000000e+00,5.000000000000000000e+00,5.000000000000000000e+00,5.000000000000000000e+00,5.000000000000000000e+00,5.000000000000000000e+00,5.000000000000000000e+00,5.000000000000000000e+00,5.000000000000000000e+00,5.000000000000000000e+00,5.000000000000000000e+00,5.000000000000000000e+00,5.000000000000000000e+00,5.000000000000000000e+00,5.000000000000000000e+00,5.000000000000000000e+00,5.000000000000000000e+00,5.000000000000000000e+00,5.000000000000000000e+00,5.000000000000000000e+00,5.000000000000000000e+00,5.000000000000000000e+00,5.000000000000000000e+00,5.000000000000000000e+00,5.000000000000000000e+00,5.000000000000000000e+00,4.673201084136962891e+00,4.496495246887207031e+00,4.332666397094726562e+00,4.180355072021484375e+00,4.038389205932617188e+00,3.905749320983886719e+00,3.781545400619506836e+00,3.664997339248657227e+00,3.555418491363525391e+00,3.452201843261718750e+00,3.354809045791625977e+00,3.262760877609252930e+00,3.175628900527954102e+00,3.093029737472534180e+00,3.014618635177612305e+00,2.940084695816040039e+00,2.869147062301635742e+00,2.801552295684814453e+00,2.737068891525268555e+00,2.675487518310546875e+00,2.616615772247314453e+00,2.560279369354248047e+00,2.506317853927612305e+00,2.454583644866943359e+00,2.404942274093627930e+00,2.357268810272216797e+00,2.311448812484741211e+00,2.267375946044921875e+00,2.224952459335327148e+00,2.184087276458740234e+00,2.144696235656738281e+00,2.106700897216796875e+00,2.070028305053710938e+00,2.034610509872436523e+00,2.000384330749511719e+00,1.967290759086608887e+00,1.935274362564086914e+00,1.904283285140991211e+00,1.874269127845764160e+00,1.845186471939086914e+00
5.000000000000000000e+00,5.000000000000000000e+00,5.000000000000000000e+00,5.000000000000000000e+00,5.000000000000000000e+00,5.000000000000000000e+00,5.000000000000000000e+00,5.000000000000000000e+00,5.000000000000000000e+00,5.000000000000000000e+00,5.000000000000000000e+00,5.000000000000000000e+00,5.000000000000000000e+00,5.000000000000000000e+00,5.000000000000000000e+00,5.000000000000000000e+00,5.000000000000000000e+00,5.000000000000000000e+00,5.000000000000000000e+00,5.000000000000000000e+00,5.000000000000000000e+00,5.000000000000000000e+00,5.000000000000000000e+00,5.000000000000000000e+00,5.000000000000000000e+00,5.000000000000000000e+00,5.000000000000000000e+00,5.000000000000000000e+00,5.000000000000000000e+00,5.000000000000000000e+00,5.000000000000000000e+00,5.000000000000000000e+00,5.000000000000000000e+00,5.000000000000000000e+00,5.000000000000000000e+00,5.000000000000000000e+00,5.000000000000000000e+00,5.000000000000000000e+00,5.000000000000000000e+00,4.864502429962158203e+00,4.673329830169677734e+00,4.496614456176757812e+00,4.332776546478271484e+00,4.180458068847656250e+00,4.038485527038574219e+00,3.905839204788208008e+00,3.781629562377929688e+00,3.665076255798339844e+00,3.555492639541625977e+00,3.452271938323974609e+00,3.354875087738037109e+00,3.262823343276977539e+00,3.175688505172729492e+00,3.093086004257202148e+00,3.014671802520751953e+00,2.940135240554809570e+00,2.869195461273193359e+00,2.801598310470581055e+00,2.737112998962402344e+00,2.675529479980468750e+00,2.616656303405761719e+00,2.560317993164062500e+00,2.506354570388793945e+00,2.454619169235229492e+00,2.404976129531860352e+00,2.357301473617553711e+00,2.311480045318603516e+00,2.267406225204467773e+00,2.224981546401977539e+00,2.184115409851074219e+00,2.144723415374755859e+00,2.106727123260498047e+00,2.070053100585937500e+00,2.034634828567504883e+00,2.000407934188842773e+00,1.967313647270202637e+00,1.935296535491943359e+00,1.904304623603820801e+00,1.874289870262145996e+00,1.845206379890441895e+00
5.000000000000000000e+00,5.000000000000000000e+00,5.000000000000000000e+00,5.000000000000000000e+00,5.000000000000000000e+00,5.000000000000000000e+00,5.000000000000000000e+00,5.000000000000000000e+00,5.000000000000000000e+00,5.000000000000000000e+00,5.000000000000000000e+00,5.000000000000000000e+00,5.000000000000000000e+00,5.000000000000000000e+00,5.000000000000000000e+00,5.000000000000000000e+00,5.000000000000000000e+00,5.000000000000000000e+00,5.000000000000000000e+00,5.000000000000000000e+00,5.000000000000000000e+00,5.000000000000000000e+00,5.000000000000000000e+00,5.000000000000000000e+00,5.000000000000000000e+00,5.000000000000000000e+00,5.000000000000000000e+00,5.000000000000000000e+00,5.000000000000000000e+00,5.000000000000000000e+00,5.000000000000000000e+00,5.000000000000000000e+00,5.000000000000000000e+00,5.000000000000000000e+00,5.000000000000000000e+00,5.000000000000000000e+00,5.000000000000000000e+00,5.000000000000000000e+00,5.000000000000000000e+00,4.864642143249511719e+00,4.673458099365234375e+00,4.496733188629150391e+00,4.332886695861816406e+00,4.180560588836669922e+00,4.038580894470214844e+00,3.905928850173950195e+00,3.781713485717773438e+00,3.665154933929443359e+00,3.555566787719726562e+00,3.452341794967651367e+00,3.354941606521606445e+00,3.262886285781860352e+00,3.175747632980346680e+00,3.093142271041870117e+00,3.014725208282470703e+00,2.940186023712158203e+00,2.869243860244750977e+00,2.801644325256347656e+00,2.737157106399536133e+00,2.675571680068969727e+00,2.616696357727050781e+00,2.560356378555297852e+00,2.506391525268554688e+00,2.454654455184936523e+00,2.405010223388671875e+00,2.357334136962890625e+00,2.311511516571044922e+00,2.267436504364013672e+00,2.225010633468627930e+00,2.184143543243408203e+00,2.144750356674194336e+00,2.106752872467041016e+00,2.070078372955322266e+00,2.034659147262573242e+00,2.000431537628173828e+00,1.967336535453796387e+00,1.935318350791931152e+00,1.904326081275939941e+00,1.874310374259948730e+00,1.845226526260375977e+00
5.000000000000000000e+00,5.000000000000000000e+00,5.000000000000000000e+00,5.000000000000000000e+00,5.000000000000000000e+00,5.000000000000000000e+00,5.000000000000000000e+00,5.000000000000000000e+00,5.000000000000000000e+00,5.000000000000000000e+00,5.000000000000000000e+00,5.000000000000000000e+00,5.000000000000000000e+00,5.000000000000000000e+00,5.000000000000000000e+00,5.000000000000000000e+00,5.000000000000000000e+00,5.000000000000000000e+00,5.000000000000000000e+00,5.000000000000000000e+00,5.000000000000000000e+00,5.000000000000000000e+00,5.000000000000000000e+00,5.000000000000000000e+00,5.000000000000000000e+00,5.000000000000000000e+00,5.000000000000000000e+00,5.000000000000000000e+00,5.000000000000000000e+00,5.000000000000000000e+00,5.000000000000000000e+00,5.000000000000000000e+00,5.000000000000000000e+00,5.000000000000000000e+00,5.000000000000000000e+00,5.000000000000000000e+00,5.000000000000000000e+00,5.000000000000000000e+00,5.000000000000000000e+00,4.864780902862548828e+00,4.673586368560791016e+00,4.496851921081542969e+00,4.332997322082519531e+00,4.180663108825683594e+00,4.038677215576171875e+00,3.906018257141113281e+00,3.781797409057617188e+00,3.665233850479125977e+00,3.555641412734985352e+00,3.452412128448486328e+00,3.355007648468017578e+00,3.262948751449584961e+00,3.175806999206542969e+00,3.093198537826538086e+00,3.014778614044189453e+00,2.940236806869506836e+00,2.869292497634887695e+00,2.801690816879272461e+00,2.737201213836669922e+00,2.675613641738891602e+00,2.616736650466918945e+00,2.560395002365112305e+00,2.506428480148315430e+00,2.454689741134643555e+00,2.405044317245483398e+00,2.357367038726806641e+00,2.311542987823486328e+00,2.267466545104980469e+00,2.225039720535278320e+00,2.184171438217163086e+00,2.144777059555053711e+00,2.106778860092163086e+00,2.070103645324707031e+00,2.034683465957641602e+00,2.000454902648925781e+00,1.967359066009521484e+00,1.935340523719787598e+00,1.904347181320190430e+00,1.874331116676330566e+00,1.845246434211730957e+00
5.000000000000000000e+00,5.000000000000000000e+00,5.000000000000000000e+00,5.000000000000000000e+00,5.000000000000000000e+00,5.000000000000000000e+00,5.000000000000000000e+00,5.000000000000000000e+00,5.000000000000000000e+00,5.000000000000000000e+00,5.000000000000000000e+00,5.000000000000000000e+00,5.000000000000000000e+00,5.000000000000000000e+00,5.000000000000000000e+00,5.000000000000000000e+00,5.000000000000000000e+00,5.000000000000000000e+00,5.000000000000000000e+00,5.000000000000000000e+00,5.000000000000000000e+00,5.000000000000000000e+00,5.000000000000000000e+00,5.000000000000000000e+00,5.000000000000000000e+00,5.000000000000000000e+00,5.000000000000000000e+00,5.000000000000000000e+00,5.000000000000000000e+00,5.000000000000000000e+00,5.000000000000000000e+00,5.000000000000000000e+00,5.000000000000000000e+00,5.000000000000000000e+00,5.000000000000000000e+00,5.000000000000000000e+00,5.000000000000000000e+00,5.000000000000000000e+00,5.000000000000000000e+00,4.864920139312744141e+00,4.673714637756347656e+00,4.496970653533935547e+00,4.333107471466064453e+00,4.180766105651855469e+00,4.038773059844970703e+00,3.906107902526855469e+00,3.781881809234619141e+00,3.665313243865966797e+00,3.555715799331665039e+00,3.452482223510742188e+00,3.355073690414428711e+00,3.263011217117309570e+00,3.175866127014160156e+00,3.093254566192626953e+00,3.014832258224487305e+00,2.940287828445434570e+00,2.869340658187866211e+00,2.801736831665039062e+00,2.737245082855224609e+00,2.675655841827392578e+00,2.616776943206787109e+00,2.560433387756347656e+00,2.506465435028076172e+00,2.454725503921508789e+00,2.405078172683715820e+00,2.357399463653564453e+00,2.311574459075927734e+00,2.267496824264526367e+00,2.225068807601928711e+00,2.184199333190917969e+00,2.144804239273071289e+00,2.106805086135864258e+00,2.070128679275512695e+00,2.034707784652709961e+00,2.000478506088256836e+00,1.967381954193115234e+00,1.935362339019775391e+00,1.904368638992309570e+00,1.874351859092712402e+00,1.845266461372375488e+00
5.000000000000000000e+00,5.000000000000000000e+00,5.000000000000000000e+00,5.000000000000000000e+00,5.000000000000000000e+00,5.000000000000000000e+00,5.000000000000000000e+00,5.000000000000000000e+00,5.000000000000000000e+00,5.000000000000000000e+00,5.000000000000000000e+00,5.000000000000000000e+00,5.000000000000000000e+00,5.000000000000000000e+00,5.000000000000000000e+00,5.000000000000000000e+00,5.000000000000000000e+00,5.000000000000000000e+00,5.000000000000000000e+00,5.000000000000000000e+00,5.000000000000000000e+00,5.000000000000000000e+00,5.000000000000000000e+00,5.000000000000000000e+00,5.000000000000000000e+00,5.000000000000000000e+00,3.474027872085571289e+00,5.000000000000000000e+00,5.000000000000000000e+00,5.000000000000000000e+00,5.000000000000000000e+00,5.000000000000000000e+00,5.000000000000000000e+00,5.000000000000000000e+00,5.000000000000000000e+00,5.000000000000000000e+00,5.000000000000000000e+00,5.000000000000000000e+00,5.000000000000000000e+00,4.865058898925781250e+00,4.673843383789062500e+00,4.497089862823486328e+00,4.333218097686767578e+00,4.180868625640869141e+00,4.038868904113769531e+00,3.906198024749755859e+00,3.781965732574462891e+00,3.665391921997070312e+00,3.555789947509765625e+00,3.452552080154418945e+00,3.355139970779418945e+00,3.263073682785034180e+00,3.175925731658935547e+00,3.093311071395874023e+00,3.014885663986206055e+00,2.940338611602783203e+00,2.869389057159423828e+00,2.801782846450805664e+00,2.737289190292358398e+00,2.675697803497314453e+00,2.616817235946655273e+00,2.560472249984741211e+00,2.506502389907836914e+00,2.454760789871215820e+00,2.405112266540527344e+00,2.357432126998901367e+00,2.311605691909790039e+00,2.267527103424072266e+00,2.225097894668579102e+00,2.184227466583251953e+00,2.144831180572509766e+00,2.106831073760986328e+00,2.070153951644897461e+00,2.034732103347778320e+00,2.000501871109008789e+00,1.967404484748840332e+00,1.935384511947631836e+00,1.904389977455139160e+00,1.874372363090515137e+00,1.845286607742309570e+00
5.000000000000000000e+00,5.000000000000000000e+00,5.000000000000000000e+00,5.000000000000000000e+00,5.000000000000000000e+00,5.000000000000000000e+00,5.000000000000000000e+00,5.000000000000000000e+00,5.000000000000000000e+00,5.000000000000000000e+00,5.000000000000000000e+00,5.000000000000000000e+00,5.000000000000000000e+00,5.000000000000000000e+00,5.000000000000000000e+00,5.000000000000000000e+00,5.000000000000000000e+00,5.000000000000000000e+00,5.000000000000000000e+00,5.000000000000000000e+00,5.000000000000000000e+00,5.000000000000000000e+00,5.000000000000000000e+00,5.000000000000000000e+00,5.000000000000000000e+00,3.498132705688476562e+00,3.469372510910034180e+00,3.519262790679931641e+00,5.000000000000000000e+00,5.000000000000000000e+00,5.000000000000000000e+00,5.000000000000000000e+00,5.000000000000000000e+00,5.000000000000000000e+00,5.000000000000000000e+00,5.000000000000000000e+00,5.000000000000000000e+00,5.000000000000000000e+00,5.000000000000000000e+00,4.865198612213134766e+00,4.673971652984619141e+00,4.497208595275878906e+00,4.333328247070312500e+00,4.180971622467041016e+00,4.038964748382568359e+00,3.906287670135498047e+00,3.782049655914306641e+00,3.665470838546752930e+00,3.555864095687866211e+00,3.452622175216674805e+00,3.355206251144409180e+00,3.263136625289916992e+00,3.175984859466552734e+00,3.093367338180541992e+00,3.014939069747924805e+00,2.940389394760131836e+00,2.869437456130981445e+00,2.801829099655151367e+00,2.737333297729492188e+00,2.675740003585815430e+00,2.616857528686523438e+00,2.560510635375976562e+00,2.506539344787597656e+00,2.454796075820922852e+00,2.405146121978759766e+00,2.357464790344238281e+00,2.311637163162231445e+00,2.267557144165039062e+00,2.225126981735229492e+00,2.184255361557006836e+00,2.144858360290527344e+00,2.106857299804687500e+00,2.070178985595703125e+00,2.034756422042846680e+00,2.000525474548339844e+00,1.967427372932434082e+00,1.935406565666198730e+00,1.904411196708679199e+00,1.874393105506896973e+00,1.845306515693664551e+00
5.000000000000000000e+00,5.000000000000000000e+00,5.000000000000000000e+00,5.000000000000000000e+00,5.000000000000000000e+00,5.000000000000000000e+00,5.000000000000000000e+00,5.000000000000000000e+00,5.000000000000000000e+00,5.000000000000000000e+00,5.000000000000000000e+00,5.000000000000000000e+00,5.000000000000000000e+00,5.000000000000000000e+00,5.000000000000000000e+00,5.000000000000000000e+00,5.000000000000000000e+00,5.000000000000000000e+00,5.000000000000000000e+00,5.000000000000000000e+00,5.000000000000000000e+00,5.000000000000000000e+00,5.000000000000000000e+00,5.000000000000000000e+00,5.000000000000000000e+00,3.562351703643798828e+00,3.474724531173706055e+00,3.521029949188232422e+00,5.000000000000000000e+00,5.000000000000000000e+00,5.000000000000000000e+00,5.000000000000000000e+00,5.000000000000000000e+00,5.000000000000000000e+00,5.000000000000000000e+00,5.000000000000000000e+00,5.000000000000000000e+00,5.000000000000000000e+00,5.000000000000000000e+00,4.865337371826171875e+00,4.674099922180175781e+00,4.497327804565429688e+00,4.333438873291015625e+00,4.181074142456054688e+00,4.039060592651367188e+00,3.906377077102661133e+00,3.782133817672729492e+00,3.665549755096435547e+00,3.555938720703125000e+00,3.452692508697509766e+00,3.355272293090820312e+00,3.263199090957641602e+00,3.176043987274169922e+00,3.093423366546630859e+00,3.014992237091064453e+00,2.940440177917480469e+00,2.869486093521118164e+00,2.801875352859497070e+00,2.737377405166625977e+00,2.675781965255737305e+00,2.616897583007812500e+00,2.560549259185791016e+00,2.506576299667358398e+00,2.454831600189208984e+00,2.405180215835571289e+00,2.357497692108154297e+00,2.311668395996093750e+00,2.267587423324584961e+00,2.225156068801879883e+00,2.184283494949340820e+00,2.144885301589965820e+00,2.106883287429809570e+00,2.070204257965087891e+00,2.034780740737915039e+00,2.000549077987670898e+00,1.967450261116027832e+00,1.935428500175476074e+00,1.904432654380798340e+00,1.874413609504699707e+00,1.845326542854309082e+00
5.000000000000000000e+00,5.000000000000000000e+00,5.000000000000000000e+00,5.000000000000000000e+00,5.000000000000000000e+00,5.000000000000000000e+00,5.000000000000000000e+00,5.000000000000000000e+00,5.000000000000000000e+00,5.000000000000000000e+00,5.000000000000000000e+00,5.000000000000000000e+00,5.000000000000000000e+00,5.000000000000000000e+00,5.000000000000000000e+00,5.000000000000000000e+00,5.000000000000000000e+00,5.000000000000000000e+00,5.000000000000000000e+00,5.000000000000000000e+00,5.000000000000000000e+00,5.000000000000000000e+00,5.000000000000000000e+00,5.000000000000000000e+00,5.000000000000000000e+00,5.000000000000000000e+00,3.496147155761718750e+00,3.581124544143676758e+00,5.000000000000000000e+00,5.000000000000000000e+00,5.000000000000000000e+00,5.000000000000000000e+00,5.000000000000000000e+00,5.000000000000000000e+00,5.000000000000000000e+00,5.000000000000000000e+00,5.000000000000000000e+00,5.000000000000000000e+00,5.000000000000000000e+00,4.865476608276367188e+00,4.674228191375732422e+00,4.497446537017822266e+00,4.333549022674560547e+00,4.181177139282226562e+00,4.039156436920166016e+00,3.906466722488403320e+00,3.782217741012573242e+00,3.665629148483276367e+00,3.556013107299804688e+00,3.452762365341186523e+00,3.355338573455810547e+00,3.263261556625366211e+00,3.176103353500366211e+00,3.093479633331298828e+00,3.015045642852783203e+00,2.940491199493408203e+00,2.869534254074096680e+00,2.801921367645263672e+00,2.737421274185180664e+00,2.675824165344238281e+00,2.616937875747680664e+00,2.560587644577026367e+00,2.506613016128540039e+00,2.454867124557495117e+00,2.405214309692382812e+00,2.357530117034912109e+00,2.311699867248535156e+00,2.267617464065551758e+00,2.225184917449951172e+00,2.184311389923095703e+00,2.144912242889404297e+00,2.106909513473510742e+00,2.070229530334472656e+00,2.034805059432983398e+00,2.000572443008422852e+00,1.967472791671752930e+00,1.935450553894042969e+00,1.904453754425048828e+00,1.874434351921081543e+00,1.845346689224243164e+00
5.000000000000000000e+00,5.000000000000000000e+00,5.000000000000000000e+00,5.000000000000000000e+00,5.000000000000000000e+00,5.000000000000000000e+00,5.000000000000000000e+00,5.000000000000000000e+00,5.000000000000000000e+00,5.000000000000000000e+00,5.000000000000000000e+00,5.000000000000000000e+00,5.000000000000000000e+00,5.000000000000000000e+00,5.000000000000000000e+00,5.000000000000000000e+00,5.000000000000000000e+00,5.000000000000000000e+00,5.000000000000000000e+00,5.000000000000000000e+00,5.000000000000000000e+00,5.000000000000000000e+00,5.000000000000000000e+00,3.515749454498291016e+00,3.515825271606445312e+00,3.481618881225585938e+00,3.558953285217285156e+00,3.511395454406738281e+00,3.574805021286010742e+00,3.578808307647705078e+00,5.000000000000000000e+00,5.000000000000000000e+00,5.000000000000000000e+00,5.000000000000000000e+00,5.000000000000000000e+00,5.000000000000000000e+00,5.000000000000000000e+00,5.000000000000000000e+00,5.000000000000000000e+00,4.865615844726562500e+00,4.674356460571289062e+00,4.497565269470214844e+00,4.333659648895263672e+00,4.181280136108398438e+00,4.039252281188964844e+00,3.906556844711303711e+00,3.782302141189575195e+00,3.665708065032958984e+00,3.556087255477905273e+00,3.452832460403442383e+00,3.355404615402221680e+00,3.263324022293090820e+00,3.176162481307983398e+00,3.093536138534545898e+00,3.015099287033081055e+00,2.940541982650756836e+00,2.869582653045654297e+00,2.801967382431030273e+00,2.737465381622314453e+00,2.675866127014160156e+00,2.616978168487548828e+00,2.560626268386840820e+00,2.506650209426879883e+00,2.454902410507202148e+00,2.405247926712036133e+00,2.357562541961669922e+00,2.311731100082397461e+00,2.267647743225097656e+00,2.225214004516601562e+00,2.184339523315429688e+00,2.144939422607421875e+00,2.106935501098632812e+00,2.070254564285278320e+00,2.034829378128051758e+00,2.000596046447753906e+00,1.967495679855346680e+00,1.935472488403320312e+00,1.904475212097167969e+00,1.874455094337463379e+00,1.845366597175598145e+00
5.000000000000000000e+00,5.000000000000000000e+00,5.000000000000000000e+00,5.000000000000000000e+00,5.000000000000000000e+00,5.000000000000000000e+00,5.000000000000000000e+00,5.000000000000000000e+00,5.000000000000000000e+00,5.000000000000000000e+00,5.000000000000000000e+00,5.000000000000000000e+00,5.000000000000000000e+00,5.000000000000000000e+00,5.000000000000000000e+00,5.000000000000000000e+00,5.000000000000000000e+00,5.000000000000000000e+00,5.000000000000000000e+00,5.000000000000000000e+00,5.000000000000000000e+00,5.000000000000000000e+00,3.493756294250488281e+00,3.489519357681274414e+00,3.472790956497192383e+00,3.471919775009155273e+00,3.476936101913452148e+00,3.492741107940673828e+00,3.514958620071411133e+00,3.560544729232788086e+00,3.582260370254516602e+00,5.000000000000000000e+00,5.000000000000000000e+00,5.000000000000000000e+00,5.000000000000000000e+00,5.000000000000000000e+00,5.000000000000000000e+00,5.000000000000000000e+00,5.000000000000000000e+00,4.865755081176757812e+00,4.674485206604003906e+00,4.497684001922607422e+00,4.333769798278808594e+00,4.181382656097412109e+00,4.039348125457763672e+00,3.906646490097045898e+00,3.782386064529418945e+00,3.665786743164062500e+00,3.556161403656005859e+00,3.452902317047119141e+00,3.355470657348632812e+00,3.263386964797973633e+00,3.176222085952758789e+00,3.093592166900634766e+00,3.015152692794799805e+00,2.940592765808105469e+00,2.869631052017211914e+00,2.802013635635375977e+00,2.737509250640869141e+00,2.675908327102661133e+00,2.617018461227416992e+00,2.560664892196655273e+00,2.506686925888061523e+00,2.454937696456909180e+00,2.405282020568847656e+00,2.357595205307006836e+00,2.311762571334838867e+00,2.267678022384643555e+00,2.225243330001831055e+00,2.184367656707763672e+00,2.144966363906860352e+00,2.106961488723754883e+00,2.070279836654663086e+00,2.034853696823120117e+00,2.000619411468505859e+00,1.967518568038940430e+00,1.935494542121887207e+00,1.904496550559997559e+00,1.874475598335266113e+00,1.845386624336242676e+00
5.000000000000000000e+00,5.000000000000000000e+00,5.000000000000000000e+00,5.000000000000000000e+00,5.000000000000000000e+00,5.000000000000000000e+00,5.000000000000000000e+00,5.000000000000000000e+00,5.000000000000000000e+00,5.000000000000000000e+00,5.000000000000000000e+00,5.000000000000000000e+00,5.000000000000000000e+00,5.000000000000000000e+00,5.000000000000000000e+00,5.000000000000000000e+00,5.000000000000000000e+00,5.000000000000000000e+00,5.000000000000000000e+00,5.000000000000000000e+00,5.000000000000000000e+00,5.000000000000000000e+00,3.514415025711059570e+00,3.512901544570922852e+00,3.457759618759155273e+00,3.443196058273315430e+00,3.451755523681640625e+00,3.461588859558105469e+00,3.497358083724975586e+00,3.579598665237426758e+00,3.595787048339843750e+00,5.000000000000000000e+00,5.000000000000000000e+00,5.000000000000000000e+00,5.000000000000000000e+00,5.000000000000000000e+00,5.000000000000000000e+00,5.000000000000000000e+00,5.000000000000000000e+00,4.865894317626953125e+00,4.674613475799560547e+00,4.497803211212158203e+00,4.333880424499511719e+00,4.181485652923583984e+00,4.039443969726562500e+00,3.906735897064208984e+00,3.782469987869262695e+00,3.665865659713745117e+00,3.556235790252685547e+00,3.452972650527954102e+00,3.355537176132202148e+00,3.263449430465698242e+00,3.176281213760375977e+00,3.093648433685302734e+00,3.015206098556518555e+00,2.940643548965454102e+00,2.869679450988769531e+00,2.802059888839721680e+00,2.737553596496582031e+00,2.675950527191162109e+00,2.617058753967285156e+00,2.560703277587890625e+00,2.506723642349243164e+00,2.454972982406616211e+00,2.405315876007080078e+00,2.357628107070922852e+00,2.311794042587280273e+00,2.267708301544189453e+00,2.225272417068481445e+00,2.184395551681518555e+00,2.144993543624877930e+00,2.106987714767456055e+00,2.070305109024047852e+00,2.034878253936767578e+00,2.000643253326416016e+00,1.967541098594665527e+00,1.935516595840454102e+00,1.904517769813537598e+00,1.874496340751647949e+00,1.845406532287597656e+00
5.000000000000000000e+00,5.000000000000000000e+00,5.000000000000000000e+00,5.000000000000000000e+00,5.000000000000000000e+00,5.000000000000000000e+00,5.000000000000000000e+00,5.000000000000000000e+00,5.000000000000000000e+00,5.000000000000000000e+00,5.000000000000000000e+00,5.000000000000000000e+00,5.000000000000000000e+00,5.000000000000000000e+00,5.000000000000000000e+00,5.000000000000000000e+00,5.000000000000000000e+00,5.000000000000000000e+00,5.000000000000000000e+00,5.000000000000000000e+00,5.000000000000000000e+00,5.000000000000000000e+00,5.000000000000000000e+00,3.502614498138427734e+00,3.472121000289916992e+00,3.449466228485107422e+00,3.448241949081420898e+00,3.467117309570312500e+00,3.508705615997314453e+00,3.593969583511352539e+00,3.615488529205322266e+00,5.000000000000000000e+00,5.000000000000000000e+00,5.000000000000000000e+00,5.000000000000000000e+00,5.000000000000000000e+00,5.000000000000000000e+00,5.000000000000000000e+00,5.000000000000000000e+00,4.866033554077148438e+00,4.674742221832275391e+00,4.497921943664550781e+00,4.333990573883056641e+00,4.181588172912597656e+00,4.039540290832519531e+00,3.906825542449951172e+00,3.782554149627685547e+00,3.665945053100585938e+00,3.556310415267944336e+00,3.453042745590209961e+00,3.355603218078613281e+00,3.263512134552001953e+00,3.176340579986572266e+00,3.093704700469970703e+00,3.015259504318237305e+00,2.940694570541381836e+00,2.869728088378906250e+00,2.802105903625488281e+00,2.737597465515136719e+00,2.675992488861083984e+00,2.617099046707153320e+00,2.560741901397705078e+00,2.506760597229003906e+00,2.455008506774902344e+00,2.405349969863891602e+00,2.357660770416259766e+00,2.311825513839721680e+00,2.267738342285156250e+00,2.225301504135131836e+00,2.184423685073852539e+00,2.145020484924316406e+00,2.107013702392578125e+00,2.070330381393432617e+00,2.034902572631835938e+00,2.000666618347167969e+00,1.967563986778259277e+00,1.935538530349731445e+00,1.904539227485656738e+00,1.874516844749450684e+00,1.845426678657531738e+00
5.000000000000000000e+00,5.000000000000000000e+00,5.000000000000000000e+00,5.000000000000000000e+00,5.000000000000000000e+00,5.000000000000000000e+00,5.000000000000000000e+00,5.000000000000000000e+00,5.000000000000000000e+00,5.000000000000000000e+00,5.000000000000000000e+00,5.000000000000000000e+00,5.000000000000000000e+00,5.000000000000000000e+00,5.000000000000000000e+00,5.000000000000000000e+00,5.000000000000000000e+00,5.000000000000000000e+00,5.000000000000000000e+00,5.000000000000000000e+00,5.000000000000000000e+00,5.000000000000000000e+00,3.531264066696166992e+00,3.487940073013305664e+00,3.487457275390625000e+00,3.447259902954101562e+00,3.445854902267456055e+00,3.462042331695556641e+00,3.506889820098876953e+00,3.594099760055541992e+00,3.624899864196777344e+00,5.000000000000000000e+00,5.000000000000000000e+00,5.000000000000000000e+00,5.000000000000000000e+00,5.000000000000000000e+00,5.000000000000000000e+00,5.000000000000000000e+00,5.000000000000000000e+00,4.866172313690185547e+00,4.674870491027832031e+00,4.498041152954101562e+00,4.334101200103759766e+00,4.181691169738769531e+00,4.039635658264160156e+00,3.906915664672851562e+00,3.782638549804687500e+00,3.666023969650268555e+00,3.556384563446044922e+00,3.453112840652465820e+00,3.355669260025024414e+00,3.263574600219726562e+00,3.176399707794189453e+00,3.093761205673217773e+00,3.015313148498535156e+00,2.940745353698730469e+00,2.869776248931884766e+00,2.802152156829833984e+00,2.737641572952270508e+00,2.676034450531005859e+00,2.617138862609863281e+00,2.560780286788940430e+00,2.506797552108764648e+00,2.455044031143188477e+00,2.405384063720703125e+00,2.357693433761596680e+00,2.311856746673583984e+00,2.267768621444702148e+00,2.225330591201782227e+00,2.184451818466186523e+00,2.145047664642333984e+00,2.107039928436279297e+00,2.070355415344238281e+00,2.034926891326904297e+00,2.000690221786499023e+00,1.967586636543273926e+00,1.935560584068298340e+00,1.904560565948486328e+00,1.874537587165832520e+00,1.845446705818176270e+00
5.000000000000000000e+00,5.000000000000000000e+00,5.000000000000000000e+00,5.000000000000000000e+00,5.000000000000000000e+00,5.000000000000000000e+00,5.000000000000000000e+00,5.000000000000000000e+00,5.000000000000000000e+00,5.000000000000000000e+00,5.000000000000000000e+00,5.000000000000000000e+00,5.000000000000000000e+00,5.000000000000000000e+00,5.000000000000000000e+00,5.000000000000000000e+00,5.000000000000000000e+00,5.000000000000000000e+00,5.000000000000000000e+00,5.000000000000000000e+00,5.000000000000000000e+00,5.000000000000000000e+00,3.510200500488281250e+00,3.492249965667724609e+00,3.501668691635131836e+00,3.445719003677368164e+00,3.453502655029296875e+00,3.459675073623657227e+00,3.512987613677978516e+00,3.616204977035522461e+00,3.638157606124877930e+00,5.000000000000000000e+00,5.000000000000000000e+00,5.000000000000000000e+00,5.000000000000000000e+00,5.000000000000000000e+00,5.000000000000000000e+00,5.000000000000000000e+00,5.000000000000000000e+00,4.866312026977539062e+00,4.674999237060546875e+00,4.498159885406494141e+00,4.334211349487304688e+00,4.181794166564941406e+00,4.039731979370117188e+00,3.907005310058593750e+00,3.782722473144531250e+00,3.666102886199951172e+00,3.556458950042724609e+00,3.453182697296142578e+00,3.355735540390014648e+00,3.263637304306030273e+00,3.176459312438964844e+00,3.093817234039306641e+00,3.015366554260253906e+00,2.940795898437500000e+00,2.869824647903442383e+00,2.802198171615600586e+00,2.737685441970825195e+00,2.676076650619506836e+00,2.617179393768310547e+00,2.560818672180175781e+00,2.506834506988525391e+00,2.455079317092895508e+00,2.405417919158935547e+00,2.357725858688354492e+00,2.311888217926025391e+00,2.267798900604248047e+00,2.225359678268432617e+00,2.184479713439941406e+00,2.145074605941772461e+00,2.107065916061401367e+00,2.070380687713623047e+00,2.034951210021972656e+00,2.000713586807250977e+00,1.967609405517578125e+00,1.935582756996154785e+00,1.904581785202026367e+00,1.874558329582214355e+00,1.845466613769531250e+00
5.000000000000000000e+00,5.000000000000000000e+00,5.000000000000000000e+00,5.000000000000000000e+00,5.000000000000000000e+00,5.000000000000000000e+00,5.000000000000000000e+00,5.000000000000000000e+00,5.000000000000000000e+00,5.000000000000000000e+00,5.000000000000000000e+00,5.000000000000000000e+00,5.000000000000000000e+00,5.000000000000000000e+00,5.000000000000000000e+00,5.000000000000000000e+00,5.000000000000000000e+00,5.000000000000000000e+00,5.000000000000000000e+00,5.000000000000000000e+00,5.000000000000000000e+00,5.000000000000000000e+00,3.500637292861938477e+00,3.493764877319335938e+00,3.469155550003051758e+00,3.437152147293090820e+00,3.439264297485351562e+00,3.450839996337890625e+00,3.499761581420898438e+00,3.639943838119506836e+00,3.649859905242919922e+00,5.000000000000000000e+00,5.000000000000000000e+00,5.000000000000000000e+00,5.000000000000000000e+00,5.000000000000000000e+00,5.000000000000000000e+00,5.000000000000000000e+00,5.000000000000000000e+00,4.866450786590576172e+00,4.675127506256103516e+00,4.498278617858886719e+00,4.334321975708007812e+00,4.181896686553955078e+00,4.039827823638916016e+00,3.907094955444335938e+00,3.782806634902954102e+00,3.666181802749633789e+00,3.556533098220825195e+00,3.453252792358398438e+00,3.355801820755004883e+00,3.263700008392333984e+00,3.176518440246582031e+00,3.093873500823974609e+00,3.015419960021972656e+00,2.940846681594848633e+00,2.869873046875000000e+00,2.802244424819946289e+00,2.737729549407958984e+00,2.676118612289428711e+00,2.617219448089599609e+00,2.560857295989990234e+00,2.506871461868286133e+00,2.455114841461181641e+00,2.405452013015747070e+00,2.357758522033691406e+00,2.311919689178466797e+00,2.267829179763793945e+00,2.225388765335083008e+00,2.184507846832275391e+00,2.145101547241210938e+00,2.107091903686523438e+00,2.070405721664428711e+00,2.034975528717041016e+00,2.000737190246582031e+00,1.967632293701171875e+00,1.935604572296142578e+00,1.904603242874145508e+00,1.874578833580017090e+00,1.845486760139465332e+00
5.000000000000000000e+00,5.000000000000000000e+00,5.000000000000000000e+00,5.000000000000000000e+00,5.000000000000000000e+00,5.000000000000000000e+00,5.000000000000000000e+00,5.000000000000000000e+00,5.000000000000000000e+00,5.000000000000000000e+00,5.000000000000000000e+00,5.000000000000000000e+00,5.000000000000000000e+00,5.000000000000000000e+00,5.000000000000000000e+00,5.000000000000000000e+00,5.000000000000000000e+00,5.000000000000000000e+00,5.000000000000000000e+00,5.000000000000000000e+00,5.000000000000000000e+00,5.000000000000000000e+00,3.429919719696044922e+00,3.454617977142333984e+00,3.476057052612304688e+00,3.453374147415161133e+00,3.449312448501586914e+00,3.470197677612304688e+00,3.513160228729248047e+00,3.628975152969360352e+00,3.632254362106323242e+00,5.000000000000000000e+00,5.000000000000000000e+00,5.000000000000000000e+00,5.000000000000000000e+00,5.000000000000000000e+00,5.000000000000000000e+00,5.000000000000000000e+00,5.000000000000000000e+00,4.866590023040771484e+00,4.675256252288818359e+00,4.498397827148437500e+00,4.334432125091552734e+00,4.181999206542968750e+00,4.039923667907714844e+00,3.907184600830078125e+00,3.782890558242797852e+00,3.666260719299316406e+00,3.556607723236083984e+00,3.453323125839233398e+00,3.355868101119995117e+00,3.263762474060058594e+00,3.176577806472778320e+00,3.093929767608642578e+00,3.015473365783691406e+00,2.940897464752197266e+00,2.869921684265136719e+00,2.802290678024291992e+00,2.737773418426513672e+00,2.676160573959350586e+00,2.617259740829467773e+00,2.560895681381225586e+00,2.506908416748046875e+00,2.455150127410888672e+00,2.405486106872558594e+00,2.357791423797607422e+00,2.311951160430908203e+00,2.267859458923339844e+00,2.225417852401733398e+00,2.184535741806030273e+00,2.145128726959228516e+00,2.107118129730224609e+00,2.070430994033813477e+00,2.034999847412109375e+00,2.000760793685913086e+00,1.967654943466186523e+00,1.935626745223999023e+00,1.904624342918395996e+00,1.874599575996398926e+00,1.845506668090820312e+00
5.000000000000000000e+00,5.000000000000000000e+00,5.000000000000000000e+00,5.000000000000000000e+00,5.000000000000000000e+00,5.000000000000000000e+00,5.000000000000000000e+00,5.000000000000000000e+00,5.000000000000000000e+00,5.000000000000000000e+00,5.000000000000000000e+00,5.000000000000000000e+00,5.000000000000000000e+00,5.000000000000000000e+00,5.000000000000000000e+00,5.000000000000000000e+00,5.000000000000000000e+00,5.000000000000000000e+00,5.000000000000000000e+00,5.000000000000000000e+00,5.000000000000000000e+00,5.000000000000000000e+00,3.376816272735595703e+00,3.456041336059570312e+00,3.480323314666748047e+00,3.477881431579589844e+00,3.475827932357788086e+00,3.442744016647338867e+00,3.468989372253417969e+00,3.630403757095336914e+00,3.626885890960693359e+00,5.000000000000000000e+00,5.000000000000000000e+00,5.000000000000000000e+00,5.000000000000000000e+00,5.000000000000000000e+00,5.000000000000000000e+00,5.000000000000000000e+00,5.000000000000000000e+00,4.866729259490966797e+00,4.675384521484375000e+00,4.498516559600830078e+00,4.334542751312255859e+00,4.182102203369140625e+00,4.040019512176513672e+00,3.907274246215820312e+00,3.782974958419799805e+00,3.666340112686157227e+00,3.556682109832763672e+00,3.453393220901489258e+00,3.355934143066406250e+00,3.263824939727783203e+00,3.176636934280395508e+00,3.093986034393310547e+00,3.015527009963989258e+00,2.940948486328125000e+00,2.869970083236694336e+00,2.802336454391479492e+00,2.737817525863647461e+00,2.676202774047851562e+00,2.617300033569335938e+00,2.560934305191040039e+00,2.506945371627807617e+00,2.455185651779174805e+00,2.405519962310791016e+00,2.357824087142944336e+00,2.311982393264770508e+00,2.267889499664306641e+00,2.225446939468383789e+00,2.184563875198364258e+00,2.145155906677246094e+00,2.107144355773925781e+00,2.070456266403198242e+00,2.035024166107177734e+00,2.000784158706665039e+00,1.967677712440490723e+00,1.935648679733276367e+00,1.904645800590515137e+00,1.874620318412780762e+00,1.845526695251464844e+00
5.000000000000000000e+00,5.000000000000000000e+00,5.000000000000000000e+00,5.000000000000000000e+00,5.000000000000000000e+00,5.000000000000000000e+00,5.000000000000000000e+00,5.000000000000000000e+00,5.000000000000000000e+00,5.000000000000000000e+00,5.000000000000000000e+00,5.000000000000000000e+00,5.000000000000000000e+00,5.000000000000000000e+00,5.000000000000000000e+00,5.000000000000000000e+00,5.000000000000000000e+00,5.000000000000000000e+00,5.000000000000000000e+00,5.000000000000000000e+00,5.000000000000000000e+00,5.000000000000000000e+00,3.335165500640869141e+00,5.000000000000000000e+00,3.488957166671752930e+00,3.487304925918579102e+00,3.425582885742187500e+00,3.388073921203613281e+00,3.427230358123779297e+00,5.000000000000000000e+00,3.612774610519409180e+00,5.000000000000000000e+00,5.000000000000000000e+00,5.000000000000000000e+00,5.000000000000000000e+00,5.000000000000000000e+00,5.000000000000000000e+00,5.000000000000000000e+00,5.000000000000000000e+00,4.866868495941162109e+00,4.675513267517089844e+00,4.498635768890380859e+00,4.334652900695800781e+00,4.182204723358154297e+00,4.040115833282470703e+00,3.907364130020141602e+00,3.783059120178222656e+00,3.666419029235839844e+00,3.556756258010864258e+00,3.453463077545166016e+00,3.356000185012817383e+00,3.263887643814086914e+00,3.176696538925170898e+00,3.094042301177978516e+00,3.015580415725708008e+00,2.940999269485473633e+00,2.870018005371093750e+00,2.802382707595825195e+00,2.737861394882202148e+00,2.676244735717773438e+00,2.617340326309204102e+00,2.560972929000854492e+00,2.506982326507568359e+00,2.455221176147460938e+00,2.405554056167602539e+00,2.357856750488281250e+00,2.312013864517211914e+00,2.267919778823852539e+00,2.225476264953613281e+00,2.184592008590698242e+00,2.145182847976684570e+00,2.107170343399047852e+00,2.070481300354003906e+00,2.035048484802246094e+00,2.000807762145996094e+00,1.967700362205505371e+00,1.935670733451843262e+00,1.904667139053344727e+00,1.874640822410583496e+00,1.845546841621398926e+00
5.000000000000000000e+00,5.000000000000000000e+00,5.000000000000000000e+00,5.000000000000000000e+00,5.000000000000000000e+00,5.000000000000000000e+00,5.000000000000000000e+00,5.000000000000000000e+00,5.000000000000000000e+00,5.000000000000000000e+00,5.000000000000000000e+00,5.000000000000000000e+00,5.000000000000000000e+00,5.000000000000000000e+00,5.000000000000000000e+00,5.000000000000000000e+00,5.000000000000000000e+00,5.000000000000000000e+00,5.000000000000000000e+00,5.000000000000000000e+00,5.000000000000000000e+00,5.000000000000000000e+00,5.000000000000000000e+00,5.000000000000000000e+00,3.499960899353027344e+00,3.491644620895385742e+00,3.404538393020629883e+00,3.361377716064453125e+00,3.401614427566528320e+00,5.000000000000000000e+00,3.614011287689208984e+00,5.000000000000000000e+00,5.000000000000000000e+00,5.000000000000000000e+00,5.000000000000000000e+00,5.000000000000000000e+00,5.000000000000000000e+00,5.000000000000000000e+00,5.000000000000000000e+00,4.867007732391357422e+00,4.675641536712646484e+00,4.498754501342773438e+00,4.334763526916503906e+00,4.182307720184326172e+00,4.040211677551269531e+00,3.907453775405883789e+00,3.783143043518066406e+00,3.666497945785522461e+00,3.556830644607543945e+00,3.453533172607421875e+00,3.356066703796386719e+00,3.263950347900390625e+00,3.176755905151367188e+00,3.094098567962646484e+00,3.015633821487426758e+00,2.941049814224243164e+00,2.870066404342651367e+00,2.802428722381591797e+00,2.737905740737915039e+00,2.676286935806274414e+00,2.617380619049072266e+00,2.561011552810668945e+00,2.507019281387329102e+00,2.455256462097167969e+00,2.405587911605834961e+00,2.357889413833618164e+00,2.312045335769653320e+00,2.267950057983398438e+00,2.225505352020263672e+00,2.184620141983032227e+00,2.145209789276123047e+00,2.107196331024169922e+00,2.070506572723388672e+00,2.035072803497314453e+00,2.000831365585327148e+00,1.967723250389099121e+00,1.935692787170410156e+00,1.904688358306884766e+00,1.874661564826965332e+00,1.845566749572753906e+00
5.000000000000000000e+00,5.000000000000000000e+00,5.000000000000000000e+00,5.000000000000000000e+00,5.000000000000000000e+00,5.000000000000000000e+00,5.000000000000000000e+00,5.000000000000000000e+00,5.000000000000000000e+00,5.000000000000000000e+00,5.000000000000000000e+00,5.000000000000000000e+00,5.000000000000000000e+00,5.000000000000000000e+00,5.000000000000000000e+00,5.000000000000000000e+00,5.000000000000000000e+00,5.000000000000000000e+00,5.000000000000000000e+00,5.000000000000000000e+00,5.000000000000000000e+00,3.260166168212890625e+00,5.000000000000000000e+00,5.000000000000000000e+00,3.523241519927978516e+00,3.507798671722412109e+00,3.376016378402709961e+00,3.335405826568603516e+00,3.376004457473754883e+00,3.573114395141601562e+00,3.601226329803466797e+00,5.000000000000000000e+00,5.000000000000000000e+00,5.000000000000000000e+00,5.000000000000000000e+00,5.000000000000000000e+00,5.000000000000000000e+00,5.000000000000000000e+00,5.000000000000000000e+00,4.867146968841552734e+00,4.675770282745361328e+00,4.498873710632324219e+00,4.334874153137207031e+00,4.182410717010498047e+00,4.040307521820068359e+00,3.907543420791625977e+00,3.783226966857910156e+00,3.666576862335205078e+00,3.556905269622802734e+00,3.453603506088256836e+00,3.356132984161376953e+00,3.264013051986694336e+00,3.176815032958984375e+00,3.094154834747314453e+00,3.015686988830566406e+00,2.941100597381591797e+00,2.870115041732788086e+00,2.802474975585937500e+00,2.737949848175048828e+00,2.676329135894775391e+00,2.617420911788940430e+00,2.561049938201904297e+00,2.507056236267089844e+00,2.455291986465454102e+00,2.405622243881225586e+00,2.357922077178955078e+00,2.312076807022094727e+00,2.267980337142944336e+00,2.225534439086914062e+00,2.184648036956787109e+00,2.145236968994140625e+00,2.107222557067871094e+00,2.070531845092773438e+00,2.035097122192382812e+00,2.000854969024658203e+00,1.967746019363403320e+00,1.935714721679687500e+00,1.904709815979003906e+00,1.874682188034057617e+00,1.845586776733398438e+00
5.000000000000000000e+00,5.000000000000000000e+00,5.000000000000000000e+00,5.000000000000000000e+00,5.000000000000000000e+00,5.000000000000000000e+00,5.000000000000000000e+00,5.000000000000000000e+00,5.000000000000000000e+00,5.000000000000000000e+00,5.000000000000000000e+00,5.000000000000000000e+00,5.000000000000000000e+00,5.000000000000000000e+00,5.000000000000000000e+00,5.000000000000000000e+00,5.000000000000000000e+00,5.000000000000000000e+00,5.000000000000000000e+00,5.000000000000000000e+00,5.000000000000000000e+00,5.000000000000000000e+00,5.000000000000000000e+00,5.000000000000000000e+00,3.552167654037475586e+00,3.529571533203125000e+00,3.343483686447143555e+00,3.308696508407592773e+00,3.378324985504150391e+00,5.000000000000000000e+00,3.592184782028198242e+00,5.000000000000000000e+00,5.000000000000000000e+00,5.000000000000000000e+00,5.000000000000000000e+00,5.000000000000000000e+00,5.000000000000000000e+00,5.000000000000000000e+00,5.000000000000000000e+00,4.867286205291748047e+00,4.675898551940917969e+00,4.498992443084716797e+00,4.334984779357910156e+00,4.182513713836669922e+00,4.040403366088867188e+00,3.907633066177368164e+00,3.783311605453491211e+00,3.666656017303466797e+00,3.556979417800903320e+00,3.453673601150512695e+00,3.356199026107788086e+00,3.264075517654418945e+00,3.176874399185180664e+00,3.094210863113403320e+00,3.015740633010864258e+00,2.941151857376098633e+00,2.870163440704345703e+00,2.802521228790283203e+00,2.737993955612182617e+00,2.676371097564697266e+00,2.617460966110229492e+00,2.561088562011718750e+00,2.507093191146850586e+00,2.455327510833740234e+00,2.405656099319458008e+00,2.357954740524291992e+00,2.312108278274536133e+00,2.268010616302490234e+00,2.225563526153564453e+00,2.184676170349121094e+00,2.145263910293579102e+00,2.107248544692993164e+00,2.070557117462158203e+00,2.035121440887451172e+00,2.000878334045410156e+00,1.967768669128417969e+00,1.935736775398254395e+00,1.904730916023254395e+00,1.874702930450439453e+00,1.845606923103332520e+00
5.000000000000000000e+00,5.000000000000000000e+00,5.000000000000000000e+00,5.000000000000000000e+00,5.000000000000000000e+00,5.000000000000000000e+00,5.000000000000000000e+00,5.000000000000000000e+00,5.000000000000000000e+00,5.000000000000000000e+00,5.000000000000000000e+00,5.000000000000000000e+00,5.000000000000000000e+00,5.000000000000000000e+00,5.000000000000000000e+00,5.000000000000000000e+00,5.000000000000000000e+00,5.000000000000000000e+00,5.000000000000000000e+00,5.000000000000000000e+00,5.000000000000000000e+00,5.000000000000000000e+00,5.000000000000000000e+00,5.000000000000000000e+00,5.000000000000000000e+00,3.550317764282226562e+00,3.318874120712280273e+00,3.283807992935180664e+00,3.403458356857299805e+00,5.000000000000000000e+00,5.000000000000000000e+00,5.000000000000000000e+00,5.000000000000000000e+00,5.000000000000000000e+00,5.000000000000000000e+00,5.000000000000000000e+00,5.000000000000000000e+00,5.000000000000000000e+00,5.000000000000000000e+00,4.867425441741943359e+00,4.676026821136474609e+00,4.499111652374267578e+00,4.335094928741455078e+00,4.182616233825683594e+00,4.040499210357666016e+00,3.907723188400268555e+00,3.783395528793334961e+00,3.666735172271728516e+00,3.557053804397583008e+00,3.453743696212768555e+00,3.356265068054199219e+00,3.264137983322143555e+00,3.176933288574218750e+00,3.094267368316650391e+00,3.015794038772583008e+00,2.941202640533447266e+00,2.870211839675903320e+00,2.802567243576049805e+00,2.738037824630737305e+00,2.676413059234619141e+00,2.617501258850097656e+00,2.561127185821533203e+00,2.507130146026611328e+00,2.455362796783447266e+00,2.405690193176269531e+00,2.357987403869628906e+00,2.312139511108398438e+00,2.268040657043457031e+00,2.225592613220214844e+00,2.184704303741455078e+00,2.145291090011596680e+00,2.107274770736694336e+00,2.070582151412963867e+00,2.035145759582519531e+00,2.000901937484741211e+00,1.967791557312011719e+00,1.935758709907531738e+00,1.904752373695373535e+00,1.874723553657531738e+00,1.845626831054687500e+00
5.000000000000000000e+00,5.000000000000000000e+00,5.000000000000000000e+00,5.000000000000000000e+00,5.000000000000000000e+00,5.000000000000000000e+00,5.000000000000000000e+00,5.000000000000000000e+00,5.000000000000000000e+00,5.000000000000000000e+00,5.000000000000000000e+00,5.000000000000000000e+00,5.000000000000000000e+00,5.000000000000000000e+00,5.000000000000000000e+00,5.000000000000000000e+00,5.000000000000000000e+00,5.000000000000000000e+00,5.000000000000000000e+00,5.000000000000000000e+00,5.000000000000000000e+00,5.000000000000000000e+00,5.000000000000000000e+00,5.000000000000000000e+00,5.000000000000000000e+00,3.570353507995605469e+00,3.329293489456176758e+00,3.287432193756103516e+00,5.000000000000000000e+00,5.000000000000000000e+00,5.000000000000000000e+00,5.000000000000000000e+00,5.000000000000000000e+00,5.000000000000000000e+00,5.000000000000000000e+00,5.000000000000000000e+00,5.000000000000000000e+00,5.000000000000000000e+00,5.000000000000000000e+00,4.867564678192138672e+00,4.676155567169189453e+00,4.499230384826660156e+00,4.335205554962158203e+00,4.182719230651855469e+00,4.040595531463623047e+00,3.907812833786010742e+00,3.783479690551757812e+00,3.666814088821411133e+00,3.557128190994262695e+00,3.453813552856445312e+00,3.356331348419189453e+00,3.264200687408447266e+00,3.176992893218994141e+00,3.094323396682739258e+00,3.015847444534301758e+00,2.941253423690795898e+00,2.870260238647460938e+00,2.802613496780395508e+00,2.738081932067871094e+00,2.676455497741699219e+00,2.617541790008544922e+00,2.561165809631347656e+00,2.507167100906372070e+00,2.455398321151733398e+00,2.405724048614501953e+00,2.358020067214965820e+00,2.312170982360839844e+00,2.268071174621582031e+00,2.225621700286865234e+00,2.184732198715209961e+00,2.145318031311035156e+00,2.107300758361816406e+00,2.070607423782348633e+00,2.035170078277587891e+00,2.000925302505493164e+00,1.967814326286315918e+00,1.935780882835388184e+00,1.904773831367492676e+00,1.874744176864624023e+00,1.845646858215332031e+00
5.000000000000000000e+00,5.000000000000000000e+00,5.000000000000000000e+00,5.000000000000000000e+00,5.000000000000000000e+00,5.000000000000000000e+00,5.000000000000000000e+00,5.000000000000000000e+00,5.000000000000000000e+00,5.000000000000000000e+00,5.000000000000000000e+00,5.000000000000000000e+00,5.000000000000000000e+00,5.000000000000000000e+00,5.000000000000000000e+00,5.000000000000000000e+00,5.000000000000000000e+00,5.000000000000000000e+00,5.000000000000000000e+00,5.000000000000000000e+00,5.000000000000000000e+00,5.000000000000000000e+00,5.000000000000000000e+00,5.000000000000000000e+00,5.000000000000000000e+00,3.593105792999267578e+00,3.630845069885253906e+00,3.300379753112792969e+00,3.363690376281738281e+00,5.000000000000000000e+00,5.000000000000000000e+00,5.000000000000000000e+00,5.000000000000000000e+00,5.000000000000000000e+00,5.000000000000000000e+00,5.000000000000000000e+00,5.000000000000000000e+00,5.000000000000000000e+00,5.000000000000000000e+00,4.867702484130859375e+00,4.676283836364746094e+00,4.499349594116210938e+00,4.335316181182861328e+00,4.182821750640869141e+00,4.040691375732421875e+00,3.907902479171752930e+00,3.783563613891601562e+00,3.666893005371093750e+00,3.557202339172363281e+00,3.453884124755859375e+00,3.356397628784179688e+00,3.264263153076171875e+00,3.177052021026611328e+00,3.094379663467407227e+00,3.015900850296020508e+00,2.941304206848144531e+00,2.870308637619018555e+00,2.802659749984741211e+00,2.738126039505004883e+00,2.676497459411621094e+00,2.617581844329833984e+00,2.561204195022583008e+00,2.507204055786132812e+00,2.455433607101440430e+00,2.405758142471313477e+00,2.358052968978881836e+00,2.312202453613281250e+00,2.268101215362548828e+00,2.225650787353515625e+00,2.184760332107543945e+00,2.145344972610473633e+00,2.107326984405517578e+00,2.070632457733154297e+00,2.035194635391235352e+00,2.000948905944824219e+00,1.967836976051330566e+00,1.935802936553955078e+00,1.904794931411743164e+00,1.874764919281005859e+00,1.845666766166687012e+00
5.000000000000000000e+00,5.000000000000000000e+00,5.000000000000000000e+00,5.000000000000000000e+00,5.000000000000000000e+00,5.000000000000000000e+00,5.000000000000000000e+00,5.000000000000000000e+00,5.000000000000000000e+00,5.000000000000000000e+00,5.000000000000000000e+00,5.000000000000000000e+00,5.000000000000000000e+00,5.000000000000000000e+00,5.000000000000000000e+00,5.000000000000000000e+00,5.000000000000000000e+00,5.000000000000000000e+00,5.000000000000000000e+00,5.000000000000000000e+00,5.000000000000000000e+00,5.000000000000000000e+00,5.000000000000000000e+00,5.000000000000000000e+00,5.000000000000000000e+00,3.691206932067871094e+00,3.706448316574096680e+00,3.306262493133544922e+00,3.363715887069702148e+00,5.000000000000000000e+00,5.000000000000000000e+00,5.000000000000000000e+00,5.000000000000000000e+00,5.000000000000000000e+00,5.000000000000000000e+00,5.000000000000000000e+00,5.000000000000000000e+00,5.000000000000000000e+00,5.000000000000000000e+00,4.867841720581054688e+00,4.676411151885986328e+00,4.499468326568603516e+00,4.335426330566406250e+00,4.182924747467041016e+00,4.040787220001220703e+00,3.907992124557495117e+00,3.783647775650024414e+00,3.666972160339355469e+00,3.557276964187622070e+00,3.453953981399536133e+00,3.356463670730590820e+00,3.264325857162475586e+00,3.177111387252807617e+00,3.094435930252075195e+00,3.015954017639160156e+00,2.941355228424072266e+00,2.870357275009155273e+00,2.802706003189086914e+00,2.738170146942138672e+00,2.676539421081542969e+00,2.617622137069702148e+00,2.561242818832397461e+00,2.507240772247314453e+00,2.455469131469726562e+00,2.405792236328125000e+00,2.358085632324218750e+00,2.312233924865722656e+00,2.268131494522094727e+00,2.225679874420166016e+00,2.184788227081298828e+00,2.145372152328491211e+00,2.107352972030639648e+00,2.070657968521118164e+00,2.035218954086303711e+00,2.000972509384155273e+00,1.967859864234924316e+00,1.935824871063232422e+00,1.904816389083862305e+00,1.874785423278808594e+00,1.845686912536621094e+00
5.000000000000000000e+00,5.000000000000000000e+00,5.000000000000000000e+00,5.000000000000000000e+00,5.000000000000000000e+00,5.000000000000000000e+00,5.000000000000000000e+00,5.000000000000000000e+00,5.000000000000000000e+00,5.000000000000000000e+00,5.000000000000000000e+00,5.000000000000000000e+00,5.000000000000000000e+00,5.000000000000000000e+00,5.000000000000000000e+00,5.000000000000000000e+00,5.000000000000000000e+00,5.000000000000000000e+00,5.000000000000000000e+00,5.000000000000000000e+00,5.000000000000000000e+00,5.000000000000000000e+00,5.000000000000000000e+00,5.000000000000000000e+00,5.000000000000000000e+00,3.764030933380126953e+00,3.750241518020629883e+00,3.300268173217773438e+00,3.365275144577026367e+00,5.000000000000000000e+00,5.000000000000000000e+00,5.000000000000000000e+00,5.000000000000000000e+00,5.000000000000000000e+00,5.000000000000000000e+00,5.000000000000000000e+00,5.000000000000000000e+00,5.000000000000000000e+00,5.000000000000000000e+00,4.867980480194091797e+00,4.676539421081542969e+00,4.499587535858154297e+00,4.335536956787109375e+00,4.183027744293212891e+00,4.040883064270019531e+00,3.908082485198974609e+00,3.783732175827026367e+00,3.667051315307617188e+00,3.557351112365722656e+00,3.454023838043212891e+00,3.356529712677001953e+00,3.264388322830200195e+00,3.177170753479003906e+00,3.094492435455322266e+00,3.016007900238037109e+00,2.941406011581420898e+00,2.870405435562133789e+00,2.802752017974853516e+00,2.738214254379272461e+00,2.676581621170043945e+00,2.617662429809570312e+00,2.561281442642211914e+00,2.507277965545654297e+00,2.455504655838012695e+00,2.405826330184936523e+00,2.358118057250976562e+00,2.312265396118164062e+00,2.268161773681640625e+00,2.225708961486816406e+00,2.184816598892211914e+00,2.145399332046508789e+00,2.107379198074340820e+00,2.070683002471923828e+00,2.035243272781372070e+00,2.000996112823486328e+00,1.967882394790649414e+00,1.935846924781799316e+00,1.904837846755981445e+00,1.874806165695190430e+00,1.845707058906555176e+00
5.000000000000000000e+00,5.000000000000000000e+00,5.000000000000000000e+00,5.000000000000000000e+00,5.000000000000000000e+00,5.000000000000000000e+00,5.000000000000000000e+00,5.000000000000000000e+00,5.000000000000000000e+00,5.000000000000000000e+00,5.000000000000000000e+00,5.000000000000000000e+00,5.000000000000000000e+00,5.000000000000000000e+00,5.000000000000000000e+00,5.000000000000000000e+00,5.000000000000000000e+00,5.000000000000000000e+00,5.000000000000000000e+00,5.000000000000000000e+00,5.000000000000000000e+00,5.000000000000000000e+00,5.000000000000000000e+00,5.000000000000000000e+00,5.000000000000000000e+00,5.000000000000000000e+00,3.782662391662597656e+00,3.293891668319702148e+00,3.366835832595825195e+00,5.000000000000000000e+00,5.000000000000000000e+00,5.000000000000000000e+00,5.000000000000000000e+00,5.000000000000000000e+00,5.000000000000000000e+00,5.000000000000000000e+00,5.000000000000000000e+00,5.000000000000000000e+00,5.000000000000000000e+00,4.868119716644287109e+00,4.676667690277099609e+00,4.499705314636230469e+00,4.335647106170654297e+00,4.183130741119384766e+00,4.040979385375976562e+00,3.908172130584716797e+00,3.783816337585449219e+00,3.667129993438720703e+00,3.557425498962402344e+00,3.454093933105468750e+00,3.356595993041992188e+00,3.264451265335083008e+00,3.177230119705200195e+00,3.094548702239990234e+00,3.016061305999755859e+00,2.941456794738769531e+00,2.870453834533691406e+00,2.802798032760620117e+00,2.738258123397827148e+00,2.676623821258544922e+00,2.617702722549438477e+00,2.561320066452026367e+00,2.507314920425415039e+00,2.455539941787719727e+00,2.405860185623168945e+00,2.358150720596313477e+00,2.312296628952026367e+00,2.268192052841186523e+00,2.225738286972045898e+00,2.184844493865966797e+00,2.145426273345947266e+00,2.107405185699462891e+00,2.070708274841308594e+00,2.035267591476440430e+00,2.001019477844238281e+00,1.967905282974243164e+00,1.935869097709655762e+00,1.904858946800231934e+00,1.874826908111572266e+00,1.845726966857910156e+00
5.000000000000000000e+00,5.000000000000000000e+00,5.000000000000000000e+00,5.000000000000000000e+00,5.000000000000000000e+00,5.000000000000000000e+00,5.000000000000000000e+00,5.000000000000000000e+00,5.000000000000000000e+00,5.000000000000000000e+00,5.000000000000000000e+00,5.000000000000000000e+00,5.000000000000000000e+00,5.000000000000000000e+00,5.000000000000000000e+00,5.000000000000000000e+00,5.000000000000000000e+00,5.000000000000000000e+00,5.000000000000000000e+00,5.000000000000000000e+00,5.000000000000000000e+00,5.000000000000000000e+00,5.000000000000000000e+00,5.000000000000000000e+00,5.000000000000000000e+00,5.000000000000000000e+00,3.818691492080688477e+00,3.297138452529907227e+00,5.000000000000000000e+00,5.000000000000000000e+00,5.000000000000000000e+00,5.000000000000000000e+00,5.000000000000000000e+00,5.000000000000000000e+00,5.000000000000000000e+00,5.000000000000000000e+00,5.000000000000000000e+00,5.000000000000000000e+00,5.000000000000000000e+00,4.868258476257324219e+00,4.676795959472656250e+00,4.499823570251464844e+00,4.335756778717041016e+00,4.183233261108398438e+00,4.041075229644775391e+00,3.908261775970458984e+00,3.783900022506713867e+00,3.667208909988403320e+00,3.557499647140502930e+00,3.454164266586303711e+00,3.356662511825561523e+00,3.264513731002807617e+00,3.177289485931396484e+00,3.094604969024658203e+00,3.016114711761474609e+00,2.941507577896118164e+00,2.870502233505249023e+00,2.802844524383544922e+00,2.738302469253540039e+00,2.676666021347045898e+00,2.617743015289306641e+00,2.561358451843261719e+00,2.507351875305175781e+00,2.455575466156005859e+00,2.405894279479980469e+00,2.358183622360229492e+00,2.312328338623046875e+00,2.268222332000732422e+00,2.225767374038696289e+00,2.184872627258300781e+00,2.145453214645385742e+00,2.107431411743164062e+00,2.070733308792114258e+00,2.035291910171508789e+00,2.001043081283569336e+00,1.967928171157836914e+00,1.935890913009643555e+00,1.904880404472351074e+00,1.874847412109375000e+00,1.845746994018554688e+00
5.000000000000000000e+00,5.000000000000000000e+00,5.000000000000000000e+00,5.000000000000000000e+00,5.000000000000000000e+00,5.000000000000000000e+00,5.000000000000000000e+00,5.000000000000000000e+00,5.000000000000000000e+00,5.000000000000000000e+00,5.000000000000000000e+00,5.000000000000000000e+00,5.000000000000000000e+00,5.000000000000000000e+00,5.000000000000000000e+00,5.000000000000000000e+00,5.000000000000000000e+00,5.000000000000000000e+00,5.000000000000000000e+00,5.000000000000000000e+00,5.000000000000000000e+00,5.000000000000000000e+00,5.000000000000000000e+00,5.000000000000000000e+00,5.000000000000000000e+00,5.000000000000000000e+00,3.897842884063720703e+00,3.297489643096923828e+00,5.000000000000000000e+00,5.000000000000000000e+00,5.000000000000000000e+00,5.000000000000000000e+00,5.000000000000000000e+00,5.000000000000000000e+00,5.000000000000000000e+00,5.000000000000000000e+00,5.000000000000000000e+00,5.000000000000000000e+00,5.000000000000000000e+00,4.868397712707519531e+00,4.676924228668212891e+00,4.499942779541015625e+00,4.335866928100585938e+00,4.183334827423095703e+00,4.041171550750732422e+00,3.908351182937622070e+00,3.783984184265136719e+00,3.667287826538085938e+00,3.557574272155761719e+00,3.454234361648559570e+00,3.356728553771972656e+00,3.264576435089111328e+00,3.177348852157592773e+00,3.094661235809326172e+00,3.016168117523193359e+00,2.941558361053466797e+00,2.870550870895385742e+00,2.802890539169311523e+00,2.738346576690673828e+00,2.676707983016967773e+00,2.617783308029174805e+00,2.561397075653076172e+00,2.507388591766357422e+00,2.455610752105712891e+00,2.405928373336791992e+00,2.358216285705566406e+00,2.312359571456909180e+00,2.268252372741699219e+00,2.225796461105346680e+00,2.184900522232055664e+00,2.145480394363403320e+00,2.107457399368286133e+00,2.070758581161499023e+00,2.035316228866577148e+00,2.001066684722900391e+00,1.967950820922851562e+00,1.935913085937500000e+00,1.904901623725891113e+00,1.874868154525756836e+00,1.845766901969909668e+00
4.874090194702148438e+00,4.872892379760742188e+00,4.871695041656494141e+00,4.870498657226562500e+00,4.869302749633789062e+00,4.868106842041015625e+00,4.866912364959716797e+00,4.865717887878417969e+00,4.864524364471435547e+00,4.863330841064453125e+00,4.862138271331787109e+00,4.860946178436279297e+00,4.859755039215087891e+00,4.858564376831054688e+00,4.857374191284179688e+00,4.856184482574462891e+00,4.854995727539062500e+00,4.853807449340820312e+00,4.852619171142578125e+00,4.851432323455810547e+00,4.850244998931884766e+00,4.849059104919433594e+00,4.847873687744140625e+00,4.846688747406005859e+00,4.845504760742187500e+00,4.844320297241210938e+00,3.854329586029052734e+00,3.291563749313354492e+00,4.840772628784179688e+00,4.839591026306152344e+00,4.838410377502441406e+00,4.837230205535888672e+00,4.836050033569335938e+00,4.834870815277099609e+00,4.833692073822021484e+00,4.832514286041259766e+00,4.831336498260498047e+00,4.830159664154052734e+00,4.828983306884765625e+00,4.827807903289794922e+00,4.677052974700927734e+00,4.500061511993408203e+00,4.335977077484130859e+00,4.183437824249267578e+00,4.041267395019531250e+00,3.908440828323364258e+00,3.784068584442138672e+00,3.667367219924926758e+00,3.557648658752441406e+00,3.454304456710815430e+00,3.356794834136962891e+00,3.264638900756835938e+00,3.177407979965209961e+00,3.094717264175415039e+00,3.016221761703491211e+00,2.941609382629394531e+00,2.870599269866943359e+00,2.802936792373657227e+00,2.738390445709228516e+00,2.676749944686889648e+00,2.617823600769042969e+00,2.561435461044311523e+00,2.507425785064697266e+00,2.455646514892578125e+00,2.405962228775024414e+00,2.358248949050903320e+00,2.312391042709350586e+00,2.268282651901245117e+00,2.225825548171997070e+00,2.184928655624389648e+00,2.145507574081420898e+00,2.107483625411987305e+00,2.070783853530883789e+00,2.035340547561645508e+00,2.001090288162231445e+00,1.967973589897155762e+00,1.935935020446777344e+00,1.904922962188720703e+00,1.874888896942138672e+00,1.845787048339843750e+00
3.777082204818725586e+00,3.776362895965576172e+00,3.775644063949584961e+00,3.774925231933593750e+00,3.774206876754760742e+00,3.773488283157348633e+00,3.772770404815673828e+00,3.772052764892578125e+00,3.771335363388061523e+00,3.770617961883544922e+00,3.769901275634765625e+00,3.769184589385986328e+00,3.768468379974365234e+00,3.767752408981323242e+00,3.767036437988281250e+00,3.766320943832397461e+00,3.765605688095092773e+00,3.764890909194946289e+00,3.764175891876220703e+00,3.763461351394653320e+00,3.762747287750244141e+00,3.762033700942993164e+00,3.761320114135742188e+00,3.760606288909912109e+00,3.759893417358398438e+00,3.759180784225463867e+00,3.202473878860473633e+00,3.167963504791259766e+00,3.757043838500976562e+00,3.756332159042358398e+00,3.755620718002319336e+00,3.754909515380859375e+00,3.754198312759399414e+00,3.753487825393676758e+00,3.752777576446533203e+00,3.752067565917968750e+00,3.751357316970825195e+00,3.750647783279418945e+00,3.749938488006591797e+00,3.749229669570922852e+00,3.748520851135253906e+00,3.747812032699584961e+00,3.747103929519653320e+00,3.746396064758300781e+00,3.745688438415527344e+00,3.744980573654174805e+00,3.744273662567138672e+00,3.667446136474609375e+00,3.557723045349121094e+00,3.454374551773071289e+00,3.356860876083374023e+00,3.264701604843139648e+00,3.177467584609985352e+00,3.094773769378662109e+00,3.016275167465209961e+00,2.941660165786743164e+00,2.870647668838500977e+00,2.802982807159423828e+00,2.738434553146362305e+00,2.676792144775390625e+00,2.617863893508911133e+00,2.561474323272705078e+00,2.507462739944458008e+00,2.455681800842285156e+00,2.405996322631835938e+00,2.358281612396240234e+00,2.312422513961791992e+00,2.268312931060791016e+00,2.225854635238647461e+00,2.184956789016723633e+00,2.145534515380859375e+00,2.107509613037109375e+00,2.070809125900268555e+00,2.035365104675292969e+00,2.001113653182983398e+00,1.967996239662170410e+00,1.935957074165344238e+00,1.904944419860839844e+00,1.874909400939941406e+00,1.845807075500488281e+00
3.083158493041992188e+00,3.082679271697998047e+00,3.082199811935424805e+00,3.081720829010009766e+00,3.081242084503173828e+00,3.080763339996337891e+00,3.080284833908081055e+00,3.079806089401245117e+00,3.079327821731567383e+00,3.078849792480468750e+00,3.078372001647949219e+00,3.077893972396850586e+00,3.077416181564331055e+00,3.076938629150390625e+00,3.076461315155029297e+00,3.075984239578247070e+00,3.075506925582885742e+00,3.075030088424682617e+00,3.074553251266479492e+00,3.074076652526855469e+00,3.073600053787231445e+00,3.073123693466186523e+00,3.072647571563720703e+00,3.072171449661254883e+00,3.071695566177368164e+00,3.071219682693481445e+00,3.070744037628173828e+00,3.070268630981445312e+00,3.069793462753295898e+00,3.069318056106567383e+00,3.068843126296997070e+00,3.068368196487426758e+00,3.067893505096435547e+00,3.067419052124023438e+00,3.066944360733032227e+00,3.066470146179199219e+00,3.065995931625366211e+00,3.065522193908691406e+00,3.065047979354858398e+00,3.064574480056762695e+00,3.064100980758666992e+00,3.063627481460571289e+00,3.063154458999633789e+00,3.062680959701538086e+00,3.062208175659179688e+00,3.061735391616821289e+00,3.061262607574462891e+00,3.060789823532104492e+00,3.060317516326904297e+00,3.059845447540283203e+00,3.059373378753662109e+00,3.058901309967041016e+00,3.058429479598999023e+00,3.057957887649536133e+00,3.016328573226928711e+00,2.941710948944091797e+00,2.870696067810058594e+00,2.803029060363769531e+00,2.738478660583496094e+00,2.676834344863891602e+00,2.617904186248779297e+00,2.561512708663940430e+00,2.507499694824218750e+00,2.455717325210571289e+00,2.406030178070068359e+00,2.358314275741577148e+00,2.312453985214233398e+00,2.268343210220336914e+00,2.225883722305297852e+00,2.184984683990478516e+00,2.145561456680297852e+00,2.107535839080810547e+00,2.070834159851074219e+00,2.035389423370361328e+00,2.001137256622314453e+00,1.968019127845764160e+00,1.935979247093200684e+00,1.904965639114379883e+00,1.874930143356323242e+00,1.845826983451843262e+00
2.604635715484619141e+00,2.604293584823608398e+00,2.603951692581176758e+00,2.603609800338745117e+00,2.603267908096313477e+00,2.602926015853881836e+00,2.602584362030029297e+00,2.602242946624755859e+00,2.601901531219482422e+00,2.601560115814208984e+00,2.601218700408935547e+00,2.600877523422241211e+00,2.600536584854125977e+00,2.600195646286010742e+00,2.599854469299316406e+00,2.599513769149780273e+00,2.599173069000244141e+00,2.598832368850708008e+00,2.598491668701171875e+00,2.598151206970214844e+00,2.597810745239257812e+00,2.597470521926879883e+00,2.597130537033081055e+00,2.596790075302124023e+00,2.596450090408325195e+00,2.596110343933105469e+00,2.595770359039306641e+00,2.595430612564086914e+00,2.595090866088867188e+00,2.594751358032226562e+00,2.594411849975585938e+00,2.594072580337524414e+00,2.593733072280883789e+00,2.593393802642822266e+00,2.593054771423339844e+00,2.592715740203857422e+00,2.592376708984375000e+00,2.592037677764892578e+00,2.591699123382568359e+00,2.591360330581665039e+00,2.591021776199340820e+00,2.590682983398437500e+00,2.590344667434692383e+00,2.590006351470947266e+00,2.589668273925781250e+00,2.589329957962036133e+00,2.588991880416870117e+00,2.588653802871704102e+00,2.588315963745117188e+00,2.587978124618530273e+00,2.587640285491943359e+00,2.587302684783935547e+00,2.586965322494506836e+00,2.586627721786499023e+00,2.586290359497070312e+00,2.585952997207641602e+00,2.585615873336791992e+00,2.585278749465942383e+00,2.584941864013671875e+00,2.584604740142822266e+00,2.584267854690551758e+00,2.561551332473754883e+00,2.507536411285400391e+00,2.455752611160278320e+00,2.406064510345458984e+00,2.358346939086914062e+00,2.312485456466674805e+00,2.268373489379882812e+00,2.225912809371948242e+00,2.185012817382812500e+00,2.145588636398315430e+00,2.107561826705932617e+00,2.070859432220458984e+00,2.035413742065429688e+00,2.001160860061645508e+00,1.968042016029357910e+00,1.936001062393188477e+00,1.904987096786499023e+00,1.874950766563415527e+00,1.845847129821777344e+00
2.254746437072753906e+00,2.254487991333007812e+00,2.254229307174682617e+00,2.253970861434936523e+00,2.253712415695190430e+00,2.253453731536865234e+00,2.253195524215698242e+00,2.252937078475952148e+00,2.252678871154785156e+00,2.252420663833618164e+00,2.252162694931030273e+00,2.251904726028442383e+00,2.251646518707275391e+00,2.251388549804687500e+00,2.251130580902099609e+00,2.250872850418090820e+00,2.250615119934082031e+00,2.250357389450073242e+00,2.250099658966064453e+00,2.249842166900634766e+00,2.249584674835205078e+00,2.249326944351196289e+00,2.249069690704345703e+00,2.248813629150390625e+00,2.248558759689331055e+00,2.248303651809692383e+00,2.248048782348632812e+00,2.247793912887573242e+00,2.247539281845092773e+00,2.247284412384033203e+00,2.247029781341552734e+00,2.246775150299072266e+00,2.246520757675170898e+00,2.246266365051269531e+00,2.246011734008789062e+00,2.245757341384887695e+00,2.245502948760986328e+00,2.245248794555664062e+00,2.244994401931762695e+00,2.244740247726440430e+00,2.244486331939697266e+00,2.244232177734375000e+00,2.243978261947631836e+00,2.243724346160888672e+00,2.243470430374145508e+00,2.243216753005981445e+00,2.242963075637817383e+00,2.242709159851074219e+00,2.242455482482910156e+00,2.242202043533325195e+00,2.241948604583740234e+00,2.241695165634155273e+00,2.241441726684570312e+00,2.241188287734985352e+00,2.240935087203979492e+00,2.240681886672973633e+00,2.240428447723388672e+00,2.240175485610961914e+00,2.239922523498535156e+00,2.239669561386108398e+00,2.239416599273681641e+00,2.239163637161254883e+00,2.238910675048828125e+00,2.238657951354980469e+00,2.238405227661132812e+00,2.238152503967285156e+00,2.237900018692016602e+00,2.237647533416748047e+00,2.225941896438598633e+00,2.185040950775146484e+00,2.145615816116333008e+00,2.107588052749633789e+00,2.070884704589843750e+00,2.035438060760498047e+00,2.001184225082397461e+00,1.968064546585083008e+00,1.936023235321044922e+00,1.905008196830749512e+00,1.874971508979797363e+00,1.845867276191711426e+00
1.987830519676208496e+00,1.987629413604736328e+00,1.987428307533264160e+00,1.987227201461791992e+00,1.987026453018188477e+00,1.986825585365295410e+00,1.986624598503112793e+00,1.986423969268798828e+00,1.986223220825195312e+00,1.986022353172302246e+00,1.985821604728698730e+00,1.985621213912963867e+00,1.985420465469360352e+00,1.985219836235046387e+00,1.985019564628601074e+00,1.984818935394287109e+00,1.984618425369262695e+00,1.984417915344238281e+00,1.984217762947082520e+00,1.984017372131347656e+00,1.983816981315612793e+00,1.983616709709167480e+00,1.983416676521301270e+00,1.983216524124145508e+00,1.983016252517700195e+00,1.982816338539123535e+00,1.982616305351257324e+00,1.982416272163391113e+00,1.982216238975524902e+00,1.982016444206237793e+00,1.981816530227661133e+00,1.981616616249084473e+00,1.981416940689086914e+00,1.981217145919799805e+00,1.981017351150512695e+00,1.980817675590515137e+00,1.980618119239807129e+00,1.980418443679809570e+00,1.980218887329101562e+00,1.980019569396972656e+00,1.979820013046264648e+00,1.979620456695556641e+00,1.979421019554138184e+00,1.979221820831298828e+00,1.979022383689880371e+00,1.978823065757751465e+00,1.978623986244201660e+00,1.978424787521362305e+00,1.978225588798522949e+00,1.978026390075683594e+00,1.977827429771423340e+00,1.977628350257873535e+00,1.977429270744323730e+00,1.977230548858642578e+00,1.977031469345092773e+00,1.976832628250122070e+00,1.976633667945861816e+00,1.976435065269470215e+00,1.976236224174499512e+00,1.976037383079528809e+00,1.975838661193847656e+00,1.975640177726745605e+00,1.975441575050354004e+00,1.975242972373962402e+00,1.975044608116149902e+00,1.974846005439758301e+00,1.974647521972656250e+00,1.974449038505554199e+00,1.974250912666320801e+00,1.974052548408508301e+00,1.973854184150695801e+00,1.973656058311462402e+00,1.973457813262939453e+00,1.973259568214416504e+00,1.973061442375183105e+00,1.968087434768676758e+00,1.936045289039611816e+00,1.905029654502868652e+00,1.874992251396179199e+00,1.845887184143066406e+00
1.777419924736022949e+00,1.777259111404418945e+00,1.777098536491394043e+00,1.776937842369079590e+00,1.776777148246765137e+00,1.776616573333740234e+00,1.776455998420715332e+00,1.776295304298400879e+00,1.776134729385375977e+00,1.775974392890930176e+00,1.775813817977905273e+00,1.775653362274169922e+00,1.775493025779724121e+00,1.775332570075988770e+00,1.775172233581542969e+00,1.775011777877807617e+00,1.774851679801940918e+00,1.774691343307495117e+00,1.774531006813049316e+00,1.774370908737182617e+00,1.774210691452026367e+00,1.774050474166870117e+00,1.773890256881713867e+00,1.773730278015136719e+00,1.773570179939270020e+00,1.773410081863403320e+00,1.773250102996826172e+00,1.773090124130249023e+00,1.772930145263671875e+00,1.772770047187805176e+00,1.772610306739807129e+00,1.772450447082519531e+00,1.772290468215942383e+00,1.772130846977233887e+00,1.771970987319946289e+00,1.771811127662658691e+00,1.771651387214660645e+00,1.771491765975952148e+00,1.771332025527954102e+00,1.771172404289245605e+00,1.771012663841247559e+00,1.770853281021118164e+00,1.770693659782409668e+00,1.770534038543701172e+00,1.770374655723571777e+00,1.770215153694152832e+00,1.770055651664733887e+00,1.769896149635314941e+00,1.769736886024475098e+00,1.769577503204345703e+00,1.769418120384216309e+00,1.769258975982666016e+00,1.769099593162536621e+00,1.768940329551696777e+00,1.768781065940856934e+00,1.768622040748596191e+00,1.768462777137756348e+00,1.768303632736206055e+00,1.768144607543945312e+00,1.767985582351684570e+00,1.767826437950134277e+00,1.767667412757873535e+00,1.767508506774902344e+00,1.767349481582641602e+00,1.767190575599670410e+00,1.767031788825988770e+00,1.766872882843017578e+00,1.766713976860046387e+00,1.766555070877075195e+00,1.766396403312683105e+00,1.766237616539001465e+00,1.766078829765319824e+00,1.765920042991638184e+00,1.765761494636535645e+00,1.765602827072143555e+00,1.765444278717041016e+00,1.765285730361938477e+00,1.765127182006835938e+00,1.764968633651733398e+00,1.764810085296630859e+00
1.607289552688598633e+00,1.607158064842224121e+00,1.607026576995849609e+00,1.606895327568054199e+00,1.606763839721679688e+00,1.606632471084594727e+00,1.606501221656799316e+00,1.606369853019714355e+00,1.606238603591918945e+00,1.606107234954833984e+00,1.605976104736328125e+00,1.605844855308532715e+00,1.605713605880737305e+00,1.605582356452941895e+00,1.605451226234436035e+00,1.605320096015930176e+00,1.605188965797424316e+00,1.605057954788208008e+00,1.604926824569702148e+00,1.604795694351196289e+00,1.604664564132690430e+00,1.604533672332763672e+00,1.604402661323547363e+00,1.604271650314331055e+00,1.604140758514404297e+00,1.604009866714477539e+00,1.603878855705261230e+00,1.603747963905334473e+00,1.603617191314697266e+00,1.603486299514770508e+00,1.603355407714843750e+00,1.603224754333496094e+00,1.603093862533569336e+00,1.602963089942932129e+00,1.602832317352294922e+00,1.602701663970947266e+00,1.602571010589599609e+00,1.602440237998962402e+00,1.602309703826904297e+00,1.602179050445556641e+00,1.602048397064208984e+00,1.601917743682861328e+00,1.601787328720092773e+00,1.601656675338745117e+00,1.601526141166687012e+00,1.601395726203918457e+00,1.601265192031860352e+00,1.601134777069091797e+00,1.601004242897033691e+00,1.600873947143554688e+00,1.600743532180786133e+00,1.600613117218017578e+00,1.600482702255249023e+00,1.600352406501770020e+00,1.600222110748291016e+00,1.600091814994812012e+00,1.599961519241333008e+00,1.599831223487854004e+00,1.599701046943664551e+00,1.599570751190185547e+00,1.599440693855285645e+00,1.599310517311096191e+00,1.599180221557617188e+00,1.599050283432006836e+00,1.598920106887817383e+00,1.598790049552917480e+00,1.598659873008728027e+00,1.598529934883117676e+00,1.598399877548217773e+00,1.598269820213317871e+00,1.598140001296997070e+00,1.598010063171386719e+00,1.597880005836486816e+00,1.597750067710876465e+00,1.597620248794555664e+00,1.597490429878234863e+00,1.597360491752624512e+00,1.597230792045593262e+00,1.597100973129272461e+00,1.596971154212951660e+00
1.466882944107055664e+00,1.466773509979248047e+00,1.466663956642150879e+00,1.466554522514343262e+00,1.466445207595825195e+00,1.466335654258728027e+00,1.466226220130920410e+00,1.466116786003112793e+00,1.466007590293884277e+00,1.465898156166076660e+00,1.465788841247558594e+00,1.465679526329040527e+00,1.465570211410522461e+00,1.465460896492004395e+00,1.465351581573486328e+00,1.465242385864257812e+00,1.465133190155029297e+00,1.465023875236511230e+00,1.464914798736572266e+00,1.464805483818054199e+00,1.464696288108825684e+00,1.464587092399597168e+00,1.464478015899658203e+00,1.464368939399719238e+00,1.464259743690490723e+00,1.464150667190551758e+00,1.464041590690612793e+00,1.463932514190673828e+00,1.463823437690734863e+00,1.463714480400085449e+00,1.463605523109436035e+00,1.463496446609497070e+00,1.463387370109558105e+00,1.463278532028198242e+00,1.463169574737548828e+00,1.463060617446899414e+00,1.462951779365539551e+00,1.462842822074890137e+00,1.462733983993530273e+00,1.462625026702880859e+00,1.462516307830810547e+00,1.462407350540161133e+00,1.462298512458801270e+00,1.462189793586730957e+00,1.462081074714660645e+00,1.461972236633300781e+00,1.461863398551940918e+00,1.461754798889160156e+00,1.461646080017089844e+00,1.461537361145019531e+00,1.461428761482238770e+00,1.461320042610168457e+00,1.461211323738098145e+00,1.461102604866027832e+00,1.460994124412536621e+00,1.460885405540466309e+00,1.460776805877685547e+00,1.460668325424194336e+00,1.460559725761413574e+00,1.460451126098632812e+00,1.460342645645141602e+00,1.460234165191650391e+00,1.460125684738159180e+00,1.460017204284667969e+00,1.459908604621887207e+00,1.459800362586975098e+00,1.459691882133483887e+00,1.459583401679992676e+00,1.459475040435791016e+00,1.459366679191589355e+00,1.459258317947387695e+00,1.459149837493896484e+00,1.459041595458984375e+00,1.458933234214782715e+00,1.458824992179870605e+00,1.458716750144958496e+00,1.458608508110046387e+00,1.458500146865844727e+00,1.458391904830932617e+00,1.458283782005310059e+00
1.349036335945129395e+00,1.348943710327148438e+00,1.348851203918457031e+00,1.348758578300476074e+00,1.348665952682495117e+00,1.348573446273803711e+00,1.348480939865112305e+00,1.348388433456420898e+00,1.348295807838439941e+00,1.348203420639038086e+00,1.348110914230346680e+00,1.348018407821655273e+00,1.347925901412963867e+00,1.347833514213562012e+00,1.347741127014160156e+00,1.347648620605468750e+00,1.347556352615356445e+00,1.347463846206665039e+00,1.347371459007263184e+00,1.347279071807861328e+00,1.347186803817749023e+00,1.347094416618347168e+00,1.347002029418945312e+00,1.346909880638122559e+00,1.346817493438720703e+00,1.346725106239318848e+00,1.346632838249206543e+00,1.346540689468383789e+00,1.346448421478271484e+00,1.346356034278869629e+00,1.346263885498046875e+00,1.346171736717224121e+00,1.346079468727111816e+00,1.345987200736999512e+00,1.345895171165466309e+00,1.345802903175354004e+00,1.345710754394531250e+00,1.345618605613708496e+00,1.345526456832885742e+00,1.345434308052062988e+00,1.345342159271240234e+00,1.345250248908996582e+00,1.345158100128173828e+00,1.345065951347351074e+00,1.344973921775817871e+00,1.344881892204284668e+00,1.344789862632751465e+00,1.344697833061218262e+00,1.344605922698974609e+00,1.344513893127441406e+00,1.344421863555908203e+00,1.344329833984375000e+00,1.344237923622131348e+00,1.344146013259887695e+00,1.344053983688354492e+00,1.343962192535400391e+00,1.343870282173156738e+00,1.343778371810913086e+00,1.343686461448669434e+00,1.343594670295715332e+00,1.343502759933471680e+00,1.343410849571228027e+00,1.343319177627563477e+00,1.343227267265319824e+00,1.343135476112365723e+00,1.343043565750122070e+00,1.342951893806457520e+00,1.342860102653503418e+00,1.342768311500549316e+00,1.342676639556884766e+00,1.342584848403930664e+00,1.342493176460266113e+00,1.342401385307312012e+00,1.342309832572937012e+00,1.342218041419982910e+00,1.342126369476318359e+00,1.342034697532653809e+00,1.341943144798278809e+00,1.341851472854614258e+00,1.341759800910949707e+00
1.248716831207275391e+00,1.248637437820434570e+00,1.248558044433593750e+00,1.248478889465332031e+00,1.248399496078491211e+00,1.248320221900939941e+00,1.248240828514099121e+00,1.248161673545837402e+00,1.248082399368286133e+00,1.248003125190734863e+00,1.247923851013183594e+00,1.247844576835632324e+00,1.247765421867370605e+00,1.247686147689819336e+00,1.247606992721557617e+00,1.247527718544006348e+00,1.247448563575744629e+00,1.247369289398193359e+00,1.247290253639221191e+00,1.247211098670959473e+00,1.247131824493408203e+00,1.247052788734436035e+00,1.246973633766174316e+00,1.246894478797912598e+00,1.246815323829650879e+00,1.246736288070678711e+00,1.246657252311706543e+00,1.246578097343444824e+00,1.246499061584472656e+00,1.246420025825500488e+00,1.246340990066528320e+00,1.246261835098266602e+00,1.246182918548583984e+00,1.246103882789611816e+00,1.246024847030639648e+00,1.245945930480957031e+00,1.245866894721984863e+00,1.245787858963012695e+00,1.245708823204040527e+00,1.245630025863647461e+00,1.245550990104675293e+00,1.245472073554992676e+00,1.245393157005310059e+00,1.245314240455627441e+00,1.245235323905944824e+00,1.245156407356262207e+00,1.245077610015869141e+00,1.244998693466186523e+00,1.244919776916503906e+00,1.244840979576110840e+00,1.244762063026428223e+00,1.244683265686035156e+00,1.244604349136352539e+00,1.244525671005249023e+00,1.244446754455566406e+00,1.244367957115173340e+00,1.244289159774780273e+00,1.244210481643676758e+00,1.244131684303283691e+00,1.244052886962890625e+00,1.243974208831787109e+00,1.243895411491394043e+00,1.243816614151000977e+00,1.243737936019897461e+00,1.243659257888793945e+00,1.243580579757690430e+00,1.243501782417297363e+00,1.243423223495483398e+00,1.243344545364379883e+00,1.243265867233276367e+00,1.243187189102172852e+00,1.243108630180358887e+00,1.243029952049255371e+00,1.242951273918151855e+00,1.242872714996337891e+00,1.242794156074523926e+00,1.242715477943420410e+00,1.242636919021606445e+00,1.242558360099792480e+00,1.242479801177978516e+00
1.162284851074218750e+00,1.162216186523437500e+00,1.162147402763366699e+00,1.162078619003295898e+00,1.162009954452514648e+00,1.161941289901733398e+00,1.161872506141662598e+00,1.161803841590881348e+00,1.161735177040100098e+00,1.161666512489318848e+00,1.161597847938537598e+00,1.161529183387756348e+00,1.161460518836975098e+00,1.161391854286193848e+00,1.161323189735412598e+00,1.161254644393920898e+00,1.161185979843139648e+00,1.161117434501647949e+00,1.161048769950866699e+00,1.160980224609375000e+00,1.160911679267883301e+00,1.160843014717102051e+00,1.160774469375610352e+00,1.160705924034118652e+00,1.160637378692626953e+00,1.160568833351135254e+00,1.160500288009643555e+00,1.160431742668151855e+00,1.160363197326660156e+00,1.160294771194458008e+00,1.160226225852966309e+00,1.160157680511474609e+00,1.160089254379272461e+00,1.160020828247070312e+00,1.159952282905578613e+00,1.159883856773376465e+00,1.159815311431884766e+00,1.159747004508972168e+00,1.159678459167480469e+00,1.159610033035278320e+00,1.159541726112365723e+00,1.159473180770874023e+00,1.159404754638671875e+00,1.159336328506469727e+00,1.159268021583557129e+00,1.159199595451354980e+00,1.159131288528442383e+00,1.159062981605529785e+00,1.158994555473327637e+00,1.158926129341125488e+00,1.158857822418212891e+00,1.158789515495300293e+00,1.158721208572387695e+00,1.158652901649475098e+00,1.158584594726562500e+00,1.158516287803649902e+00,1.158447980880737305e+00,1.158379673957824707e+00,1.158311486244201660e+00,1.158243179321289062e+00,1.158174872398376465e+00,1.158106684684753418e+00,1.158038377761840820e+00,1.157970190048217773e+00,1.157901883125305176e+00,1.157833814620971680e+00,1.157765507698059082e+00,1.157697319984436035e+00,1.157629132270812988e+00,1.157560944557189941e+00,1.157492756843566895e+00,1.157424569129943848e+00,1.157356500625610352e+00,1.157288312911987305e+00,1.157220125198364258e+00,1.157151937484741211e+00,1.157083868980407715e+00,1.157015681266784668e+00,1.156947612762451172e+00,1.156879544258117676e+00
1.087043285369873047e+00,1.086983203887939453e+00,1.086923122406005859e+00,1.086863040924072266e+00,1.086802840232849121e+00,1.086742758750915527e+00,1.086682677268981934e+00,1.086622595787048340e+00,1.086562514305114746e+00,1.086502432823181152e+00,1.086442351341247559e+00,1.086382269859313965e+00,1.086322188377380371e+00,1.086262226104736328e+00,1.086202144622802734e+00,1.086142182350158691e+00,1.086082100868225098e+00,1.086022138595581055e+00,1.085962057113647461e+00,1.085902094841003418e+00,1.085842132568359375e+00,1.085782051086425781e+00,1.085722088813781738e+00,1.085662126541137695e+00,1.085602164268493652e+00,1.085542201995849609e+00,1.085482239723205566e+00,1.085422277450561523e+00,1.085362315177917480e+00,1.085302352905273438e+00,1.085242390632629395e+00,1.085182547569274902e+00,1.085122585296630859e+00,1.085062742233276367e+00,1.085002779960632324e+00,1.084942936897277832e+00,1.084882974624633789e+00,1.084823131561279297e+00,1.084763288497924805e+00,1.084703326225280762e+00,1.084643483161926270e+00,1.084583640098571777e+00,1.084523797035217285e+00,1.084463953971862793e+00,1.084403991699218750e+00,1.084344267845153809e+00,1.084284424781799316e+00,1.084224581718444824e+00,1.084164738655090332e+00,1.084105014801025391e+00,1.084045171737670898e+00,1.083985328674316406e+00,1.083925604820251465e+00,1.083865761756896973e+00,1.083806037902832031e+00,1.083746194839477539e+00,1.083686470985412598e+00,1.083626747131347656e+00,1.083567023277282715e+00,1.083507299423217773e+00,1.083447575569152832e+00,1.083387732505798340e+00,1.083328008651733398e+00,1.083268404006958008e+00,1.083208680152893066e+00,1.083148956298828125e+00,1.083089232444763184e+00,1.083029508590698242e+00,1.082969903945922852e+00,1.082910180091857910e+00,1.082850575447082520e+00,1.082790851593017578e+00,1.082731127738952637e+00,1.082671642303466797e+00,1.082611918449401855e+00,1.082552313804626465e+00,1.082492589950561523e+00,1.082432985305786133e+00,1.082373380661010742e+00,1.082313776016235352e+00
1.020951271057128906e+00,1.020898222923278809e+00,1.020845174789428711e+00,1.020792126655578613e+00,1.020739078521728516e+00,1.020686030387878418e+00,1.020633101463317871e+00,1.020580053329467773e+00,1.020527124404907227e+00,1.020474076271057129e+00,1.020421028137207031e+00,1.020368099212646484e+00,1.020315170288085938e+00,1.020262122154235840e+00,1.020209193229675293e+00,1.020156264305114746e+00,1.020103216171264648e+00,1.020050287246704102e+00,1.019997358322143555e+00,1.019944429397583008e+00,1.019891500473022461e+00,1.019838571548461914e+00,1.019785642623901367e+00,1.019732713699340820e+00,1.019679784774780273e+00,1.019626975059509277e+00,1.019574046134948730e+00,1.019521117210388184e+00,1.019468188285827637e+00,1.019415378570556641e+00,1.019362449645996094e+00,1.019309639930725098e+00,1.019256830215454102e+00,1.019203901290893555e+00,1.019150972366333008e+00,1.019098162651062012e+00,1.019045352935791016e+00,1.018992543220520020e+00,1.018939614295959473e+00,1.018886923789978027e+00,1.018833994865417480e+00,1.018781185150146484e+00,1.018728375434875488e+00,1.018675565719604492e+00,1.018622756004333496e+00,1.018569946289062500e+00,1.018517255783081055e+00,1.018464446067810059e+00,1.018411636352539062e+00,1.018358826637268066e+00,1.018306136131286621e+00,1.018253326416015625e+00,1.018200516700744629e+00,1.018147826194763184e+00,1.018095135688781738e+00,1.018042325973510742e+00,1.017989516258239746e+00,1.017936825752258301e+00,1.017884135246276855e+00,1.017831444740295410e+00,1.017778635025024414e+00,1.017726063728332520e+00,1.017673254013061523e+00,1.017620563507080078e+00,1.017567873001098633e+00,1.017515182495117188e+00,1.017462491989135742e+00,1.017409801483154297e+00,1.017357230186462402e+00,1.017304539680480957e+00,1.017251849174499512e+00,1.017199277877807617e+00,1.017146587371826172e+00,1.017093896865844727e+00,1.017041206359863281e+00,1.016988635063171387e+00,1.016936063766479492e+00,1.016883373260498047e+00,1.016830801963806152e+00,1.016778230667114258e+00
9.624353051185607910e-01,9.623880982398986816e-01,9.623410105705261230e-01,9.622938632965087891e-01,9.622467160224914551e-01,9.621996879577636719e-01,9.621526002883911133e-01,9.621054530143737793e-01,9.620583653450012207e-01,9.620112180709838867e-01,9.619641304016113281e-01,9.619170427322387695e-01,9.618700146675109863e-01,9.618229269981384277e-01,9.617758393287658691e-01,9.617287516593933105e-01,9.616817235946655273e-01,9.616346359252929688e-01,9.615875482559204102e-01,9.615405797958374023e-01,9.614935517311096191e-01,9.614464640617370605e-01,9.613994359970092773e-01,9.613524079322814941e-01,9.613053798675537109e-01,9.612582921981811523e-01,9.612113833427429199e-01,9.611643552780151367e-01,9.611173272132873535e-01,9.610702991485595703e-01,9.610233306884765625e-01,9.609763026237487793e-01,9.609293341636657715e-01,9.608824253082275391e-01,9.608353972434997559e-01,9.607884287834167480e-01,9.607414603233337402e-01,9.606944322586059570e-01,9.606474637985229492e-01,9.606004953384399414e-01,9.605535268783569336e-01,9.605066776275634766e-01,9.604597091674804688e-01,9.604128003120422363e-01,9.603658318519592285e-01,9.603188633918762207e-01,9.602719545364379883e-01,9.602249860763549805e-01,9.601781964302062988e-01,9.601312279701232910e-01,9.600843191146850586e-01,9.600374102592468262e-01,9.599905014038085938e-01,9.599435925483703613e-01,9.598966836929321289e-01,9.598498940467834473e-01,9.598029851913452148e-01,9.597561359405517578e-01,9.597092270851135254e-01,9.596623182296752930e-01,9.596154689788818359e-01,9.595686197280883789e-01,9.595218300819396973e-01,9.594749808311462402e-01,9.594281315803527832e-01,9.593812823295593262e-01,9.593344330787658691e-01,9.592875838279724121e-01,9.592407345771789551e-01,9.591940045356750488e-01,9.591471552848815918e-01,9.591003656387329102e-01,9.590535163879394531e-01,9.590067267417907715e-01,9.589598774909973145e-01,9.589130878448486328e-01,9.588664174079895020e-01,9.588195681571960449e-01,9.587727785110473633e-01,9.587259888648986816e-01
9.102634191513061523e-01,9.102212190628051758e-01,9.101790785789489746e-01,9.101368784904479980e-01,9.100947380065917969e-01,9.100525975227355957e-01,9.100105166435241699e-01,9.099683761596679688e-01,9.099262356758117676e-01,9.098840951919555664e-01,9.098419547080993652e-01,9.097998142242431641e-01,9.097576737403869629e-01,9.097155332565307617e-01,9.096735119819641113e-01,9.096313714981079102e-01,9.095892906188964844e-01,9.095471501350402832e-01,9.095050692558288574e-01,9.094629287719726562e-01,9.094208478927612305e-01,9.093788266181945801e-01,9.093367457389831543e-01,9.092946648597717285e-01,9.092525839805603027e-01,9.092105031013488770e-01,9.091684222221374512e-01,9.091263413429260254e-01,9.090843796730041504e-01,9.090422987937927246e-01,9.090002775192260742e-01,9.089581966400146484e-01,9.089161157608032227e-01,9.088740944862365723e-01,9.088320732116699219e-01,9.087901115417480469e-01,9.087480902671813965e-01,9.087060093879699707e-01,9.086639881134033203e-01,9.086219668388366699e-01,9.085799455642700195e-01,9.085379242897033691e-01,9.084960222244262695e-01,9.084540009498596191e-01,9.084119796752929688e-01,9.083700180053710938e-01,9.083279967308044434e-01,9.082860350608825684e-01,9.082440137863159180e-01,9.082021117210388184e-01,9.081601500511169434e-01,9.081181883811950684e-01,9.080761671066284180e-01,9.080342054367065430e-01,9.079922437667846680e-01,9.079502820968627930e-01,9.079084396362304688e-01,9.078664779663085938e-01,9.078245162963867188e-01,9.077825546264648438e-01,9.077405929565429688e-01,9.076986908912658691e-01,9.076567292213439941e-01,9.076148867607116699e-01,9.075729846954345703e-01,9.075310230255126953e-01,9.074891209602355957e-01,9.074472188949584961e-01,9.074053168296813965e-01,9.073634147644042969e-01,9.073215723037719727e-01,9.072796702384948730e-01,9.072377681732177734e-01,9.071958661079406738e-01,9.071540236473083496e-01,9.071121215820312500e-01,9.070702195167541504e-01,9.070284366607666016e-01,9.069865942001342773e-01,9.069446921348571777e-01
