5.000000000000000000e+00,5.000000000000000000e+00,5.000000000000000000e+00,5.000000000000000000e+00,5.000000000000000000e+00,5.000000000000000000e+00,5.000000000000000000e+00,5.000000000000000000e+00,5.000000000000000000e+00,5.000000000000000000e+00,5.000000000000000000e+00,5.000000000000000000e+00,5.000000000000000000e+00,5.000000000000000000e+00,5.000000000000000000e+00,5.000000000000000000e+00,5.000000000000000000e+00,5.000000000000000000e+00,5.000000000000000000e+00,5.000000000000000000e+00,5.000000000000000000e+00,5.000000000000000000e+00,5.000000000000000000e+00,5.000000000000000000e+00,5.000000000000000000e+00,5.000000000000000000e+00,5.000000000000000000e+00,5.000000000000000000e+00,5.000000000000000000e+00,5.000000000000000000e+00,5.000000000000000000e+00,5.000000000000000000e+00,5.000000000000000000e+00,5.000000000000000000e+00,5.000000000000000000e+00,5.000000000000000000e+00,5.000000000000000000e+00,5.000000000000000000e+00,5.000000000000000000e+00,5.000000000000000000e+00,5.000000000000000000e+00,4.481785297393798828e+00,4.319107532501220703e+00,4.167825698852539062e+00,4.026782512664794922e+00,3.894973754882812500e+00,3.771519899368286133e+00,3.655651807785034180e+00,3.546690702438354492e+00,3.444036960601806641e+00,3.347158670425415039e+00,3.255581140518188477e+00,3.168881177902221680e+00,3.086679697036743164e+00,3.008634805679321289e+00,2.934439420700073242e+00,2.863815307617187500e+00,2.796510457992553711e+00,2.732296943664550781e+00,2.670965909957885742e+00,2.612328052520751953e+00,2.556209325790405273e+00,2.502450942993164062e+00,2.450907468795776367e+00,2.401443958282470703e+00,2.353937864303588867e+00,2.308274745941162109e+00,2.264349460601806641e+00,2.222064733505249023e+00,2.181330442428588867e+00,2.142062425613403320e+00,2.104183673858642578e+00,2.067620754241943359e+00,2.032307147979736328e+00,1.998179435729980469e+00,1.965178966522216797e+00,1.933250784873962402e+00,1.902343630790710449e+00,1.872408986091613770e+00,1.843401789665222168e+00
5.000000000000000000e+00,5.000000000000000000e+00,5.000000000000000000e+00,5.000000000000000000e+00,5.000000000000000000e+00,5.000000000000000000e+00,5.000000000000000000e+00,5.000000000000000000e+00,5.000000000000000000e+00,5.000000000000000000e+00,5.000000000000000000e+00,5.000000000000000000e+00,5.000000000000000000e+00,5.000000000000000000e+00,5.000000000000000000e+00,5.000000000000000000e+00,5.000000000000000000e+00,5.000000000000000000e+00,5.000000000000000000e+00,5.000000000000000000e+00,5.000000000000000000e+00,5.000000000000000000e+00,5.000000000000000000e+00,5.000000000000000000e+00,5.000000000000000000e+00,5.000000000000000000e+00,5.000000000000000000e+00,5.000000000000000000e+00,5.000000000000000000e+00,5.000000000000000000e+00,5.000000000000000000e+00,5.000000000000000000e+00,5.000000000000000000e+00,5.000000000000000000e+00,5.000000000000000000e+00,5.000000000000000000e+00,5.000000000000000000e+00,5.000000000000000000e+00,5.000000000000000000e+00,5.000000000000000000e+00,4.657324314117431641e+00,4.481903076171875000e+00,4.319216728210449219e+00,4.167927265167236328e+00,4.026877880096435547e+00,3.895062446594238281e+00,3.771602869033813477e+00,3.655730009078979492e+00,3.546764135360717773e+00,3.444106578826904297e+00,3.347223997116088867e+00,3.255643129348754883e+00,3.168940305709838867e+00,3.086735486984252930e+00,3.008687734603881836e+00,2.934489727020263672e+00,2.863863229751586914e+00,2.796556472778320312e+00,2.732340574264526367e+00,2.671007633209228516e+00,2.612368106842041016e+00,2.556247472763061523e+00,2.502487659454345703e+00,2.450942516326904297e+00,2.401477813720703125e+00,2.353970289230346680e+00,2.308305740356445312e+00,2.264379501342773438e+00,2.222093582153320312e+00,2.181358098983764648e+00,2.142089366912841797e+00,2.104209423065185547e+00,2.067645788192749023e+00,2.032331466674804688e+00,1.998202681541442871e+00,1.965201497077941895e+00,1.933272838592529297e+00,1.902364850044250488e+00,1.872429370880126953e+00,1.843421697616577148e+00
5.000000000000000000e+00,5.000000000000000000e+00,5.000000000000000000e+00,5.000000000000000000e+00,5.000000000000000000e+00,5.000000000000000000e+00,5.000000000000000000e+00,5.000000000000000000e+00,5.000000000000000000e+00,5.000000000000000000e+00,5.000000000000000000e+00,5.000000000000000000e+00,5.000000000000000000e+00,5.000000000000000000e+00,5.000000000000000000e+00,5.000000000000000000e+00,5.000000000000000000e+00,5.000000000000000000e+00,5.000000000000000000e+00,5.000000000000000000e+00,5.000000000000000000e+00,5.000000000000000000e+00,5.000000000000000000e+00,5.000000000000000000e+00,5.000000000000000000e+00,5.000000000000000000e+00,5.000000000000000000e+00,5.000000000000000000e+00,5.000000000000000000e+00,5.000000000000000000e+00,5.000000000000000000e+00,5.000000000000000000e+00,5.000000000000000000e+00,5.000000000000000000e+00,5.000000000000000000e+00,5.000000000000000000e+00,5.000000000000000000e+00,5.000000000000000000e+00,5.000000000000000000e+00,4.847174167633056641e+00,4.657450675964355469e+00,4.482020378112792969e+00,4.319325923919677734e+00,4.168028831481933594e+00,4.026972293853759766e+00,3.895151138305664062e+00,3.771686553955078125e+00,3.655807971954345703e+00,3.546837806701660156e+00,3.444175720214843750e+00,3.347289562225341797e+00,3.255705356597900391e+00,3.168998956680297852e+00,3.086791038513183594e+00,3.008740901947021484e+00,2.934540033340454102e+00,2.863910913467407227e+00,2.796602010726928711e+00,2.732384204864501953e+00,2.671049594879150391e+00,2.612407922744750977e+00,2.556285619735717773e+00,2.502524375915527344e+00,2.450977563858032227e+00,2.401511430740356445e+00,2.354002714157104492e+00,2.308336973190307617e+00,2.264409542083740234e+00,2.222122430801391602e+00,2.181385993957519531e+00,2.142116308212280273e+00,2.104235410690307617e+00,2.067670822143554688e+00,2.032355546951293945e+00,1.998226046562194824e+00,1.965224385261535645e+00,1.933294653892517090e+00,1.902385950088500977e+00,1.872449994087219238e+00,1.843441605567932129e+00
5.000000000000000000e+00,5.000000000000000000e+00,5.000000000000000000e+00,5.000000000000000000e+00,5.000000000000000000e+00,5.000000000000000000e+00,5.000000000000000000e+00,5.000000000000000000e+00,5.000000000000000000e+00,5.000000000000000000e+00,5.000000000000000000e+00,5.000000000000000000e+00,5.000000000000000000e+00,5.000000000000000000e+00,5.000000000000000000e+00,5.000000000000000000e+00,5.000000000000000000e+00,5.000000000000000000e+00,5.000000000000000000e+00,5.000000000000000000e+00,5.000000000000000000e+00,5.000000000000000000e+00,5.000000000000000000e+00,5.000000000000000000e+00,5.000000000000000000e+00,5.000000000000000000e+00,5.000000000000000000e+00,5.000000000000000000e+00,5.000000000000000000e+00,5.000000000000000000e+00,5.000000000000000000e+00,5.000000000000000000e+00,5.000000000000000000e+00,5.000000000000000000e+00,5.000000000000000000e+00,5.000000000000000000e+00,5.000000000000000000e+00,5.000000000000000000e+00,5.000000000000000000e+00,4.847311496734619141e+00,4.657577991485595703e+00,4.482138156890869141e+00,4.319435119628906250e+00,4.168130397796630859e+00,4.027067184448242188e+00,3.895240068435668945e+00,3.771769523620605469e+00,3.655886173248291016e+00,3.546911478042602539e+00,3.444245100021362305e+00,3.347355365753173828e+00,3.255767345428466797e+00,3.169057607650756836e+00,3.086847066879272461e+00,3.008793830871582031e+00,2.934590339660644531e+00,2.863959074020385742e+00,2.796647787094116211e+00,2.732428073883056641e+00,2.671091318130493164e+00,2.612447738647460938e+00,2.556324005126953125e+00,2.502560853958129883e+00,2.451012611389160156e+00,2.401545286178588867e+00,2.354035139083862305e+00,2.308368206024169922e+00,2.264439582824707031e+00,2.222151279449462891e+00,2.181413888931274414e+00,2.142143011093139648e+00,2.104261159896850586e+00,2.067695856094360352e+00,2.032379627227783203e+00,1.998249650001525879e+00,1.965246915817260742e+00,1.933316469192504883e+00,1.902407050132751465e+00,1.872470498085021973e+00,1.843461513519287109e+00
5.000000000000000000e+00,5.000000000000000000e+00,5.000000000000000000e+00,5.000000000000000000e+00,5.000000000000000000e+00,5.000000000000000000e+00,5.000000000000000000e+00,5.000000000000000000e+00,5.000000000000000000e+00,5.000000000000000000e+00,5.000000000000000000e+00,5.000000000000000000e+00,5.000000000000000000e+00,5.000000000000000000e+00,5.000000000000000000e+00,5.000000000000000000e+00,5.000000000000000000e+00,5.000000000000000000e+00,5.000000000000000000e+00,5.000000000000000000e+00,5.000000000000000000e+00,5.000000000000000000e+00,5.000000000000000000e+00,5.000000000000000000e+00,5.000000000000000000e+00,5.000000000000000000e+00,5.000000000000000000e+00,5.000000000000000000e+00,5.000000000000000000e+00,5.000000000000000000e+00,5.000000000000000000e+00,5.000000000000000000e+00,5.000000000000000000e+00,5.000000000000000000e+00,5.000000000000000000e+00,5.000000000000000000e+00,5.000000000000000000e+00,5.000000000000000000e+00,5.000000000000000000e+00,4.847449302673339844e+00,4.657704830169677734e+00,4.482255458831787109e+00,4.319544315338134766e+00,4.168232440948486328e+00,4.027162551879882812e+00,3.895328760147094727e+00,3.771852731704711914e+00,3.655964612960815430e+00,3.546985149383544922e+00,3.444314479827880859e+00,3.347420692443847656e+00,3.255829334259033203e+00,3.169116497039794922e+00,3.086902618408203125e+00,3.008846759796142578e+00,2.934640884399414062e+00,2.864006996154785156e+00,2.796693325042724609e+00,2.732471704483032227e+00,2.671132802963256836e+00,2.612487792968750000e+00,2.556362152099609375e+00,2.502597570419311523e+00,2.451047897338867188e+00,2.401578903198242188e+00,2.354067564010620117e+00,2.308399438858032227e+00,2.264469385147094727e+00,2.222180366516113281e+00,2.181441783905029297e+00,2.142169952392578125e+00,2.104287147521972656e+00,2.067720890045166016e+00,2.032403707504272461e+00,1.998272895812988281e+00,1.965269446372985840e+00,1.933338284492492676e+00,1.902428269386291504e+00,1.872491002082824707e+00,1.843481540679931641e+00
5.000000000000000000e+00,5.000000000000000000e+00,5.000000000000000000e+00,5.000000000000000000e+00,5.000000000000000000e+00,5.000000000000000000e+00,5.000000000000000000e+00,5.000000000000000000e+00,5.000000000000000000e+00,5.000000000000000000e+00,5.000000000000000000e+00,5.000000000000000000e+00,5.000000000000000000e+00,5.000000000000000000e+00,5.000000000000000000e+00,5.000000000000000000e+00,5.000000000000000000e+00,5.000000000000000000e+00,5.000000000000000000e+00,5.000000000000000000e+00,5.000000000000000000e+00,5.000000000000000000e+00,5.000000000000000000e+00,5.000000000000000000e+00,5.000000000000000000e+00,5.000000000000000000e+00,5.000000000000000000e+00,5.000000000000000000e+00,5.000000000000000000e+00,5.000000000000000000e+00,5.000000000000000000e+00,5.000000000000000000e+00,5.000000000000000000e+00,5.000000000000000000e+00,5.000000000000000000e+00,5.000000000000000000e+00,5.000000000000000000e+00,5.000000000000000000e+00,5.000000000000000000e+00,4.847586631774902344e+00,4.657831668853759766e+00,4.482373237609863281e+00,4.319653511047363281e+00,4.168333530426025391e+00,4.027256965637207031e+00,3.895417451858520508e+00,3.771936178207397461e+00,3.656042575836181641e+00,3.547058582305908203e+00,3.444384098052978516e+00,3.347486257553100586e+00,3.255891084671020508e+00,3.169175148010253906e+00,3.086958408355712891e+00,3.008899927139282227e+00,2.934691190719604492e+00,2.864054918289184570e+00,2.796739339828491211e+00,2.732515335083007812e+00,2.671174526214599609e+00,2.612527608871459961e+00,2.556400537490844727e+00,2.502634286880493164e+00,2.451082944869995117e+00,2.401612758636474609e+00,2.354099988937377930e+00,2.308430433273315430e+00,2.264499425888061523e+00,2.222209215164184570e+00,2.181469440460205078e+00,2.142196893692016602e+00,2.104313135147094727e+00,2.067745685577392578e+00,2.032428026199340820e+00,1.998296260833740234e+00,1.965291976928710938e+00,1.933360099792480469e+00,1.902449369430541992e+00,1.872511625289916992e+00,1.843501329421997070e+00
5.000000000000000000e+00,5.000000000000000000e+00,5.000000000000000000e+00,5.000000000000000000e+00,5.000000000000000000e+00,5.000000000000000000e+00,5.000000000000000000e+00,5.000000000000000000e+00,5.000000000000000000e+00,5.000000000000000000e+00,5.000000000000000000e+00,5.000000000000000000e+00,5.000000000000000000e+00,5.000000000000000000e+00,5.000000000000000000e+00,5.000000000000000000e+00,5.000000000000000000e+00,5.000000000000000000e+00,5.000000000000000000e+00,5.000000000000000000e+00,5.000000000000000000e+00,5.000000000000000000e+00,5.000000000000000000e+00,5.000000000000000000e+00,5.000000000000000000e+00,5.000000000000000000e+00,5.000000000000000000e+00,5.000000000000000000e+00,5.000000000000000000e+00,5.000000000000000000e+00,5.000000000000000000e+00,5.000000000000000000e+00,5.000000000000000000e+00,5.000000000000000000e+00,5.000000000000000000e+00,5.000000000000000000e+00,5.000000000000000000e+00,5.000000000000000000e+00,5.000000000000000000e+00,4.847723960876464844e+00,4.657958507537841797e+00,4.482490539550781250e+00,4.319762229919433594e+00,4.168435573577880859e+00,4.027351856231689453e+00,3.895506381988525391e+00,3.772019386291503906e+00,3.656120777130126953e+00,3.547132492065429688e+00,3.444453477859497070e+00,3.347551584243774414e+00,3.255953311920166016e+00,3.169233798980712891e+00,3.087014198303222656e+00,3.008952617645263672e+00,2.934741497039794922e+00,2.864103078842163086e+00,2.796785116195678711e+00,2.732558965682983398e+00,2.671216487884521484e+00,2.612567424774169922e+00,2.556438684463500977e+00,2.502670764923095703e+00,2.451118230819702148e+00,2.401646614074707031e+00,2.354132413864135742e+00,2.308461666107177734e+00,2.264529466629028320e+00,2.222238063812255859e+00,2.181497573852539062e+00,2.142223596572875977e+00,2.104338884353637695e+00,2.067770957946777344e+00,2.032452106475830078e+00,1.998319625854492188e+00,1.965314626693725586e+00,1.933382034301757812e+00,1.902470707893371582e+00,1.872532129287719727e+00,1.843521237373352051e+00
5.000000000000000000e+00,5.000000000000000000e+00,5.000000000000000000e+00,5.000000000000000000e+00,5.000000000000000000e+00,5.000000000000000000e+00,5.000000000000000000e+00,5.000000000000000000e+00,5.000000000000000000e+00,5.000000000000000000e+00,5.000000000000000000e+00,5.000000000000000000e+00,5.000000000000000000e+00,5.000000000000000000e+00,5.000000000000000000e+00,5.000000000000000000e+00,5.000000000000000000e+00,5.000000000000000000e+00,5.000000000000000000e+00,5.000000000000000000e+00,5.000000000000000000e+00,5.000000000000000000e+00,5.000000000000000000e+00,5.000000000000000000e+00,5.000000000000000000e+00,5.000000000000000000e+00,5.000000000000000000e+00,5.000000000000000000e+00,5.000000000000000000e+00,5.000000000000000000e+00,5.000000000000000000e+00,5.000000000000000000e+00,5.000000000000000000e+00,5.000000000000000000e+00,5.000000000000000000e+00,5.000000000000000000e+00,5.000000000000000000e+00,5.000000000000000000e+00,5.000000000000000000e+00,4.847861766815185547e+00,4.658085346221923828e+00,4.482607841491699219e+00,4.319871425628662109e+00,4.168537139892578125e+00,4.027446746826171875e+00,3.895595073699951172e+00,3.772102355957031250e+00,3.656199216842651367e+00,3.547205924987792969e+00,3.444522619247436523e+00,3.347617387771606445e+00,3.256015300750732422e+00,3.169292449951171875e+00,3.087069988250732422e+00,3.009005546569824219e+00,2.934792280197143555e+00,2.864151000976562500e+00,2.796830654144287109e+00,2.732602596282958984e+00,2.671258211135864258e+00,2.612607479095458984e+00,2.556477069854736328e+00,2.502707481384277344e+00,2.451153516769409180e+00,2.401680231094360352e+00,2.354164838790893555e+00,2.308492898941040039e+00,2.264559507369995117e+00,2.222266912460327148e+00,2.181525230407714844e+00,2.142250299453735352e+00,2.104364871978759766e+00,2.067795753479003906e+00,2.032476186752319336e+00,1.998342871665954590e+00,1.965337157249450684e+00,1.933403849601745605e+00,1.902491927146911621e+00,1.872552633285522461e+00,1.843541145324707031e+00
5.000000000000000000e+00,5.000000000000000000e+00,5.000000000000000000e+00,5.000000000000000000e+00,5.000000000000000000e+00,5.000000000000000000e+00,5.000000000000000000e+00,5.000000000000000000e+00,5.000000000000000000e+00,5.000000000000000000e+00,5.000000000000000000e+00,5.000000000000000000e+00,5.000000000000000000e+00,5.000000000000000000e+00,5.000000000000000000e+00,5.000000000000000000e+00,5.000000000000000000e+00,5.000000000000000000e+00,5.000000000000000000e+00,5.000000000000000000e+00,5.000000000000000000e+00,5.000000000000000000e+00,5.000000000000000000e+00,5.000000000000000000e+00,5.000000000000000000e+00,5.000000000000000000e+00,5.000000000000000000e+00,5.000000000000000000e+00,5.000000000000000000e+00,5.000000000000000000e+00,5.000000000000000000e+00,5.000000000000000000e+00,5.000000000000000000e+00,5.000000000000000000e+00,5.000000000000000000e+00,5.000000000000000000e+00,5.000000000000000000e+00,5.000000000000000000e+00,5.000000000000000000e+00,4.847999095916748047e+00,4.658212661743164062e+00,4.482725620269775391e+00,4.319980621337890625e+00,4.168638706207275391e+00,4.027541637420654297e+00,3.895683765411376953e+00,3.772185564041137695e+00,3.656277418136596680e+00,3.547279357910156250e+00,3.444592237472534180e+00,3.347682952880859375e+00,3.256077289581298828e+00,3.169351577758789062e+00,3.087125539779663086e+00,3.009058475494384766e+00,2.934842586517333984e+00,2.864198923110961914e+00,2.796876668930053711e+00,2.732646226882934570e+00,2.671299934387207031e+00,2.612647533416748047e+00,2.556515216827392578e+00,2.502743959426879883e+00,2.451188564300537109e+00,2.401713848114013672e+00,2.354197263717651367e+00,2.308524131774902344e+00,2.264589548110961914e+00,2.222295999526977539e+00,2.181553125381469727e+00,2.142277240753173828e+00,2.104390859603881836e+00,2.067820787429809570e+00,2.032500505447387695e+00,1.998366236686706543e+00,1.965359687805175781e+00,1.933425903320312500e+00,1.902513027191162109e+00,1.872573137283325195e+00,1.843560934066772461e+00
5.000000000000000000e+00,5.000000000000000000e+00,5.000000000000000000e+00,5.000000000000000000e+00,5.000000000000000000e+00,5.000000000000000000e+00,5.000000000000000000e+00,5.000000000000000000e+00,5.000000000000000000e+00,5.000000000000000000e+00,5.000000000000000000e+00,5.000000000000000000e+00,5.000000000000000000e+00,5.000000000000000000e+00,5.000000000000000000e+00,5.000000000000000000e+00,5.000000000000000000e+00,5.000000000000000000e+00,5.000000000000000000e+00,5.000000000000000000e+00,5.000000000000000000e+00,5.000000000000000000e+00,5.000000000000000000e+00,5.000000000000000000e+00,5.000000000000000000e+00,5.000000000000000000e+00,5.000000000000000000e+00,5.000000000000000000e+00,5.000000000000000000e+00,5.000000000000000000e+00,5.000000000000000000e+00,5.000000000000000000e+00,5.000000000000000000e+00,5.000000000000000000e+00,5.000000000000000000e+00,5.000000000000000000e+00,5.000000000000000000e+00,5.000000000000000000e+00,5.000000000000000000e+00,4.848136425018310547e+00,4.658339023590087891e+00,4.482842922210693359e+00,4.320089817047119141e+00,4.168740272521972656e+00,4.027636528015136719e+00,3.895772457122802734e+00,3.772269010543823242e+00,3.656355381011962891e+00,3.547352790832519531e+00,3.444661617279052734e+00,3.347748279571533203e+00,3.256139516830444336e+00,3.169410228729248047e+00,3.087181329727172852e+00,3.009111642837524414e+00,2.934892892837524414e+00,2.864246845245361328e+00,2.796922445297241211e+00,2.732689857482910156e+00,2.671341657638549805e+00,2.612687349319458008e+00,2.556553363800048828e+00,2.502780914306640625e+00,2.451223611831665039e+00,2.401747703552246094e+00,2.354229688644409180e+00,2.308555126190185547e+00,2.264619588851928711e+00,2.222324848175048828e+00,2.181580781936645508e+00,2.142304182052612305e+00,2.104416608810424805e+00,2.067845821380615234e+00,2.032524585723876953e+00,1.998389601707458496e+00,1.965382456779479980e+00,1.933447718620300293e+00,1.902534127235412598e+00,1.872593641281127930e+00,1.843580842018127441e+00
5.000000000000000000e+00,5.000000000000000000e+00,5.000000000000000000e+00,5.000000000000000000e+00,5.000000000000000000e+00,5.000000000000000000e+00,5.000000000000000000e+00,5.000000000000000000e+00,5.000000000000000000e+00,5.000000000000000000e+00,5.000000000000000000e+00,5.000000000000000000e+00,5.000000000000000000e+00,5.000000000000000000e+00,5.000000000000000000e+00,5.000000000000000000e+00,5.000000000000000000e+00,5.000000000000000000e+00,5.000000000000000000e+00,5.000000000000000000e+00,5.000000000000000000e+00,5.000000000000000000e+00,5.000000000000000000e+00,5.000000000000000000e+00,5.000000000000000000e+00,5.000000000000000000e+00,5.000000000000000000e+00,5.000000000000000000e+00,5.000000000000000000e+00,5.000000000000000000e+00,5.000000000000000000e+00,5.000000000000000000e+00,5.000000000000000000e+00,5.000000000000000000e+00,5.000000000000000000e+00,5.000000000000000000e+00,5.000000000000000000e+00,5.000000000000000000e+00,5.000000000000000000e+00,4.848273754119873047e+00,4.658466339111328125e+00,4.482960700988769531e+00,4.320199489593505859e+00,4.168841838836669922e+00,4.027731418609619141e+00,3.895861625671386719e+00,3.772352218627929688e+00,3.656433582305908203e+00,3.547426700592041016e+00,3.444730997085571289e+00,3.347814083099365234e+00,3.256201505661010742e+00,3.169468879699707031e+00,3.087237358093261719e+00,3.009164571762084961e+00,2.934943199157714844e+00,2.864295005798339844e+00,2.796967983245849609e+00,2.732733726501464844e+00,2.671383380889892578e+00,2.612727165222167969e+00,2.556591749191284180e+00,2.502817392349243164e+00,2.451258659362792969e+00,2.401781558990478516e+00,2.354262113571166992e+00,2.308586359024047852e+00,2.264649629592895508e+00,2.222353696823120117e+00,2.181608915328979492e+00,2.142331123352050781e+00,2.104442596435546875e+00,2.067870855331420898e+00,2.032548666000366211e+00,1.998413085937500000e+00,1.965405106544494629e+00,1.933469533920288086e+00,1.902555346488952637e+00,1.872614026069641113e+00,1.843600630760192871e+00
5.000000000000000000e+00,5.000000000000000000e+00,5.000000000000000000e+00,5.000000000000000000e+00,5.000000000000000000e+00,5.000000000000000000e+00,5.000000000000000000e+00,5.000000000000000000e+00,5.000000000000000000e+00,5.000000000000000000e+00,5.000000000000000000e+00,5.000000000000000000e+00,5.000000000000000000e+00,5.000000000000000000e+00,5.000000000000000000e+00,5.000000000000000000e+00,5.000000000000000000e+00,5.000000000000000000e+00,5.000000000000000000e+00,5.000000000000000000e+00,5.000000000000000000e+00,5.000000000000000000e+00,5.000000000000000000e+00,5.000000000000000000e+00,5.000000000000000000e+00,5.000000000000000000e+00,5.000000000000000000e+00,5.000000000000000000e+00,5.000000000000000000e+00,5.000000000000000000e+00,5.000000000000000000e+00,5.000000000000000000e+00,5.000000000000000000e+00,5.000000000000000000e+00,5.000000000000000000e+00,5.000000000000000000e+00,5.000000000000000000e+00,5.000000000000000000e+00,5.000000000000000000e+00,4.848411560058593750e+00,4.658593177795410156e+00,4.483078002929687500e+00,4.320308208465576172e+00,4.168943881988525391e+00,4.027826309204101562e+00,3.895950078964233398e+00,3.772435426712036133e+00,3.656512022018432617e+00,3.547500371932983398e+00,3.444800376892089844e+00,3.347879648208618164e+00,3.256263256072998047e+00,3.169527769088745117e+00,3.087292909622192383e+00,3.009217500686645508e+00,2.934993743896484375e+00,2.864342927932739258e+00,2.797013759613037109e+00,2.732777357101440430e+00,2.671425104141235352e+00,2.612767219543457031e+00,2.556629896163940430e+00,2.502854108810424805e+00,2.451293945312500000e+00,2.401815176010131836e+00,2.354294538497924805e+00,2.308617591857910156e+00,2.264679431915283203e+00,2.222382545471191406e+00,2.181636571884155273e+00,2.142357826232910156e+00,2.104468584060668945e+00,2.067895889282226562e+00,2.032572984695434570e+00,1.998436450958251953e+00,1.965427637100219727e+00,1.933491349220275879e+00,1.902576446533203125e+00,1.872634530067443848e+00,1.843620657920837402e+00
5.000000000000000000e+00,5.000000000000000000e+00,5.000000000000000000e+00,5.000000000000000000e+00,5.000000000000000000e+00,5.000000000000000000e+00,5.000000000000000000e+00,5.000000000000000000e+00,5.000000000000000000e+00,5.000000000000000000e+00,5.000000000000000000e+00,5.000000000000000000e+00,5.000000000000000000e+00,5.000000000000000000e+00,5.000000000000000000e+00,5.000000000000000000e+00,5.000000000000000000e+00,5.000000000000000000e+00,5.000000000000000000e+00,5.000000000000000000e+00,5.000000000000000000e+00,5.000000000000000000e+00,5.000000000000000000e+00,5.000000000000000000e+00,5.000000000000000000e+00,5.000000000000000000e+00,5.000000000000000000e+00,5.000000000000000000e+00,5.000000000000000000e+00,5.000000000000000000e+00,5.000000000000000000e+00,5.000000000000000000e+00,5.000000000000000000e+00,5.000000000000000000e+00,5.000000000000000000e+00,5.000000000000000000e+00,5.000000000000000000e+00,5.000000000000000000e+00,5.000000000000000000e+00,4.848548889160156250e+00,4.658720016479492188e+00,4.483195781707763672e+00,4.320417404174804688e+00,4.169045448303222656e+00,4.027921199798583984e+00,3.896038770675659180e+00,3.772518873214721680e+00,3.656589984893798828e+00,3.547573804855346680e+00,3.444869995117187500e+00,3.347945213317871094e+00,3.256325244903564453e+00,3.169586658477783203e+00,3.087348699569702148e+00,3.009270668029785156e+00,2.935044050216674805e+00,2.864390850067138672e+00,2.797059774398803711e+00,2.732820987701416016e+00,2.671466827392578125e+00,2.612807273864746094e+00,2.556668043136596680e+00,2.502890825271606445e+00,2.451328992843627930e+00,2.401848793029785156e+00,2.354326963424682617e+00,2.308648824691772461e+00,2.264709472656250000e+00,2.222411394119262695e+00,2.181664466857910156e+00,2.142384767532348633e+00,2.104494333267211914e+00,2.067920923233032227e+00,2.032597064971923828e+00,1.998459815979003906e+00,1.965450167655944824e+00,1.933513164520263672e+00,1.902597546577453613e+00,1.872655272483825684e+00,1.843640565872192383e+00
5.000000000000000000e+00,5.000000000000000000e+00,5.000000000000000000e+00,5.000000000000000000e+00,5.000000000000000000e+00,5.000000000000000000e+00,5.000000000000000000e+00,5.000000000000000000e+00,5.000000000000000000e+00,5.000000000000000000e+00,5.000000000000000000e+00,5.000000000000000000e+00,5.000000000000000000e+00,5.000000000000000000e+00,5.000000000000000000e+00,5.000000000000000000e+00,5.000000000000000000e+00,5.000000000000000000e+00,5.000000000000000000e+00,5.000000000000000000e+00,5.000000000000000000e+00,5.000000000000000000e+00,5.000000000000000000e+00,5.000000000000000000e+00,5.000000000000000000e+00,5.000000000000000000e+00,5.000000000000000000e+00,5.000000000000000000e+00,5.000000000000000000e+00,5.000000000000000000e+00,5.000000000000000000e+00,5.000000000000000000e+00,5.000000000000000000e+00,5.000000000000000000e+00,5.000000000000000000e+00,5.000000000000000000e+00,5.000000000000000000e+00,5.000000000000000000e+00,5.000000000000000000e+00,4.848686695098876953e+00,4.658847332000732422e+00,4.483313560485839844e+00,4.320526599884033203e+00,4.169147014617919922e+00,4.028016090393066406e+00,3.896127939224243164e+00,3.772602081298828125e+00,3.656668186187744141e+00,3.547647714614868164e+00,3.444939136505126953e+00,3.348010540008544922e+00,3.256387472152709961e+00,3.169645309448242188e+00,3.087404489517211914e+00,3.009323596954345703e+00,2.935094356536865234e+00,2.864439010620117188e+00,2.797105312347412109e+00,2.732864618301391602e+00,2.671508789062500000e+00,2.612847089767456055e+00,2.556706428527832031e+00,2.502927303314208984e+00,2.451364278793334961e+00,2.401882648468017578e+00,2.354359388351440430e+00,2.308679819107055664e+00,2.264739513397216797e+00,2.222440242767333984e+00,2.181692361831665039e+00,2.142411470413208008e+00,2.104520320892333984e+00,2.067945957183837891e+00,2.032621383666992188e+00,1.998483061790466309e+00,1.965472698211669922e+00,1.933535099029541016e+00,1.902619004249572754e+00,1.872675776481628418e+00,1.843660354614257812e+00
5.000000000000000000e+00,5.000000000000000000e+00,5.000000000000000000e+00,5.000000000000000000e+00,5.000000000000000000e+00,5.000000000000000000e+00,5.000000000000000000e+00,5.000000000000000000e+00,5.000000000000000000e+00,5.000000000000000000e+00,5.000000000000000000e+00,5.000000000000000000e+00,5.000000000000000000e+00,5.000000000000000000e+00,5.000000000000000000e+00,5.000000000000000000e+00,5.000000000000000000e+00,5.000000000000000000e+00,5.000000000000000000e+00,5.000000000000000000e+00,5.000000000000000000e+00,5.000000000000000000e+00,5.000000000000000000e+00,5.000000000000000000e+00,5.000000000000000000e+00,5.000000000000000000e+00,5.000000000000000000e+00,5.000000000000000000e+00,5.000000000000000000e+00,5.000000000000000000e+00,5.000000000000000000e+00,5.000000000000000000e+00,5.000000000000000000e+00,5.000000000000000000e+00,5.000000000000000000e+00,5.000000000000000000e+00,5.000000000000000000e+00,5.000000000000000000e+00,5.000000000000000000e+00,4.848824024200439453e+00,4.658974170684814453e+00,4.483430862426757812e+00,4.320635795593261719e+00,4.169249057769775391e+00,4.028110980987548828e+00,3.896216630935668945e+00,3.772685050964355469e+00,3.656746625900268555e+00,3.547721147537231445e+00,3.445008516311645508e+00,3.348076343536376953e+00,3.256449460983276367e+00,3.169703960418701172e+00,3.087460279464721680e+00,3.009376287460327148e+00,2.935144901275634766e+00,2.864486932754516602e+00,2.797151088714599609e+00,2.732908487319946289e+00,2.671550512313842773e+00,2.612886905670166016e+00,2.556744575500488281e+00,2.502964019775390625e+00,2.451399564743041992e+00,2.401916503906250000e+00,2.354391813278198242e+00,2.308711051940917969e+00,2.264769554138183594e+00,2.222469091415405273e+00,2.181720256805419922e+00,2.142438411712646484e+00,2.104546308517456055e+00,2.067970991134643555e+00,2.032645463943481445e+00,1.998506426811218262e+00,1.965495347976684570e+00,1.933556914329528809e+00,1.902640104293823242e+00,1.872696161270141602e+00,1.843680262565612793e+00
5.000000000000000000e+00,5.000000000000000000e+00,5.000000000000000000e+00,5.000000000000000000e+00,5.000000000000000000e+00,5.000000000000000000e+00,5.000000000000000000e+00,5.000000000000000000e+00,5.000000000000000000e+00,5.000000000000000000e+00,5.000000000000000000e+00,5.000000000000000000e+00,5.000000000000000000e+00,5.000000000000000000e+00,5.000000000000000000e+00,5.000000000000000000e+00,5.000000000000000000e+00,5.000000000000000000e+00,5.000000000000000000e+00,5.000000000000000000e+00,5.000000000000000000e+00,5.000000000000000000e+00,5.000000000000000000e+00,5.000000000000000000e+00,5.000000000000000000e+00,5.000000000000000000e+00,5.000000000000000000e+00,5.000000000000000000e+00,5.000000000000000000e+00,5.000000000000000000e+00,5.000000000000000000e+00,5.000000000000000000e+00,5.000000000000000000e+00,5.000000000000000000e+00,5.000000000000000000e+00,5.000000000000000000e+00,5.000000000000000000e+00,5.000000000000000000e+00,5.000000000000000000e+00,4.848961353302001953e+00,4.659101009368896484e+00,4.483548641204833984e+00,4.320744514465332031e+00,4.169350624084472656e+00,4.028205871582031250e+00,3.896305322647094727e+00,3.772768259048461914e+00,3.656824827194213867e+00,3.547794818878173828e+00,3.445078134536743164e+00,3.348141908645629883e+00,3.256511449813842773e+00,3.169762849807739258e+00,3.087516069412231445e+00,3.009429216384887695e+00,2.935195207595825195e+00,2.864534854888916016e+00,2.797197103500366211e+00,2.732952117919921875e+00,2.671591997146606445e+00,2.612926959991455078e+00,2.556782722473144531e+00,2.503000497817993164e+00,2.451434612274169922e+00,2.401950120925903320e+00,2.354424238204956055e+00,2.308742284774780273e+00,2.264799356460571289e+00,2.222498178482055664e+00,2.181747913360595703e+00,2.142465114593505859e+00,2.104572057723999023e+00,2.067996025085449219e+00,2.032669782638549805e+00,1.998529791831970215e+00,1.965517878532409668e+00,1.933578968048095703e+00,1.902661204338073730e+00,1.872716665267944336e+00,1.843700170516967773e+00
5.000000000000000000e+00,5.000000000000000000e+00,5.000000000000000000e+00,5.000000000000000000e+00,5.000000000000000000e+00,5.000000000000000000e+00,5.000000000000000000e+00,5.000000000000000000e+00,5.000000000000000000e+00,5.000000000000000000e+00,5.000000000000000000e+00,5.000000000000000000e+00,5.000000000000000000e+00,5.000000000000000000e+00,5.000000000000000000e+00,5.000000000000000000e+00,5.000000000000000000e+00,5.000000000000000000e+00,5.000000000000000000e+00,5.000000000000000000e+00,5.000000000000000000e+00,5.000000000000000000e+00,5.000000000000000000e+00,5.000000000000000000e+00,5.000000000000000000e+00,5.000000000000000000e+00,5.000000000000000000e+00,5.000000000000000000e+00,5.000000000000000000e+00,5.000000000000000000e+00,5.000000000000000000e+00,5.000000000000000000e+00,5.000000000000000000e+00,5.000000000000000000e+00,5.000000000000000000e+00,5.000000000000000000e+00,5.000000000000000000e+00,5.000000000000000000e+00,5.000000000000000000e+00,4.849099159240722656e+00,4.659228324890136719e+00,4.483665943145751953e+00,4.320854187011718750e+00,4.169452190399169922e+00,4.028301239013671875e+00,3.896394014358520508e+00,3.772851943969726562e+00,3.656902790069580078e+00,3.547868728637695312e+00,3.445147514343261719e+00,3.348207235336303711e+00,3.256573677062988281e+00,3.169821500778198242e+00,3.087571620941162109e+00,3.009482383728027344e+00,2.935245513916015625e+00,2.864583253860473633e+00,2.797242641448974609e+00,2.732995748519897461e+00,2.671633958816528320e+00,2.612967014312744141e+00,2.556821107864379883e+00,2.503037452697753906e+00,2.451469659805297852e+00,2.401983976364135742e+00,2.354456663131713867e+00,2.308773517608642578e+00,2.264829635620117188e+00,2.222527027130126953e+00,2.181775808334350586e+00,2.142492055892944336e+00,2.104598045349121094e+00,2.068021059036254883e+00,2.032693862915039062e+00,1.998553156852722168e+00,1.965540647506713867e+00,1.933600783348083496e+00,1.902682423591613770e+00,1.872737169265747070e+00,1.843719959259033203e+00
5.000000000000000000e+00,5.000000000000000000e+00,5.000000000000000000e+00,5.000000000000000000e+00,5.000000000000000000e+00,5.000000000000000000e+00,5.000000000000000000e+00,5.000000000000000000e+00,5.000000000000000000e+00,5.000000000000000000e+00,5.000000000000000000e+00,5.000000000000000000e+00,5.000000000000000000e+00,5.000000000000000000e+00,5.000000000000000000e+00,5.000000000000000000e+00,5.000000000000000000e+00,5.000000000000000000e+00,5.000000000000000000e+00,5.000000000000000000e+00,5.000000000000000000e+00,5.000000000000000000e+00,5.000000000000000000e+00,5.000000000000000000e+00,5.000000000000000000e+00,5.000000000000000000e+00,5.000000000000000000e+00,5.000000000000000000e+00,5.000000000000000000e+00,5.000000000000000000e+00,5.000000000000000000e+00,5.000000000000000000e+00,5.000000000000000000e+00,5.000000000000000000e+00,5.000000000000000000e+00,5.000000000000000000e+00,5.000000000000000000e+00,5.000000000000000000e+00,5.000000000000000000e+00,4.849236488342285156e+00,4.659355163574218750e+00,4.483783721923828125e+00,4.320963382720947266e+00,4.169553756713867188e+00,4.028396129608154297e+00,3.896483182907104492e+00,3.772934913635253906e+00,3.656980991363525391e+00,3.547942161560058594e+00,3.445216894149780273e+00,3.348273277282714844e+00,3.256635665893554688e+00,3.169880390167236328e+00,3.087627649307250977e+00,3.009535312652587891e+00,2.935295820236206055e+00,2.864631175994873047e+00,2.797288417816162109e+00,2.733039617538452148e+00,2.671675682067871094e+00,2.613006830215454102e+00,2.556859254837036133e+00,2.503073930740356445e+00,2.451504707336425781e+00,2.402017831802368164e+00,2.354489088058471680e+00,2.308804750442504883e+00,2.264859437942504883e+00,2.222555875778198242e+00,2.181803703308105469e+00,2.142518997192382812e+00,2.104623794555664062e+00,2.068046092987060547e+00,2.032717943191528320e+00,1.998576641082763672e+00,1.965563297271728516e+00,1.933622598648071289e+00,1.902703523635864258e+00,1.872757673263549805e+00,1.843739867210388184e+00
5.000000000000000000e+00,5.000000000000000000e+00,5.000000000000000000e+00,5.000000000000000000e+00,5.000000000000000000e+00,5.000000000000000000e+00,5.000000000000000000e+00,5.000000000000000000e+00,5.000000000000000000e+00,5.000000000000000000e+00,5.000000000000000000e+00,5.000000000000000000e+00,5.000000000000000000e+00,5.000000000000000000e+00,5.000000000000000000e+00,5.000000000000000000e+00,5.000000000000000000e+00,5.000000000000000000e+00,5.000000000000000000e+00,5.000000000000000000e+00,5.000000000000000000e+00,5.000000000000000000e+00,5.000000000000000000e+00,5.000000000000000000e+00,5.000000000000000000e+00,5.000000000000000000e+00,5.000000000000000000e+00,5.000000000000000000e+00,5.000000000000000000e+00,5.000000000000000000e+00,5.000000000000000000e+00,5.000000000000000000e+00,5.000000000000000000e+00,5.000000000000000000e+00,5.000000000000000000e+00,5.000000000000000000e+00,5.000000000000000000e+00,5.000000000000000000e+00,5.000000000000000000e+00,4.849374294281005859e+00,4.659482479095458984e+00,4.483901500701904297e+00,4.321072578430175781e+00,4.169655799865722656e+00,4.028491020202636719e+00,3.896571874618530273e+00,3.773018121719360352e+00,3.657059431076049805e+00,3.548015594482421875e+00,3.445286273956298828e+00,3.348338603973388672e+00,3.256697654724121094e+00,3.169939279556274414e+00,3.087683200836181641e+00,3.009588241577148438e+00,2.935346364974975586e+00,2.864679098129272461e+00,2.797334194183349609e+00,2.733083248138427734e+00,2.671717405319213867e+00,2.613046884536743164e+00,2.556897640228271484e+00,2.503110647201538086e+00,2.451539993286132812e+00,2.402051448822021484e+00,2.354521512985229492e+00,2.308835744857788086e+00,2.264889478683471680e+00,2.222584962844848633e+00,2.181831598281860352e+00,2.142545700073242188e+00,2.104649782180786133e+00,2.068070888519287109e+00,2.032742023468017578e+00,1.998600006103515625e+00,1.965585827827453613e+00,1.933644533157348633e+00,1.902724742889404297e+00,1.872778177261352539e+00,1.843759894371032715e+00
5.000000000000000000e+00,5.000000000000000000e+00,5.000000000000000000e+00,5.000000000000000000e+00,5.000000000000000000e+00,5.000000000000000000e+00,5.000000000000000000e+00,5.000000000000000000e+00,5.000000000000000000e+00,5.000000000000000000e+00,5.000000000000000000e+00,5.000000000000000000e+00,5.000000000000000000e+00,5.000000000000000000e+00,5.000000000000000000e+00,5.000000000000000000e+00,5.000000000000000000e+00,5.000000000000000000e+00,5.000000000000000000e+00,5.000000000000000000e+00,5.000000000000000000e+00,5.000000000000000000e+00,5.000000000000000000e+00,5.000000000000000000e+00,5.000000000000000000e+00,5.000000000000000000e+00,5.000000000000000000e+00,5.000000000000000000e+00,5.000000000000000000e+00,5.000000000000000000e+00,5.000000000000000000e+00,5.000000000000000000e+00,5.000000000000000000e+00,5.000000000000000000e+00,5.000000000000000000e+00,5.000000000000000000e+00,5.000000000000000000e+00,5.000000000000000000e+00,5.000000000000000000e+00,4.849511623382568359e+00,4.659608840942382812e+00,4.484019279479980469e+00,4.321181774139404297e+00,4.169757366180419922e+00,4.028585910797119141e+00,3.896660566329956055e+00,3.773101806640625000e+00,3.657137632369995117e+00,3.548089265823364258e+00,3.445355892181396484e+00,3.348404169082641602e+00,3.256759643554687500e+00,3.169997930526733398e+00,3.087738990783691406e+00,3.009641408920288086e+00,2.935396909713745117e+00,2.864727020263671875e+00,2.797379970550537109e+00,2.733126878738403320e+00,2.671759128570556641e+00,2.613086700439453125e+00,2.556935787200927734e+00,2.503147363662719727e+00,2.451575279235839844e+00,2.402085065841674805e+00,2.354553937911987305e+00,2.308866977691650391e+00,2.264919519424438477e+00,2.222613811492919922e+00,2.181859254837036133e+00,2.142572641372680664e+00,2.104675769805908203e+00,2.068095922470092773e+00,2.032766342163085938e+00,1.998623371124267578e+00,1.965608358383178711e+00,1.933666348457336426e+00,1.902745842933654785e+00,1.872798800468444824e+00,1.843779802322387695e+00
5.000000000000000000e+00,5.000000000000000000e+00,5.000000000000000000e+00,5.000000000000000000e+00,5.000000000000000000e+00,5.000000000000000000e+00,5.000000000000000000e+00,5.000000000000000000e+00,5.000000000000000000e+00,5.000000000000000000e+00,5.000000000000000000e+00,5.000000000000000000e+00,5.000000000000000000e+00,5.000000000000000000e+00,5.000000000000000000e+00,5.000000000000000000e+00,5.000000000000000000e+00,5.000000000000000000e+00,5.000000000000000000e+00,5.000000000000000000e+00,5.000000000000000000e+00,5.000000000000000000e+00,5.000000000000000000e+00,5.000000000000000000e+00,5.000000000000000000e+00,5.000000000000000000e+00,5.000000000000000000e+00,5.000000000000000000e+00,5.000000000000000000e+00,5.000000000000000000e+00,5.000000000000000000e+00,5.000000000000000000e+00,5.000000000000000000e+00,5.000000000000000000e+00,5.000000000000000000e+00,5.000000000000000000e+00,5.000000000000000000e+00,5.000000000000000000e+00,5.000000000000000000e+00,4.849649429321289062e+00,4.659736156463623047e+00,4.484137058258056641e+00,4.321290969848632812e+00,4.169858932495117188e+00,4.028680801391601562e+00,3.896749734878540039e+00,3.773184776306152344e+00,3.657215833663940430e+00,3.548163175582885742e+00,3.445425271987915039e+00,3.348469734191894531e+00,3.256821870803833008e+00,3.170056581497192383e+00,3.087795019149780273e+00,3.009694337844848633e+00,2.935447216033935547e+00,2.864775180816650391e+00,2.797425746917724609e+00,2.733170509338378906e+00,2.671801090240478516e+00,2.613126754760742188e+00,2.556974172592163086e+00,2.503183841705322266e+00,2.451610326766967773e+00,2.402118921279907227e+00,2.354586362838745117e+00,2.308898210525512695e+00,2.264949560165405273e+00,2.222642660140991211e+00,2.181887388229370117e+00,2.142599582672119141e+00,2.104701519012451172e+00,2.068120956420898438e+00,2.032790422439575195e+00,1.998646616935729980e+00,1.965631008148193359e+00,1.933688163757324219e+00,1.902767181396484375e+00,1.872819304466247559e+00,1.843799591064453125e+00
5.000000000000000000e+00,5.000000000000000000e+00,5.000000000000000000e+00,5.000000000000000000e+00,5.000000000000000000e+00,5.000000000000000000e+00,5.000000000000000000e+00,5.000000000000000000e+00,5.000000000000000000e+00,5.000000000000000000e+00,5.000000000000000000e+00,5.000000000000000000e+00,5.000000000000000000e+00,5.000000000000000000e+00,5.000000000000000000e+00,5.000000000000000000e+00,5.000000000000000000e+00,5.000000000000000000e+00,5.000000000000000000e+00,5.000000000000000000e+00,5.000000000000000000e+00,5.000000000000000000e+00,5.000000000000000000e+00,5.000000000000000000e+00,5.000000000000000000e+00,5.000000000000000000e+00,5.000000000000000000e+00,5.000000000000000000e+00,5.000000000000000000e+00,5.000000000000000000e+00,5.000000000000000000e+00,5.000000000000000000e+00,5.000000000000000000e+00,5.000000000000000000e+00,5.000000000000000000e+00,5.000000000000000000e+00,5.000000000000000000e+00,5.000000000000000000e+00,5.000000000000000000e+00,4.849787235260009766e+00,4.659862995147705078e+00,4.484254360198974609e+00,4.321400165557861328e+00,4.169960975646972656e+00,4.028775691986083984e+00,3.896838426589965820e+00,3.773267984390258789e+00,3.657294511795043945e+00,3.548236608505249023e+00,3.445494651794433594e+00,3.348535537719726562e+00,3.256883859634399414e+00,3.170115470886230469e+00,3.087850570678710938e+00,3.009747266769409180e+00,2.935497760772705078e+00,2.864823102951049805e+00,2.797471523284912109e+00,2.733214378356933594e+00,2.671842575073242188e+00,2.613166570663452148e+00,2.557012319564819336e+00,2.503220558166503906e+00,2.451645612716674805e+00,2.402152776718139648e+00,2.354618787765502930e+00,2.308929443359375000e+00,2.264979600906372070e+00,2.222671508789062500e+00,2.181915044784545898e+00,2.142626285552978516e+00,2.104727506637573242e+00,2.068145990371704102e+00,2.032814502716064453e+00,1.998669981956481934e+00,1.965653538703918457e+00,1.933709979057312012e+00,1.902788400650024414e+00,1.872839808464050293e+00,1.843819499015808105e+00
5.000000000000000000e+00,5.000000000000000000e+00,5.000000000000000000e+00,5.000000000000000000e+00,5.000000000000000000e+00,5.000000000000000000e+00,5.000000000000000000e+00,5.000000000000000000e+00,5.000000000000000000e+00,5.000000000000000000e+00,5.000000000000000000e+00,5.000000000000000000e+00,5.000000000000000000e+00,5.000000000000000000e+00,5.000000000000000000e+00,5.000000000000000000e+00,5.000000000000000000e+00,5.000000000000000000e+00,5.000000000000000000e+00,5.000000000000000000e+00,5.000000000000000000e+00,5.000000000000000000e+00,5.000000000000000000e+00,5.000000000000000000e+00,5.000000000000000000e+00,5.000000000000000000e+00,5.000000000000000000e+00,5.000000000000000000e+00,5.000000000000000000e+00,5.000000000000000000e+00,5.000000000000000000e+00,5.000000000000000000e+00,5.000000000000000000e+00,5.000000000000000000e+00,5.000000000000000000e+00,5.000000000000000000e+00,5.000000000000000000e+00,5.000000000000000000e+00,5.000000000000000000e+00,4.849924564361572266e+00,4.659990310668945312e+00,4.484372138977050781e+00,4.321509361267089844e+00,4.170062541961669922e+00,4.028870582580566406e+00,3.896927118301391602e+00,3.773351192474365234e+00,3.657372474670410156e+00,3.548310279846191406e+00,3.445564270019531250e+00,3.348600864410400391e+00,3.256945848464965820e+00,3.170174360275268555e+00,3.087906360626220703e+00,3.009800195693969727e+00,2.935548067092895508e+00,2.864871025085449219e+00,2.797517538070678711e+00,2.733258008956909180e+00,2.671884298324584961e+00,2.613206624984741211e+00,2.557050466537475586e+00,2.503257036209106445e+00,2.451680660247802734e+00,2.402186393737792969e+00,2.354651212692260742e+00,2.308960676193237305e+00,2.265009403228759766e+00,2.222700357437133789e+00,2.181942939758300781e+00,2.142653226852416992e+00,2.104753494262695312e+00,2.068171024322509766e+00,2.032838821411132812e+00,1.998693346977233887e+00,1.965676069259643555e+00,1.933732032775878906e+00,1.902809500694274902e+00,1.872860312461853027e+00,1.843839287757873535e+00
5.000000000000000000e+00,5.000000000000000000e+00,5.000000000000000000e+00,5.000000000000000000e+00,5.000000000000000000e+00,5.000000000000000000e+00,5.000000000000000000e+00,5.000000000000000000e+00,5.000000000000000000e+00,5.000000000000000000e+00,5.000000000000000000e+00,5.000000000000000000e+00,5.000000000000000000e+00,5.000000000000000000e+00,5.000000000000000000e+00,5.000000000000000000e+00,5.000000000000000000e+00,5.000000000000000000e+00,5.000000000000000000e+00,5.000000000000000000e+00,5.000000000000000000e+00,5.000000000000000000e+00,5.000000000000000000e+00,5.000000000000000000e+00,5.000000000000000000e+00,5.000000000000000000e+00,5.000000000000000000e+00,5.000000000000000000e+00,5.000000000000000000e+00,5.000000000000000000e+00,5.000000000000000000e+00,5.000000000000000000e+00,5.000000000000000000e+00,5.000000000000000000e+00,5.000000000000000000e+00,5.000000000000000000e+00,5.000000000000000000e+00,5.000000000000000000e+00,5.000000000000000000e+00,4.850062370300292969e+00,4.660117149353027344e+00,4.484489440917968750e+00,4.321618556976318359e+00,4.170164108276367188e+00,4.028965950012207031e+00,3.897015810012817383e+00,3.773434877395629883e+00,3.657450675964355469e+00,3.548384189605712891e+00,3.445633649826049805e+00,3.348666429519653320e+00,3.257008075714111328e+00,3.170233011245727539e+00,3.087962150573730469e+00,3.009853363037109375e+00,2.935598373413085938e+00,2.864919185638427734e+00,2.797563076019287109e+00,2.733301639556884766e+00,2.671926259994506836e+00,2.613246440887451172e+00,2.557088613510131836e+00,2.503293991088867188e+00,2.451715707778930664e+00,2.402220249176025391e+00,2.354683637619018555e+00,2.308991670608520508e+00,2.265039682388305664e+00,2.222729206085205078e+00,2.181970834732055664e+00,2.142680168151855469e+00,2.104779481887817383e+00,2.068196058273315430e+00,2.032862901687622070e+00,1.998716711997985840e+00,1.965698838233947754e+00,1.933753967285156250e+00,1.902830600738525391e+00,1.872880816459655762e+00,1.843859195709228516e+00
5.000000000000000000e+00,5.000000000000000000e+00,5.000000000000000000e+00,5.000000000000000000e+00,5.000000000000000000e+00,5.000000000000000000e+00,5.000000000000000000e+00,5.000000000000000000e+00,5.000000000000000000e+00,5.000000000000000000e+00,5.000000000000000000e+00,5.000000000000000000e+00,5.000000000000000000e+00,5.000000000000000000e+00,5.000000000000000000e+00,5.000000000000000000e+00,5.000000000000000000e+00,5.000000000000000000e+00,5.000000000000000000e+00,5.000000000000000000e+00,5.000000000000000000e+00,5.000000000000000000e+00,5.000000000000000000e+00,5.000000000000000000e+00,5.000000000000000000e+00,5.000000000000000000e+00,5.000000000000000000e+00,5.000000000000000000e+00,5.000000000000000000e+00,5.000000000000000000e+00,5.000000000000000000e+00,5.000000000000000000e+00,5.000000000000000000e+00,5.000000000000000000e+00,5.000000000000000000e+00,5.000000000000000000e+00,5.000000000000000000e+00,5.000000000000000000e+00,5.000000000000000000e+00,4.850199699401855469e+00,4.660244464874267578e+00,4.484607219696044922e+00,4.321728229522705078e+00,4.170265674591064453e+00,4.029060363769531250e+00,3.897104978561401367e+00,3.773518085479736328e+00,3.657528877258300781e+00,3.548457622528076172e+00,3.445703029632568359e+00,3.348732233047485352e+00,3.257070064544677734e+00,3.170291900634765625e+00,3.088017940521240234e+00,3.009906291961669922e+00,2.935648679733276367e+00,2.864967107772827148e+00,2.797608852386474609e+00,2.733345508575439453e+00,2.671967983245849609e+00,2.613286495208740234e+00,2.557126998901367188e+00,2.503330469131469727e+00,2.451750993728637695e+00,2.402254104614257812e+00,2.354716062545776367e+00,2.309023141860961914e+00,2.265069723129272461e+00,2.222758054733276367e+00,2.181998729705810547e+00,2.142706871032714844e+00,2.104805231094360352e+00,2.068221092224121094e+00,2.032887220382690430e+00,1.998740196228027344e+00,1.965721487998962402e+00,1.933775782585144043e+00,1.902851819992065430e+00,1.872901320457458496e+00,1.843878984451293945e+00
5.000000000000000000e+00,5.000000000000000000e+00,5.000000000000000000e+00,5.000000000000000000e+00,5.000000000000000000e+00,5.000000000000000000e+00,5.000000000000000000e+00,5.000000000000000000e+00,5.000000000000000000e+00,5.000000000000000000e+00,5.000000000000000000e+00,5.000000000000000000e+00,5.000000000000000000e+00,5.000000000000000000e+00,5.000000000000000000e+00,5.000000000000000000e+00,5.000000000000000000e+00,5.000000000000000000e+00,5.000000000000000000e+00,5.000000000000000000e+00,5.000000000000000000e+00,5.000000000000000000e+00,5.000000000000000000e+00,5.000000000000000000e+00,5.000000000000000000e+00,5.000000000000000000e+00,5.000000000000000000e+00,5.000000000000000000e+00,5.000000000000000000e+00,5.000000000000000000e+00,5.000000000000000000e+00,5.000000000000000000e+00,5.000000000000000000e+00,5.000000000000000000e+00,5.000000000000000000e+00,5.000000000000000000e+00,5.000000000000000000e+00,5.000000000000000000e+00,5.000000000000000000e+00,4.850336551666259766e+00,4.660371303558349609e+00,4.484724998474121094e+00,4.321837425231933594e+00,4.170367717742919922e+00,4.029155731201171875e+00,3.897193670272827148e+00,3.773601055145263672e+00,3.657607316970825195e+00,3.548531293869018555e+00,3.445772409439086914e+00,3.348797798156738281e+00,3.257132053375244141e+00,3.170350790023803711e+00,3.088073730468750000e+00,3.009959220886230469e+00,2.935699224472045898e+00,2.865015029907226562e+00,2.797654628753662109e+00,2.733389139175415039e+00,2.672009706497192383e+00,2.613326549530029297e+00,2.557165384292602539e+00,2.503367185592651367e+00,2.451786279678344727e+00,2.402287721633911133e+00,2.354748487472534180e+00,2.309054136276245117e+00,2.265099525451660156e+00,2.222787141799926758e+00,2.182026386260986328e+00,2.142733812332153320e+00,2.104831218719482422e+00,2.068246126174926758e+00,2.032911300659179688e+00,1.998763561248779297e+00,1.965744018554687500e+00,1.933797597885131836e+00,1.902872920036315918e+00,1.872921824455261230e+00,1.843899130821228027e+00
5.000000000000000000e+00,5.000000000000000000e+00,5.000000000000000000e+00,5.000000000000000000e+00,5.000000000000000000e+00,5.000000000000000000e+00,5.000000000000000000e+00,5.000000000000000000e+00,5.000000000000000000e+00,5.000000000000000000e+00,5.000000000000000000e+00,5.000000000000000000e+00,5.000000000000000000e+00,5.000000000000000000e+00,5.000000000000000000e+00,5.000000000000000000e+00,5.000000000000000000e+00,5.000000000000000000e+00,5.000000000000000000e+00,5.000000000000000000e+00,5.000000000000000000e+00,5.000000000000000000e+00,5.000000000000000000e+00,5.000000000000000000e+00,5.000000000000000000e+00,5.000000000000000000e+00,5.000000000000000000e+00,5.000000000000000000e+00,5.000000000000000000e+00,5.000000000000000000e+00,5.000000000000000000e+00,5.000000000000000000e+00,5.000000000000000000e+00,5.000000000000000000e+00,5.000000000000000000e+00,5.000000000000000000e+00,5.000000000000000000e+00,5.000000000000000000e+00,5.000000000000000000e+00,4.850474357604980469e+00,4.660498142242431641e+00,4.484842777252197266e+00,4.321946620941162109e+00,4.170469284057617188e+00,4.029250621795654297e+00,3.897282361984252930e+00,3.773684740066528320e+00,3.657685518264770508e+00,3.548604726791381836e+00,3.445842027664184570e+00,3.348863363265991211e+00,3.257194042205810547e+00,3.170409440994262695e+00,3.088129520416259766e+00,3.010012388229370117e+00,2.935749769210815430e+00,2.865062952041625977e+00,2.797700643539428711e+00,2.733432769775390625e+00,2.672051429748535156e+00,2.613366365432739258e+00,2.557203531265258789e+00,2.503403902053833008e+00,2.451821327209472656e+00,2.402321338653564453e+00,2.354780912399291992e+00,2.309085369110107422e+00,2.265129566192626953e+00,2.222815990447998047e+00,2.182054281234741211e+00,2.142760753631591797e+00,2.104857206344604492e+00,2.068271160125732422e+00,2.032935619354248047e+00,1.998786926269531250e+00,1.965766549110412598e+00,1.933819413185119629e+00,1.902894139289855957e+00,1.872942447662353516e+00,1.843918919563293457e+00
5.000000000000000000e+00,5.000000000000000000e+00,5.000000000000000000e+00,5.000000000000000000e+00,5.000000000000000000e+00,5.000000000000000000e+00,5.000000000000000000e+00,5.000000000000000000e+00,5.000000000000000000e+00,5.000000000000000000e+00,5.000000000000000000e+00,5.000000000000000000e+00,5.000000000000000000e+00,5.000000000000000000e+00,5.000000000000000000e+00,5.000000000000000000e+00,5.000000000000000000e+00,5.000000000000000000e+00,5.000000000000000000e+00,5.000000000000000000e+00,5.000000000000000000e+00,5.000000000000000000e+00,5.000000000000000000e+00,5.000000000000000000e+00,5.000000000000000000e+00,5.000000000000000000e+00,5.000000000000000000e+00,5.000000000000000000e+00,5.000000000000000000e+00,5.000000000000000000e+00,5.000000000000000000e+00,5.000000000000000000e+00,5.000000000000000000e+00,5.000000000000000000e+00,5.000000000000000000e+00,5.000000000000000000e+00,5.000000000000000000e+00,5.000000000000000000e+00,5.000000000000000000e+00,4.850611686706542969e+00,4.660624980926513672e+00,4.484960556030273438e+00,4.322055816650390625e+00,4.170571327209472656e+00,4.029345512390136719e+00,3.897371530532836914e+00,3.773767948150634766e+00,3.657763719558715820e+00,3.548678636550903320e+00,3.445911407470703125e+00,3.348928928375244141e+00,3.257256269454956055e+00,3.170468330383300781e+00,3.088185548782348633e+00,3.010065317153930664e+00,2.935800075531005859e+00,2.865111112594604492e+00,2.797746181488037109e+00,2.733476400375366211e+00,2.672093391418457031e+00,2.613406181335449219e+00,2.557241916656494141e+00,2.503440618515014648e+00,2.451856374740600586e+00,2.402355194091796875e+00,2.354813337326049805e+00,2.309116363525390625e+00,2.265159606933593750e+00,2.222844839096069336e+00,2.182082176208496094e+00,2.142787456512451172e+00,2.104882955551147461e+00,2.068296194076538086e+00,2.032959699630737305e+00,1.998810291290283203e+00,1.965789198875427246e+00,1.933841347694396973e+00,1.902915477752685547e+00,1.872962951660156250e+00,1.843938827514648438e+00
5.000000000000000000e+00,5.000000000000000000e+00,5.000000000000000000e+00,5.000000000000000000e+00,5.000000000000000000e+00,5.000000000000000000e+00,5.000000000000000000e+00,5.000000000000000000e+00,5.000000000000000000e+00,5.000000000000000000e+00,5.000000000000000000e+00,5.000000000000000000e+00,5.000000000000000000e+00,5.000000000000000000e+00,5.000000000000000000e+00,5.000000000000000000e+00,5.000000000000000000e+00,5.000000000000000000e+00,5.000000000000000000e+00,5.000000000000000000e+00,5.000000000000000000e+00,5.000000000000000000e+00,5.000000000000000000e+00,5.000000000000000000e+00,5.000000000000000000e+00,5.000000000000000000e+00,5.000000000000000000e+00,5.000000000000000000e+00,5.000000000000000000e+00,5.000000000000000000e+00,5.000000000000000000e+00,5.000000000000000000e+00,5.000000000000000000e+00,5.000000000000000000e+00,5.000000000000000000e+00,5.000000000000000000e+00,5.000000000000000000e+00,5.000000000000000000e+00,5.000000000000000000e+00,4.850749492645263672e+00,4.660751819610595703e+00,4.485077381134033203e+00,4.322165012359619141e+00,4.170672893524169922e+00,4.029440402984619141e+00,3.897460222244262695e+00,3.773851156234741211e+00,3.657842159271240234e+00,3.548752307891845703e+00,3.445980787277221680e+00,3.348994731903076172e+00,3.257318258285522461e+00,3.170526981353759766e+00,3.088241100311279297e+00,3.010118246078491211e+00,2.935850620269775391e+00,2.865159273147583008e+00,2.797791957855224609e+00,2.733520269393920898e+00,2.672135114669799805e+00,2.613446235656738281e+00,2.557280063629150391e+00,2.503477096557617188e+00,2.451891660690307617e+00,2.402389049530029297e+00,2.354845762252807617e+00,2.309147834777832031e+00,2.265189647674560547e+00,2.222873687744140625e+00,2.182110071182250977e+00,2.142814397811889648e+00,2.104908943176269531e+00,2.068321228027343750e+00,2.032983779907226562e+00,1.998833537101745605e+00,1.965811729431152344e+00,1.933863162994384766e+00,1.902936577796936035e+00,1.872983455657958984e+00,1.843958735466003418e+00
5.000000000000000000e+00,5.000000000000000000e+00,5.000000000000000000e+00,5.000000000000000000e+00,5.000000000000000000e+00,5.000000000000000000e+00,5.000000000000000000e+00,5.000000000000000000e+00,5.000000000000000000e+00,5.000000000000000000e+00,5.000000000000000000e+00,5.000000000000000000e+00,5.000000000000000000e+00,5.000000000000000000e+00,5.000000000000000000e+00,5.000000000000000000e+00,5.000000000000000000e+00,5.000000000000000000e+00,5.000000000000000000e+00,5.000000000000000000e+00,5.000000000000000000e+00,5.000000000000000000e+00,5.000000000000000000e+00,5.000000000000000000e+00,5.000000000000000000e+00,5.000000000000000000e+00,5.000000000000000000e+00,5.000000000000000000e+00,5.000000000000000000e+00,5.000000000000000000e+00,5.000000000000000000e+00,5.000000000000000000e+00,5.000000000000000000e+00,5.000000000000000000e+00,5.000000000000000000e+00,5.000000000000000000e+00,5.000000000000000000e+00,5.000000000000000000e+00,5.000000000000000000e+00,4.850887298583984375e+00,4.660879135131835938e+00,4.485195159912109375e+00,4.322273731231689453e+00,4.170774459838867188e+00,4.029535293579101562e+00,3.897548913955688477e+00,3.773934364318847656e+00,3.657920360565185547e+00,3.548825979232788086e+00,3.446050405502319336e+00,3.349060297012329102e+00,3.257380247116088867e+00,3.170585870742797852e+00,3.088296890258789062e+00,3.010171175003051758e+00,2.935900926589965820e+00,2.865207195281982422e+00,2.797837972640991211e+00,2.733563899993896484e+00,2.672176837921142578e+00,2.613486289978027344e+00,2.557318210601806641e+00,2.503513813018798828e+00,2.451926708221435547e+00,2.402422666549682617e+00,2.354878425598144531e+00,2.309178829193115234e+00,2.265219688415527344e+00,2.222902774810791016e+00,2.182137966156005859e+00,2.142841100692749023e+00,2.104934930801391602e+00,2.068346261978149414e+00,2.033008098602294922e+00,1.998856902122497559e+00,1.965834379196166992e+00,1.933885216712951660e+00,1.902957797050476074e+00,1.873003959655761719e+00,1.843978524208068848e+00
5.000000000000000000e+00,5.000000000000000000e+00,5.000000000000000000e+00,5.000000000000000000e+00,5.000000000000000000e+00,5.000000000000000000e+00,5.000000000000000000e+00,5.000000000000000000e+00,5.000000000000000000e+00,5.000000000000000000e+00,5.000000000000000000e+00,5.000000000000000000e+00,5.000000000000000000e+00,5.000000000000000000e+00,5.000000000000000000e+00,5.000000000000000000e+00,5.000000000000000000e+00,5.000000000000000000e+00,5.000000000000000000e+00,5.000000000000000000e+00,5.000000000000000000e+00,5.000000000000000000e+00,5.000000000000000000e+00,5.000000000000000000e+00,5.000000000000000000e+00,5.000000000000000000e+00,5.000000000000000000e+00,5.000000000000000000e+00,5.000000000000000000e+00,5.000000000000000000e+00,5.000000000000000000e+00,5.000000000000000000e+00,5.000000000000000000e+00,5.000000000000000000e+00,5.000000000000000000e+00,5.000000000000000000e+00,5.000000000000000000e+00,5.000000000000000000e+00,5.000000000000000000e+00,4.851025104522705078e+00,4.661005973815917969e+00,4.485312461853027344e+00,4.322382926940917969e+00,4.170876502990722656e+00,4.029630661010742188e+00,3.897637844085693359e+00,3.774018049240112305e+00,3.657998561859130859e+00,3.548899888992309570e+00,3.446119785308837891e+00,3.349125623703002930e+00,3.257442474365234375e+00,3.170644760131835938e+00,3.088352680206298828e+00,3.010224342346191406e+00,2.935951232910156250e+00,2.865255355834960938e+00,2.797883749008178711e+00,2.733607530593872070e+00,2.672218561172485352e+00,2.613526105880737305e+00,2.557356595993041992e+00,2.503550529479980469e+00,2.451961994171142578e+00,2.402456521987915039e+00,2.354910850524902344e+00,2.309210062026977539e+00,2.265249729156494141e+00,2.222931623458862305e+00,2.182165622711181641e+00,2.142868041992187500e+00,2.104960680007934570e+00,2.068371295928955078e+00,2.033032178878784180e+00,1.998880267143249512e+00,1.965857148170471191e+00,1.933907032012939453e+00,1.902978897094726562e+00,1.873024463653564453e+00,1.843998432159423828e+00
4.875624179840087891e+00,4.874413967132568359e+00,4.873204231262207031e+00,4.871994972229003906e+00,4.870786190032958984e+00,4.869578361511230469e+00,4.868371009826660156e+00,4.867164134979248047e+00,4.865957736968994141e+00,4.864752292633056641e+00,4.863547801971435547e+00,4.862343311309814453e+00,4.861139297485351562e+00,4.859936237335205078e+00,4.858733177185058594e+00,4.857531547546386719e+00,4.856330394744873047e+00,4.855129241943359375e+00,4.853929042816162109e+00,4.852729797363281250e+00,4.851530551910400391e+00,4.850332260131835938e+00,4.849134445190429688e+00,4.847937107086181641e+00,4.846740722656250000e+00,4.845544338226318359e+00,4.844348907470703125e+00,4.843153953552246094e+00,4.841959953308105469e+00,4.840765953063964844e+00,4.839572906494140625e+00,4.838380336761474609e+00,4.837188243865966797e+00,4.835997104644775391e+00,4.834805965423583984e+00,4.833615779876708984e+00,4.832426071166992188e+00,4.831236839294433594e+00,4.830049037933349609e+00,4.828861236572265625e+00,4.661133289337158203e+00,4.485430240631103516e+00,4.322492599487304688e+00,4.170977592468261719e+00,4.029725551605224609e+00,3.897727012634277344e+00,3.774101257324218750e+00,3.658076763153076172e+00,3.548973321914672852e+00,3.446189165115356445e+00,3.349191665649414062e+00,3.257504463195800781e+00,3.170703411102294922e+00,3.088408470153808594e+00,3.010277271270751953e+00,2.936001777648925781e+00,2.865303277969360352e+00,2.797929525375366211e+00,2.733651399612426758e+00,2.672260284423828125e+00,2.613566160202026367e+00,2.557394981384277344e+00,2.503587245941162109e+00,2.451997041702270508e+00,2.402490377426147461e+00,2.354943037033081055e+00,2.309241294860839844e+00,2.265279769897460938e+00,2.222960472106933594e+00,2.182193756103515625e+00,2.142894983291625977e+00,2.104986667633056641e+00,2.068396329879760742e+00,2.033056497573852539e+00,1.998903870582580566e+00,1.965879678726196289e+00,1.933928847312927246e+00,1.903000116348266602e+00,1.873044967651367188e+00,1.844018220901489258e+00
3.778463363647460938e+00,3.777736186981201172e+00,3.777009487152099609e+00,3.776283025741577148e+00,3.775557041168212891e+00,3.774831056594848633e+00,3.774105310440063477e+00,3.773380041122436523e+00,3.772655010223388672e+00,3.771930694580078125e+00,3.771206140518188477e+00,3.770482063293457031e+00,3.769757986068725586e+00,3.769034385681152344e+00,3.768311023712158203e+00,3.767587900161743164e+00,3.766865015029907227e+00,3.766142606735229492e+00,3.765420675277709961e+00,3.764698505401611328e+00,3.763976812362670898e+00,3.763255357742309570e+00,3.762534379959106445e+00,3.761813402175903320e+00,3.761092901229858398e+00,3.760372400283813477e+00,3.759652376174926758e+00,3.758933067321777344e+00,3.758213520050048828e+00,3.757494449615478516e+00,3.756775379180908203e+00,3.756056785583496094e+00,3.755338191986083984e+00,3.754620075225830078e+00,3.753902196884155273e+00,3.753184556961059570e+00,3.752467393875122070e+00,3.751750707626342773e+00,3.751034021377563477e+00,3.750317573547363281e+00,3.749601364135742188e+00,3.748885393142700195e+00,3.748169660568237305e+00,3.747454166412353516e+00,3.746739149093627930e+00,3.746024131774902344e+00,3.745310068130493164e+00,3.658155202865600586e+00,3.549046993255615234e+00,3.446258544921875000e+00,3.349256992340087891e+00,3.257566452026367188e+00,3.170762538909912109e+00,3.088464260101318359e+00,3.010330200195312500e+00,2.936052322387695312e+00,2.865351200103759766e+00,2.797975301742553711e+00,2.733695030212402344e+00,2.672302007675170898e+00,2.613606214523315430e+00,2.557433128356933594e+00,2.503623723983764648e+00,2.452032327651977539e+00,2.402523994445800781e+00,2.354975461959838867e+00,2.309272527694702148e+00,2.265309572219848633e+00,2.222989559173583984e+00,2.182221412658691406e+00,2.142921686172485352e+00,2.105012655258178711e+00,2.068421363830566406e+00,2.033080577850341797e+00,1.998927235603332520e+00,1.965902328491210938e+00,1.933950781822204590e+00,1.903021216392517090e+00,1.873065471649169922e+00,1.844038367271423340e+00
3.084384441375732422e+00,3.083899974822998047e+00,3.083415746688842773e+00,3.082931756973266602e+00,3.082447767257690430e+00,3.081964015960693359e+00,3.081480264663696289e+00,3.080996751785278320e+00,3.080513238906860352e+00,3.080029964447021484e+00,3.079546928405761719e+00,3.079064130783081055e+00,3.078581571578979492e+00,3.078098773956298828e+00,3.077616453170776367e+00,3.077133893966674805e+00,3.076651811599731445e+00,3.076169729232788086e+00,3.075687885284423828e+00,3.075206041336059570e+00,3.074724674224853516e+00,3.074243307113647461e+00,3.073762178421020508e+00,3.073281049728393555e+00,3.072799921035766602e+00,3.072319269180297852e+00,3.071838378906250000e+00,3.071357965469360352e+00,3.070877552032470703e+00,3.070397377014160156e+00,3.069917201995849609e+00,3.069437503814697266e+00,3.068957805633544922e+00,3.068478107452392578e+00,3.067998647689819336e+00,3.067519426345825195e+00,3.067040205001831055e+00,3.066561222076416016e+00,3.066082239151000977e+00,3.065603733062744141e+00,3.065125226974487305e+00,3.064646959304809570e+00,3.064168691635131836e+00,3.063690423965454102e+00,3.063212394714355469e+00,3.062734603881835938e+00,3.062257051467895508e+00,3.061779499053955078e+00,3.061301946640014648e+00,3.060825109481811523e+00,3.060348033905029297e+00,3.059870958328247070e+00,3.059394359588623047e+00,3.058917522430419922e+00,3.010383367538452148e+00,2.936102628707885742e+00,2.865399122238159180e+00,2.798021078109741211e+00,2.733738660812377930e+00,2.672343969345092773e+00,2.613646030426025391e+00,2.557471275329589844e+00,2.503660678863525391e+00,2.452067375183105469e+00,2.402557849884033203e+00,2.355008125305175781e+00,2.309303760528564453e+00,2.265339851379394531e+00,2.223018407821655273e+00,2.182249307632446289e+00,2.142948627471923828e+00,2.105038642883300781e+00,2.068446397781372070e+00,2.033104896545410156e+00,1.998950481414794922e+00,1.965924859046936035e+00,1.933972597122192383e+00,1.903042435646057129e+00,1.873086094856262207e+00,1.844058156013488770e+00
2.605729341506958008e+00,2.605383634567260742e+00,2.605037927627563477e+00,2.604692220687866211e+00,2.604346752166748047e+00,2.604001283645629883e+00,2.603656291961669922e+00,2.603311061859130859e+00,2.602965831756591797e+00,2.602620840072631836e+00,2.602275848388671875e+00,2.601931095123291016e+00,2.601586341857910156e+00,2.601241588592529297e+00,2.600897073745727539e+00,2.600552558898925781e+00,2.600208282470703125e+00,2.599864006042480469e+00,2.599519729614257812e+00,2.599175691604614258e+00,2.598831653594970703e+00,2.598487615585327148e+00,2.598143815994262695e+00,2.597800016403198242e+00,2.597456216812133789e+00,2.597112894058227539e+00,2.596769332885742188e+00,2.596426010131835938e+00,2.596082687377929688e+00,2.595739603042602539e+00,2.595396280288696289e+00,2.595053434371948242e+00,2.594710350036621094e+00,2.594367504119873047e+00,2.594024896621704102e+00,2.593682289123535156e+00,2.593339681625366211e+00,2.592997312545776367e+00,2.592654705047607422e+00,2.592312574386596680e+00,2.591970205307006836e+00,2.591628074645996094e+00,2.591286182403564453e+00,2.590944290161132812e+00,2.590602397918701172e+00,2.590260744094848633e+00,2.589919090270996094e+00,2.589577436447143555e+00,2.589236021041870117e+00,2.588894605636596680e+00,2.588553190231323242e+00,2.588212013244628906e+00,2.587870836257934570e+00,2.587529897689819336e+00,2.587188959121704102e+00,2.586848258972167969e+00,2.586507320404052734e+00,2.586166620254516602e+00,2.585826158523559570e+00,2.585485696792602539e+00,2.585145235061645508e+00,2.557509660720825195e+00,2.503697156906127930e+00,2.452102661132812500e+00,2.402591705322265625e+00,2.355040550231933594e+00,2.309334754943847656e+00,2.265369892120361328e+00,2.223047256469726562e+00,2.182277202606201172e+00,2.142975568771362305e+00,2.105064392089843750e+00,2.068471431732177734e+00,2.033128976821899414e+00,1.998973846435546875e+00,1.965947389602661133e+00,1.933994412422180176e+00,1.903063774108886719e+00,1.873106598854064941e+00,1.844078063964843750e+00
2.255683183670043945e+00,2.255424022674560547e+00,2.255164623260498047e+00,2.254905462265014648e+00,2.254646301269531250e+00,2.254387140274047852e+00,2.254128217697143555e+00,2.253869295120239258e+00,2.253610372543334961e+00,2.253351449966430664e+00,2.253092765808105469e+00,2.252834081649780273e+00,2.252575159072875977e+00,2.252316713333129883e+00,2.252058267593383789e+00,2.251799583435058594e+00,2.251541137695312500e+00,2.251282930374145508e+00,2.251024484634399414e+00,2.250766277313232422e+00,2.250508069992065430e+00,2.250249862670898438e+00,2.249991893768310547e+00,2.249733686447143555e+00,2.249476194381713867e+00,2.249218463897705078e+00,2.248960971832275391e+00,2.248703241348266602e+00,2.248445987701416016e+00,2.248188495635986328e+00,2.247931003570556641e+00,2.247673749923706055e+00,2.247416496276855469e+00,2.247159242630004883e+00,2.246901988983154297e+00,2.246644973754882812e+00,2.246387958526611328e+00,2.246130943298339844e+00,2.245874166488647461e+00,2.245617389678955078e+00,2.245360374450683594e+00,2.245103597640991211e+00,2.244847059249877930e+00,2.244590282440185547e+00,2.244333744049072266e+00,2.244077205657958984e+00,2.243820905685424805e+00,2.243564605712890625e+00,2.243308305740356445e+00,2.243052005767822266e+00,2.242795705795288086e+00,2.242539405822753906e+00,2.242283344268798828e+00,2.242027282714843750e+00,2.241771459579467773e+00,2.241515398025512695e+00,2.241259813308715820e+00,2.241003990173339844e+00,2.240748167037963867e+00,2.240492343902587891e+00,2.240236759185791016e+00,2.239981174468994141e+00,2.239725589752197266e+00,2.239470243453979492e+00,2.239214897155761719e+00,2.238959550857543945e+00,2.238704442977905273e+00,2.238449096679687500e+00,2.223076105117797852e+00,2.182305097579956055e+00,2.143002510070800781e+00,2.105090379714965820e+00,2.068496465682983398e+00,2.033153057098388672e+00,1.998997211456298828e+00,1.965970039367675781e+00,1.934016227722167969e+00,1.903084874153137207e+00,1.873127102851867676e+00,1.844097971916198730e+00
1.988557577133178711e+00,1.988356113433837891e+00,1.988154411315917969e+00,1.987952947616577148e+00,1.987751603126525879e+00,1.987550258636474609e+00,1.987348914146423340e+00,1.987147688865661621e+00,1.986946225166320801e+00,1.986745119094848633e+00,1.986543893814086914e+00,1.986342906951904297e+00,1.986141800880432129e+00,1.985940575599670410e+00,1.985739588737487793e+00,1.985538721084594727e+00,1.985337853431701660e+00,1.985136985778808594e+00,1.984935879707336426e+00,1.984735131263732910e+00,1.984534382820129395e+00,1.984333753585815430e+00,1.984133005142211914e+00,1.983932495117187500e+00,1.983731627464294434e+00,1.983531117439270020e+00,1.983330607414245605e+00,1.983130216598510742e+00,1.982929825782775879e+00,1.982729196548461914e+00,1.982528924942016602e+00,1.982328653335571289e+00,1.982128381729125977e+00,1.981928229331970215e+00,1.981727838516235352e+00,1.981527686119079590e+00,1.981327652931213379e+00,1.981127500534057617e+00,1.980927586555480957e+00,1.980727553367614746e+00,1.980527400970458984e+00,1.980327606201171875e+00,1.980127692222595215e+00,1.979927897453308105e+00,1.979728221893310547e+00,1.979528188705444336e+00,1.979328513145446777e+00,1.979128837585449219e+00,1.978929281234741211e+00,1.978729724884033203e+00,1.978530049324035645e+00,1.978330492973327637e+00,1.978131055831909180e+00,1.977931618690490723e+00,1.977732300758361816e+00,1.977532982826232910e+00,1.977333545684814453e+00,1.977134227752685547e+00,1.976935029029846191e+00,1.976735949516296387e+00,1.976536750793457031e+00,1.976337432861328125e+00,1.976138472557067871e+00,1.975939512252807617e+00,1.975740551948547363e+00,1.975541591644287109e+00,1.975342512130737305e+00,1.975143671035766602e+00,1.974944829940795898e+00,1.974746108055114746e+00,1.974547386169433594e+00,1.974348664283752441e+00,1.974149823188781738e+00,1.973951220512390137e+00,1.973752737045288086e+00,1.965992569923400879e+00,1.934038400650024414e+00,1.903106093406677246e+00,1.873147606849670410e+00,1.844117760658264160e+00
1.778000712394714355e+00,1.777839541435241699e+00,1.777678489685058594e+00,1.777517318725585938e+00,1.777356266975402832e+00,1.777195334434509277e+00,1.777034401893615723e+00,1.776873469352722168e+00,1.776712417602539062e+00,1.776551485061645508e+00,1.776390671730041504e+00,1.776229858398437500e+00,1.776069164276123047e+00,1.775908350944519043e+00,1.775747537612915039e+00,1.775586843490600586e+00,1.775426149368286133e+00,1.775265574455261230e+00,1.775104999542236328e+00,1.774944186210632324e+00,1.774783611297607422e+00,1.774623155593872070e+00,1.774462699890136719e+00,1.774302244186401367e+00,1.774141550064086914e+00,1.773981213569641113e+00,1.773820877075195312e+00,1.773660540580749512e+00,1.773500204086303711e+00,1.773339986801147461e+00,1.773179531097412109e+00,1.773019313812255859e+00,1.772859096527099609e+00,1.772698879241943359e+00,1.772538781166076660e+00,1.772378444671630859e+00,1.772218465805053711e+00,1.772058367729187012e+00,1.771898388862609863e+00,1.771738409996032715e+00,1.771578192710876465e+00,1.771418333053588867e+00,1.771258354187011719e+00,1.771098494529724121e+00,1.770938634872436523e+00,1.770778894424438477e+00,1.770618915557861328e+00,1.770459175109863281e+00,1.770299434661865234e+00,1.770139694213867188e+00,1.769980072975158691e+00,1.769820213317871094e+00,1.769660592079162598e+00,1.769500970840454102e+00,1.769341468811035156e+00,1.769181847572326660e+00,1.769022226333618164e+00,1.768862724304199219e+00,1.768703341484069824e+00,1.768543839454650879e+00,1.768384456634521484e+00,1.768225193023681641e+00,1.768065690994262695e+00,1.767906308174133301e+00,1.767747044563293457e+00,1.767587900161743164e+00,1.767428636550903320e+00,1.767269253730773926e+00,1.767110109329223633e+00,1.766950964927673340e+00,1.766791939735412598e+00,1.766632795333862305e+00,1.766473650932312012e+00,1.766314625740051270e+00,1.766155600547790527e+00,1.765996694564819336e+00,1.765837788581848145e+00,1.765678882598876953e+00,1.765519857406616211e+00,1.765360951423645020e+00
1.607763767242431641e+00,1.607632040977478027e+00,1.607500433921813965e+00,1.607368707656860352e+00,1.607236862182617188e+00,1.607105255126953125e+00,1.606973648071289062e+00,1.606842041015625000e+00,1.606710433959960938e+00,1.606578826904296875e+00,1.606447219848632812e+00,1.606315732002258301e+00,1.606184244155883789e+00,1.606052756309509277e+00,1.605921268463134766e+00,1.605789780616760254e+00,1.605658411979675293e+00,1.605527043342590332e+00,1.605395674705505371e+00,1.605264306068420410e+00,1.605132818222045898e+00,1.605001568794250488e+00,1.604870319366455078e+00,1.604739069938659668e+00,1.604607820510864258e+00,1.604476451873779297e+00,1.604345321655273438e+00,1.604214072227478027e+00,1.604082942008972168e+00,1.603951811790466309e+00,1.603820562362670898e+00,1.603689551353454590e+00,1.603558540344238281e+00,1.603427410125732422e+00,1.603296399116516113e+00,1.603165507316589355e+00,1.603034377098083496e+00,1.602903366088867188e+00,1.602772474288940430e+00,1.602641582489013672e+00,1.602510690689086914e+00,1.602379679679870605e+00,1.602248787879943848e+00,1.602118015289306641e+00,1.601987242698669434e+00,1.601856470108032227e+00,1.601725578308105469e+00,1.601594805717468262e+00,1.601464033126831055e+00,1.601333379745483398e+00,1.601202726364135742e+00,1.601072072982788086e+00,1.600941300392150879e+00,1.600810647010803223e+00,1.600680112838745117e+00,1.600549578666687012e+00,1.600419044494628906e+00,1.600288391113281250e+00,1.600157856941223145e+00,1.600027322769165039e+00,1.599896907806396484e+00,1.599766373634338379e+00,1.599635839462280273e+00,1.599505424499511719e+00,1.599375128746032715e+00,1.599244713783264160e+00,1.599114418029785156e+00,1.598984122276306152e+00,1.598853707313537598e+00,1.598723411560058594e+00,1.598593235015869141e+00,1.598462939262390137e+00,1.598332762718200684e+00,1.598202466964721680e+00,1.598072290420532227e+00,1.597942113876342773e+00,1.597812056541442871e+00,1.597681879997253418e+00,1.597551703453063965e+00,1.597421646118164062e+00
1.467277526855468750e+00,1.467167854309082031e+00,1.467058062553405762e+00,1.466948390007019043e+00,1.466838598251342773e+00,1.466729044914245605e+00,1.466619372367858887e+00,1.466509699821472168e+00,1.466400146484375000e+00,1.466290593147277832e+00,1.466180920600891113e+00,1.466071367263793945e+00,1.465961813926696777e+00,1.465852260589599609e+00,1.465742826461791992e+00,1.465633153915405273e+00,1.465523719787597656e+00,1.465414285659790039e+00,1.465304851531982422e+00,1.465195417404174805e+00,1.465085864067077637e+00,1.464976549148559570e+00,1.464867234230041504e+00,1.464757800102233887e+00,1.464648485183715820e+00,1.464539170265197754e+00,1.464429736137390137e+00,1.464320421218872070e+00,1.464211225509643555e+00,1.464101910591125488e+00,1.463992714881896973e+00,1.463883399963378906e+00,1.463774204254150391e+00,1.463665008544921875e+00,1.463555812835693359e+00,1.463446617126464844e+00,1.463337421417236328e+00,1.463228225708007812e+00,1.463119149208068848e+00,1.463010072708129883e+00,1.462900996208190918e+00,1.462791919708251953e+00,1.462682843208312988e+00,1.462573766708374023e+00,1.462464809417724609e+00,1.462355732917785645e+00,1.462246775627136230e+00,1.462137699127197266e+00,1.462028741836547852e+00,1.461919903755187988e+00,1.461810946464538574e+00,1.461702108383178711e+00,1.461593031883239746e+00,1.461484193801879883e+00,1.461375355720520020e+00,1.461266517639160156e+00,1.461157679557800293e+00,1.461048960685729980e+00,1.460940003395080566e+00,1.460831284523010254e+00,1.460722565650939941e+00,1.460613846778869629e+00,1.460505127906799316e+00,1.460396289825439453e+00,1.460287570953369141e+00,1.460178971290588379e+00,1.460070252418518066e+00,1.459961652755737305e+00,1.459852933883666992e+00,1.459744334220886230e+00,1.459635734558105469e+00,1.459527134895324707e+00,1.459418535232543945e+00,1.459310054779052734e+00,1.459201455116271973e+00,1.459092855453491211e+00,1.458984375000000000e+00,1.458875894546508789e+00,1.458767533302307129e+00,1.458658933639526367e+00
1.349369645118713379e+00,1.349276781082153320e+00,1.349184036254882812e+00,1.349091291427612305e+00,1.348998546600341797e+00,1.348905682563781738e+00,1.348812937736511230e+00,1.348720312118530273e+00,1.348627567291259766e+00,1.348534941673278809e+00,1.348442077636718750e+00,1.348349452018737793e+00,1.348256826400756836e+00,1.348164200782775879e+00,1.348071575164794922e+00,1.347978949546813965e+00,1.347886323928833008e+00,1.347793698310852051e+00,1.347701072692871094e+00,1.347608566284179688e+00,1.347516059875488281e+00,1.347423434257507324e+00,1.347330927848815918e+00,1.347238421440124512e+00,1.347145915031433105e+00,1.347053408622741699e+00,1.346960902214050293e+00,1.346868395805358887e+00,1.346776008605957031e+00,1.346683502197265625e+00,1.346591114997863770e+00,1.346498727798461914e+00,1.346406221389770508e+00,1.346313834190368652e+00,1.346221446990966797e+00,1.346129179000854492e+00,1.346036791801452637e+00,1.345944404602050781e+00,1.345852017402648926e+00,1.345759749412536621e+00,1.345667481422424316e+00,1.345575213432312012e+00,1.345482826232910156e+00,1.345390558242797852e+00,1.345298290252685547e+00,1.345206141471862793e+00,1.345113873481750488e+00,1.345021724700927734e+00,1.344929337501525879e+00,1.344837188720703125e+00,1.344745039939880371e+00,1.344652891159057617e+00,1.344560742378234863e+00,1.344468474388122559e+00,1.344376444816589355e+00,1.344284296035766602e+00,1.344192147254943848e+00,1.344100117683410645e+00,1.344007968902587891e+00,1.343915939331054688e+00,1.343823909759521484e+00,1.343731880187988281e+00,1.343639850616455078e+00,1.343547821044921875e+00,1.343455791473388672e+00,1.343363761901855469e+00,1.343271851539611816e+00,1.343179821968078613e+00,1.343087911605834961e+00,1.342995882034301758e+00,1.342903971672058105e+00,1.342812061309814453e+00,1.342720150947570801e+00,1.342628359794616699e+00,1.342536330223083496e+00,1.342444539070129395e+00,1.342352628707885742e+00,1.342260837554931641e+00,1.342169046401977539e+00,1.342077255249023438e+00
1.249001979827880859e+00,1.248922467231750488e+00,1.248843073844909668e+00,1.248763561248779297e+00,1.248684167861938477e+00,1.248604655265808105e+00,1.248525142669677734e+00,1.248445630073547363e+00,1.248366236686706543e+00,1.248286843299865723e+00,1.248207449913024902e+00,1.248127937316894531e+00,1.248048543930053711e+00,1.247969150543212891e+00,1.247889876365661621e+00,1.247810482978820801e+00,1.247731089591979980e+00,1.247651696205139160e+00,1.247572422027587891e+00,1.247493028640747070e+00,1.247413754463195801e+00,1.247334480285644531e+00,1.247255086898803711e+00,1.247175812721252441e+00,1.247096538543701172e+00,1.247017264366149902e+00,1.246937990188598633e+00,1.246858716011047363e+00,1.246779441833496094e+00,1.246700286865234375e+00,1.246621131896972656e+00,1.246541857719421387e+00,1.246462583541870117e+00,1.246383428573608398e+00,1.246304273605346680e+00,1.246225118637084961e+00,1.246145963668823242e+00,1.246066808700561523e+00,1.245987653732299805e+00,1.245908498764038086e+00,1.245829463005065918e+00,1.245750308036804199e+00,1.245671272277832031e+00,1.245592117309570312e+00,1.245512962341308594e+00,1.245433926582336426e+00,1.245354890823364258e+00,1.245275855064392090e+00,1.245196819305419922e+00,1.245117783546447754e+00,1.245038747787475586e+00,1.244959712028503418e+00,1.244880795478820801e+00,1.244801759719848633e+00,1.244722723960876465e+00,1.244643807411193848e+00,1.244564890861511230e+00,1.244485974311828613e+00,1.244407057762145996e+00,1.244328022003173828e+00,1.244249105453491211e+00,1.244170188903808594e+00,1.244091272354125977e+00,1.244012475013732910e+00,1.243933558464050293e+00,1.243854641914367676e+00,1.243775844573974609e+00,1.243696928024291992e+00,1.243618130683898926e+00,1.243539333343505859e+00,1.243460416793823242e+00,1.243381619453430176e+00,1.243302822113037109e+00,1.243224143981933594e+00,1.243145346641540527e+00,1.243066549301147461e+00,1.242987751960754395e+00,1.242909073829650879e+00,1.242830276489257812e+00,1.242751598358154297e+00
1.162531733512878418e+00,1.162462830543518066e+00,1.162393927574157715e+00,1.162325024604797363e+00,1.162256240844726562e+00,1.162187337875366211e+00,1.162118434906005859e+00,1.162049651145935059e+00,1.161980867385864258e+00,1.161912083625793457e+00,1.161843299865722656e+00,1.161774516105651855e+00,1.161705613136291504e+00,1.161636829376220703e+00,1.161568045616149902e+00,1.161499261856079102e+00,1.161430597305297852e+00,1.161361694335937500e+00,1.161293029785156250e+00,1.161224246025085449e+00,1.161155581474304199e+00,1.161086916923522949e+00,1.161018133163452148e+00,1.160949349403381348e+00,1.160880684852600098e+00,1.160812020301818848e+00,1.160743355751037598e+00,1.160674691200256348e+00,1.160606026649475098e+00,1.160537362098693848e+00,1.160468697547912598e+00,1.160400032997131348e+00,1.160331487655639648e+00,1.160262703895568848e+00,1.160194158554077148e+00,1.160125613212585449e+00,1.160056948661804199e+00,1.159988403320312500e+00,1.159919738769531250e+00,1.159851193428039551e+00,1.159782648086547852e+00,1.159714102745056152e+00,1.159645557403564453e+00,1.159577012062072754e+00,1.159508466720581055e+00,1.159439921379089355e+00,1.159371376037597656e+00,1.159302949905395508e+00,1.159234404563903809e+00,1.159165859222412109e+00,1.159097313880920410e+00,1.159028887748718262e+00,1.158960461616516113e+00,1.158892035484313965e+00,1.158823490142822266e+00,1.158755064010620117e+00,1.158686637878417969e+00,1.158618211746215820e+00,1.158549785614013672e+00,1.158481359481811523e+00,1.158412933349609375e+00,1.158344507217407227e+00,1.158276200294494629e+00,1.158207774162292480e+00,1.158139467239379883e+00,1.158071041107177734e+00,1.158002734184265137e+00,1.157934308052062988e+00,1.157866001129150391e+00,1.157797694206237793e+00,1.157729387283325195e+00,1.157661080360412598e+00,1.157592773437500000e+00,1.157524466514587402e+00,1.157456159591674805e+00,1.157387852668762207e+00,1.157319545745849609e+00,1.157251358032226562e+00,1.157183051109313965e+00,1.157114863395690918e+00
1.087259054183959961e+00,1.087198853492736816e+00,1.087138533592224121e+00,1.087078332901000977e+00,1.087018013000488281e+00,1.086957812309265137e+00,1.086897611618041992e+00,1.086837410926818848e+00,1.086777210235595703e+00,1.086717009544372559e+00,1.086656808853149414e+00,1.086596608161926270e+00,1.086536407470703125e+00,1.086476206779479980e+00,1.086416125297546387e+00,1.086355924606323242e+00,1.086295843124389648e+00,1.086235642433166504e+00,1.086175441741943359e+00,1.086115360260009766e+00,1.086055278778076172e+00,1.085995078086853027e+00,1.085934996604919434e+00,1.085874915122985840e+00,1.085814833641052246e+00,1.085754752159118652e+00,1.085694670677185059e+00,1.085634589195251465e+00,1.085574388504028320e+00,1.085514426231384277e+00,1.085454344749450684e+00,1.085394263267517090e+00,1.085334300994873047e+00,1.085274219512939453e+00,1.085214138031005859e+00,1.085154175758361816e+00,1.085094094276428223e+00,1.085034132003784180e+00,1.084974169731140137e+00,1.084914088249206543e+00,1.084854125976562500e+00,1.084794163703918457e+00,1.084734082221984863e+00,1.084674119949340820e+00,1.084614157676696777e+00,1.084554195404052734e+00,1.084494233131408691e+00,1.084434270858764648e+00,1.084374427795410156e+00,1.084314465522766113e+00,1.084254503250122070e+00,1.084194540977478027e+00,1.084134697914123535e+00,1.084074854850769043e+00,1.084014892578125000e+00,1.083954930305480957e+00,1.083895087242126465e+00,1.083835244178771973e+00,1.083775401115417480e+00,1.083715558052062988e+00,1.083655595779418945e+00,1.083595752716064453e+00,1.083535909652709961e+00,1.083476066589355469e+00,1.083416223526000977e+00,1.083356499671936035e+00,1.083296537399291992e+00,1.083236813545227051e+00,1.083176970481872559e+00,1.083117127418518066e+00,1.083057403564453125e+00,1.082997560501098633e+00,1.082937836647033691e+00,1.082877993583679199e+00,1.082818269729614258e+00,1.082758545875549316e+00,1.082698702812194824e+00,1.082638978958129883e+00,1.082579255104064941e+00,1.082519531250000000e+00
1.021141290664672852e+00,1.021088123321533203e+00,1.021034955978393555e+00,1.020981788635253906e+00,1.020928621292114258e+00,1.020875573158264160e+00,1.020822405815124512e+00,1.020769357681274414e+00,1.020716190338134766e+00,1.020663142204284668e+00,1.020609974861145020e+00,1.020556926727294922e+00,1.020503878593444824e+00,1.020450711250305176e+00,1.020397663116455078e+00,1.020344614982604980e+00,1.020291566848754883e+00,1.020238518714904785e+00,1.020185351371765137e+00,1.020132303237915039e+00,1.020079374313354492e+00,1.020026326179504395e+00,1.019973278045654297e+00,1.019920229911804199e+00,1.019867181777954102e+00,1.019814133644104004e+00,1.019761204719543457e+00,1.019708156585693359e+00,1.019655227661132812e+00,1.019602179527282715e+00,1.019549250602722168e+00,1.019496202468872070e+00,1.019443273544311523e+00,1.019390344619750977e+00,1.019337296485900879e+00,1.019284367561340332e+00,1.019231438636779785e+00,1.019178509712219238e+00,1.019125461578369141e+00,1.019072532653808594e+00,1.019019603729248047e+00,1.018966674804687500e+00,1.018913745880126953e+00,1.018860936164855957e+00,1.018808007240295410e+00,1.018755078315734863e+00,1.018702149391174316e+00,1.018649220466613770e+00,1.018596410751342773e+00,1.018543481826782227e+00,1.018490552902221680e+00,1.018437743186950684e+00,1.018384814262390137e+00,1.018332004547119141e+00,1.018279194831848145e+00,1.018226265907287598e+00,1.018173456192016602e+00,1.018120646476745605e+00,1.018067717552185059e+00,1.018014907836914062e+00,1.017962098121643066e+00,1.017909288406372070e+00,1.017856478691101074e+00,1.017803668975830078e+00,1.017750859260559082e+00,1.017698049545288086e+00,1.017645239830017090e+00,1.017592549324035645e+00,1.017539739608764648e+00,1.017486929893493652e+00,1.017434239387512207e+00,1.017381429672241211e+00,1.017328619956970215e+00,1.017275929450988770e+00,1.017223119735717773e+00,1.017170429229736328e+00,1.017117738723754883e+00,1.017064929008483887e+00,1.017012238502502441e+00,1.016959547996520996e+00
9.626039266586303711e-01,9.625567793846130371e-01,9.625095129013061523e-01,9.624622464179992676e-01,9.624150991439819336e-01,9.623678326606750488e-01,9.623206853866577148e-01,9.622734189033508301e-01,9.622262120246887207e-01,9.621790647506713867e-01,9.621317982673645020e-01,9.620847105979919434e-01,9.620375037193298340e-01,9.619903564453125000e-01,9.619431495666503906e-01,9.618959426879882812e-01,9.618488550186157227e-01,9.618016481399536133e-01,9.617545604705810547e-01,9.617074131965637207e-01,9.616602063179016113e-01,9.616131186485290527e-01,9.615659713745117188e-01,9.615188837051391602e-01,9.614717364311218262e-01,9.614245891571044922e-01,9.613775014877319336e-01,9.613303542137145996e-01,9.612833261489868164e-01,9.612361788749694824e-01,9.611890316009521484e-01,9.611420035362243652e-01,9.610948562622070312e-01,9.610478878021240234e-01,9.610007405281066895e-01,9.609536528587341309e-01,9.609066247940063477e-01,9.608595371246337891e-01,9.608125090599060059e-01,9.607654213905334473e-01,9.607183337211608887e-01,9.606713652610778809e-01,9.606242775917053223e-01,9.605773091316223145e-01,9.605302214622497559e-01,9.604832530021667480e-01,9.604362249374389648e-01,9.603891372680664062e-01,9.603421688079833984e-01,9.602951407432556152e-01,9.602481722831726074e-01,9.602011442184448242e-01,9.601541161537170410e-01,9.601072072982788086e-01,9.600601792335510254e-01,9.600132703781127930e-01,9.599662423133850098e-01,9.599192142486572266e-01,9.598723053932189941e-01,9.598252773284912109e-01,9.597784280776977539e-01,9.597314000129699707e-01,9.596844315528869629e-01,9.596375226974487305e-01,9.595905542373657227e-01,9.595437049865722656e-01,9.594966769218444824e-01,9.594497084617614746e-01,9.594028592109680176e-01,9.593559503555297852e-01,9.593090415000915527e-01,9.592621326446533203e-01,9.592151641845703125e-01,9.591683149337768555e-01,9.591214060783386230e-01,9.590745568275451660e-01,9.590276479721069336e-01,9.589808583259582520e-01,9.589338898658752441e-01,9.588869810104370117e-01
9.104140400886535645e-01,9.103718996047973633e-01,9.103295803070068359e-01,9.102874398231506348e-01,9.102451205253601074e-01,9.102028608322143555e-01,9.101607203483581543e-01,9.101184606552124023e-01,9.100762605667114258e-01,9.100340008735656738e-01,9.099917411804199219e-01,9.099496006965637207e-01,9.099073410034179688e-01,9.098652005195617676e-01,9.098230004310607910e-01,9.097807407379150391e-01,9.097386002540588379e-01,9.096964001655578613e-01,9.096542596817016602e-01,9.096120595932006836e-01,9.095698595046997070e-01,9.095277190208435059e-01,9.094855189323425293e-01,9.094434380531311035e-01,9.094012379646301270e-01,9.093590378761291504e-01,9.093169569969177246e-01,9.092747569084167480e-01,9.092326760292053223e-01,9.091904759407043457e-01,9.091483354568481445e-01,9.091062545776367188e-01,9.090641140937805176e-01,9.090220332145690918e-01,9.089798927307128906e-01,9.089378118515014648e-01,9.088956713676452637e-01,9.088535308837890625e-01,9.088114500045776367e-01,9.087693095207214355e-01,9.087272882461547852e-01,9.086851477622985840e-01,9.086430668830871582e-01,9.086010456085205078e-01,9.085589051246643066e-01,9.085168838500976562e-01,9.084747433662414551e-01,9.084326624870300293e-01,9.083906412124633789e-01,9.083485603332519531e-01,9.083065390586853027e-01,9.082644581794738770e-01,9.082223773002624512e-01,9.081804156303405762e-01,9.081383347511291504e-01,9.080963730812072754e-01,9.080542922019958496e-01,9.080122113227844238e-01,9.079702496528625488e-01,9.079281687736511230e-01,9.078862071037292480e-01,9.078441858291625977e-01,9.078021049499511719e-01,9.077601432800292969e-01,9.077181220054626465e-01,9.076761603355407715e-01,9.076341390609741211e-01,9.075922369956970215e-01,9.075502157211303711e-01,9.075081944465637207e-01,9.074662327766418457e-01,9.074242711067199707e-01,9.073823094367980957e-01,9.073403477668762207e-01,9.072983264923095703e-01,9.072564244270324707e-01,9.072144031524658203e-01,9.071725606918334961e-01,9.071305394172668457e-01,9.070885777473449707e-01
