5.000000000000000000e+00,5.000000000000000000e+00,5.000000000000000000e+00,5.000000000000000000e+00,5.000000000000000000e+00,5.000000000000000000e+00,5.000000000000000000e+00,5.000000000000000000e+00,5.000000000000000000e+00,5.000000000000000000e+00,5.000000000000000000e+00,5.000000000000000000e+00,5.000000000000000000e+00,5.000000000000000000e+00,5.000000000000000000e+00,5.000000000000000000e+00,5.000000000000000000e+00,5.000000000000000000e+00,5.000000000000000000e+00,5.000000000000000000e+00,5.000000000000000000e+00,5.000000000000000000e+00,5.000000000000000000e+00,5.000000000000000000e+00,5.000000000000000000e+00,4.300819873809814453e+00,4.322157382965087891e+00,5.000000000000000000e+00,5.000000000000000000e+00,5.000000000000000000e+00,5.000000000000000000e+00,5.000000000000000000e+00,5.000000000000000000e+00,5.000000000000000000e+00,5.000000000000000000e+00,5.000000000000000000e+00,5.000000000000000000e+00,5.000000000000000000e+00,5.000000000000000000e+00,4.860692977905273438e+00,4.669847965240478516e+00,4.493423461914062500e+00,4.329843997955322266e+00,4.177755832672119141e+00,4.035989761352539062e+00,3.903529167175292969e+00,3.779486894607543945e+00,3.663085222244262695e+00,3.553639173507690430e+00,3.450543642044067383e+00,3.353260755538940430e+00,3.261313676834106445e+00,3.174273967742919922e+00,3.091759681701660156e+00,3.013426542282104492e+00,2.938964605331420898e+00,2.868093967437744141e+00,2.800560712814331055e+00,2.736134529113769531e+00,2.674606084823608398e+00,2.615783929824829102e+00,2.559493064880371094e+00,2.505574226379394531e+00,2.453880310058593750e+00,2.404276132583618164e+00,2.356637954711914062e+00,2.310850620269775391e+00,2.266808748245239258e+00,2.224414110183715820e+00,2.183576345443725586e+00,2.144210815429687500e+00,2.106239557266235352e+00,2.069589614868164062e+00,2.034193515777587891e+00,1.999987840652465820e+00,1.966913580894470215e+00,1.934915184974670410e+00,1.903941512107849121e+00,1.873943448066711426e+00,1.844876408576965332e+00
5.000000000000000000e+00,5.000000000000000000e+00,5.000000000000000000e+00,5.000000000000000000e+00,5.000000000000000000e+00,5.000000000000000000e+00,5.000000000000000000e+00,5.000000000000000000e+00,5.000000000000000000e+00,5.000000000000000000e+00,5.000000000000000000e+00,5.000000000000000000e+00,5.000000000000000000e+00,5.000000000000000000e+00,5.000000000000000000e+00,5.000000000000000000e+00,5.000000000000000000e+00,5.000000000000000000e+00,5.000000000000000000e+00,5.000000000000000000e+00,5.000000000000000000e+00,5.000000000000000000e+00,5.000000000000000000e+00,5.000000000000000000e+00,5.000000000000000000e+00,4.312770843505859375e+00,4.351420879364013672e+00,5.000000000000000000e+00,5.000000000000000000e+00,5.000000000000000000e+00,5.000000000000000000e+00,5.000000000000000000e+00,5.000000000000000000e+00,5.000000000000000000e+00,5.000000000000000000e+00,5.000000000000000000e+00,5.000000000000000000e+00,5.000000000000000000e+00,5.000000000000000000e+00,4.860830783843994141e+00,4.669975280761718750e+00,4.493541240692138672e+00,4.329953193664550781e+00,4.177857398986816406e+00,4.036084651947021484e+00,3.903618097305297852e+00,3.779570341110229492e+00,3.663163661956787109e+00,3.553713083267211914e+00,3.450612783432006836e+00,3.353326559066772461e+00,3.261375665664672852e+00,3.174332857131958008e+00,3.091815471649169922e+00,3.013479471206665039e+00,2.939015150070190430e+00,2.868141889572143555e+00,2.800606489181518555e+00,2.736178159713745117e+00,2.674647569656372070e+00,2.615823507308959961e+00,2.559531450271606445e+00,2.505610942840576172e+00,2.453915357589721680e+00,2.404309988021850586e+00,2.356670379638671875e+00,2.310881853103637695e+00,2.266838788986206055e+00,2.224443197250366211e+00,2.183604240417480469e+00,2.144237518310546875e+00,2.106265544891357422e+00,2.069614648818969727e+00,2.034217834472656250e+00,2.000011205673217773e+00,1.966936230659484863e+00,1.934937000274658203e+00,1.903962612152099609e+00,1.873964071273803711e+00,1.844896316528320312e+00
5.000000000000000000e+00,5.000000000000000000e+00,5.000000000000000000e+00,5.000000000000000000e+00,5.000000000000000000e+00,5.000000000000000000e+00,5.000000000000000000e+00,5.000000000000000000e+00,5.000000000000000000e+00,5.000000000000000000e+00,5.000000000000000000e+00,5.000000000000000000e+00,5.000000000000000000e+00,5.000000000000000000e+00,5.000000000000000000e+00,5.000000000000000000e+00,5.000000000000000000e+00,5.000000000000000000e+00,5.000000000000000000e+00,5.000000000000000000e+00,5.000000000000000000e+00,5.000000000000000000e+00,5.000000000000000000e+00,5.000000000000000000e+00,4.333927154541015625e+00,4.386167526245117188e+00,4.334226131439208984e+00,4.399459362030029297e+00,5.000000000000000000e+00,5.000000000000000000e+00,5.000000000000000000e+00,5.000000000000000000e+00,5.000000000000000000e+00,5.000000000000000000e+00,5.000000000000000000e+00,5.000000000000000000e+00,5.000000000000000000e+00,5.000000000000000000e+00,5.000000000000000000e+00,4.860969066619873047e+00,4.670103073120117188e+00,4.493659496307373047e+00,4.330062866210937500e+00,4.177959442138671875e+00,4.036179542541503906e+00,3.903707265853881836e+00,3.779653787612915039e+00,3.663241624832153320e+00,3.553786516189575195e+00,3.450682401657104492e+00,3.353392124176025391e+00,3.261437892913818359e+00,3.174391746520996094e+00,3.091871261596679688e+00,3.013532638549804688e+00,2.939065456390380859e+00,2.868190050125122070e+00,2.800652265548706055e+00,2.736221790313720703e+00,2.674689292907714844e+00,2.615863561630249023e+00,2.559569597244262695e+00,2.505647659301757812e+00,2.453950643539428711e+00,2.404343605041503906e+00,2.356702804565429688e+00,2.310913085937500000e+00,2.266868829727172852e+00,2.224471807479858398e+00,2.183631896972656250e+00,2.144264459609985352e+00,2.106291294097900391e+00,2.069639682769775391e+00,2.034241914749145508e+00,2.000034570693969727e+00,1.966958761215209961e+00,1.934958934783935547e+00,1.903983831405639648e+00,1.873984575271606445e+00,1.844915986061096191e+00
5.000000000000000000e+00,5.000000000000000000e+00,5.000000000000000000e+00,5.000000000000000000e+00,5.000000000000000000e+00,5.000000000000000000e+00,5.000000000000000000e+00,5.000000000000000000e+00,5.000000000000000000e+00,5.000000000000000000e+00,5.000000000000000000e+00,5.000000000000000000e+00,5.000000000000000000e+00,5.000000000000000000e+00,5.000000000000000000e+00,5.000000000000000000e+00,5.000000000000000000e+00,5.000000000000000000e+00,5.000000000000000000e+00,5.000000000000000000e+00,5.000000000000000000e+00,5.000000000000000000e+00,4.333671569824218750e+00,4.310154438018798828e+00,4.293394088745117188e+00,4.293601512908935547e+00,4.308917045593261719e+00,4.333434581756591797e+00,4.393813133239746094e+00,5.000000000000000000e+00,5.000000000000000000e+00,5.000000000000000000e+00,5.000000000000000000e+00,5.000000000000000000e+00,5.000000000000000000e+00,5.000000000000000000e+00,5.000000000000000000e+00,5.000000000000000000e+00,5.000000000000000000e+00,4.861106872558593750e+00,4.670229911804199219e+00,4.493776798248291016e+00,4.330172061920166016e+00,4.178061485290527344e+00,4.036274909973144531e+00,3.903796195983886719e+00,3.779736757278442383e+00,3.663320064544677734e+00,3.553860187530517578e+00,3.450752019882202148e+00,3.353457927703857422e+00,3.261499881744384766e+00,3.174450635910034180e+00,3.091927289962768555e+00,3.013585567474365234e+00,2.939116001129150391e+00,2.868237733840942383e+00,2.800697803497314453e+00,2.736265420913696289e+00,2.674731254577636719e+00,2.615903615951538086e+00,2.559607982635498047e+00,2.505684375762939453e+00,2.453985691070556641e+00,2.404377460479736328e+00,2.356735229492187500e+00,2.310944318771362305e+00,2.266898632049560547e+00,2.224500894546508789e+00,2.183659791946411133e+00,2.144291400909423828e+00,2.106317281723022461e+00,2.069664716720581055e+00,2.034266233444213867e+00,2.000057935714721680e+00,1.966981410980224609e+00,1.934980750083923340e+00,1.904005050659179688e+00,1.874005079269409180e+00,1.844935894012451172e+00
5.000000000000000000e+00,5.000000000000000000e+00,5.000000000000000000e+00,5.000000000000000000e+00,5.000000000000000000e+00,5.000000000000000000e+00,5.000000000000000000e+00,5.000000000000000000e+00,5.000000000000000000e+00,5.000000000000000000e+00,5.000000000000000000e+00,5.000000000000000000e+00,5.000000000000000000e+00,5.000000000000000000e+00,5.000000000000000000e+00,5.000000000000000000e+00,5.000000000000000000e+00,5.000000000000000000e+00,5.000000000000000000e+00,5.000000000000000000e+00,5.000000000000000000e+00,5.000000000000000000e+00,5.000000000000000000e+00,4.340927124023437500e+00,4.275139331817626953e+00,4.277127265930175781e+00,4.282744884490966797e+00,4.327412128448486328e+00,4.408229827880859375e+00,5.000000000000000000e+00,5.000000000000000000e+00,5.000000000000000000e+00,5.000000000000000000e+00,5.000000000000000000e+00,5.000000000000000000e+00,5.000000000000000000e+00,5.000000000000000000e+00,5.000000000000000000e+00,5.000000000000000000e+00,4.861244678497314453e+00,4.670357227325439453e+00,4.493895053863525391e+00,4.330281734466552734e+00,4.178163528442382812e+00,4.036369800567626953e+00,3.903884887695312500e+00,3.779820203781127930e+00,3.663398265838623047e+00,3.553934097290039062e+00,3.450821399688720703e+00,3.353523731231689453e+00,3.261562108993530273e+00,3.174509525299072266e+00,3.091983079910278320e+00,3.013638734817504883e+00,2.939166307449340820e+00,2.868285894393920898e+00,2.800743579864501953e+00,2.736309051513671875e+00,2.674772977828979492e+00,2.615943431854248047e+00,2.559646129608154297e+00,2.505720853805541992e+00,2.454020977020263672e+00,2.404411315917968750e+00,2.356767654418945312e+00,2.310975313186645508e+00,2.266928672790527344e+00,2.224529743194580078e+00,2.183687686920166016e+00,2.144318103790283203e+00,2.106343269348144531e+00,2.069689750671386719e+00,2.034290313720703125e+00,2.000081300735473633e+00,1.967003941535949707e+00,1.935002684593200684e+00,1.904025912284851074e+00,1.874025583267211914e+00,1.844955682754516602e+00
5.000000000000000000e+00,5.000000000000000000e+00,5.000000000000000000e+00,5.000000000000000000e+00,5.000000000000000000e+00,5.000000000000000000e+00,5.000000000000000000e+00,5.000000000000000000e+00,5.000000000000000000e+00,5.000000000000000000e+00,5.000000000000000000e+00,5.000000000000000000e+00,5.000000000000000000e+00,5.000000000000000000e+00,5.000000000000000000e+00,5.000000000000000000e+00,5.000000000000000000e+00,5.000000000000000000e+00,5.000000000000000000e+00,5.000000000000000000e+00,5.000000000000000000e+00,5.000000000000000000e+00,5.000000000000000000e+00,4.331081867218017578e+00,4.289973735809326172e+00,4.267202377319335938e+00,4.287922859191894531e+00,4.341585159301757812e+00,4.414334297180175781e+00,5.000000000000000000e+00,5.000000000000000000e+00,5.000000000000000000e+00,5.000000000000000000e+00,5.000000000000000000e+00,5.000000000000000000e+00,5.000000000000000000e+00,5.000000000000000000e+00,5.000000000000000000e+00,5.000000000000000000e+00,4.861382484436035156e+00,4.670484542846679688e+00,4.494012832641601562e+00,4.330391407012939453e+00,4.178265094757080078e+00,4.036465167999267578e+00,3.903973817825317383e+00,3.779903650283813477e+00,3.663476705551147461e+00,3.554007768630981445e+00,3.450891017913818359e+00,3.353589296340942383e+00,3.261624336242675781e+00,3.174568414688110352e+00,3.092038631439208984e+00,3.013691425323486328e+00,2.939216613769531250e+00,2.868333816528320312e+00,2.800789356231689453e+00,2.736352920532226562e+00,2.674814701080322266e+00,2.615983486175537109e+00,2.559684514999389648e+00,2.505757570266723633e+00,2.454056024551391602e+00,2.404444932937622070e+00,2.356800079345703125e+00,2.311006546020507812e+00,2.266958713531494141e+00,2.224558591842651367e+00,2.183715581893920898e+00,2.144345045089721680e+00,2.106369256973266602e+00,2.069714784622192383e+00,2.034314393997192383e+00,2.000104665756225586e+00,1.967026352882385254e+00,1.935024499893188477e+00,1.904047131538391113e+00,1.874046087265014648e+00,1.844975590705871582e+00
5.000000000000000000e+00,5.000000000000000000e+00,5.000000000000000000e+00,5.000000000000000000e+00,5.000000000000000000e+00,5.000000000000000000e+00,5.000000000000000000e+00,5.000000000000000000e+00,5.000000000000000000e+00,5.000000000000000000e+00,5.000000000000000000e+00,5.000000000000000000e+00,5.000000000000000000e+00,5.000000000000000000e+00,5.000000000000000000e+00,5.000000000000000000e+00,5.000000000000000000e+00,5.000000000000000000e+00,5.000000000000000000e+00,5.000000000000000000e+00,5.000000000000000000e+00,5.000000000000000000e+00,5.000000000000000000e+00,4.331192493438720703e+00,4.289287090301513672e+00,4.274349212646484375e+00,4.290514469146728516e+00,4.356801033020019531e+00,4.425352573394775391e+00,5.000000000000000000e+00,5.000000000000000000e+00,5.000000000000000000e+00,5.000000000000000000e+00,5.000000000000000000e+00,5.000000000000000000e+00,5.000000000000000000e+00,5.000000000000000000e+00,5.000000000000000000e+00,5.000000000000000000e+00,4.861520767211914062e+00,4.670612335205078125e+00,4.494130611419677734e+00,4.330500602722167969e+00,4.178367137908935547e+00,4.036560058593750000e+00,3.904062747955322266e+00,3.779987096786499023e+00,3.663555145263671875e+00,3.554081439971923828e+00,3.450960636138916016e+00,3.353655099868774414e+00,3.261686325073242188e+00,3.174626827239990234e+00,3.092094421386718750e+00,3.013744592666625977e+00,2.939267158508300781e+00,2.868381977081298828e+00,2.800835371017456055e+00,2.736396551132202148e+00,2.674856424331665039e+00,2.616023540496826172e+00,2.559722661972045898e+00,2.505794048309326172e+00,2.454091072082519531e+00,2.404478549957275391e+00,2.356832504272460938e+00,2.311037778854370117e+00,2.266988754272460938e+00,2.224587440490722656e+00,2.183743238449096680e+00,2.144371986389160156e+00,2.106395006179809570e+00,2.069739818572998047e+00,2.034338474273681641e+00,2.000128030776977539e+00,1.967049002647399902e+00,1.935046434402465820e+00,1.904068350791931152e+00,1.874066591262817383e+00,1.844995498657226562e+00
5.000000000000000000e+00,5.000000000000000000e+00,5.000000000000000000e+00,5.000000000000000000e+00,5.000000000000000000e+00,5.000000000000000000e+00,5.000000000000000000e+00,5.000000000000000000e+00,5.000000000000000000e+00,5.000000000000000000e+00,5.000000000000000000e+00,5.000000000000000000e+00,5.000000000000000000e+00,5.000000000000000000e+00,5.000000000000000000e+00,5.000000000000000000e+00,5.000000000000000000e+00,5.000000000000000000e+00,5.000000000000000000e+00,5.000000000000000000e+00,5.000000000000000000e+00,5.000000000000000000e+00,5.000000000000000000e+00,4.346053600311279297e+00,4.295376777648925781e+00,4.264925003051757812e+00,4.278913974761962891e+00,4.341598987579345703e+00,4.445981979370117188e+00,5.000000000000000000e+00,5.000000000000000000e+00,5.000000000000000000e+00,5.000000000000000000e+00,5.000000000000000000e+00,5.000000000000000000e+00,5.000000000000000000e+00,5.000000000000000000e+00,5.000000000000000000e+00,5.000000000000000000e+00,4.861658573150634766e+00,4.670739173889160156e+00,4.494248390197753906e+00,4.330610275268554688e+00,4.178469181060791016e+00,4.036655426025390625e+00,3.904151916503906250e+00,3.780070543289184570e+00,3.663633584976196289e+00,3.554155349731445312e+00,3.451030254364013672e+00,3.353720426559448242e+00,3.261748313903808594e+00,3.174685716629028320e+00,3.092150211334228516e+00,3.013797521591186523e+00,2.939317703247070312e+00,2.868429899215698242e+00,2.800881147384643555e+00,2.736440420150756836e+00,2.674898386001586914e+00,2.616063356399536133e+00,2.559760808944702148e+00,2.505830764770507812e+00,2.454126358032226562e+00,2.404512405395507812e+00,2.356864929199218750e+00,2.311068773269653320e+00,2.267018795013427734e+00,2.224616289138793945e+00,2.183771133422851562e+00,2.144398689270019531e+00,2.106420993804931641e+00,2.069764614105224609e+00,2.034362792968750000e+00,2.000151395797729492e+00,1.967071533203125000e+00,1.935068249702453613e+00,1.904089450836181641e+00,1.874087095260620117e+00,1.845015406608581543e+00
5.000000000000000000e+00,5.000000000000000000e+00,5.000000000000000000e+00,5.000000000000000000e+00,5.000000000000000000e+00,5.000000000000000000e+00,5.000000000000000000e+00,5.000000000000000000e+00,5.000000000000000000e+00,5.000000000000000000e+00,5.000000000000000000e+00,5.000000000000000000e+00,5.000000000000000000e+00,5.000000000000000000e+00,5.000000000000000000e+00,5.000000000000000000e+00,5.000000000000000000e+00,5.000000000000000000e+00,5.000000000000000000e+00,5.000000000000000000e+00,5.000000000000000000e+00,5.000000000000000000e+00,4.306108474731445312e+00,4.310293674468994141e+00,4.286988735198974609e+00,4.279606342315673828e+00,4.302754878997802734e+00,4.351989746093750000e+00,4.426317214965820312e+00,5.000000000000000000e+00,5.000000000000000000e+00,5.000000000000000000e+00,5.000000000000000000e+00,5.000000000000000000e+00,5.000000000000000000e+00,5.000000000000000000e+00,5.000000000000000000e+00,5.000000000000000000e+00,5.000000000000000000e+00,4.861796379089355469e+00,4.670866489410400391e+00,4.494366645812988281e+00,4.330719470977783203e+00,4.178570747375488281e+00,4.036750316619873047e+00,3.904240846633911133e+00,3.780153989791870117e+00,3.663712024688720703e+00,3.554229021072387695e+00,3.451099395751953125e+00,3.353785991668701172e+00,3.261810302734375000e+00,3.174744606018066406e+00,3.092206239700317383e+00,3.013850688934326172e+00,2.939368009567260742e+00,2.868478059768676758e+00,2.800926923751831055e+00,2.736484050750732422e+00,2.674939870834350586e+00,2.616103172302246094e+00,2.559798955917358398e+00,2.505867481231689453e+00,2.454161405563354492e+00,2.404546260833740234e+00,2.356897354125976562e+00,2.311100006103515625e+00,2.267048835754394531e+00,2.224645376205444336e+00,2.183799028396606445e+00,2.144425392150878906e+00,2.106446743011474609e+00,2.069789648056030273e+00,2.034386873245239258e+00,2.000174760818481445e+00,1.967094182968139648e+00,1.935090184211730957e+00,1.904110670089721680e+00,1.874107599258422852e+00,1.845035314559936523e+00
5.000000000000000000e+00,5.000000000000000000e+00,5.000000000000000000e+00,5.000000000000000000e+00,5.000000000000000000e+00,5.000000000000000000e+00,5.000000000000000000e+00,5.000000000000000000e+00,5.000000000000000000e+00,5.000000000000000000e+00,5.000000000000000000e+00,5.000000000000000000e+00,5.000000000000000000e+00,5.000000000000000000e+00,5.000000000000000000e+00,5.000000000000000000e+00,5.000000000000000000e+00,5.000000000000000000e+00,5.000000000000000000e+00,5.000000000000000000e+00,5.000000000000000000e+00,5.000000000000000000e+00,4.249866008758544922e+00,5.000000000000000000e+00,4.289063453674316406e+00,4.335160732269287109e+00,4.238101482391357422e+00,4.275529384613037109e+00,4.417289733886718750e+00,5.000000000000000000e+00,5.000000000000000000e+00,5.000000000000000000e+00,5.000000000000000000e+00,5.000000000000000000e+00,5.000000000000000000e+00,5.000000000000000000e+00,5.000000000000000000e+00,5.000000000000000000e+00,5.000000000000000000e+00,4.861934661865234375e+00,4.670994281768798828e+00,4.494484424591064453e+00,4.330828666687011719e+00,4.178672790527343750e+00,4.036845684051513672e+00,3.904330015182495117e+00,3.780237674713134766e+00,3.663789987564086914e+00,3.554302453994750977e+00,3.451169013977050781e+00,3.353851795196533203e+00,3.261872529983520508e+00,3.174803495407104492e+00,3.092262029647827148e+00,3.013903617858886719e+00,2.939418554306030273e+00,2.868526220321655273e+00,2.800972700119018555e+00,2.736527681350708008e+00,2.674981594085693359e+00,2.616143226623535156e+00,2.559837341308593750e+00,2.505904197692871094e+00,2.454196691513061523e+00,2.404579877853393555e+00,2.356929779052734375e+00,2.311131238937377930e+00,2.267078638076782227e+00,2.224673986434936523e+00,2.183826684951782227e+00,2.144452333450317383e+00,2.106472730636596680e+00,2.069814682006835938e+00,2.034410953521728516e+00,2.000198125839233398e+00,1.967116832733154297e+00,1.935111999511718750e+00,1.904131889343261719e+00,1.874128103256225586e+00,1.845055103302001953e+00
5.000000000000000000e+00,5.000000000000000000e+00,5.000000000000000000e+00,5.000000000000000000e+00,5.000000000000000000e+00,5.000000000000000000e+00,5.000000000000000000e+00,5.000000000000000000e+00,5.000000000000000000e+00,5.000000000000000000e+00,5.000000000000000000e+00,5.000000000000000000e+00,5.000000000000000000e+00,5.000000000000000000e+00,5.000000000000000000e+00,5.000000000000000000e+00,5.000000000000000000e+00,5.000000000000000000e+00,5.000000000000000000e+00,5.000000000000000000e+00,5.000000000000000000e+00,5.000000000000000000e+00,4.196028709411621094e+00,5.000000000000000000e+00,4.287468910217285156e+00,4.316483020782470703e+00,4.201315879821777344e+00,4.235488414764404297e+00,4.389019489288330078e+00,5.000000000000000000e+00,5.000000000000000000e+00,5.000000000000000000e+00,5.000000000000000000e+00,5.000000000000000000e+00,5.000000000000000000e+00,5.000000000000000000e+00,5.000000000000000000e+00,5.000000000000000000e+00,5.000000000000000000e+00,4.862072467803955078e+00,4.671121120452880859e+00,4.494602203369140625e+00,4.330938339233398438e+00,4.178774833679199219e+00,4.036940574645996094e+00,3.904418945312500000e+00,3.780320644378662109e+00,3.663868427276611328e+00,3.554376363754272461e+00,3.451238632202148438e+00,3.353917598724365234e+00,3.261934757232666016e+00,3.174862384796142578e+00,3.092317819595336914e+00,3.013956785202026367e+00,2.939469099044799805e+00,2.868573904037475586e+00,2.801018238067626953e+00,2.736571311950683594e+00,2.675023555755615234e+00,2.616183042526245117e+00,2.559875726699829102e+00,2.505940914154052734e+00,2.454231739044189453e+00,2.404613733291625977e+00,2.356962203979492188e+00,2.311162471771240234e+00,2.267108678817749023e+00,2.224703073501586914e+00,2.183854579925537109e+00,2.144479274749755859e+00,2.106498718261718750e+00,2.069839715957641602e+00,2.034435272216796875e+00,2.000221490859985352e+00,1.967139363288879395e+00,1.935133934020996094e+00,1.904152989387512207e+00,1.874148488044738770e+00,1.845075011253356934e+00
5.000000000000000000e+00,5.000000000000000000e+00,5.000000000000000000e+00,5.000000000000000000e+00,5.000000000000000000e+00,5.000000000000000000e+00,5.000000000000000000e+00,5.000000000000000000e+00,5.000000000000000000e+00,5.000000000000000000e+00,5.000000000000000000e+00,5.000000000000000000e+00,5.000000000000000000e+00,5.000000000000000000e+00,5.000000000000000000e+00,5.000000000000000000e+00,5.000000000000000000e+00,5.000000000000000000e+00,5.000000000000000000e+00,5.000000000000000000e+00,5.000000000000000000e+00,5.000000000000000000e+00,4.149031639099121094e+00,5.000000000000000000e+00,4.301943302154541016e+00,4.325251579284667969e+00,4.165974140167236328e+00,4.199276447296142578e+00,4.358471870422363281e+00,4.446227073669433594e+00,5.000000000000000000e+00,5.000000000000000000e+00,5.000000000000000000e+00,5.000000000000000000e+00,5.000000000000000000e+00,5.000000000000000000e+00,5.000000000000000000e+00,5.000000000000000000e+00,5.000000000000000000e+00,4.862210273742675781e+00,4.671248912811279297e+00,4.494720458984375000e+00,4.331048011779785156e+00,4.178876876831054688e+00,4.037035465240478516e+00,3.904507637023925781e+00,3.780404090881347656e+00,3.663946866989135742e+00,3.554450035095214844e+00,3.451308012008666992e+00,3.353983163833618164e+00,3.261996746063232422e+00,3.174921274185180664e+00,3.092373609542846680e+00,3.014009714126586914e+00,2.939519166946411133e+00,2.868622064590454102e+00,2.801064252853393555e+00,2.736615180969238281e+00,2.675065279006958008e+00,2.616223096847534180e+00,2.559913873672485352e+00,2.505977392196655273e+00,2.454267024993896484e+00,2.404647588729858398e+00,2.356994628906250000e+00,2.311193466186523438e+00,2.267138719558715820e+00,2.224731922149658203e+00,2.183882474899291992e+00,2.144505977630615234e+00,2.106524467468261719e+00,2.069864749908447266e+00,2.034459352493286133e+00,2.000244855880737305e+00,1.967162013053894043e+00,1.935155510902404785e+00,1.904174208641052246e+00,1.874168992042541504e+00,1.845094919204711914e+00
5.000000000000000000e+00,5.000000000000000000e+00,5.000000000000000000e+00,5.000000000000000000e+00,5.000000000000000000e+00,5.000000000000000000e+00,5.000000000000000000e+00,5.000000000000000000e+00,5.000000000000000000e+00,5.000000000000000000e+00,5.000000000000000000e+00,5.000000000000000000e+00,5.000000000000000000e+00,5.000000000000000000e+00,5.000000000000000000e+00,5.000000000000000000e+00,5.000000000000000000e+00,5.000000000000000000e+00,5.000000000000000000e+00,5.000000000000000000e+00,5.000000000000000000e+00,5.000000000000000000e+00,5.000000000000000000e+00,5.000000000000000000e+00,4.320559978485107422e+00,4.334020614624023438e+00,4.128333568572998047e+00,4.181835651397705078e+00,5.000000000000000000e+00,5.000000000000000000e+00,5.000000000000000000e+00,5.000000000000000000e+00,5.000000000000000000e+00,5.000000000000000000e+00,5.000000000000000000e+00,5.000000000000000000e+00,5.000000000000000000e+00,5.000000000000000000e+00,5.000000000000000000e+00,4.862348556518554688e+00,4.671376228332519531e+00,4.494838237762451172e+00,4.331157684326171875e+00,4.178978443145751953e+00,4.037130832672119141e+00,3.904596567153930664e+00,3.780487537384033203e+00,3.664025068283081055e+00,3.554523944854736328e+00,3.451377630233764648e+00,3.354048967361450195e+00,3.262058973312377930e+00,3.174980163574218750e+00,3.092429399490356445e+00,3.014062643051147461e+00,2.939569711685180664e+00,2.868669986724853516e+00,2.801110029220581055e+00,2.736658811569213867e+00,2.675107002258300781e+00,2.616263151168823242e+00,2.559952259063720703e+00,2.506014108657836914e+00,2.454302310943603516e+00,2.404681205749511719e+00,2.357027053833007812e+00,2.311224699020385742e+00,2.267168760299682617e+00,2.224760770797729492e+00,2.183910369873046875e+00,2.144532918930053711e+00,2.106550455093383789e+00,2.069889783859252930e+00,2.034483671188354492e+00,2.000268220901489258e+00,1.967184543609619141e+00,1.935177445411682129e+00,1.904195427894592285e+00,1.874189496040344238e+00,1.845114827156066895e+00
5.000000000000000000e+00,5.000000000000000000e+00,5.000000000000000000e+00,5.000000000000000000e+00,5.000000000000000000e+00,5.000000000000000000e+00,5.000000000000000000e+00,5.000000000000000000e+00,5.000000000000000000e+00,5.000000000000000000e+00,5.000000000000000000e+00,5.000000000000000000e+00,5.000000000000000000e+00,5.000000000000000000e+00,5.000000000000000000e+00,5.000000000000000000e+00,5.000000000000000000e+00,5.000000000000000000e+00,5.000000000000000000e+00,5.000000000000000000e+00,5.000000000000000000e+00,5.000000000000000000e+00,5.000000000000000000e+00,5.000000000000000000e+00,4.335286140441894531e+00,4.341093063354492188e+00,4.105796813964843750e+00,4.208698272705078125e+00,5.000000000000000000e+00,5.000000000000000000e+00,5.000000000000000000e+00,5.000000000000000000e+00,5.000000000000000000e+00,5.000000000000000000e+00,5.000000000000000000e+00,5.000000000000000000e+00,5.000000000000000000e+00,5.000000000000000000e+00,5.000000000000000000e+00,4.862486362457275391e+00,4.671503543853759766e+00,4.494956016540527344e+00,4.331266880035400391e+00,4.179080486297607422e+00,4.037226200103759766e+00,3.904685735702514648e+00,3.780570983886718750e+00,3.664103507995605469e+00,3.554597616195678711e+00,3.451447248458862305e+00,3.354114532470703125e+00,3.262121200561523438e+00,3.175038814544677734e+00,3.092485189437866211e+00,3.014115571975708008e+00,2.939620256423950195e+00,2.868718147277832031e+00,2.801155805587768555e+00,2.736702680587768555e+00,2.675148963928222656e+00,2.616303205490112305e+00,2.559990406036376953e+00,2.506050586700439453e+00,2.454337120056152344e+00,2.404714822769165039e+00,2.357059478759765625e+00,2.311255931854248047e+00,2.267198801040649414e+00,2.224789619445800781e+00,2.183938264846801758e+00,2.144559860229492188e+00,2.106576442718505859e+00,2.069914817810058594e+00,2.034507751464843750e+00,2.000291347503662109e+00,1.967207193374633789e+00,1.935199260711669922e+00,1.904216527938842773e+00,1.874210000038146973e+00,1.845134735107421875e+00
5.000000000000000000e+00,5.000000000000000000e+00,5.000000000000000000e+00,5.000000000000000000e+00,5.000000000000000000e+00,5.000000000000000000e+00,5.000000000000000000e+00,5.000000000000000000e+00,5.000000000000000000e+00,5.000000000000000000e+00,5.000000000000000000e+00,5.000000000000000000e+00,5.000000000000000000e+00,5.000000000000000000e+00,5.000000000000000000e+00,5.000000000000000000e+00,5.000000000000000000e+00,5.000000000000000000e+00,5.000000000000000000e+00,5.000000000000000000e+00,5.000000000000000000e+00,5.000000000000000000e+00,5.000000000000000000e+00,5.000000000000000000e+00,5.000000000000000000e+00,4.348415374755859375e+00,4.131577491760253906e+00,4.175985336303710938e+00,5.000000000000000000e+00,5.000000000000000000e+00,5.000000000000000000e+00,5.000000000000000000e+00,5.000000000000000000e+00,5.000000000000000000e+00,5.000000000000000000e+00,5.000000000000000000e+00,5.000000000000000000e+00,5.000000000000000000e+00,5.000000000000000000e+00,4.862624168395996094e+00,4.671630859375000000e+00,4.495074272155761719e+00,4.331376552581787109e+00,4.179182529449462891e+00,4.037321090698242188e+00,3.904774665832519531e+00,3.780654668807983398e+00,3.664181947708129883e+00,3.554671525955200195e+00,3.451516866683959961e+00,3.354180097579956055e+00,3.262182950973510742e+00,3.175097703933715820e+00,3.092540979385375977e+00,3.014168739318847656e+00,2.939670562744140625e+00,2.868766307830810547e+00,2.801201581954956055e+00,2.736746311187744141e+00,2.675190687179565430e+00,2.616343021392822266e+00,2.560028553009033203e+00,2.506087303161621094e+00,2.454372406005859375e+00,2.404748678207397461e+00,2.357091903686523438e+00,2.311287164688110352e+00,2.267228603363037109e+00,2.224818706512451172e+00,2.183966159820556641e+00,2.144586563110351562e+00,2.106602191925048828e+00,2.069939613342285156e+00,2.034531831741333008e+00,2.000314712524414062e+00,1.967229843139648438e+00,1.935221195220947266e+00,1.904237747192382812e+00,1.874230504035949707e+00,1.845154523849487305e+00
5.000000000000000000e+00,5.000000000000000000e+00,5.000000000000000000e+00,5.000000000000000000e+00,5.000000000000000000e+00,5.000000000000000000e+00,5.000000000000000000e+00,5.000000000000000000e+00,5.000000000000000000e+00,5.000000000000000000e+00,5.000000000000000000e+00,5.000000000000000000e+00,5.000000000000000000e+00,5.000000000000000000e+00,5.000000000000000000e+00,5.000000000000000000e+00,5.000000000000000000e+00,5.000000000000000000e+00,5.000000000000000000e+00,5.000000000000000000e+00,5.000000000000000000e+00,5.000000000000000000e+00,5.000000000000000000e+00,5.000000000000000000e+00,5.000000000000000000e+00,4.398426532745361328e+00,4.168191909790039062e+00,4.189091682434082031e+00,5.000000000000000000e+00,5.000000000000000000e+00,5.000000000000000000e+00,5.000000000000000000e+00,5.000000000000000000e+00,5.000000000000000000e+00,5.000000000000000000e+00,5.000000000000000000e+00,5.000000000000000000e+00,5.000000000000000000e+00,5.000000000000000000e+00,4.862762451171875000e+00,4.671758174896240234e+00,4.495192050933837891e+00,4.331486225128173828e+00,4.179284572601318359e+00,4.037416458129882812e+00,3.904863834381103516e+00,3.780738115310668945e+00,3.664260387420654297e+00,3.554745435714721680e+00,3.451586008071899414e+00,3.354245662689208984e+00,3.262245178222656250e+00,3.175156593322753906e+00,3.092597007751464844e+00,3.014221906661987305e+00,2.939721107482910156e+00,2.868814229965209961e+00,2.801247596740722656e+00,2.736790180206298828e+00,2.675232172012329102e+00,2.616382837295532227e+00,2.560066699981689453e+00,2.506124019622802734e+00,2.454407691955566406e+00,2.404782533645629883e+00,2.357124328613281250e+00,2.311318397521972656e+00,2.267258644104003906e+00,2.224847555160522461e+00,2.183994054794311523e+00,2.144613265991210938e+00,2.106628179550170898e+00,2.069964647293090820e+00,2.034555912017822266e+00,2.000338077545166016e+00,1.967252373695373535e+00,1.935243010520935059e+00,1.904258966445922852e+00,1.874251008033752441e+00,1.845174431800842285e+00
5.000000000000000000e+00,5.000000000000000000e+00,5.000000000000000000e+00,5.000000000000000000e+00,5.000000000000000000e+00,5.000000000000000000e+00,5.000000000000000000e+00,5.000000000000000000e+00,5.000000000000000000e+00,5.000000000000000000e+00,5.000000000000000000e+00,5.000000000000000000e+00,5.000000000000000000e+00,5.000000000000000000e+00,5.000000000000000000e+00,5.000000000000000000e+00,5.000000000000000000e+00,5.000000000000000000e+00,5.000000000000000000e+00,5.000000000000000000e+00,5.000000000000000000e+00,5.000000000000000000e+00,5.000000000000000000e+00,5.000000000000000000e+00,5.000000000000000000e+00,4.438824653625488281e+00,4.175841331481933594e+00,4.201018333435058594e+00,5.000000000000000000e+00,5.000000000000000000e+00,5.000000000000000000e+00,5.000000000000000000e+00,5.000000000000000000e+00,5.000000000000000000e+00,5.000000000000000000e+00,5.000000000000000000e+00,5.000000000000000000e+00,5.000000000000000000e+00,5.000000000000000000e+00,4.862900733947753906e+00,4.671885490417480469e+00,4.495310306549072266e+00,4.331595420837402344e+00,4.179386615753173828e+00,4.037511348724365234e+00,3.904952764511108398e+00,3.780821561813354492e+00,3.664338588714599609e+00,3.554818868637084961e+00,3.451655626296997070e+00,3.354311466217041016e+00,3.262307167053222656e+00,3.175215482711791992e+00,3.092652797698974609e+00,3.014274835586547852e+00,2.939771652221679688e+00,2.868862390518188477e+00,2.801293373107910156e+00,2.736833572387695312e+00,2.675274133682250977e+00,2.616422891616821289e+00,2.560105085372924805e+00,2.506160736083984375e+00,2.454442739486694336e+00,2.404816150665283203e+00,2.357156753540039062e+00,2.311349630355834961e+00,2.267288684844970703e+00,2.224876403808593750e+00,2.184021711349487305e+00,2.144640207290649414e+00,2.106653928756713867e+00,2.069989681243896484e+00,2.034580230712890625e+00,2.000361442565917969e+00,1.967275023460388184e+00,1.935264945030212402e+00,1.904280066490173340e+00,1.874271512031555176e+00,1.845194101333618164e+00
5.000000000000000000e+00,5.000000000000000000e+00,5.000000000000000000e+00,5.000000000000000000e+00,5.000000000000000000e+00,5.000000000000000000e+00,5.000000000000000000e+00,5.000000000000000000e+00,5.000000000000000000e+00,5.000000000000000000e+00,5.000000000000000000e+00,5.000000000000000000e+00,5.000000000000000000e+00,5.000000000000000000e+00,5.000000000000000000e+00,5.000000000000000000e+00,5.000000000000000000e+00,5.000000000000000000e+00,5.000000000000000000e+00,5.000000000000000000e+00,5.000000000000000000e+00,5.000000000000000000e+00,5.000000000000000000e+00,5.000000000000000000e+00,5.000000000000000000e+00,4.459947586059570312e+00,4.183997631072998047e+00,4.214335441589355469e+00,5.000000000000000000e+00,5.000000000000000000e+00,5.000000000000000000e+00,5.000000000000000000e+00,5.000000000000000000e+00,5.000000000000000000e+00,5.000000000000000000e+00,5.000000000000000000e+00,5.000000000000000000e+00,5.000000000000000000e+00,5.000000000000000000e+00,4.863039016723632812e+00,4.672013282775878906e+00,4.495427608489990234e+00,4.331705093383789062e+00,4.179488658905029297e+00,4.037606716156005859e+00,3.905041933059692383e+00,3.780904531478881836e+00,3.664417028427124023e+00,3.554892539978027344e+00,3.451725244522094727e+00,3.354377269744873047e+00,3.262369394302368164e+00,3.175274372100830078e+00,3.092708587646484375e+00,3.014328002929687500e+00,2.939822196960449219e+00,2.868910074234008789e+00,2.801338911056518555e+00,2.736877441406250000e+00,2.675315856933593750e+00,2.616462945938110352e+00,2.560143470764160156e+00,2.506197452545166016e+00,2.454478025436401367e+00,2.404850006103515625e+00,2.357189178466796875e+00,2.311380624771118164e+00,2.267318725585937500e+00,2.224905252456665039e+00,2.184049606323242188e+00,2.144667148590087891e+00,2.106679916381835938e+00,2.070014715194702148e+00,2.034604310989379883e+00,2.000385046005249023e+00,1.967297673225402832e+00,1.935286760330200195e+00,1.904301285743713379e+00,1.874292135238647461e+00,1.845214009284973145e+00
5.000000000000000000e+00,5.000000000000000000e+00,5.000000000000000000e+00,5.000000000000000000e+00,5.000000000000000000e+00,5.000000000000000000e+00,5.000000000000000000e+00,5.000000000000000000e+00,5.000000000000000000e+00,5.000000000000000000e+00,5.000000000000000000e+00,5.000000000000000000e+00,5.000000000000000000e+00,5.000000000000000000e+00,5.000000000000000000e+00,5.000000000000000000e+00,5.000000000000000000e+00,5.000000000000000000e+00,5.000000000000000000e+00,5.000000000000000000e+00,5.000000000000000000e+00,5.000000000000000000e+00,5.000000000000000000e+00,5.000000000000000000e+00,5.000000000000000000e+00,4.512351512908935547e+00,4.205308437347412109e+00,4.230174541473388672e+00,5.000000000000000000e+00,5.000000000000000000e+00,5.000000000000000000e+00,5.000000000000000000e+00,5.000000000000000000e+00,5.000000000000000000e+00,5.000000000000000000e+00,5.000000000000000000e+00,5.000000000000000000e+00,5.000000000000000000e+00,5.000000000000000000e+00,4.863177299499511719e+00,4.672140598297119141e+00,4.495545864105224609e+00,4.331814289093017578e+00,4.179590702056884766e+00,4.037701606750488281e+00,3.905130624771118164e+00,3.780988216400146484e+00,3.664495468139648438e+00,3.554966449737548828e+00,3.451794862747192383e+00,3.354442834854125977e+00,3.262431621551513672e+00,3.175333261489868164e+00,3.092764616012573242e+00,3.014380931854248047e+00,2.939872264862060547e+00,2.868958234786987305e+00,2.801384687423706055e+00,2.736921072006225586e+00,2.675357818603515625e+00,2.616502761840820312e+00,2.560181617736816406e+00,2.506234169006347656e+00,2.454513072967529297e+00,2.404883861541748047e+00,2.357221603393554688e+00,2.311411857604980469e+00,2.267348766326904297e+00,2.224934101104736328e+00,2.184077501296997070e+00,2.144694089889526367e+00,2.106705904006958008e+00,2.070039749145507812e+00,2.034628629684448242e+00,2.000408411026000977e+00,1.967320203781127930e+00,1.935308694839477539e+00,1.904322266578674316e+00,1.874312639236450195e+00,1.845233917236328125e+00
5.000000000000000000e+00,5.000000000000000000e+00,5.000000000000000000e+00,5.000000000000000000e+00,5.000000000000000000e+00,5.000000000000000000e+00,5.000000000000000000e+00,5.000000000000000000e+00,5.000000000000000000e+00,5.000000000000000000e+00,5.000000000000000000e+00,5.000000000000000000e+00,5.000000000000000000e+00,5.000000000000000000e+00,5.000000000000000000e+00,5.000000000000000000e+00,5.000000000000000000e+00,5.000000000000000000e+00,5.000000000000000000e+00,5.000000000000000000e+00,5.000000000000000000e+00,5.000000000000000000e+00,5.000000000000000000e+00,5.000000000000000000e+00,5.000000000000000000e+00,5.000000000000000000e+00,4.586132049560546875e+00,5.000000000000000000e+00,5.000000000000000000e+00,5.000000000000000000e+00,5.000000000000000000e+00,5.000000000000000000e+00,5.000000000000000000e+00,5.000000000000000000e+00,5.000000000000000000e+00,5.000000000000000000e+00,5.000000000000000000e+00,5.000000000000000000e+00,5.000000000000000000e+00,4.863315582275390625e+00,4.672268867492675781e+00,4.495664119720458984e+00,4.331923961639404297e+00,4.179692268371582031e+00,4.037796974182128906e+00,3.905219554901123047e+00,3.781071662902832031e+00,3.664573907852172852e+00,3.555040121078491211e+00,3.451864480972290039e+00,3.354508638381958008e+00,3.262493848800659180e+00,3.175392150878906250e+00,3.092820167541503906e+00,3.014433860778808594e+00,2.939922809600830078e+00,2.869006395339965820e+00,2.801430702209472656e+00,2.736964941024780273e+00,2.675399541854858398e+00,2.616542816162109375e+00,2.560220003128051758e+00,2.506270885467529297e+00,2.454548358917236328e+00,2.404917478561401367e+00,2.357254028320312500e+00,2.311443090438842773e+00,2.267378807067871094e+00,2.224962949752807617e+00,2.184105157852172852e+00,2.144720792770385742e+00,2.106731653213500977e+00,2.070064783096313477e+00,2.034652709960937500e+00,2.000431776046752930e+00,1.967342615127563477e+00,1.935330510139465332e+00,1.904343485832214355e+00,1.874333143234252930e+00,1.845253825187683105e+00
4.875919342041015625e+00,4.874708652496337891e+00,4.873498439788818359e+00,4.872288703918457031e+00,4.871079444885253906e+00,4.869870662689208984e+00,4.868662834167480469e+00,4.867455482482910156e+00,4.866248607635498047e+00,4.865042686462402344e+00,4.863836765289306641e+00,4.862631797790527344e+00,4.861427783966064453e+00,4.860223770141601562e+00,4.859020709991455078e+00,4.857818126678466797e+00,4.856616020202636719e+00,4.855414867401123047e+00,4.854214191436767578e+00,4.853013992309570312e+00,4.851814270019531250e+00,4.850615501403808594e+00,4.849417209625244141e+00,4.848219394683837891e+00,4.847022056579589844e+00,4.488570213317871094e+00,4.133847713470458984e+00,4.101183414459228516e+00,4.842238426208496094e+00,4.841044425964355469e+00,4.839850425720214844e+00,4.838657379150390625e+00,4.837464809417724609e+00,4.836273193359375000e+00,4.835081577301025391e+00,4.833890914916992188e+00,4.832700729370117188e+00,4.831511020660400391e+00,4.830322265625000000e+00,4.829133987426757812e+00,4.672396659851074219e+00,4.495782375335693359e+00,4.332033634185791016e+00,4.179794311523437500e+00,4.037892341613769531e+00,3.905308723449707031e+00,3.781155109405517578e+00,3.664652347564697266e+00,3.555114030838012695e+00,3.451934099197387695e+00,3.354574441909790039e+00,3.262556076049804688e+00,3.175450801849365234e+00,3.092875957489013672e+00,3.014487028121948242e+00,2.939973354339599609e+00,2.869054317474365234e+00,2.801476478576660156e+00,2.737008571624755859e+00,2.675441265106201172e+00,2.616582870483398438e+00,2.560258150100708008e+00,2.506307363510131836e+00,2.454583406448364258e+00,2.404951095581054688e+00,2.357286453247070312e+00,2.311474323272705078e+00,2.267408847808837891e+00,2.224992036819458008e+00,2.184133052825927734e+00,2.144747734069824219e+00,2.106757640838623047e+00,2.070089817047119141e+00,2.034676790237426758e+00,2.000454902648925781e+00,1.967365145683288574e+00,1.935352444648742676e+00,1.904364585876464844e+00,1.874353647232055664e+00,1.845273733139038086e+00
3.778755664825439453e+00,3.778028011322021484e+00,3.777301311492919922e+00,3.776574373245239258e+00,3.775847911834716797e+00,3.775121450424194336e+00,3.774395704269409180e+00,3.773669958114624023e+00,3.772944688796997070e+00,3.772219419479370117e+00,3.771494865417480469e+00,3.770770072937011719e+00,3.770045995712280273e+00,3.769321918487548828e+00,3.768598318099975586e+00,3.767874717712402344e+00,3.767151832580566406e+00,3.766428709030151367e+00,3.765706300735473633e+00,3.764983892440795898e+00,3.764261960983276367e+00,3.763540029525756836e+00,3.762818813323974609e+00,3.762097358703613281e+00,3.761376619338989258e+00,3.760655641555786133e+00,3.759935617446899414e+00,3.759215116500854492e+00,3.758495569229125977e+00,3.757775783538818359e+00,3.757056713104248047e+00,3.756337642669677734e+00,3.755619049072265625e+00,3.754900455474853516e+00,3.754182338714599609e+00,3.753464221954345703e+00,3.752746820449829102e+00,3.752029180526733398e+00,3.751312494277954102e+00,3.750595331192016602e+00,3.749879121780395508e+00,3.749162673950195312e+00,3.748446702957153320e+00,3.747730970382690430e+00,3.747015714645385742e+00,3.746300220489501953e+00,3.745585680007934570e+00,3.664730787277221680e+00,3.555187940597534180e+00,3.452003717422485352e+00,3.354639768600463867e+00,3.262617826461791992e+00,3.175509691238403320e+00,3.092931747436523438e+00,3.014539957046508789e+00,2.940023660659790039e+00,2.869102478027343750e+00,2.801522254943847656e+00,2.737052440643310547e+00,2.675483226776123047e+00,2.616622924804687500e+00,2.560296297073364258e+00,2.506344079971313477e+00,2.454618453979492188e+00,2.404984951019287109e+00,2.357318878173828125e+00,2.311505317687988281e+00,2.267438888549804688e+00,2.225020885467529297e+00,2.184160947799682617e+00,2.144774675369262695e+00,2.106783628463745117e+00,2.070114850997924805e+00,2.034700870513916016e+00,2.000478267669677734e+00,1.967387795448303223e+00,1.935374259948730469e+00,1.904385805130004883e+00,1.874374151229858398e+00,1.845293641090393066e+00
3.084656000137329102e+00,3.084171533584594727e+00,3.083686828613281250e+00,3.083202600479125977e+00,3.082718133926391602e+00,3.082234382629394531e+00,3.081750154495239258e+00,3.081266641616821289e+00,3.080782890319824219e+00,3.080299615859985352e+00,3.079816102981567383e+00,3.079333066940307617e+00,3.078849792480468750e+00,3.078367233276367188e+00,3.077884197235107422e+00,3.077401876449584961e+00,3.076919317245483398e+00,3.076437234878540039e+00,3.075954914093017578e+00,3.075473070144653320e+00,3.074991226196289062e+00,3.074509620666503906e+00,3.074028015136718750e+00,3.073546648025512695e+00,3.073065280914306641e+00,3.072584390640258789e+00,3.072103500366210938e+00,3.071622848510742188e+00,3.071141958236694336e+00,3.070661544799804688e+00,3.070181369781494141e+00,3.069700956344604492e+00,3.069221019744873047e+00,3.068741083145141602e+00,3.068261623382568359e+00,3.067781925201416016e+00,3.067302703857421875e+00,3.066823244094848633e+00,3.066344261169433594e+00,3.065865278244018555e+00,3.065386533737182617e+00,3.064907789230346680e+00,3.064429521560668945e+00,3.063951015472412109e+00,3.063472986221313477e+00,3.062994718551635742e+00,3.062516927719116211e+00,3.062038898468017578e+00,3.061561584472656250e+00,3.061084032058715820e+00,3.060606718063354492e+00,3.060129404067993164e+00,3.059652566909790039e+00,3.059175491333007812e+00,3.014593124389648438e+00,2.940074205398559570e+00,2.869150638580322266e+00,2.801568269729614258e+00,2.737096071243286133e+00,2.675524711608886719e+00,2.616662502288818359e+00,2.560334682464599609e+00,2.506380796432495117e+00,2.454653739929199219e+00,2.405018806457519531e+00,2.357351303100585938e+00,2.311536550521850586e+00,2.267468690872192383e+00,2.225049734115600586e+00,2.184188842773437500e+00,2.144801378250122070e+00,2.106809377670288086e+00,2.070139884948730469e+00,2.034725189208984375e+00,2.000501632690429688e+00,1.967410445213317871e+00,1.935396194458007812e+00,1.904407024383544922e+00,1.874394655227661133e+00,1.845313429832458496e+00
2.605977773666381836e+00,2.605632066726684570e+00,2.605286121368408203e+00,2.604940414428710938e+00,2.604594707489013672e+00,2.604249000549316406e+00,2.603903532028198242e+00,2.603558301925659180e+00,2.603212833404541016e+00,2.602867841720581055e+00,2.602522611618041992e+00,2.602177619934082031e+00,2.601832628250122070e+00,2.601487874984741211e+00,2.601142883300781250e+00,2.600798368453979492e+00,2.600453615188598633e+00,2.600109338760375977e+00,2.599764823913574219e+00,2.599420785903930664e+00,2.599076271057128906e+00,2.598732233047485352e+00,2.598388195037841797e+00,2.598044395446777344e+00,2.597700357437133789e+00,2.597356796264648438e+00,2.597012996673583984e+00,2.596669673919677734e+00,2.596326112747192383e+00,2.595982789993286133e+00,2.595639228820800781e+00,2.595296144485473633e+00,2.594953060150146484e+00,2.594609975814819336e+00,2.594267129898071289e+00,2.593924283981323242e+00,2.593581438064575195e+00,2.593238830566406250e+00,2.592896223068237305e+00,2.592553853988647461e+00,2.592211246490478516e+00,2.591869115829467773e+00,2.591526746749877930e+00,2.591184854507446289e+00,2.590842723846435547e+00,2.590500831604003906e+00,2.590158939361572266e+00,2.589817285537719727e+00,2.589475631713867188e+00,2.589133977890014648e+00,2.588792562484741211e+00,2.588451147079467773e+00,2.588109731674194336e+00,2.587768554687500000e+00,2.587427377700805664e+00,2.587086439132690430e+00,2.586745500564575195e+00,2.586404800415039062e+00,2.586063861846923828e+00,2.585723400115966797e+00,2.585382699966430664e+00,2.560372829437255859e+00,2.506417512893676758e+00,2.454689025878906250e+00,2.405052423477172852e+00,2.357383728027343750e+00,2.311567783355712891e+00,2.267498731613159180e+00,2.225078821182250977e+00,2.184216499328613281e+00,2.144828081130981445e+00,2.106835365295410156e+00,2.070164918899536133e+00,2.034749269485473633e+00,2.000524997711181641e+00,1.967432975769042969e+00,1.935418128967285156e+00,1.904428124427795410e+00,1.874415159225463867e+00,1.845333337783813477e+00
2.255897521972656250e+00,2.255638599395751953e+00,2.255379915237426758e+00,2.255120992660522461e+00,2.254862308502197266e+00,2.254603624343872070e+00,2.254345178604125977e+00,2.254086494445800781e+00,2.253828048706054688e+00,2.253569841384887695e+00,2.253311395645141602e+00,2.253053188323974609e+00,2.252794742584228516e+00,2.252536773681640625e+00,2.252278566360473633e+00,2.252020597457885742e+00,2.251762628555297852e+00,2.251504659652709961e+00,2.251246690750122070e+00,2.250988960266113281e+00,2.250730991363525391e+00,2.250473499298095703e+00,2.250215768814086914e+00,2.249958038330078125e+00,2.249700069427490234e+00,2.249442338943481445e+00,2.249184608459472656e+00,2.248926877975463867e+00,2.248669147491455078e+00,2.248411655426025391e+00,2.248153924942016602e+00,2.247896671295166016e+00,2.247639179229736328e+00,2.247381925582885742e+00,2.247124433517456055e+00,2.246867179870605469e+00,2.246610164642333984e+00,2.246352910995483398e+00,2.246095895767211914e+00,2.245838880538940430e+00,2.245581865310668945e+00,2.245325088500976562e+00,2.245068311691284180e+00,2.244811534881591797e+00,2.244554758071899414e+00,2.244298219680786133e+00,2.244041442871093750e+00,2.243785142898559570e+00,2.243528604507446289e+00,2.243272304534912109e+00,2.243015766143798828e+00,2.242759466171264648e+00,2.242503166198730469e+00,2.242247104644775391e+00,2.241991043090820312e+00,2.241734981536865234e+00,2.241478919982910156e+00,2.241223096847534180e+00,2.240967035293579102e+00,2.240711212158203125e+00,2.240455389022827148e+00,2.240199804306030273e+00,2.239944219589233398e+00,2.239688634872436523e+00,2.239433050155639648e+00,2.239177703857421875e+00,2.238922119140625000e+00,2.238666772842407227e+00,2.225107431411743164e+00,2.184244394302368164e+00,2.144855022430419922e+00,2.106861352920532227e+00,2.070189952850341797e+00,2.034773588180541992e+00,2.000548362731933594e+00,1.967455625534057617e+00,1.935439944267272949e+00,1.904449343681335449e+00,1.874435544013977051e+00,1.845353245735168457e+00
1.988719701766967773e+00,1.988518476486206055e+00,1.988317489624023438e+00,1.988116264343261719e+00,1.987915277481079102e+00,1.987714171409606934e+00,1.987513303756713867e+00,1.987312197685241699e+00,1.987111449241638184e+00,1.986910462379455566e+00,1.986709594726562500e+00,1.986508846282958984e+00,1.986308097839355469e+00,1.986107468605041504e+00,1.985906720161437988e+00,1.985706210136413574e+00,1.985505580902099609e+00,1.985305190086364746e+00,1.985104560852050781e+00,1.984903931617736816e+00,1.984703660011291504e+00,1.984503269195556641e+00,1.984302997589111328e+00,1.984102606773376465e+00,1.983902454376220703e+00,1.983702063560485840e+00,1.983502030372619629e+00,1.983301758766174316e+00,1.983101606369018555e+00,1.982901692390441895e+00,1.982701539993286133e+00,1.982501745223999023e+00,1.982301712036132812e+00,1.982101917266845703e+00,1.981902003288269043e+00,1.981702327728271484e+00,1.981502413749694824e+00,1.981302499771118164e+00,1.981102943420410156e+00,1.980903267860412598e+00,1.980703711509704590e+00,1.980504035949707031e+00,1.980304598808288574e+00,1.980105042457580566e+00,1.979905486106872559e+00,1.979706168174743652e+00,1.979506731033325195e+00,1.979307532310485840e+00,1.979108095169067383e+00,1.978909015655517578e+00,1.978709697723388672e+00,1.978510618209838867e+00,1.978311419486999512e+00,1.978112220764160156e+00,1.977913260459899902e+00,1.977714180946350098e+00,1.977515339851379395e+00,1.977316260337829590e+00,1.977117419242858887e+00,1.976918578147888184e+00,1.976719856262207031e+00,1.976521015167236328e+00,1.976322174072265625e+00,1.976123571395874023e+00,1.975924849510192871e+00,1.975726366043090820e+00,1.975527644157409668e+00,1.975329279899597168e+00,1.975130677223205566e+00,1.974932312965393066e+00,1.974733829498291016e+00,1.974535346031188965e+00,1.974337100982666016e+00,1.974138736724853516e+00,1.973940610885620117e+00,1.967478275299072266e+00,1.935461640357971191e+00,1.904470562934875488e+00,1.874456048011779785e+00,1.845373153686523438e+00
1.778126955032348633e+00,1.777966022491455078e+00,1.777805328369140625e+00,1.777644395828247070e+00,1.777483820915222168e+00,1.777323007583618164e+00,1.777162313461303711e+00,1.777001619338989258e+00,1.776840925216674805e+00,1.776680350303649902e+00,1.776519775390625000e+00,1.776359319686889648e+00,1.776198744773864746e+00,1.776038289070129395e+00,1.775877714157104492e+00,1.775717377662658691e+00,1.775556921958923340e+00,1.775396466255187988e+00,1.775236248970031738e+00,1.775075793266296387e+00,1.774915695190429688e+00,1.774755358695983887e+00,1.774595141410827637e+00,1.774434924125671387e+00,1.774274826049804688e+00,1.774114608764648438e+00,1.773954391479492188e+00,1.773794412612915039e+00,1.773634314537048340e+00,1.773474335670471191e+00,1.773314237594604492e+00,1.773154377937316895e+00,1.772994399070739746e+00,1.772834539413452148e+00,1.772674560546875000e+00,1.772514581680297852e+00,1.772354960441589355e+00,1.772194981575012207e+00,1.772035360336303711e+00,1.771875500679016113e+00,1.771715879440307617e+00,1.771556138992309570e+00,1.771396398544311523e+00,1.771236896514892578e+00,1.771077156066894531e+00,1.770917773246765137e+00,1.770758152008056641e+00,1.770598649978637695e+00,1.770439147949218750e+00,1.770279765129089355e+00,1.770120263099670410e+00,1.769960761070251465e+00,1.769801497459411621e+00,1.769642114639282227e+00,1.769482851028442383e+00,1.769323468208312988e+00,1.769164323806762695e+00,1.769005060195922852e+00,1.768845915794372559e+00,1.768686652183532715e+00,1.768527507781982422e+00,1.768368482589721680e+00,1.768209338188171387e+00,1.768050312995910645e+00,1.767891287803649902e+00,1.767732381820678711e+00,1.767573356628417969e+00,1.767414450645446777e+00,1.767255425453186035e+00,1.767096519470214844e+00,1.766937732696533203e+00,1.766778826713562012e+00,1.766620159149169922e+00,1.766461372375488281e+00,1.766302704811096191e+00,1.766143918037414551e+00,1.765985369682312012e+00,1.765826582908630371e+00,1.765667915344238281e+00,1.765509486198425293e+00
1.607864260673522949e+00,1.607732653617858887e+00,1.607601284980773926e+00,1.607469677925109863e+00,1.607338309288024902e+00,1.607206821441650391e+00,1.607075333595275879e+00,1.606944084167480469e+00,1.606812715530395508e+00,1.606681346893310547e+00,1.606549978256225586e+00,1.606418848037719727e+00,1.606287479400634766e+00,1.606156229972839355e+00,1.606024980545043945e+00,1.605893731117248535e+00,1.605762600898742676e+00,1.605631351470947266e+00,1.605500221252441406e+00,1.605369091033935547e+00,1.605238080024719238e+00,1.605106949806213379e+00,1.604975938796997070e+00,1.604844808578491211e+00,1.604713678359985352e+00,1.604582786560058594e+00,1.604451775550842285e+00,1.604320883750915527e+00,1.604189872741699219e+00,1.604059100151062012e+00,1.603928089141845703e+00,1.603797197341918945e+00,1.603666424751281738e+00,1.603535532951354980e+00,1.603404760360717773e+00,1.603273868560791016e+00,1.603143215179443359e+00,1.603012442588806152e+00,1.602881789207458496e+00,1.602751016616821289e+00,1.602620244026184082e+00,1.602489709854125977e+00,1.602358937263488770e+00,1.602228522300720215e+00,1.602097749710083008e+00,1.601967334747314453e+00,1.601836681365966797e+00,1.601706266403198242e+00,1.601575732231140137e+00,1.601445078849792480e+00,1.601314783096313477e+00,1.601184248924255371e+00,1.601053833961486816e+00,1.600923418998718262e+00,1.600793123245239258e+00,1.600662708282470703e+00,1.600532412528991699e+00,1.600402116775512695e+00,1.600271701812744141e+00,1.600141525268554688e+00,1.600011229515075684e+00,1.599880933761596680e+00,1.599750757217407227e+00,1.599620580673217773e+00,1.599490404129028320e+00,1.599360346794128418e+00,1.599230170249938965e+00,1.599099993705749512e+00,1.598969936370849609e+00,1.598839759826660156e+00,1.598709821701049805e+00,1.598579764366149902e+00,1.598449826240539551e+00,1.598319768905639648e+00,1.598189830780029297e+00,1.598059892654418945e+00,1.597929954528808594e+00,1.597800135612487793e+00,1.597670197486877441e+00,1.597540378570556641e+00
1.467358827590942383e+00,1.467249274253845215e+00,1.467139840126037598e+00,1.467030286788940430e+00,1.466920733451843262e+00,1.466811299324035645e+00,1.466701865196228027e+00,1.466592431068420410e+00,1.466482996940612793e+00,1.466373682022094727e+00,1.466264128684997559e+00,1.466154932975769043e+00,1.466045498847961426e+00,1.465936064720153809e+00,1.465826869010925293e+00,1.465717434883117676e+00,1.465608239173889160e+00,1.465498924255371094e+00,1.465389728546142578e+00,1.465280413627624512e+00,1.465171098709106445e+00,1.465062022209167480e+00,1.464952707290649414e+00,1.464843630790710449e+00,1.464734435081481934e+00,1.464625358581542969e+00,1.464516162872314453e+00,1.464407086372375488e+00,1.464298009872436523e+00,1.464188814163208008e+00,1.464079856872558594e+00,1.463970780372619629e+00,1.463861823081970215e+00,1.463752746582031250e+00,1.463643789291381836e+00,1.463534712791442871e+00,1.463425874710083008e+00,1.463316798210144043e+00,1.463207840919494629e+00,1.463099002838134766e+00,1.462990045547485352e+00,1.462881207466125488e+00,1.462772369384765625e+00,1.462663531303405762e+00,1.462554693222045898e+00,1.462445855140686035e+00,1.462337017059326172e+00,1.462228178977966309e+00,1.462119460105895996e+00,1.462010741233825684e+00,1.461902022361755371e+00,1.461793303489685059e+00,1.461684584617614746e+00,1.461575865745544434e+00,1.461467266082763672e+00,1.461358547210693359e+00,1.461249828338623047e+00,1.461141347885131836e+00,1.461032629013061523e+00,1.460924148559570312e+00,1.460815548896789551e+00,1.460707068443298340e+00,1.460598468780517578e+00,1.460489988327026367e+00,1.460381388664245605e+00,1.460272789001464844e+00,1.460164427757263184e+00,1.460055947303771973e+00,1.459947586059570312e+00,1.459838986396789551e+00,1.459730744361877441e+00,1.459622263908386230e+00,1.459513783454895020e+00,1.459405541419982910e+00,1.459297060966491699e+00,1.459188818931579590e+00,1.459080457687377930e+00,1.458972215652465820e+00,1.458863854408264160e+00,1.458755731582641602e+00
1.349436521530151367e+00,1.349343776702880859e+00,1.349251151084899902e+00,1.349158525466918945e+00,1.349065899848937988e+00,1.348973393440246582e+00,1.348880767822265625e+00,1.348788261413574219e+00,1.348695635795593262e+00,1.348603248596191406e+00,1.348510622978210449e+00,1.348418116569519043e+00,1.348325610160827637e+00,1.348233103752136230e+00,1.348140716552734375e+00,1.348048210144042969e+00,1.347955822944641113e+00,1.347863316535949707e+00,1.347770810127258301e+00,1.347678542137145996e+00,1.347586035728454590e+00,1.347493767738342285e+00,1.347401261329650879e+00,1.347309112548828125e+00,1.347216606140136719e+00,1.347124338150024414e+00,1.347032070159912109e+00,1.346939682960510254e+00,1.346847414970397949e+00,1.346755146980285645e+00,1.346662878990173340e+00,1.346570611000061035e+00,1.346478462219238281e+00,1.346386075019836426e+00,1.346293926239013672e+00,1.346201658248901367e+00,1.346109509468078613e+00,1.346017360687255859e+00,1.345925092697143555e+00,1.345833063125610352e+00,1.345740795135498047e+00,1.345648765563964844e+00,1.345556616783142090e+00,1.345464587211608887e+00,1.345372438430786133e+00,1.345280289649963379e+00,1.345188260078430176e+00,1.345096230506896973e+00,1.345004200935363770e+00,1.344912171363830566e+00,1.344820141792297363e+00,1.344728112220764160e+00,1.344636201858520508e+00,1.344544172286987305e+00,1.344452142715454102e+00,1.344360232353210449e+00,1.344268202781677246e+00,1.344176411628723145e+00,1.344084382057189941e+00,1.343992590904235840e+00,1.343900561332702637e+00,1.343808770179748535e+00,1.343716859817504883e+00,1.343624949455261230e+00,1.343533158302307129e+00,1.343441367149353027e+00,1.343349575996398926e+00,1.343257665634155273e+00,1.343165993690490723e+00,1.343074202537536621e+00,1.342982292175292969e+00,1.342890620231628418e+00,1.342798829078674316e+00,1.342707157135009766e+00,1.342615365982055664e+00,1.342523813247680664e+00,1.342432022094726562e+00,1.342340469360351562e+00,1.342248678207397461e+00,1.342157006263732910e+00
1.249057531356811523e+00,1.248978257179260254e+00,1.248898744583129883e+00,1.248819470405578613e+00,1.248740196228027344e+00,1.248660922050476074e+00,1.248581528663635254e+00,1.248502254486083984e+00,1.248422980308532715e+00,1.248343586921691895e+00,1.248264312744140625e+00,1.248185038566589355e+00,1.248105883598327637e+00,1.248026609420776367e+00,1.247947335243225098e+00,1.247868061065673828e+00,1.247788906097412109e+00,1.247709751129150391e+00,1.247630476951599121e+00,1.247551321983337402e+00,1.247472047805786133e+00,1.247393012046813965e+00,1.247313737869262695e+00,1.247234702110290527e+00,1.247155547142028809e+00,1.247076392173767090e+00,1.246997237205505371e+00,1.246918082237243652e+00,1.246839046478271484e+00,1.246759891510009766e+00,1.246680974960327148e+00,1.246601819992065430e+00,1.246522784233093262e+00,1.246443748474121094e+00,1.246364593505859375e+00,1.246285676956176758e+00,1.246206641197204590e+00,1.246127605438232422e+00,1.246048569679260254e+00,1.245969653129577637e+00,1.245890617370605469e+00,1.245811700820922852e+00,1.245732784271240234e+00,1.245653748512268066e+00,1.245574831962585449e+00,1.245495915412902832e+00,1.245416998863220215e+00,1.245338082313537598e+00,1.245259284973144531e+00,1.245180368423461914e+00,1.245101451873779297e+00,1.245022535324096680e+00,1.244943737983703613e+00,1.244864940643310547e+00,1.244786024093627930e+00,1.244707226753234863e+00,1.244628429412841797e+00,1.244549632072448730e+00,1.244470834732055664e+00,1.244392037391662598e+00,1.244313240051269531e+00,1.244234442710876465e+00,1.244155764579772949e+00,1.244076967239379883e+00,1.243998289108276367e+00,1.243919491767883301e+00,1.243840813636779785e+00,1.243762016296386719e+00,1.243683338165283203e+00,1.243604660034179688e+00,1.243525981903076172e+00,1.243447422981262207e+00,1.243368625640869141e+00,1.243290066719055176e+00,1.243211388587951660e+00,1.243132829666137695e+00,1.243054151535034180e+00,1.242975473403930664e+00,1.242896914482116699e+00,1.242818355560302734e+00
1.162578344345092773e+00,1.162509560585021973e+00,1.162440776824951172e+00,1.162372112274169922e+00,1.162303328514099121e+00,1.162234544754028320e+00,1.162165880203247070e+00,1.162097096443176270e+00,1.162028551101684570e+00,1.161959767341613770e+00,1.161891102790832520e+00,1.161822438240051270e+00,1.161753773689270020e+00,1.161685109138488770e+00,1.161616444587707520e+00,1.161547780036926270e+00,1.161479115486145020e+00,1.161410570144653320e+00,1.161341905593872070e+00,1.161273360252380371e+00,1.161204695701599121e+00,1.161136150360107422e+00,1.161067485809326172e+00,1.160998821258544922e+00,1.160930395126342773e+00,1.160861730575561523e+00,1.160793185234069824e+00,1.160724639892578125e+00,1.160656213760375977e+00,1.160587549209594727e+00,1.160519123077392578e+00,1.160450577735900879e+00,1.160382032394409180e+00,1.160313606262207031e+00,1.160245060920715332e+00,1.160176634788513184e+00,1.160108089447021484e+00,1.160039663314819336e+00,1.159971117973327637e+00,1.159902691841125488e+00,1.159834265708923340e+00,1.159765839576721191e+00,1.159697413444519043e+00,1.159628987312316895e+00,1.159560561180114746e+00,1.159492135047912598e+00,1.159423828125000000e+00,1.159355401992797852e+00,1.159286975860595703e+00,1.159218668937683105e+00,1.159150242805480957e+00,1.159081935882568359e+00,1.159013509750366211e+00,1.158945202827453613e+00,1.158876895904541016e+00,1.158808588981628418e+00,1.158740282058715820e+00,1.158671855926513672e+00,1.158603668212890625e+00,1.158535361289978027e+00,1.158467054367065430e+00,1.158398747444152832e+00,1.158330559730529785e+00,1.158262252807617188e+00,1.158194065093994141e+00,1.158125758171081543e+00,1.158057570457458496e+00,1.157989382743835449e+00,1.157921075820922852e+00,1.157852888107299805e+00,1.157784700393676758e+00,1.157716512680053711e+00,1.157648324966430664e+00,1.157580256462097168e+00,1.157511949539184570e+00,1.157443761825561523e+00,1.157375693321228027e+00,1.157307505607604980e+00,1.157239437103271484e+00,1.157171249389648438e+00
1.087298512458801270e+00,1.087238430976867676e+00,1.087178230285644531e+00,1.087118029594421387e+00,1.087057948112487793e+00,1.086997866630554199e+00,1.086937785148620605e+00,1.086877584457397461e+00,1.086817622184753418e+00,1.086757421493530273e+00,1.086697459220886230e+00,1.086637258529663086e+00,1.086577177047729492e+00,1.086517214775085449e+00,1.086457133293151855e+00,1.086397051811218262e+00,1.086336970329284668e+00,1.086277008056640625e+00,1.086216926574707031e+00,1.086156964302062988e+00,1.086096882820129395e+00,1.086036920547485352e+00,1.085976958274841309e+00,1.085916876792907715e+00,1.085856914520263672e+00,1.085796952247619629e+00,1.085736989974975586e+00,1.085677027702331543e+00,1.085617065429687500e+00,1.085557103157043457e+00,1.085497140884399414e+00,1.085437178611755371e+00,1.085377216339111328e+00,1.085317373275756836e+00,1.085257411003112793e+00,1.085197448730468750e+00,1.085137605667114258e+00,1.085077643394470215e+00,1.085017800331115723e+00,1.084957838058471680e+00,1.084897994995117188e+00,1.084838151931762695e+00,1.084778308868408203e+00,1.084718346595764160e+00,1.084658503532409668e+00,1.084598660469055176e+00,1.084538817405700684e+00,1.084478974342346191e+00,1.084419131278991699e+00,1.084359288215637207e+00,1.084299445152282715e+00,1.084239721298217773e+00,1.084179878234863281e+00,1.084120154380798340e+00,1.084060311317443848e+00,1.084000468254089355e+00,1.083940744400024414e+00,1.083880901336669922e+00,1.083821177482604980e+00,1.083761453628540039e+00,1.083701729774475098e+00,1.083641886711120605e+00,1.083582282066345215e+00,1.083522439002990723e+00,1.083462715148925781e+00,1.083402991294860840e+00,1.083343267440795898e+00,1.083283662796020508e+00,1.083223938941955566e+00,1.083164215087890625e+00,1.083104491233825684e+00,1.083044886589050293e+00,1.082985162734985352e+00,1.082925438880920410e+00,1.082865834236145020e+00,1.082806110382080078e+00,1.082746505737304688e+00,1.082686901092529297e+00,1.082627296447753906e+00,1.082567572593688965e+00
1.021174907684326172e+00,1.021121859550476074e+00,1.021068811416625977e+00,1.021015763282775879e+00,1.020962834358215332e+00,1.020909786224365234e+00,1.020856738090515137e+00,1.020803689956665039e+00,1.020750761032104492e+00,1.020697712898254395e+00,1.020644664764404297e+00,1.020591735839843750e+00,1.020538687705993652e+00,1.020485758781433105e+00,1.020432710647583008e+00,1.020379781723022461e+00,1.020326733589172363e+00,1.020273804664611816e+00,1.020220875740051270e+00,1.020167946815490723e+00,1.020115017890930176e+00,1.020061969757080078e+00,1.020009160041809082e+00,1.019956111907958984e+00,1.019903302192687988e+00,1.019850373268127441e+00,1.019797444343566895e+00,1.019744515419006348e+00,1.019691586494445801e+00,1.019638776779174805e+00,1.019585847854614258e+00,1.019532918930053711e+00,1.019480109214782715e+00,1.019427180290222168e+00,1.019374370574951172e+00,1.019321441650390625e+00,1.019268631935119629e+00,1.019215703010559082e+00,1.019162893295288086e+00,1.019110083580017090e+00,1.019057273864746094e+00,1.019004344940185547e+00,1.018951535224914551e+00,1.018898725509643555e+00,1.018845915794372559e+00,1.018793106079101562e+00,1.018740296363830566e+00,1.018687486648559570e+00,1.018634676933288574e+00,1.018581986427307129e+00,1.018529176712036133e+00,1.018476366996765137e+00,1.018423557281494141e+00,1.018370866775512695e+00,1.018318057060241699e+00,1.018265366554260254e+00,1.018212556838989258e+00,1.018159866333007812e+00,1.018107175827026367e+00,1.018054366111755371e+00,1.018001675605773926e+00,1.017948985099792480e+00,1.017896175384521484e+00,1.017843484878540039e+00,1.017790794372558594e+00,1.017738103866577148e+00,1.017685413360595703e+00,1.017632722854614258e+00,1.017580032348632812e+00,1.017527341842651367e+00,1.017474651336669922e+00,1.017421960830688477e+00,1.017369389533996582e+00,1.017316699028015137e+00,1.017264008522033691e+00,1.017211437225341797e+00,1.017158746719360352e+00,1.017106175422668457e+00,1.017053484916687012e+00,1.017000913619995117e+00
9.626328945159912109e-01,9.625856876373291016e-01,9.625386595726013184e-01,9.624915122985839844e-01,9.624443650245666504e-01,9.623971581459045410e-01,9.623501300811767578e-01,9.623029828071594238e-01,9.622558951377868652e-01,9.622087478637695312e-01,9.621616005897521973e-01,9.621146321296691895e-01,9.620674848556518555e-01,9.620203971862792969e-01,9.619733095169067383e-01,9.619262814521789551e-01,9.618791937828063965e-01,9.618321061134338379e-01,9.617850184440612793e-01,9.617379307746887207e-01,9.616909623146057129e-01,9.616438746452331543e-01,9.615968465805053711e-01,9.615497589111328125e-01,9.615027904510498047e-01,9.614557623863220215e-01,9.614086747169494629e-01,9.613616466522216797e-01,9.613146185874938965e-01,9.612677097320556641e-01,9.612206220626831055e-01,9.611735939979553223e-01,9.611266255378723145e-01,9.610796570777893066e-01,9.610326886177062988e-01,9.609856605529785156e-01,9.609386324882507324e-01,9.608916640281677246e-01,9.608447551727294922e-01,9.607977867126464844e-01,9.607508182525634766e-01,9.607037901878356934e-01,9.606568217277526855e-01,9.606099724769592285e-01,9.605630040168762207e-01,9.605160355567932129e-01,9.604690670967102051e-01,9.604222178459167480e-01,9.603752493858337402e-01,9.603283405303955078e-01,9.602813720703125000e-01,9.602344632148742676e-01,9.601876139640808105e-01,9.601407051086425781e-01,9.600937962532043457e-01,9.600468873977661133e-01,9.600000381469726562e-01,9.599531292915344238e-01,9.599062204360961914e-01,9.598593711853027344e-01,9.598124623298645020e-01,9.597656726837158203e-01,9.597187638282775879e-01,9.596719145774841309e-01,9.596250057220458984e-01,9.595782756805419922e-01,9.595313668251037598e-01,9.594845175743103027e-01,9.594376683235168457e-01,9.593908190727233887e-01,9.593440890312194824e-01,9.592972397804260254e-01,9.592503905296325684e-01,9.592035412788391113e-01,9.591568112373352051e-01,9.591100215911865234e-01,9.590631723403930664e-01,9.590163826942443848e-01,9.589695334434509277e-01,9.589228630065917969e-01
9.104390740394592285e-01,9.103968739509582520e-01,9.103547930717468262e-01,9.103125929832458496e-01,9.102704524993896484e-01,9.102282524108886719e-01,9.101860523223876953e-01,9.101440310478210449e-01,9.101018309593200684e-01,9.100596904754638672e-01,9.100175499916076660e-01,9.099754691123962402e-01,9.099333286285400391e-01,9.098911881446838379e-01,9.098490476608276367e-01,9.098069071769714355e-01,9.097648859024047852e-01,9.097227454185485840e-01,9.096806049346923828e-01,9.096385240554809570e-01,9.095965027809143066e-01,9.095543622970581055e-01,9.095122814178466797e-01,9.094701409339904785e-01,9.094280600547790527e-01,9.093860387802124023e-01,9.093439579010009766e-01,9.093018770217895508e-01,9.092597961425781250e-01,9.092177748680114746e-01,9.091756939888000488e-01,9.091336727142333984e-01,9.090915918350219727e-01,9.090495109558105469e-01,9.090075492858886719e-01,9.089654684066772461e-01,9.089234471321105957e-01,9.088813662528991699e-01,9.088394641876220703e-01,9.087973833084106445e-01,9.087553620338439941e-01,9.087133407592773438e-01,9.086712598800659180e-01,9.086293578147888184e-01,9.085873365402221680e-01,9.085453152656555176e-01,9.085032939910888672e-01,9.084613919258117676e-01,9.084193706512451172e-01,9.083774089813232422e-01,9.083353877067565918e-01,9.082933664321899414e-01,9.082514643669128418e-01,9.082095026969909668e-01,9.081675410270690918e-01,9.081255197525024414e-01,9.080836772918701172e-01,9.080417156219482422e-01,9.079996943473815918e-01,9.079577326774597168e-01,9.079157710075378418e-01,9.078739285469055176e-01,9.078319668769836426e-01,9.077900052070617676e-01,9.077481031417846680e-01,9.077062606811523438e-01,9.076642990112304688e-01,9.076223969459533691e-01,9.075804352760314941e-01,9.075385332107543945e-01,9.074966907501220703e-01,9.074547886848449707e-01,9.074128270149230957e-01,9.073709249496459961e-01,9.073290228843688965e-01,9.072872400283813477e-01,9.072453379631042480e-01,9.072034358978271484e-01,9.071615338325500488e-01,9.071197509765625000e-01
8.636140227317810059e-01,8.635761141777038574e-01,8.635382056236267090e-01,8.635002374649047852e-01,8.634623289108276367e-01,8.634243607521057129e-01,8.633863925933837891e-01,8.633485436439514160e-01,8.633106350898742676e-01,8.632726669311523438e-01,8.632347583770751953e-01,8.631969094276428223e-01,8.631590008735656738e-01,8.631210327148437500e-01,8.630831241607666016e-01,8.630452156066894531e-01,8.630074262619018555e-01,8.629695177078247070e-01,8.629316091537475586e-01,8.628937005996704102e-01,8.628557920455932617e-01,8.628180027008056641e-01,8.627800941467285156e-01,8.627421855926513672e-01,8.627042770385742188e-01,8.626664876937866211e-01,8.626286387443542480e-01,8.625907301902770996e-01,8.625528812408447266e-01,8.625150322914123535e-01,8.624772429466247559e-01,8.624393939971923828e-01,8.624014854431152344e-01,8.623636364936828613e-01,8.623259067535400391e-01,8.622880578041076660e-01,8.622502088546752930e-01,8.622123599052429199e-01,8.621745109558105469e-01,8.621367812156677246e-01,8.620989322662353516e-01,8.620610833168029785e-01,8.620232939720153809e-01,8.619855642318725586e-01,8.619477152824401855e-01,8.619099259376525879e-01,8.618720769882202148e-01,8.618342876434326172e-01,8.617965579032897949e-01,8.617587685585021973e-01,8.617209792137145996e-01,8.616831898689270020e-01,8.616454601287841797e-01,8.616076707839965820e-01,8.615698814392089844e-01,8.615320920944213867e-01,8.614943027496337891e-01,8.614566326141357422e-01,8.614188432693481445e-01,8.613811135292053223e-01,8.613433241844177246e-01,8.613056540489196777e-01,8.612678647041320801e-01,8.612301349639892578e-01,8.611923456192016602e-01,8.611546158790588379e-01,8.611169457435607910e-01,8.610792160034179688e-01,8.610414862632751465e-01,8.610037565231323242e-01,8.609660863876342773e-01,8.609283566474914551e-01,8.608906269073486328e-01,8.608528971672058105e-01,8.608151674270629883e-01,8.607775568962097168e-01,8.607398271560668945e-01,8.607021570205688477e-01,8.606644272804260254e-01,8.606268167495727539e-01
8.213699460029602051e-01,8.213356137275695801e-01,8.213012814521789551e-01,8.212670087814331055e-01,8.212326765060424805e-01,8.211984038352966309e-01,8.211640715599060059e-01,8.211297988891601562e-01,8.210954666137695312e-01,8.210611939430236816e-01,8.210268616676330566e-01,8.209925293922424316e-01,8.209583163261413574e-01,8.209240436553955078e-01,8.208897113800048828e-01,8.208554387092590332e-01,8.208212256431579590e-01,8.207868933677673340e-01,8.207526206970214844e-01,8.207183480262756348e-01,8.206840753555297852e-01,8.206498622894287109e-01,8.206155896186828613e-01,8.205813169479370117e-01,8.205470442771911621e-01,8.205128312110900879e-01,8.204785585403442383e-01,8.204442858695983887e-01,8.204100131988525391e-01,8.203758001327514648e-01,8.203415870666503906e-01,8.203073740005493164e-01,8.202731013298034668e-01,8.202388286590576172e-01,8.202046751976013184e-01,8.201704621315002441e-01,8.201361894607543945e-01,8.201019763946533203e-01,8.200677037239074707e-01,8.200336098670959473e-01,8.199993371963500977e-01,8.199651241302490234e-01,8.199309110641479492e-01,8.198967576026916504e-01,8.198625445365905762e-01,8.198283314704895020e-01,8.197941184043884277e-01,8.197599053382873535e-01,8.197258114814758301e-01,8.196915984153747559e-01,8.196573853492736816e-01,8.196231722831726074e-01,8.195890784263610840e-01,8.195548653602600098e-01,8.195207118988037109e-01,8.194864988327026367e-01,8.194523453712463379e-01,8.194182515144348145e-01,8.193840384483337402e-01,8.193498849868774414e-01,8.193157315254211426e-01,8.192816376686096191e-01,8.192474842071533203e-01,8.192132711410522461e-01,8.191791176795959473e-01,8.191449642181396484e-01,8.191109299659729004e-01,8.190767765045166016e-01,8.190426230430603027e-01,8.190084695816040039e-01,8.189743161201477051e-01,8.189402818679809570e-01,8.189061284065246582e-01,8.188719749450683594e-01,8.188378810882568359e-01,8.188037872314453125e-01,8.187696933746337891e-01,8.187355399131774902e-01,8.187014460563659668e-01,8.186672925949096680e-01
7.830659747123718262e-01,7.830347418785095215e-01,7.830035090446472168e-01,7.829723954200744629e-01,7.829412221908569336e-01,7.829099893569946289e-01,7.828788161277770996e-01,7.828476428985595703e-01,7.828164696693420410e-01,7.827852964401245117e-01,7.827541232109069824e-01,7.827228903770446777e-01,7.826917767524719238e-01,7.826606035232543945e-01,7.826294302940368652e-01,7.825982570648193359e-01,7.825670838356018066e-01,7.825359702110290527e-01,7.825047969818115234e-01,7.824736237525939941e-01,7.824424505233764648e-01,7.824113965034484863e-01,7.823802232742309570e-01,7.823490500450134277e-01,7.823179364204406738e-01,7.822867631912231445e-01,7.822557091712951660e-01,7.822245359420776367e-01,7.821934223175048828e-01,7.821622490882873535e-01,7.821311950683593750e-01,7.821000218391418457e-01,7.820689082145690918e-01,7.820377945899963379e-01,7.820066213607788086e-01,7.819755673408508301e-01,7.819444537162780762e-01,7.819133400917053223e-01,7.818822264671325684e-01,7.818511724472045898e-01,7.818200588226318359e-01,7.817889451980590820e-01,7.817578315734863281e-01,7.817267179489135742e-01,7.816957235336303711e-01,7.816646099090576172e-01,7.816334962844848633e-01,7.816023826599121094e-01,7.815713882446289062e-01,7.815402746200561523e-01,7.815092206001281738e-01,7.814781069755554199e-01,7.814469933509826660e-01,7.814159989356994629e-01,7.813849449157714844e-01,7.813538312911987305e-01,7.813227772712707520e-01,7.812917828559875488e-01,7.812607288360595703e-01,7.812296152114868164e-01,7.811985611915588379e-01,7.811675071716308594e-01,7.811365127563476562e-01,7.811054587364196777e-01,7.810744047164916992e-01,7.810433506965637207e-01,7.810123562812805176e-01,7.809813022613525391e-01,7.809503078460693359e-01,7.809192538261413574e-01,7.808881998062133789e-01,7.808572053909301758e-01,7.808262109756469727e-01,7.807951569557189941e-01,7.807641029357910156e-01,7.807331681251525879e-01,7.807021737098693848e-01,7.806711196899414062e-01,7.806401252746582031e-01,7.806090712547302246e-01
7.481753230094909668e-01,7.481468319892883301e-01,7.481183409690856934e-01,7.480899095535278320e-01,7.480614185333251953e-01,7.480329275131225586e-01,7.480044364929199219e-01,7.479759454727172852e-01,7.479475736618041992e-01,7.479190826416015625e-01,7.478905916213989258e-01,7.478621602058410645e-01,7.478337287902832031e-01,7.478052973747253418e-01,7.477768063545227051e-01,7.477483749389648438e-01,7.477198839187622070e-01,7.476915121078491211e-01,7.476630210876464844e-01,7.476345896720886230e-01,7.476061582565307617e-01,7.475777268409729004e-01,7.475492954254150391e-01,7.475208640098571777e-01,7.474924325942993164e-01,7.474640011787414551e-01,7.474356293678283691e-01,7.474071979522705078e-01,7.473787665367126465e-01,7.473503351211547852e-01,7.473219633102416992e-01,7.472935318946838379e-01,7.472651004791259766e-01,7.472366690635681152e-01,7.472082376480102539e-01,7.471798658370971680e-01,7.471514940261840820e-01,7.471230626106262207e-01,7.470946311950683594e-01,7.470663189888000488e-01,7.470378875732421875e-01,7.470095157623291016e-01,7.469810843467712402e-01,7.469527125358581543e-01,7.469243407249450684e-01,7.468959689140319824e-01,7.468675374984741211e-01,7.468391656875610352e-01,7.468108534812927246e-01,7.467824816703796387e-01,7.467540502548217773e-01,7.467256784439086914e-01,7.466973066329956055e-01,7.466689944267272949e-01,7.466406226158142090e-01,7.466122508049011230e-01,7.465838789939880371e-01,7.465555071830749512e-01,7.465271949768066406e-01,7.464988231658935547e-01,7.464704513549804688e-01,7.464420795440673828e-01,7.464137673377990723e-01,7.463854551315307617e-01,7.463570833206176758e-01,7.463287115097045898e-01,7.463003993034362793e-01,7.462720870971679688e-01,7.462437152862548828e-01,7.462154030799865723e-01,7.461870312690734863e-01,7.461587786674499512e-01,7.461304664611816406e-01,7.461020946502685547e-01,7.460737824440002441e-01,7.460454106330871582e-01,7.460171580314636230e-01,7.459888458251953125e-01,7.459605336189270020e-01,7.459321618080139160e-01
7.162612080574035645e-01,7.162351012229919434e-01,7.162089943885803223e-01,7.161828875541687012e-01,7.161568403244018555e-01,7.161307334899902344e-01,7.161046266555786133e-01,7.160785198211669922e-01,7.160525321960449219e-01,7.160264253616333008e-01,7.160003185272216797e-01,7.159742116928100586e-01,7.159481048583984375e-01,7.159221172332763672e-01,7.158960103988647461e-01,7.158699035644531250e-01,7.158438563346862793e-01,7.158178091049194336e-01,7.157917022705078125e-01,7.157656550407409668e-01,7.157395482063293457e-01,7.157135009765625000e-01,7.156874537467956543e-01,7.156614065170288086e-01,7.156353592872619629e-01,7.156092524528503418e-01,7.155832648277282715e-01,7.155572175979614258e-01,7.155311703681945801e-01,7.155050635337829590e-01,7.154790163040161133e-01,7.154530286788940430e-01,7.154269814491271973e-01,7.154009342193603516e-01,7.153748869895935059e-01,7.153488993644714355e-01,7.153228521347045898e-01,7.152968049049377441e-01,7.152707576751708984e-01,7.152447104454040527e-01,7.152187228202819824e-01,7.151926755905151367e-01,7.151666879653930664e-01,7.151406407356262207e-01,7.151146531105041504e-01,7.150886058807373047e-01,7.150626182556152344e-01,7.150365710258483887e-01,7.150105237960815430e-01,7.149845957756042480e-01,7.149585485458374023e-01,7.149325609207153320e-01,7.149065136909484863e-01,7.148805856704711914e-01,7.148545384407043457e-01,7.148285508155822754e-01,7.148025631904602051e-01,7.147765159606933594e-01,7.147505879402160645e-01,7.147246003150939941e-01,7.146986126899719238e-01,7.146725654602050781e-01,7.146466374397277832e-01,7.146206498146057129e-01,7.145946621894836426e-01,7.145686745643615723e-01,7.145426869392395020e-01,7.145167589187622070e-01,7.144907712936401367e-01,7.144647836685180664e-01,7.144387960433959961e-01,7.144128680229187012e-01,7.143868803977966309e-01,7.143609523773193359e-01,7.143349647521972656e-01,7.143089771270751953e-01,7.142830491065979004e-01,7.142571210861206055e-01,7.142311334609985352e-01,7.142051458358764648e-01
6.869584321975708008e-01,6.869344115257263184e-01,6.869103908538818359e-01,6.868863701820373535e-01,6.868624091148376465e-01,6.868383884429931641e-01,6.868143677711486816e-01,6.867904067039489746e-01,6.867664456367492676e-01,6.867424249649047852e-01,6.867184042930603027e-01,6.866943836212158203e-01,6.866704225540161133e-01,6.866464614868164062e-01,6.866224408149719238e-01,6.865984797477722168e-01,6.865744590759277344e-01,6.865505576133728027e-01,6.865265369415283203e-01,6.865025758743286133e-01,6.864785552024841309e-01,6.864545941352844238e-01,6.864306330680847168e-01,6.864066720008850098e-01,6.863827109336853027e-01,6.863586902618408203e-01,6.863347887992858887e-01,6.863108277320861816e-01,6.862868070602416992e-01,6.862628459930419922e-01,6.862388849258422852e-01,6.862149834632873535e-01,6.861910223960876465e-01,6.861670613288879395e-01,6.861430406570434570e-01,6.861191391944885254e-01,6.860951781272888184e-01,6.860712170600891113e-01,6.860472559928894043e-01,6.860232949256896973e-01,6.859993934631347656e-01,6.859754920005798340e-01,6.859515309333801270e-01,6.859275698661804199e-01,6.859036087989807129e-01,6.858797073364257812e-01,6.858558058738708496e-01,6.858318448066711426e-01,6.858078837394714355e-01,6.857839822769165039e-01,6.857600808143615723e-01,6.857361197471618652e-01,6.857122182846069336e-01,6.856882572174072266e-01,6.856644153594970703e-01,6.856404542922973633e-01,6.856165528297424316e-01,6.855925917625427246e-01,6.855687499046325684e-01,6.855447888374328613e-01,6.855208873748779297e-01,6.854969859123229980e-01,6.854730248451232910e-01,6.854491829872131348e-01,6.854252815246582031e-01,6.854013800621032715e-01,6.853774785995483398e-01,6.853535771369934082e-01,6.853296756744384766e-01,6.853057742118835449e-01,6.852818727493286133e-01,6.852579712867736816e-01,6.852341294288635254e-01,6.852102279663085938e-01,6.851863265037536621e-01,6.851624250411987305e-01,6.851385831832885742e-01,6.851146817207336426e-01,6.850907802581787109e-01,6.850669384002685547e-01
6.599590182304382324e-01,6.599368453025817871e-01,6.599146723747253418e-01,6.598924994468688965e-01,6.598703861236572266e-01,6.598482131958007812e-01,6.598260402679443359e-01,6.598038673400878906e-01,6.597817540168762207e-01,6.597596406936645508e-01,6.597374677658081055e-01,6.597152948379516602e-01,6.596931815147399902e-01,6.596710681915283203e-01,6.596488952636718750e-01,6.596267819404602051e-01,6.596046090126037598e-01,6.595824956893920898e-01,6.595603823661804199e-01,6.595382690429687500e-01,6.595160961151123047e-01,6.594939827919006348e-01,6.594718694686889648e-01,6.594497561454772949e-01,6.594275832176208496e-01,6.594054698944091797e-01,6.593833565711975098e-01,6.593612432479858398e-01,6.593391299247741699e-01,6.593170166015625000e-01,6.592949032783508301e-01,6.592727899551391602e-01,6.592506766319274902e-01,6.592285633087158203e-01,6.592064499855041504e-01,6.591843366622924805e-01,6.591622829437255859e-01,6.591401100158691406e-01,6.591179966926574707e-01,6.590958833694458008e-01,6.590738296508789062e-01,6.590517163276672363e-01,6.590296030044555664e-01,6.590075492858886719e-01,6.589854359626770020e-01,6.589633822441101074e-01,6.589412689208984375e-01,6.589191555976867676e-01,6.588970422744750977e-01,6.588749885559082031e-01,6.588529348373413086e-01,6.588308215141296387e-01,6.588087081909179688e-01,6.587866544723510742e-01,6.587646007537841797e-01,6.587424874305725098e-01,6.587204337120056152e-01,6.586983203887939453e-01,6.586763262748718262e-01,6.586542129516601562e-01,6.586321592330932617e-01,6.586100459098815918e-01,6.585879921913146973e-01,6.585659384727478027e-01,6.585438847541809082e-01,6.585217714309692383e-01,6.584997177124023438e-01,6.584777235984802246e-01,6.584556102752685547e-01,6.584335565567016602e-01,6.584115028381347656e-01,6.583894491195678711e-01,6.583673954010009766e-01,6.583453416824340820e-01,6.583232879638671875e-01,6.583012342453002930e-01,6.582792401313781738e-01,6.582571864128112793e-01,6.582351326942443848e-01,6.582130789756774902e-01
6.350015997886657715e-01,6.349810957908630371e-01,6.349605321884155273e-01,6.349400281906127930e-01,6.349195837974548340e-01,6.348990201950073242e-01,6.348785161972045898e-01,6.348580121994018555e-01,6.348375082015991211e-01,6.348170042037963867e-01,6.347965002059936523e-01,6.347759962081909180e-01,6.347554922103881836e-01,6.347350478172302246e-01,6.347145438194274902e-01,6.346940398216247559e-01,6.346735358238220215e-01,6.346530318260192871e-01,6.346325278282165527e-01,6.346120238304138184e-01,6.345915794372558594e-01,6.345710754394531250e-01,6.345506310462951660e-01,6.345301270484924316e-01,6.345096230506896973e-01,6.344891190528869629e-01,6.344686150550842285e-01,6.344481706619262695e-01,6.344277262687683105e-01,6.344072222709655762e-01,6.343867182731628418e-01,6.343662142753601074e-01,6.343458294868469238e-01,6.343253254890441895e-01,6.343048214912414551e-01,6.342843770980834961e-01,6.342639327049255371e-01,6.342434287071228027e-01,6.342229843139648438e-01,6.342024803161621094e-01,6.341820359230041504e-01,6.341615915298461914e-01,6.341411471366882324e-01,6.341206431388854980e-01,6.341001987457275391e-01,6.340798139572143555e-01,6.340593099594116211e-01,6.340388655662536621e-01,6.340184211730957031e-01,6.339979171752929688e-01,6.339775323867797852e-01,6.339570879936218262e-01,6.339365839958190918e-01,6.339161396026611328e-01,6.338957548141479492e-01,6.338753104209899902e-01,6.338548660278320312e-01,6.338344216346740723e-01,6.338139176368713379e-01,6.337935328483581543e-01,6.337730884552001953e-01,6.337526440620422363e-01,6.337321996688842773e-01,6.337118148803710938e-01,6.336913704872131348e-01,6.336709260940551758e-01,6.336504817008972168e-01,6.336300373077392578e-01,6.336096525192260742e-01,6.335892081260681152e-01,6.335687637329101562e-01,6.335483789443969727e-01,6.335279941558837891e-01,6.335075497627258301e-01,6.334871053695678711e-01,6.334667205810546875e-01,6.334462761878967285e-01,6.334258913993835449e-01,6.334054470062255859e-01,6.333850622177124023e-01
6.118630766868591309e-01,6.118440032005310059e-01,6.118249297142028809e-01,6.118059158325195312e-01,6.117868423461914062e-01,6.117678284645080566e-01,6.117487549781799316e-01,6.117297410964965820e-01,6.117106676101684570e-01,6.116916537284851074e-01,6.116726398468017578e-01,6.116535663604736328e-01,6.116345524787902832e-01,6.116154789924621582e-01,6.115965247154235840e-01,6.115774512290954590e-01,6.115584373474121094e-01,6.115394234657287598e-01,6.115204095840454102e-01,6.115013957023620605e-01,6.114823222160339355e-01,6.114633083343505859e-01,6.114442944526672363e-01,6.114252805709838867e-01,6.114062666893005371e-01,6.113872528076171875e-01,6.113681793212890625e-01,6.113492250442504883e-01,6.113302111625671387e-01,6.113111972808837891e-01,6.112921833992004395e-01,6.112731099128723145e-01,6.112541556358337402e-01,6.112351417541503906e-01,6.112161278724670410e-01,6.111971139907836914e-01,6.111781597137451172e-01,6.111591458320617676e-01,6.111401319503784180e-01,6.111211180686950684e-01,6.111021041870117188e-01,6.110831499099731445e-01,6.110641360282897949e-01,6.110451221466064453e-01,6.110261082649230957e-01,6.110071539878845215e-01,6.109881401062011719e-01,6.109691262245178223e-01,6.109501123428344727e-01,6.109311580657958984e-01,6.109122037887573242e-01,6.108931899070739746e-01,6.108741760253906250e-01,6.108552217483520508e-01,6.108362674713134766e-01,6.108172535896301270e-01,6.107982397079467773e-01,6.107792854309082031e-01,6.107602715492248535e-01,6.107413172721862793e-01,6.107223629951477051e-01,6.107033491134643555e-01,6.106843948364257812e-01,6.106654405593872070e-01,6.106464862823486328e-01,6.106274724006652832e-01,6.106085181236267090e-01,6.105895042419433594e-01,6.105706095695495605e-01,6.105515956878662109e-01,6.105326414108276367e-01,6.105136871337890625e-01,6.104947328567504883e-01,6.104757785797119141e-01,6.104568243026733398e-01,6.104378104209899902e-01,6.104188561439514160e-01,6.103999614715576172e-01,6.103810071945190430e-01,6.103619933128356934e-01
5.903514623641967773e-01,5.903337001800537109e-01,5.903159976005554199e-01,5.902982354164123535e-01,5.902805328369140625e-01,5.902628302574157715e-01,5.902450680732727051e-01,5.902273654937744141e-01,5.902096033096313477e-01,5.901919007301330566e-01,5.901741981506347656e-01,5.901564955711364746e-01,5.901387333869934082e-01,5.901210308074951172e-01,5.901033282279968262e-01,5.900856256484985352e-01,5.900678634643554688e-01,5.900501608848571777e-01,5.900324583053588867e-01,5.900147557258605957e-01,5.899970531463623047e-01,5.899793505668640137e-01,5.899615883827209473e-01,5.899439454078674316e-01,5.899262428283691406e-01,5.899084806442260742e-01,5.898907780647277832e-01,5.898730754852294922e-01,5.898554325103759766e-01,5.898377299308776855e-01,5.898200273513793945e-01,5.898023247718811035e-01,5.897846221923828125e-01,5.897669196128845215e-01,5.897492170333862305e-01,5.897315144538879395e-01,5.897138118743896484e-01,5.896961688995361328e-01,5.896784663200378418e-01,5.896607637405395508e-01,5.896430611610412598e-01,5.896254181861877441e-01,5.896077156066894531e-01,5.895900130271911621e-01,5.895723104476928711e-01,5.895546078681945801e-01,5.895369648933410645e-01,5.895192623138427734e-01,5.895016193389892578e-01,5.894839167594909668e-01,5.894662737846374512e-01,5.894485712051391602e-01,5.894308686256408691e-01,5.894132256507873535e-01,5.893955230712890625e-01,5.893778800964355469e-01,5.893601775169372559e-01,5.893425345420837402e-01,5.893248319625854492e-01,5.893071889877319336e-01,5.892895460128784180e-01,5.892718434333801270e-01,5.892542004585266113e-01,5.892364978790283203e-01,5.892188549041748047e-01,5.892012119293212891e-01,5.891835093498229980e-01,5.891658663749694824e-01,5.891482234001159668e-01,5.891305804252624512e-01,5.891128778457641602e-01,5.890952348709106445e-01,5.890775918960571289e-01,5.890599489212036133e-01,5.890423059463500977e-01,5.890246033668518066e-01,5.890069603919982910e-01,5.889893174171447754e-01,5.889716744422912598e-01,5.889540314674377441e-01
5.703010559082031250e-01,5.702845454216003418e-01,5.702679753303527832e-01,5.702514648437500000e-01,5.702348947525024414e-01,5.702183842658996582e-01,5.702018141746520996e-01,5.701853036880493164e-01,5.701687335968017578e-01,5.701521635055541992e-01,5.701356530189514160e-01,5.701191425323486328e-01,5.701025724411010742e-01,5.700860619544982910e-01,5.700695514678955078e-01,5.700529813766479492e-01,5.700364708900451660e-01,5.700199007987976074e-01,5.700033903121948242e-01,5.699868798255920410e-01,5.699703693389892578e-01,5.699537992477416992e-01,5.699372887611389160e-01,5.699207782745361328e-01,5.699042677879333496e-01,5.698876976966857910e-01,5.698711872100830078e-01,5.698546767234802246e-01,5.698381662368774414e-01,5.698216557502746582e-01,5.698050856590270996e-01,5.697885751724243164e-01,5.697720646858215332e-01,5.697555541992187500e-01,5.697390437126159668e-01,5.697225332260131836e-01,5.697060227394104004e-01,5.696895122528076172e-01,5.696730017662048340e-01,5.696564912796020508e-01,5.696399807929992676e-01,5.696234703063964844e-01,5.696069598197937012e-01,5.695904493331909180e-01,5.695739388465881348e-01,5.695574283599853516e-01,5.695409178733825684e-01,5.695244073867797852e-01,5.695078969001770020e-01,5.694913864135742188e-01,5.694749355316162109e-01,5.694584250450134277e-01,5.694419145584106445e-01,5.694254040718078613e-01,5.694088935852050781e-01,5.693924427032470703e-01,5.693759322166442871e-01,5.693594217300415039e-01,5.693429708480834961e-01,5.693264603614807129e-01,5.693100094795227051e-01,5.692934989929199219e-01,5.692769885063171387e-01,5.692604780197143555e-01,5.692440271377563477e-01,5.692275166511535645e-01,5.692110657691955566e-01,5.691945552825927734e-01,5.691780447959899902e-01,5.691615939140319824e-01,5.691451430320739746e-01,5.691286325454711914e-01,5.691121816635131836e-01,5.690957307815551758e-01,5.690792202949523926e-01,5.690627098083496094e-01,5.690462589263916016e-01,5.690297484397888184e-01,5.690132975578308105e-01,5.689968466758728027e-01
