5.000000000000000000e+00,5.000000000000000000e+00,5.000000000000000000e+00,5.000000000000000000e+00,5.000000000000000000e+00,5.000000000000000000e+00,5.000000000000000000e+00,5.000000000000000000e+00,5.000000000000000000e+00,5.000000000000000000e+00,5.000000000000000000e+00,5.000000000000000000e+00,5.000000000000000000e+00,5.000000000000000000e+00,5.000000000000000000e+00,5.000000000000000000e+00,1.813421368598937988e+00,1.794464468955993652e+00,1.805325388908386230e+00,1.776464343070983887e+00,1.754475831985473633e+00,1.757732748985290527e+00,1.759572744369506836e+00,1.768157243728637695e+00,1.781691670417785645e+00,1.793162465095520020e+00,1.825514793395996094e+00,1.864573836326599121e+00,5.000000000000000000e+00,2.001055479049682617e+00,1.987045884132385254e+00,1.991796731948852539e+00,5.000000000000000000e+00,5.000000000000000000e+00,5.000000000000000000e+00,5.000000000000000000e+00,5.000000000000000000e+00,5.000000000000000000e+00,5.000000000000000000e+00,4.854351520538330078e+00,4.664032936096191406e+00,4.488075256347656250e+00,4.324910640716552734e+00,4.173194408416748047e+00,4.031761169433593750e+00,3.899600505828857422e+00,3.775829315185546875e+00,3.659673213958740234e+00,3.550450801849365234e+00,3.447558164596557617e+00,3.350461721420288086e+00,3.258684635162353516e+00,3.171801328659057617e+00,3.089430809020996094e+00,3.011230468750000000e+00,2.936891078948974609e+00,2.866133451461791992e+00,2.798705339431762695e+00,2.734376907348632812e+00,2.672939538955688477e+00,2.614201784133911133e+00,2.557990312576293945e+00,2.504145145416259766e+00,2.452520132064819336e+00,2.402980804443359375e+00,2.355403423309326172e+00,2.309673070907592773e+00,2.265684604644775391e+00,2.223340749740600586e+00,2.182550430297851562e+00,2.143229722976684570e+00,2.105300664901733398e+00,2.068690776824951172e+00,2.033332824707031250e+00,1.999162793159484863e+00,1.966122269630432129e+00,1.934156298637390137e+00,1.903212904930114746e+00,1.873244047164916992e+00,1.844204545021057129e+00
5.000000000000000000e+00,5.000000000000000000e+00,5.000000000000000000e+00,5.000000000000000000e+00,5.000000000000000000e+00,5.000000000000000000e+00,5.000000000000000000e+00,5.000000000000000000e+00,5.000000000000000000e+00,5.000000000000000000e+00,5.000000000000000000e+00,5.000000000000000000e+00,5.000000000000000000e+00,5.000000000000000000e+00,5.000000000000000000e+00,5.000000000000000000e+00,1.807217955589294434e+00,1.788922667503356934e+00,1.798523545265197754e+00,1.770972967147827148e+00,1.739199519157409668e+00,1.744316458702087402e+00,1.751634478569030762e+00,1.779207587242126465e+00,1.791308641433715820e+00,1.799618482589721680e+00,1.829318761825561523e+00,1.865082144737243652e+00,5.000000000000000000e+00,2.018021583557128906e+00,1.979078412055969238e+00,1.967256426811218262e+00,1.982725143432617188e+00,5.000000000000000000e+00,5.000000000000000000e+00,5.000000000000000000e+00,5.000000000000000000e+00,5.000000000000000000e+00,5.000000000000000000e+00,4.854488372802734375e+00,4.664159297943115234e+00,4.488192081451416016e+00,4.325019359588623047e+00,4.173295497894287109e+00,4.031855583190917969e+00,3.899689435958862305e+00,3.775912046432495117e+00,3.659751176834106445e+00,3.550523996353149414e+00,3.447627305984497070e+00,3.350526809692382812e+00,3.258746385574340820e+00,3.171859979629516602e+00,3.089486360549926758e+00,3.011283159255981445e+00,2.936941146850585938e+00,2.866181135177612305e+00,2.798750877380371094e+00,2.734420537948608398e+00,2.672981023788452148e+00,2.614241600036621094e+00,2.558028221130371094e+00,2.504181623458862305e+00,2.452555179595947266e+00,2.403014421463012695e+00,2.355435609817504883e+00,2.309704065322875977e+00,2.265714406967163086e+00,2.223369359970092773e+00,2.182578086853027344e+00,2.143256187438964844e+00,2.105326414108276367e+00,2.068715810775756836e+00,2.033356666564941406e+00,1.999185800552368164e+00,1.966144919395446777e+00,1.934177994728088379e+00,1.903234124183654785e+00,1.873264551162719727e+00,1.844224214553833008e+00
5.000000000000000000e+00,5.000000000000000000e+00,5.000000000000000000e+00,5.000000000000000000e+00,5.000000000000000000e+00,5.000000000000000000e+00,5.000000000000000000e+00,5.000000000000000000e+00,5.000000000000000000e+00,5.000000000000000000e+00,5.000000000000000000e+00,5.000000000000000000e+00,5.000000000000000000e+00,5.000000000000000000e+00,5.000000000000000000e+00,5.000000000000000000e+00,5.000000000000000000e+00,1.784372687339782715e+00,1.793073058128356934e+00,1.759235262870788574e+00,1.714018464088439941e+00,1.702888965606689453e+00,1.708381891250610352e+00,1.713919878005981445e+00,1.807818889617919922e+00,1.805184483528137207e+00,1.845056533813476562e+00,1.869410157203674316e+00,1.930737614631652832e+00,5.000000000000000000e+00,1.993473529815673828e+00,1.959884881973266602e+00,1.947946548461914062e+00,5.000000000000000000e+00,5.000000000000000000e+00,5.000000000000000000e+00,5.000000000000000000e+00,5.000000000000000000e+00,5.000000000000000000e+00,4.854625225067138672e+00,4.664285659790039062e+00,4.488309383392333984e+00,4.325128078460693359e+00,4.173397064208984375e+00,4.031949996948242188e+00,3.899777650833129883e+00,3.775995016098022461e+00,3.659828901290893555e+00,3.550597190856933594e+00,3.447696208953857422e+00,3.350592136383056641e+00,3.258808135986328125e+00,3.171918630599975586e+00,3.089541673660278320e+00,3.011335849761962891e+00,2.936991214752197266e+00,2.866229057312011719e+00,2.798796415328979492e+00,2.734463930130004883e+00,2.673022508621215820e+00,2.614281177520751953e+00,2.558066368103027344e+00,2.504218101501464844e+00,2.452589988708496094e+00,2.403048038482666016e+00,2.355467796325683594e+00,2.309735059738159180e+00,2.265744209289550781e+00,2.223398208618164062e+00,2.182605743408203125e+00,2.143283128738403320e+00,2.105352163314819336e+00,2.068740606307983398e+00,2.033380746841430664e+00,1.999209165573120117e+00,1.966167211532592773e+00,1.934199810028076172e+00,1.903255105018615723e+00,1.873284816741943359e+00,1.844244122505187988e+00
5.000000000000000000e+00,5.000000000000000000e+00,5.000000000000000000e+00,5.000000000000000000e+00,5.000000000000000000e+00,5.000000000000000000e+00,5.000000000000000000e+00,5.000000000000000000e+00,5.000000000000000000e+00,5.000000000000000000e+00,5.000000000000000000e+00,5.000000000000000000e+00,5.000000000000000000e+00,5.000000000000000000e+00,5.000000000000000000e+00,5.000000000000000000e+00,5.000000000000000000e+00,1.776242136955261230e+00,1.790453314781188965e+00,1.744860529899597168e+00,1.703369140625000000e+00,1.688850760459899902e+00,1.693935394287109375e+00,1.699050903320312500e+00,1.731661081314086914e+00,1.847665190696716309e+00,1.866852879524230957e+00,1.875417947769165039e+00,1.932679533958435059e+00,5.000000000000000000e+00,5.000000000000000000e+00,1.970365643501281738e+00,1.941538810729980469e+00,1.962800979614257812e+00,5.000000000000000000e+00,5.000000000000000000e+00,5.000000000000000000e+00,5.000000000000000000e+00,5.000000000000000000e+00,4.854762077331542969e+00,4.664412498474121094e+00,4.488426685333251953e+00,4.325236797332763672e+00,4.173498153686523438e+00,4.032044410705566406e+00,3.899866104125976562e+00,3.776077747344970703e+00,3.659906864166259766e+00,3.550670385360717773e+00,3.447765350341796875e+00,3.350657463073730469e+00,3.258869886398315430e+00,3.171977043151855469e+00,3.089597225189208984e+00,3.011388540267944336e+00,2.937041521072387695e+00,2.866276741027832031e+00,2.798841953277587891e+00,2.734507322311401367e+00,2.673063993453979492e+00,2.614320993423461914e+00,2.558104276657104492e+00,2.504254579544067383e+00,2.452625274658203125e+00,2.403081655502319336e+00,2.355499982833862305e+00,2.309766054153442383e+00,2.265774011611938477e+00,2.223426818847656250e+00,2.182633399963378906e+00,2.143309831619262695e+00,2.105377912521362305e+00,2.068765401840209961e+00,2.033404827117919922e+00,1.999232292175292969e+00,1.966189861297607422e+00,1.934221386909484863e+00,1.903276205062866211e+00,1.873305320739746094e+00,1.844263792037963867e+00
5.000000000000000000e+00,5.000000000000000000e+00,5.000000000000000000e+00,5.000000000000000000e+00,5.000000000000000000e+00,5.000000000000000000e+00,5.000000000000000000e+00,5.000000000000000000e+00,5.000000000000000000e+00,5.000000000000000000e+00,5.000000000000000000e+00,5.000000000000000000e+00,5.000000000000000000e+00,5.000000000000000000e+00,5.000000000000000000e+00,5.000000000000000000e+00,5.000000000000000000e+00,1.770140886306762695e+00,1.784311771392822266e+00,1.752132534980773926e+00,1.693759441375732422e+00,1.677439332008361816e+00,1.682284951210021973e+00,1.687333464622497559e+00,1.705347657203674316e+00,1.765696525573730469e+00,1.868458151817321777e+00,1.879731178283691406e+00,1.935814261436462402e+00,5.000000000000000000e+00,5.000000000000000000e+00,5.000000000000000000e+00,5.000000000000000000e+00,1.909997582435607910e+00,5.000000000000000000e+00,5.000000000000000000e+00,5.000000000000000000e+00,5.000000000000000000e+00,5.000000000000000000e+00,4.854899406433105469e+00,4.664538860321044922e+00,4.488543510437011719e+00,4.325345516204833984e+00,4.173599243164062500e+00,4.032139301300048828e+00,3.899954557418823242e+00,3.776160717010498047e+00,3.659984588623046875e+00,3.550743818283081055e+00,3.447834730148315430e+00,3.350722551345825195e+00,3.258931636810302734e+00,3.172035455703735352e+00,3.089652776718139648e+00,3.011441230773925781e+00,2.937091588973999023e+00,2.866324663162231445e+00,2.798887491226196289e+00,2.734550714492797852e+00,2.673105478286743164e+00,2.614360570907592773e+00,2.558142423629760742e+00,2.504291057586669922e+00,2.452660083770751953e+00,2.403115034103393555e+00,2.355532407760620117e+00,2.309797048568725586e+00,2.265804052352905273e+00,2.223455667495727539e+00,2.182661056518554688e+00,2.143336534500122070e+00,2.105403900146484375e+00,2.068790435791015625e+00,2.033428907394409180e+00,1.999255657196044922e+00,1.966212153434753418e+00,1.934243321418762207e+00,1.903297185897827148e+00,1.873325586318969727e+00,1.844283580780029297e+00
5.000000000000000000e+00,5.000000000000000000e+00,5.000000000000000000e+00,5.000000000000000000e+00,5.000000000000000000e+00,5.000000000000000000e+00,5.000000000000000000e+00,5.000000000000000000e+00,5.000000000000000000e+00,5.000000000000000000e+00,5.000000000000000000e+00,5.000000000000000000e+00,5.000000000000000000e+00,5.000000000000000000e+00,5.000000000000000000e+00,5.000000000000000000e+00,5.000000000000000000e+00,1.778115510940551758e+00,1.784182548522949219e+00,1.759491920471191406e+00,1.698495149612426758e+00,1.668278336524963379e+00,1.671801567077636719e+00,1.676462173461914062e+00,1.685949206352233887e+00,1.741055846214294434e+00,1.869385480880737305e+00,1.886898279190063477e+00,1.937349915504455566e+00,5.000000000000000000e+00,5.000000000000000000e+00,5.000000000000000000e+00,5.000000000000000000e+00,1.872230410575866699e+00,1.895297765731811523e+00,5.000000000000000000e+00,5.000000000000000000e+00,5.000000000000000000e+00,5.000000000000000000e+00,4.855036258697509766e+00,4.664665699005126953e+00,4.488660812377929688e+00,4.325454711914062500e+00,4.173700332641601562e+00,4.032233715057373047e+00,3.900042772293090820e+00,3.776243686676025391e+00,3.660062551498413086e+00,3.550817012786865234e+00,3.447903871536254883e+00,3.350787878036499023e+00,3.258993387222290039e+00,3.172093868255615234e+00,3.089708089828491211e+00,3.011493921279907227e+00,2.937141656875610352e+00,2.866372346878051758e+00,2.798933029174804688e+00,2.734594345092773438e+00,2.673146963119506836e+00,2.614400386810302734e+00,2.558180332183837891e+00,2.504327535629272461e+00,2.452695131301879883e+00,2.403148651123046875e+00,2.355564594268798828e+00,2.309828042984008789e+00,2.265833854675292969e+00,2.223484277725219727e+00,2.182688713073730469e+00,2.143363237380981445e+00,2.105429649353027344e+00,2.068815231323242188e+00,2.033452987670898438e+00,1.999279022216796875e+00,1.966234683990478516e+00,1.934264898300170898e+00,1.903318285942077637e+00,1.873346090316772461e+00,1.844303250312805176e+00
5.000000000000000000e+00,5.000000000000000000e+00,5.000000000000000000e+00,5.000000000000000000e+00,5.000000000000000000e+00,5.000000000000000000e+00,5.000000000000000000e+00,5.000000000000000000e+00,5.000000000000000000e+00,5.000000000000000000e+00,5.000000000000000000e+00,5.000000000000000000e+00,5.000000000000000000e+00,5.000000000000000000e+00,5.000000000000000000e+00,5.000000000000000000e+00,5.000000000000000000e+00,1.774047613143920898e+00,5.000000000000000000e+00,1.770261645317077637e+00,1.703257441520690918e+00,1.671471834182739258e+00,1.662701845169067383e+00,1.666201591491699219e+00,1.670679688453674316e+00,1.718568086624145508e+00,1.870848536491394043e+00,1.891256213188171387e+00,1.942328095436096191e+00,5.000000000000000000e+00,5.000000000000000000e+00,5.000000000000000000e+00,5.000000000000000000e+00,5.000000000000000000e+00,1.925541043281555176e+00,5.000000000000000000e+00,5.000000000000000000e+00,5.000000000000000000e+00,5.000000000000000000e+00,4.855173110961914062e+00,4.664792060852050781e+00,4.488777637481689453e+00,4.325563430786132812e+00,4.173801898956298828e+00,4.032328128814697266e+00,3.900131225585937500e+00,3.776326417922973633e+00,3.660140275955200195e+00,3.550890207290649414e+00,3.447973012924194336e+00,3.350853204727172852e+00,3.259055137634277344e+00,3.172152519226074219e+00,3.089763641357421875e+00,3.011546611785888672e+00,2.937191963195800781e+00,2.866420269012451172e+00,2.798978567123413086e+00,2.734637737274169922e+00,2.673188686370849609e+00,2.614440202713012695e+00,2.558218479156494141e+00,2.504364013671875000e+00,2.452730178833007812e+00,2.403182268142700195e+00,2.355596780776977539e+00,2.309859037399291992e+00,2.265863895416259766e+00,2.223513126373291016e+00,2.182716369628906250e+00,2.143389940261840820e+00,2.105455398559570312e+00,2.068840026855468750e+00,2.033476829528808594e+00,1.999302148818969727e+00,1.966257095336914062e+00,1.934286713600158691e+00,1.903339266777038574e+00,1.873366355895996094e+00,1.844323158264160156e+00
5.000000000000000000e+00,5.000000000000000000e+00,5.000000000000000000e+00,5.000000000000000000e+00,5.000000000000000000e+00,5.000000000000000000e+00,5.000000000000000000e+00,5.000000000000000000e+00,5.000000000000000000e+00,5.000000000000000000e+00,5.000000000000000000e+00,5.000000000000000000e+00,5.000000000000000000e+00,5.000000000000000000e+00,5.000000000000000000e+00,5.000000000000000000e+00,5.000000000000000000e+00,1.757856130599975586e+00,1.765248060226440430e+00,5.000000000000000000e+00,1.719909787178039551e+00,1.676618218421936035e+00,1.653649568557739258e+00,1.656759262084960938e+00,1.659880518913269043e+00,1.696587324142456055e+00,1.876145482063293457e+00,1.903529047966003418e+00,1.956941366195678711e+00,5.000000000000000000e+00,5.000000000000000000e+00,5.000000000000000000e+00,5.000000000000000000e+00,5.000000000000000000e+00,5.000000000000000000e+00,1.898061156272888184e+00,5.000000000000000000e+00,5.000000000000000000e+00,5.000000000000000000e+00,4.855310440063476562e+00,4.664918422698974609e+00,4.488894939422607422e+00,4.325672149658203125e+00,4.173902988433837891e+00,4.032422542572021484e+00,3.900219678878784180e+00,3.776409387588500977e+00,3.660218238830566406e+00,3.550963640213012695e+00,3.448042154312133789e+00,3.350918292999267578e+00,3.259116888046264648e+00,3.172210931777954102e+00,3.089819431304931641e+00,3.011599302291870117e+00,2.937242031097412109e+00,2.866467952728271484e+00,2.799024105072021484e+00,2.734681129455566406e+00,2.673230171203613281e+00,2.614480018615722656e+00,2.558256387710571289e+00,2.504400491714477539e+00,2.452764987945556641e+00,2.403215885162353516e+00,2.355628967285156250e+00,2.309890031814575195e+00,2.265893697738647461e+00,2.223541736602783203e+00,2.182744026184082031e+00,2.143416643142700195e+00,2.105481147766113281e+00,2.068865060806274414e+00,2.033500909805297852e+00,1.999325513839721680e+00,1.966279625892639160e+00,1.934308409690856934e+00,1.903360366821289062e+00,1.873386859893798828e+00,1.844342827796936035e+00
5.000000000000000000e+00,5.000000000000000000e+00,5.000000000000000000e+00,5.000000000000000000e+00,5.000000000000000000e+00,5.000000000000000000e+00,5.000000000000000000e+00,5.000000000000000000e+00,5.000000000000000000e+00,5.000000000000000000e+00,5.000000000000000000e+00,5.000000000000000000e+00,5.000000000000000000e+00,5.000000000000000000e+00,5.000000000000000000e+00,5.000000000000000000e+00,1.795542597770690918e+00,1.746792793273925781e+00,1.773782253265380859e+00,5.000000000000000000e+00,1.734744906425476074e+00,1.681860685348510742e+00,1.648930668830871582e+00,1.643706083297729492e+00,1.646778225898742676e+00,1.675469279289245605e+00,1.884050250053405762e+00,1.919352293014526367e+00,5.000000000000000000e+00,5.000000000000000000e+00,5.000000000000000000e+00,5.000000000000000000e+00,5.000000000000000000e+00,5.000000000000000000e+00,5.000000000000000000e+00,5.000000000000000000e+00,5.000000000000000000e+00,5.000000000000000000e+00,5.000000000000000000e+00,4.855447292327880859e+00,4.665044784545898438e+00,4.489011764526367188e+00,4.325780868530273438e+00,4.174004077911376953e+00,4.032517433166503906e+00,3.900308132171630859e+00,3.776492595672607422e+00,3.660296201705932617e+00,3.551036834716796875e+00,3.448111057281494141e+00,3.350983619689941406e+00,3.259178638458251953e+00,3.172269344329833984e+00,3.089874982833862305e+00,3.011651992797851562e+00,2.937292098999023438e+00,2.866515636444091797e+00,2.799069643020629883e+00,2.734724760055541992e+00,2.673271656036376953e+00,2.614519834518432617e+00,2.558294534683227539e+00,2.504436731338500977e+00,2.452800035476684570e+00,2.403249263763427734e+00,2.355661392211914062e+00,2.309921026229858398e+00,2.265923500061035156e+00,2.223570585250854492e+00,2.182771921157836914e+00,2.143443346023559570e+00,2.105506896972656250e+00,2.068889856338500977e+00,2.033524990081787109e+00,1.999348521232604980e+00,1.966302037239074707e+00,1.934330224990844727e+00,1.903381347656250000e+00,1.873407363891601562e+00,1.844362735748291016e+00
5.000000000000000000e+00,5.000000000000000000e+00,5.000000000000000000e+00,5.000000000000000000e+00,5.000000000000000000e+00,5.000000000000000000e+00,5.000000000000000000e+00,5.000000000000000000e+00,5.000000000000000000e+00,5.000000000000000000e+00,5.000000000000000000e+00,5.000000000000000000e+00,5.000000000000000000e+00,5.000000000000000000e+00,5.000000000000000000e+00,5.000000000000000000e+00,1.778362035751342773e+00,1.740735888481140137e+00,5.000000000000000000e+00,5.000000000000000000e+00,5.000000000000000000e+00,1.692903280258178711e+00,1.655454277992248535e+00,1.634620189666748047e+00,1.633881449699401855e+00,1.654988050460815430e+00,1.697342634201049805e+00,1.937561511993408203e+00,5.000000000000000000e+00,5.000000000000000000e+00,5.000000000000000000e+00,5.000000000000000000e+00,5.000000000000000000e+00,5.000000000000000000e+00,5.000000000000000000e+00,5.000000000000000000e+00,5.000000000000000000e+00,5.000000000000000000e+00,5.000000000000000000e+00,4.855584621429443359e+00,4.665171623229980469e+00,4.489129066467285156e+00,4.325889587402343750e+00,4.174105644226074219e+00,4.032611846923828125e+00,3.900396585464477539e+00,3.776575565338134766e+00,3.660373926162719727e+00,3.551110029220581055e+00,3.448180198669433594e+00,3.351048946380615234e+00,3.259240150451660156e+00,3.172327756881713867e+00,3.089930295944213867e+00,3.011704683303833008e+00,2.937342166900634766e+00,2.866563320159912109e+00,2.799115180969238281e+00,2.734768152236938477e+00,2.673313140869140625e+00,2.614559412002563477e+00,2.558332681655883789e+00,2.504473209381103516e+00,2.452835083007812500e+00,2.403282880783081055e+00,2.355693578720092773e+00,2.309952259063720703e+00,2.265953302383422852e+00,2.223599195480346680e+00,2.182799577713012695e+00,2.143470048904418945e+00,2.105532646179199219e+00,2.068914651870727539e+00,2.033549070358276367e+00,1.999371886253356934e+00,1.966324567794799805e+00,1.934351921081542969e+00,1.903402566909790039e+00,1.873427748680114746e+00,1.844382405281066895e+00
5.000000000000000000e+00,5.000000000000000000e+00,5.000000000000000000e+00,5.000000000000000000e+00,5.000000000000000000e+00,5.000000000000000000e+00,5.000000000000000000e+00,5.000000000000000000e+00,5.000000000000000000e+00,5.000000000000000000e+00,5.000000000000000000e+00,5.000000000000000000e+00,5.000000000000000000e+00,5.000000000000000000e+00,5.000000000000000000e+00,5.000000000000000000e+00,1.800256252288818359e+00,1.734779000282287598e+00,5.000000000000000000e+00,5.000000000000000000e+00,5.000000000000000000e+00,1.708278298377990723e+00,1.661500215530395508e+00,1.628658294677734375e+00,1.624115228652954102e+00,1.634939908981323242e+00,1.673535943031311035e+00,1.959583997726440430e+00,5.000000000000000000e+00,5.000000000000000000e+00,5.000000000000000000e+00,5.000000000000000000e+00,5.000000000000000000e+00,5.000000000000000000e+00,5.000000000000000000e+00,5.000000000000000000e+00,5.000000000000000000e+00,5.000000000000000000e+00,5.000000000000000000e+00,4.855721473693847656e+00,4.665297985076904297e+00,4.489246368408203125e+00,4.325998306274414062e+00,4.174206733703613281e+00,4.032706260681152344e+00,3.900484800338745117e+00,3.776658535003662109e+00,3.660451889038085938e+00,3.551183462142944336e+00,3.448249340057373047e+00,3.351114273071289062e+00,3.259301900863647461e+00,3.172386407852172852e+00,3.089985847473144531e+00,3.011757373809814453e+00,2.937392473220825195e+00,2.866611242294311523e+00,2.799160957336425781e+00,2.734811544418334961e+00,2.673354625701904297e+00,2.614599227905273438e+00,2.558370590209960938e+00,2.504509687423706055e+00,2.452869892120361328e+00,2.403316736221313477e+00,2.355725765228271484e+00,2.309983253479003906e+00,2.265983104705810547e+00,2.223628044128417969e+00,2.182827234268188477e+00,2.143496751785278320e+00,2.105558395385742188e+00,2.068939685821533203e+00,2.033572912216186523e+00,1.999395012855529785e+00,1.966346979141235352e+00,1.934373736381530762e+00,1.903423428535461426e+00,1.873448252677917480e+00,1.844402194023132324e+00
5.000000000000000000e+00,5.000000000000000000e+00,5.000000000000000000e+00,5.000000000000000000e+00,5.000000000000000000e+00,5.000000000000000000e+00,5.000000000000000000e+00,5.000000000000000000e+00,5.000000000000000000e+00,5.000000000000000000e+00,5.000000000000000000e+00,5.000000000000000000e+00,5.000000000000000000e+00,5.000000000000000000e+00,5.000000000000000000e+00,5.000000000000000000e+00,1.768797993659973145e+00,5.000000000000000000e+00,5.000000000000000000e+00,5.000000000000000000e+00,5.000000000000000000e+00,5.000000000000000000e+00,1.672112703323364258e+00,1.632812261581420898e+00,1.617700457572937012e+00,1.617126107215881348e+00,1.651834726333618164e+00,5.000000000000000000e+00,5.000000000000000000e+00,5.000000000000000000e+00,5.000000000000000000e+00,5.000000000000000000e+00,5.000000000000000000e+00,5.000000000000000000e+00,5.000000000000000000e+00,5.000000000000000000e+00,5.000000000000000000e+00,5.000000000000000000e+00,5.000000000000000000e+00,4.855858802795410156e+00,4.665424346923828125e+00,4.489363670349121094e+00,4.326107025146484375e+00,4.174307823181152344e+00,4.032800674438476562e+00,3.900573253631591797e+00,3.776741266250610352e+00,3.660529613494873047e+00,3.551256656646728516e+00,3.448318481445312500e+00,3.351179838180541992e+00,3.259363651275634766e+00,3.172444820404052734e+00,3.090041399002075195e+00,3.011810064315795898e+00,2.937442541122436523e+00,2.866658926010131836e+00,2.799206495285034180e+00,2.734854936599731445e+00,2.673396348953247070e+00,2.614639043807983398e+00,2.558408737182617188e+00,2.504546165466308594e+00,2.452904939651489258e+00,2.403350114822387695e+00,2.355757951736450195e+00,2.310014247894287109e+00,2.266012907028198242e+00,2.223656654357910156e+00,2.182854890823364258e+00,2.143523454666137695e+00,2.105584144592285156e+00,2.068964481353759766e+00,2.033596992492675781e+00,1.999418377876281738e+00,1.966369509696960449e+00,1.934395313262939453e+00,1.903444647789001465e+00,1.873468518257141113e+00,1.844421863555908203e+00
5.000000000000000000e+00,5.000000000000000000e+00,5.000000000000000000e+00,5.000000000000000000e+00,5.000000000000000000e+00,5.000000000000000000e+00,5.000000000000000000e+00,5.000000000000000000e+00,5.000000000000000000e+00,5.000000000000000000e+00,5.000000000000000000e+00,5.000000000000000000e+00,5.000000000000000000e+00,5.000000000000000000e+00,5.000000000000000000e+00,5.000000000000000000e+00,5.000000000000000000e+00,5.000000000000000000e+00,5.000000000000000000e+00,5.000000000000000000e+00,5.000000000000000000e+00,5.000000000000000000e+00,1.680487871170043945e+00,1.640467166900634766e+00,1.615583300590515137e+00,1.609672904014587402e+00,1.638985395431518555e+00,5.000000000000000000e+00,5.000000000000000000e+00,5.000000000000000000e+00,5.000000000000000000e+00,5.000000000000000000e+00,5.000000000000000000e+00,5.000000000000000000e+00,5.000000000000000000e+00,5.000000000000000000e+00,5.000000000000000000e+00,5.000000000000000000e+00,5.000000000000000000e+00,4.855995655059814453e+00,4.665550708770751953e+00,4.489480495452880859e+00,4.326216220855712891e+00,4.174409389495849609e+00,4.032895088195800781e+00,3.900661706924438477e+00,3.776824235916137695e+00,3.660607576370239258e+00,3.551330089569091797e+00,3.448387622833251953e+00,3.351244926452636719e+00,3.259425401687622070e+00,3.172503232955932617e+00,3.090096950531005859e+00,3.011862754821777344e+00,2.937492609024047852e+00,2.866706609725952148e+00,2.799252033233642578e+00,2.734898567199707031e+00,2.673437833786010742e+00,2.614678621292114258e+00,2.558446645736694336e+00,2.504582643508911133e+00,2.452939987182617188e+00,2.403383731842041016e+00,2.355790376663208008e+00,2.310045242309570312e+00,2.266042709350585938e+00,2.223685503005981445e+00,2.182882547378540039e+00,2.143550157546997070e+00,2.105610132217407227e+00,2.068989276885986328e+00,2.033621072769165039e+00,1.999441504478454590e+00,1.966392159461975098e+00,1.934417247772216797e+00,1.903465628623962402e+00,1.873489022254943848e+00,1.844441771507263184e+00
5.000000000000000000e+00,5.000000000000000000e+00,5.000000000000000000e+00,5.000000000000000000e+00,5.000000000000000000e+00,5.000000000000000000e+00,5.000000000000000000e+00,5.000000000000000000e+00,5.000000000000000000e+00,5.000000000000000000e+00,5.000000000000000000e+00,5.000000000000000000e+00,5.000000000000000000e+00,5.000000000000000000e+00,5.000000000000000000e+00,5.000000000000000000e+00,5.000000000000000000e+00,5.000000000000000000e+00,5.000000000000000000e+00,5.000000000000000000e+00,5.000000000000000000e+00,5.000000000000000000e+00,1.688961386680603027e+00,1.645509958267211914e+00,1.618297576904296875e+00,1.612101078033447266e+00,1.642056107521057129e+00,5.000000000000000000e+00,5.000000000000000000e+00,5.000000000000000000e+00,5.000000000000000000e+00,5.000000000000000000e+00,5.000000000000000000e+00,5.000000000000000000e+00,5.000000000000000000e+00,5.000000000000000000e+00,5.000000000000000000e+00,5.000000000000000000e+00,5.000000000000000000e+00,4.856132507324218750e+00,4.665677547454833984e+00,4.489597797393798828e+00,4.326324939727783203e+00,4.174510955810546875e+00,4.032989978790283203e+00,3.900750160217285156e+00,3.776907205581665039e+00,3.660685539245605469e+00,3.551403284072875977e+00,3.448456764221191406e+00,3.351310253143310547e+00,3.259487152099609375e+00,3.172561883926391602e+00,3.090152263641357422e+00,3.011915445327758789e+00,2.937542915344238281e+00,2.866754531860351562e+00,2.799297571182250977e+00,2.734941959381103516e+00,2.673479318618774414e+00,2.614718437194824219e+00,2.558485031127929688e+00,2.504619121551513672e+00,2.452974796295166016e+00,2.403417348861694336e+00,2.355822563171386719e+00,2.310076236724853516e+00,2.266072750091552734e+00,2.223714351654052734e+00,2.182910203933715820e+00,2.143576860427856445e+00,2.105635881423950195e+00,2.069014310836791992e+00,2.033645153045654297e+00,1.999464869499206543e+00,1.966414451599121094e+00,1.934438824653625488e+00,1.903486728668212891e+00,1.873509287834167480e+00,1.844461441040039062e+00
5.000000000000000000e+00,5.000000000000000000e+00,5.000000000000000000e+00,5.000000000000000000e+00,5.000000000000000000e+00,5.000000000000000000e+00,5.000000000000000000e+00,5.000000000000000000e+00,5.000000000000000000e+00,5.000000000000000000e+00,5.000000000000000000e+00,5.000000000000000000e+00,5.000000000000000000e+00,5.000000000000000000e+00,5.000000000000000000e+00,5.000000000000000000e+00,5.000000000000000000e+00,5.000000000000000000e+00,5.000000000000000000e+00,5.000000000000000000e+00,5.000000000000000000e+00,5.000000000000000000e+00,5.000000000000000000e+00,1.639494299888610840e+00,1.625115156173706055e+00,1.617843151092529297e+00,1.648013949394226074e+00,5.000000000000000000e+00,5.000000000000000000e+00,5.000000000000000000e+00,5.000000000000000000e+00,5.000000000000000000e+00,5.000000000000000000e+00,5.000000000000000000e+00,5.000000000000000000e+00,5.000000000000000000e+00,5.000000000000000000e+00,5.000000000000000000e+00,5.000000000000000000e+00,4.856269836425781250e+00,4.665803909301757812e+00,4.489715099334716797e+00,4.326433658599853516e+00,4.174612045288085938e+00,4.033084392547607422e+00,3.900838613510131836e+00,3.776989936828613281e+00,3.660763263702392578e+00,3.551476478576660156e+00,3.448525905609130859e+00,3.351375579833984375e+00,3.259548902511596680e+00,3.172620296478271484e+00,3.090207815170288086e+00,3.011968612670898438e+00,2.937592983245849609e+00,2.866802215576171875e+00,2.799343109130859375e+00,2.734985351562500000e+00,2.673520803451538086e+00,2.614758014678955078e+00,2.558522939682006836e+00,2.504655599594116211e+00,2.453009843826293945e+00,2.403450965881347656e+00,2.355854749679565430e+00,2.310107231140136719e+00,2.266102552413940430e+00,2.223742961883544922e+00,2.182937860488891602e+00,2.143603563308715820e+00,2.105661630630493164e+00,2.069039106369018555e+00,2.033669233322143555e+00,1.999487996101379395e+00,1.966437101364135742e+00,1.934460759162902832e+00,1.903507709503173828e+00,1.873529791831970215e+00,1.844481348991394043e+00
5.000000000000000000e+00,5.000000000000000000e+00,5.000000000000000000e+00,5.000000000000000000e+00,5.000000000000000000e+00,5.000000000000000000e+00,5.000000000000000000e+00,5.000000000000000000e+00,5.000000000000000000e+00,5.000000000000000000e+00,5.000000000000000000e+00,5.000000000000000000e+00,5.000000000000000000e+00,5.000000000000000000e+00,5.000000000000000000e+00,5.000000000000000000e+00,5.000000000000000000e+00,5.000000000000000000e+00,5.000000000000000000e+00,5.000000000000000000e+00,5.000000000000000000e+00,5.000000000000000000e+00,1.957103848457336426e+00,1.636270284652709961e+00,1.628301143646240234e+00,1.625318527221679688e+00,1.658592581748962402e+00,5.000000000000000000e+00,5.000000000000000000e+00,5.000000000000000000e+00,5.000000000000000000e+00,5.000000000000000000e+00,5.000000000000000000e+00,5.000000000000000000e+00,5.000000000000000000e+00,5.000000000000000000e+00,5.000000000000000000e+00,5.000000000000000000e+00,5.000000000000000000e+00,4.856406688690185547e+00,4.665930271148681641e+00,4.489831924438476562e+00,4.326542377471923828e+00,4.174713134765625000e+00,4.033178806304931641e+00,3.900927066802978516e+00,3.777072906494140625e+00,3.660841464996337891e+00,3.551549911499023438e+00,3.448594808578491211e+00,3.351440906524658203e+00,3.259610652923583984e+00,3.172678709030151367e+00,3.090263366699218750e+00,3.012021303176879883e+00,2.937643051147460938e+00,2.866849899291992188e+00,2.799388647079467773e+00,2.735028982162475586e+00,2.673562288284301758e+00,2.614797830581665039e+00,2.558561086654663086e+00,2.504692077636718750e+00,2.453044891357421875e+00,2.403484582901000977e+00,2.355887174606323242e+00,2.310138225555419922e+00,2.266132354736328125e+00,2.223771810531616211e+00,2.182965755462646484e+00,2.143630266189575195e+00,2.105687379837036133e+00,2.069063901901245117e+00,2.033693313598632812e+00,1.999511361122131348e+00,1.966459393501281738e+00,1.934482336044311523e+00,1.903528809547424316e+00,1.873550057411193848e+00,1.844501137733459473e+00
5.000000000000000000e+00,5.000000000000000000e+00,5.000000000000000000e+00,5.000000000000000000e+00,5.000000000000000000e+00,5.000000000000000000e+00,5.000000000000000000e+00,5.000000000000000000e+00,5.000000000000000000e+00,5.000000000000000000e+00,5.000000000000000000e+00,5.000000000000000000e+00,5.000000000000000000e+00,5.000000000000000000e+00,5.000000000000000000e+00,5.000000000000000000e+00,5.000000000000000000e+00,5.000000000000000000e+00,5.000000000000000000e+00,5.000000000000000000e+00,5.000000000000000000e+00,5.000000000000000000e+00,1.975418567657470703e+00,1.638402462005615234e+00,1.631499648094177246e+00,1.632964968681335449e+00,1.673209786415100098e+00,5.000000000000000000e+00,5.000000000000000000e+00,5.000000000000000000e+00,5.000000000000000000e+00,5.000000000000000000e+00,5.000000000000000000e+00,5.000000000000000000e+00,5.000000000000000000e+00,5.000000000000000000e+00,5.000000000000000000e+00,5.000000000000000000e+00,5.000000000000000000e+00,4.856544017791748047e+00,4.666057109832763672e+00,4.489949226379394531e+00,4.326651096343994141e+00,4.174814701080322266e+00,4.033273220062255859e+00,3.901015520095825195e+00,3.777155876159667969e+00,3.660919427871704102e+00,3.551623106002807617e+00,3.448663949966430664e+00,3.351506233215332031e+00,3.259672403335571289e+00,3.172737360000610352e+00,3.090318918228149414e+00,3.012073993682861328e+00,2.937693357467651367e+00,2.866897821426391602e+00,2.799434185028076172e+00,2.735072374343872070e+00,2.673604011535644531e+00,2.614837646484375000e+00,2.558598995208740234e+00,2.504728555679321289e+00,2.453079700469970703e+00,2.403517961502075195e+00,2.355919361114501953e+00,2.310169219970703125e+00,2.266162157058715820e+00,2.223800420761108398e+00,2.182993412017822266e+00,2.143656969070434570e+00,2.105713129043579102e+00,2.069088935852050781e+00,2.033717155456542969e+00,1.999534487724304199e+00,1.966482043266296387e+00,1.934504270553588867e+00,1.903549790382385254e+00,1.873570561408996582e+00,1.844520807266235352e+00
5.000000000000000000e+00,5.000000000000000000e+00,5.000000000000000000e+00,5.000000000000000000e+00,5.000000000000000000e+00,5.000000000000000000e+00,5.000000000000000000e+00,5.000000000000000000e+00,5.000000000000000000e+00,5.000000000000000000e+00,5.000000000000000000e+00,5.000000000000000000e+00,5.000000000000000000e+00,5.000000000000000000e+00,5.000000000000000000e+00,5.000000000000000000e+00,5.000000000000000000e+00,5.000000000000000000e+00,5.000000000000000000e+00,5.000000000000000000e+00,5.000000000000000000e+00,2.024334192276000977e+00,1.993434071540832520e+00,1.640761733055114746e+00,1.633804082870483398e+00,1.636124491691589355e+00,1.680265426635742188e+00,5.000000000000000000e+00,5.000000000000000000e+00,5.000000000000000000e+00,5.000000000000000000e+00,5.000000000000000000e+00,5.000000000000000000e+00,5.000000000000000000e+00,5.000000000000000000e+00,5.000000000000000000e+00,5.000000000000000000e+00,5.000000000000000000e+00,5.000000000000000000e+00,4.856680870056152344e+00,4.666183948516845703e+00,4.490066528320312500e+00,4.326760292053222656e+00,4.174915790557861328e+00,4.033368110656738281e+00,3.901103973388671875e+00,3.777238845825195312e+00,3.660997390747070312e+00,3.551696538925170898e+00,3.448733091354370117e+00,3.351571321487426758e+00,3.259734153747558594e+00,3.172795772552490234e+00,3.090374231338500977e+00,3.012126684188842773e+00,2.937743425369262695e+00,2.866945505142211914e+00,2.799479722976684570e+00,2.735116004943847656e+00,2.673645496368408203e+00,2.614877223968505859e+00,2.558637142181396484e+00,2.504765033721923828e+00,2.453114748001098633e+00,2.403551578521728516e+00,2.355951786041259766e+00,2.310200214385986328e+00,2.266191959381103516e+00,2.223829269409179688e+00,2.183021068572998047e+00,2.143683671951293945e+00,2.105738878250122070e+00,2.069113969802856445e+00,2.033741235733032227e+00,1.999557733535766602e+00,1.966504335403442383e+00,1.934525847434997559e+00,1.903571009635925293e+00,1.873590946197509766e+00,1.844540715217590332e+00
5.000000000000000000e+00,5.000000000000000000e+00,5.000000000000000000e+00,5.000000000000000000e+00,5.000000000000000000e+00,5.000000000000000000e+00,5.000000000000000000e+00,5.000000000000000000e+00,5.000000000000000000e+00,5.000000000000000000e+00,5.000000000000000000e+00,5.000000000000000000e+00,5.000000000000000000e+00,5.000000000000000000e+00,5.000000000000000000e+00,5.000000000000000000e+00,5.000000000000000000e+00,5.000000000000000000e+00,5.000000000000000000e+00,5.000000000000000000e+00,5.000000000000000000e+00,2.033810377120971680e+00,2.014287710189819336e+00,1.642417550086975098e+00,1.630655050277709961e+00,1.632848143577575684e+00,1.671881914138793945e+00,5.000000000000000000e+00,5.000000000000000000e+00,5.000000000000000000e+00,5.000000000000000000e+00,5.000000000000000000e+00,5.000000000000000000e+00,5.000000000000000000e+00,5.000000000000000000e+00,5.000000000000000000e+00,5.000000000000000000e+00,5.000000000000000000e+00,5.000000000000000000e+00,4.856817245483398438e+00,4.666310310363769531e+00,4.490183353424072266e+00,4.326869010925292969e+00,4.175017356872558594e+00,4.033462524414062500e+00,3.901192426681518555e+00,3.777321577072143555e+00,3.661075353622436523e+00,3.551769733428955078e+00,3.448802232742309570e+00,3.351636648178100586e+00,3.259796142578125000e+00,3.172854423522949219e+00,3.090429782867431641e+00,3.012179374694824219e+00,2.937793731689453125e+00,2.866993188858032227e+00,2.799525260925292969e+00,2.735159635543823242e+00,2.673686981201171875e+00,2.614917039871215820e+00,2.558675050735473633e+00,2.504801511764526367e+00,2.453149795532226562e+00,2.403585195541381836e+00,2.355983972549438477e+00,2.310231208801269531e+00,2.266222000122070312e+00,2.223857879638671875e+00,2.183048725128173828e+00,2.143710374832153320e+00,2.105764627456665039e+00,2.069138765335083008e+00,2.033765316009521484e+00,1.999580860137939453e+00,1.966526985168457031e+00,1.934547662734985352e+00,1.903591871261596680e+00,1.873611450195312500e+00,1.844560384750366211e+00
5.000000000000000000e+00,5.000000000000000000e+00,5.000000000000000000e+00,5.000000000000000000e+00,5.000000000000000000e+00,5.000000000000000000e+00,5.000000000000000000e+00,5.000000000000000000e+00,5.000000000000000000e+00,5.000000000000000000e+00,5.000000000000000000e+00,5.000000000000000000e+00,5.000000000000000000e+00,5.000000000000000000e+00,5.000000000000000000e+00,5.000000000000000000e+00,5.000000000000000000e+00,5.000000000000000000e+00,5.000000000000000000e+00,5.000000000000000000e+00,5.000000000000000000e+00,2.037644863128662109e+00,2.029482841491699219e+00,1.643979072570800781e+00,1.629615545272827148e+00,1.629585027694702148e+00,1.663050770759582520e+00,5.000000000000000000e+00,5.000000000000000000e+00,5.000000000000000000e+00,5.000000000000000000e+00,5.000000000000000000e+00,5.000000000000000000e+00,5.000000000000000000e+00,5.000000000000000000e+00,5.000000000000000000e+00,5.000000000000000000e+00,5.000000000000000000e+00,5.000000000000000000e+00,4.856955528259277344e+00,4.666436672210693359e+00,4.490300655364990234e+00,4.326977729797363281e+00,4.175118446350097656e+00,4.033557415008544922e+00,3.901280879974365234e+00,3.777404546737670898e+00,3.661153078079223633e+00,3.551843166351318359e+00,3.448871374130249023e+00,3.351701974868774414e+00,3.259857892990112305e+00,3.172912836074829102e+00,3.090485334396362305e+00,3.012232065200805664e+00,2.937843799591064453e+00,2.867041110992431641e+00,2.799570798873901367e+00,2.735203027725219727e+00,2.673728466033935547e+00,2.614956855773925781e+00,2.558713197708129883e+00,2.504837751388549805e+00,2.453184604644775391e+00,2.403618812561035156e+00,2.356016159057617188e+00,2.310262203216552734e+00,2.266251802444458008e+00,2.223886728286743164e+00,2.183076381683349609e+00,2.143737077713012695e+00,2.105790376663208008e+00,2.069163560867309570e+00,2.033789396286010742e+00,1.999604225158691406e+00,1.966549277305603027e+00,1.934569597244262695e+00,1.903613090515136719e+00,1.873631715774536133e+00,1.844580292701721191e+00
5.000000000000000000e+00,5.000000000000000000e+00,5.000000000000000000e+00,5.000000000000000000e+00,5.000000000000000000e+00,5.000000000000000000e+00,5.000000000000000000e+00,5.000000000000000000e+00,5.000000000000000000e+00,5.000000000000000000e+00,5.000000000000000000e+00,5.000000000000000000e+00,5.000000000000000000e+00,5.000000000000000000e+00,5.000000000000000000e+00,5.000000000000000000e+00,5.000000000000000000e+00,5.000000000000000000e+00,5.000000000000000000e+00,5.000000000000000000e+00,5.000000000000000000e+00,2.043517827987670898e+00,2.044635534286499023e+00,1.645543575286865234e+00,1.631207585334777832e+00,1.626335024833679199e+00,1.654217243194580078e+00,5.000000000000000000e+00,5.000000000000000000e+00,5.000000000000000000e+00,5.000000000000000000e+00,5.000000000000000000e+00,5.000000000000000000e+00,5.000000000000000000e+00,5.000000000000000000e+00,5.000000000000000000e+00,5.000000000000000000e+00,5.000000000000000000e+00,5.000000000000000000e+00,4.857093334197998047e+00,4.666563034057617188e+00,4.490417957305908203e+00,4.327086448669433594e+00,4.175220012664794922e+00,4.033651828765869141e+00,3.901369333267211914e+00,3.777487516403198242e+00,3.661231040954589844e+00,3.551916360855102539e+00,3.448940515518188477e+00,3.351767301559448242e+00,3.259919643402099609e+00,3.172971248626708984e+00,3.090540885925292969e+00,3.012284994125366211e+00,2.937893867492675781e+00,2.867088794708251953e+00,2.799616336822509766e+00,2.735246419906616211e+00,2.673770189285278320e+00,2.614996433258056641e+00,2.558751344680786133e+00,2.504874467849731445e+00,2.453219652175903320e+00,2.403652429580688477e+00,2.356048583984375000e+00,2.310293197631835938e+00,2.266281604766845703e+00,2.223915576934814453e+00,2.183104276657104492e+00,2.143763780593872070e+00,2.105816125869750977e+00,2.069188594818115234e+00,2.033813476562500000e+00,1.999627351760864258e+00,1.966571927070617676e+00,1.934591174125671387e+00,1.903634071350097656e+00,1.873652219772338867e+00,1.844599962234497070e+00
5.000000000000000000e+00,5.000000000000000000e+00,5.000000000000000000e+00,5.000000000000000000e+00,5.000000000000000000e+00,5.000000000000000000e+00,5.000000000000000000e+00,5.000000000000000000e+00,5.000000000000000000e+00,5.000000000000000000e+00,5.000000000000000000e+00,5.000000000000000000e+00,5.000000000000000000e+00,5.000000000000000000e+00,5.000000000000000000e+00,5.000000000000000000e+00,5.000000000000000000e+00,5.000000000000000000e+00,5.000000000000000000e+00,5.000000000000000000e+00,2.079061031341552734e+00,2.053882122039794922e+00,2.059862136840820312e+00,1.647111058235168457e+00,1.632838129997253418e+00,1.625141143798828125e+00,1.645476937294006348e+00,5.000000000000000000e+00,5.000000000000000000e+00,5.000000000000000000e+00,5.000000000000000000e+00,5.000000000000000000e+00,5.000000000000000000e+00,5.000000000000000000e+00,5.000000000000000000e+00,5.000000000000000000e+00,5.000000000000000000e+00,5.000000000000000000e+00,5.000000000000000000e+00,4.857231616973876953e+00,4.666690826416015625e+00,4.490534782409667969e+00,4.327195644378662109e+00,4.175321102142333984e+00,4.033746242523193359e+00,3.901457786560058594e+00,3.777570486068725586e+00,3.661309003829956055e+00,3.551989793777465820e+00,3.449009656906127930e+00,3.351832628250122070e+00,3.259981393814086914e+00,3.173029899597167969e+00,3.090596437454223633e+00,3.012337684631347656e+00,2.937944412231445312e+00,2.867136478424072266e+00,2.799661874771118164e+00,2.735290050506591797e+00,2.673811674118041992e+00,2.615036249160766602e+00,2.558789253234863281e+00,2.504910945892333984e+00,2.453254699707031250e+00,2.403686046600341797e+00,2.356080770492553711e+00,2.310324430465698242e+00,2.266311407089233398e+00,2.223944187164306641e+00,2.183131933212280273e+00,2.143790483474731445e+00,2.105841875076293945e+00,2.069213390350341797e+00,2.033837318420410156e+00,1.999650716781616211e+00,1.966594338417053223e+00,1.934613108634948730e+00,1.903655171394348145e+00,1.873672485351562500e+00,1.844619870185852051e+00
5.000000000000000000e+00,5.000000000000000000e+00,5.000000000000000000e+00,5.000000000000000000e+00,5.000000000000000000e+00,5.000000000000000000e+00,5.000000000000000000e+00,5.000000000000000000e+00,5.000000000000000000e+00,5.000000000000000000e+00,5.000000000000000000e+00,5.000000000000000000e+00,5.000000000000000000e+00,5.000000000000000000e+00,5.000000000000000000e+00,5.000000000000000000e+00,5.000000000000000000e+00,5.000000000000000000e+00,5.000000000000000000e+00,5.000000000000000000e+00,2.088838577270507812e+00,2.070146322250366211e+00,2.075711250305175781e+00,1.648681521415710449e+00,1.634737372398376465e+00,1.626763939857482910e+00,1.638188004493713379e+00,5.000000000000000000e+00,5.000000000000000000e+00,5.000000000000000000e+00,5.000000000000000000e+00,5.000000000000000000e+00,5.000000000000000000e+00,5.000000000000000000e+00,5.000000000000000000e+00,5.000000000000000000e+00,5.000000000000000000e+00,5.000000000000000000e+00,5.000000000000000000e+00,4.857369422912597656e+00,4.666817665100097656e+00,4.490653038024902344e+00,4.327303886413574219e+00,4.175422668457031250e+00,4.033841133117675781e+00,3.901546239852905273e+00,3.777653455734252930e+00,3.661386728286743164e+00,3.552063465118408203e+00,3.449078798294067383e+00,3.351897954940795898e+00,3.260043382644653320e+00,3.173088312149047852e+00,3.090651988983154297e+00,3.012390375137329102e+00,2.937994480133056641e+00,2.867184400558471680e+00,2.799707412719726562e+00,2.735333442687988281e+00,2.673853158950805664e+00,2.615076065063476562e+00,2.558827400207519531e+00,2.504947423934936523e+00,2.453289508819580078e+00,2.403719425201416016e+00,2.356112957000732422e+00,2.310355424880981445e+00,2.266341209411621094e+00,2.223973035812377930e+00,2.183159589767456055e+00,2.143817186355590820e+00,2.105867624282836914e+00,2.069238185882568359e+00,2.033861398696899414e+00,1.999673843383789062e+00,1.966616868972778320e+00,1.934634685516357422e+00,1.903676152229309082e+00,1.873692989349365234e+00,1.844639539718627930e+00
5.000000000000000000e+00,5.000000000000000000e+00,5.000000000000000000e+00,5.000000000000000000e+00,5.000000000000000000e+00,5.000000000000000000e+00,5.000000000000000000e+00,5.000000000000000000e+00,5.000000000000000000e+00,5.000000000000000000e+00,5.000000000000000000e+00,5.000000000000000000e+00,5.000000000000000000e+00,5.000000000000000000e+00,5.000000000000000000e+00,5.000000000000000000e+00,5.000000000000000000e+00,5.000000000000000000e+00,5.000000000000000000e+00,5.000000000000000000e+00,2.098504543304443359e+00,2.086946725845336914e+00,2.116984128952026367e+00,1.676002621650695801e+00,1.637345194816589355e+00,1.626871824264526367e+00,1.631294369697570801e+00,5.000000000000000000e+00,5.000000000000000000e+00,5.000000000000000000e+00,5.000000000000000000e+00,5.000000000000000000e+00,5.000000000000000000e+00,5.000000000000000000e+00,5.000000000000000000e+00,5.000000000000000000e+00,5.000000000000000000e+00,5.000000000000000000e+00,5.000000000000000000e+00,4.857507228851318359e+00,4.666945457458496094e+00,4.490770816802978516e+00,4.327413082122802734e+00,4.175523757934570312e+00,4.033935546875000000e+00,3.901634693145751953e+00,3.777736186981201172e+00,3.661464691162109375e+00,3.552136659622192383e+00,3.449147939682006836e+00,3.351963043212890625e+00,3.260105133056640625e+00,3.173146963119506836e+00,3.090707302093505859e+00,3.012443065643310547e+00,2.938044786453247070e+00,2.867232084274291992e+00,2.799752950668334961e+00,2.735377073287963867e+00,2.673894882202148438e+00,2.615115880966186523e+00,2.558865308761596680e+00,2.504983901977539062e+00,2.453324556350708008e+00,2.403753042221069336e+00,2.356145381927490234e+00,2.310386419296264648e+00,2.266371250152587891e+00,2.224001646041870117e+00,2.183187484741210938e+00,2.143843889236450195e+00,2.105893611907958984e+00,2.069263219833374023e+00,2.033885717391967773e+00,1.999697208404541016e+00,1.966639280319213867e+00,1.934656620025634766e+00,1.903697371482849121e+00,1.873713254928588867e+00,1.844659328460693359e+00
4.874510288238525391e+00,4.873312950134277344e+00,4.872116565704345703e+00,4.870920658111572266e+00,4.869725227355957031e+00,4.868529796600341797e+00,4.867335796356201172e+00,4.866142272949218750e+00,4.864949226379394531e+00,4.863756656646728516e+00,4.862564563751220703e+00,4.861373424530029297e+00,4.860182285308837891e+00,4.858992099761962891e+00,4.857802867889404297e+00,4.856613636016845703e+00,4.855425357818603516e+00,4.854237556457519531e+00,4.853050708770751953e+00,4.851863861083984375e+00,2.107848882675170898e+00,2.104022264480590820e+00,4.848307132720947266e+00,4.847122669219970703e+00,1.639961481094360352e+00,1.626932382583618164e+00,1.631674408912658691e+00,4.842391014099121094e+00,4.841209411621093750e+00,4.840028762817382812e+00,4.838848590850830078e+00,4.837668895721435547e+00,4.836489677429199219e+00,4.835310935974121094e+00,4.834133148193359375e+00,4.832955360412597656e+00,4.831778526306152344e+00,4.830602169036865234e+00,4.829426288604736328e+00,4.828251361846923828e+00,4.667072772979736328e+00,4.490888595581054688e+00,4.327522754669189453e+00,4.175625324249267578e+00,4.034029960632324219e+00,3.901723146438598633e+00,3.777819156646728516e+00,3.661542654037475586e+00,3.552210092544555664e+00,3.449217081069946289e+00,3.352028369903564453e+00,3.260166883468627930e+00,3.173205375671386719e+00,3.090762853622436523e+00,3.012495756149291992e+00,2.938094854354858398e+00,2.867280006408691406e+00,2.799798488616943359e+00,2.735420465469360352e+00,2.673936605453491211e+00,2.615155458450317383e+00,2.558903455734252930e+00,2.505020380020141602e+00,2.453359603881835938e+00,2.403786659240722656e+00,2.356177568435668945e+00,2.310417652130126953e+00,2.266401052474975586e+00,2.224030494689941406e+00,2.183215141296386719e+00,2.143870592117309570e+00,2.105919361114501953e+00,2.069288015365600586e+00,2.033909559249877930e+00,1.999720335006713867e+00,1.966661810874938965e+00,1.934678196907043457e+00,1.903718352317810059e+00,1.873733758926391602e+00,1.844678997993469238e+00
3.777559041976928711e+00,3.776839971542358398e+00,3.776121139526367188e+00,3.775402784347534180e+00,3.774684429168701172e+00,3.773966550827026367e+00,3.773248910903930664e+00,3.772531509399414062e+00,3.771814584732055664e+00,3.771097183227539062e+00,3.770380735397338867e+00,3.769664525985717773e+00,3.768948316574096680e+00,3.768232583999633789e+00,3.767517328262329102e+00,3.766802072525024414e+00,3.766087055206298828e+00,3.765372514724731445e+00,3.764657974243164062e+00,3.763943910598754883e+00,2.131199598312377930e+00,3.762516498565673828e+00,3.761803388595581055e+00,3.761090278625488281e+00,1.642585992813110352e+00,1.629605412483215332e+00,1.633707046508789062e+00,3.758240461349487305e+00,3.757528781890869141e+00,3.756817340850830078e+00,3.756106376647949219e+00,3.755395412445068359e+00,3.754684925079345703e+00,3.753974437713623047e+00,3.753264427185058594e+00,3.752554655075073242e+00,3.751845121383666992e+00,3.751135826110839844e+00,3.750426530838012695e+00,3.749717712402343750e+00,3.749009370803833008e+00,3.748301029205322266e+00,3.747593164443969727e+00,3.746885538101196289e+00,3.746178150177001953e+00,3.745471000671386719e+00,3.744764089584350586e+00,3.661620616912841797e+00,3.552283525466918945e+00,3.449286222457885742e+00,3.352093696594238281e+00,3.260228633880615234e+00,3.173264265060424805e+00,3.090818405151367188e+00,3.012548685073852539e+00,2.938144922256469727e+00,2.867327690124511719e+00,2.799844026565551758e+00,2.735463857650756836e+00,2.673978090286254883e+00,2.615195274353027344e+00,2.558941602706909180e+00,2.505056858062744141e+00,2.453394651412963867e+00,2.403820276260375977e+00,2.356209754943847656e+00,2.310448646545410156e+00,2.266430854797363281e+00,2.224059104919433594e+00,2.183242797851562500e+00,2.143897294998168945e+00,2.105945110321044922e+00,2.069313049316406250e+00,2.033933639526367188e+00,1.999743700027465820e+00,1.966684222221374512e+00,1.934700131416320801e+00,1.903739452362060547e+00,1.873754143714904785e+00,1.844698905944824219e+00
3.083625316619873047e+00,3.083146333694458008e+00,3.082667350769042969e+00,3.082188367843627930e+00,3.081709861755371094e+00,3.081230878829956055e+00,3.080752611160278320e+00,3.080274343490600586e+00,3.079796314239501953e+00,3.079318284988403320e+00,3.078840494155883789e+00,3.078362941741943359e+00,3.077885389328002930e+00,3.077408075332641602e+00,3.076930761337280273e+00,3.076453685760498047e+00,3.075976848602294922e+00,3.075500249862670898e+00,3.075023412704467773e+00,2.161750316619873047e+00,2.109091043472290039e+00,3.073594331741333008e+00,3.073118209838867188e+00,3.072642326354980469e+00,1.645218968391418457e+00,1.632287383079528809e+00,1.630959868431091309e+00,3.070740461349487305e+00,3.070265293121337891e+00,3.069790363311767578e+00,3.069315433502197266e+00,3.068840742111206055e+00,3.068366289138793945e+00,3.067891836166381836e+00,3.067417621612548828e+00,3.066943168640136719e+00,3.066469192504882812e+00,3.065995454788208008e+00,3.065521955490112305e+00,3.065048456192016602e+00,3.064574956893920898e+00,3.064101696014404297e+00,3.063628673553466797e+00,3.063155651092529297e+00,3.062682867050170898e+00,3.062210321426391602e+00,3.061737775802612305e+00,3.061265468597412109e+00,3.060793161392211914e+00,3.060321092605590820e+00,3.059849023818969727e+00,3.059377193450927734e+00,3.058905601501464844e+00,3.058434009552001953e+00,3.012601375579833984e+00,2.938195228576660156e+00,2.867375373840332031e+00,2.799889564514160156e+00,2.735507488250732422e+00,2.674019575119018555e+00,2.615235090255737305e+00,2.558979511260986328e+00,2.505093336105346680e+00,2.453429460525512695e+00,2.403853893280029297e+00,2.356242179870605469e+00,2.310479640960693359e+00,2.266460657119750977e+00,2.224087953567504883e+00,2.183270454406738281e+00,2.143924236297607422e+00,2.105970859527587891e+00,2.069337844848632812e+00,2.033957719802856445e+00,1.999766826629638672e+00,1.966706752777099609e+00,1.934721708297729492e+00,1.903760671615600586e+00,1.873774647712707520e+00,1.844718575477600098e+00
2.605075597763061523e+00,2.604733467102050781e+00,2.604391574859619141e+00,2.604049921035766602e+00,2.603708028793334961e+00,2.603366613388061523e+00,2.603024959564208984e+00,2.602683544158935547e+00,2.602342367172241211e+00,2.602000951766967773e+00,2.601659774780273438e+00,2.601318836212158203e+00,2.600977897644042969e+00,2.600636959075927734e+00,2.600296258926391602e+00,2.599955320358276367e+00,2.599614620208740234e+00,2.599274158477783203e+00,2.598933696746826172e+00,2.598593235015869141e+00,2.073103904724121094e+00,2.104984283447265625e+00,2.597572803497314453e+00,2.597232818603515625e+00,2.596892833709716797e+00,1.643547296524047852e+00,1.638605833053588867e+00,2.595873594284057617e+00,2.595534086227416992e+00,2.595194578170776367e+00,2.594855308532714844e+00,2.594515800476074219e+00,2.594176530838012695e+00,2.593837499618530273e+00,2.593498468399047852e+00,2.593159437179565430e+00,2.592820644378662109e+00,2.592481851577758789e+00,2.592143297195434570e+00,2.591804742813110352e+00,2.591466188430786133e+00,2.591127872467041016e+00,2.590789556503295898e+00,2.590451240539550781e+00,2.590113162994384766e+00,2.589775085449218750e+00,2.589437007904052734e+00,2.589099168777465820e+00,2.588761329650878906e+00,2.588423728942871094e+00,2.588086128234863281e+00,2.587748527526855469e+00,2.587411165237426758e+00,2.587073802947998047e+00,2.586736440658569336e+00,2.586399316787719727e+00,2.586062192916870117e+00,2.585725307464599609e+00,2.585388422012329102e+00,2.585051536560058594e+00,2.584714889526367188e+00,2.559017658233642578e+00,2.505129814147949219e+00,2.453464746475219727e+00,2.403887510299682617e+00,2.356274366378784180e+00,2.310510635375976562e+00,2.266490459442138672e+00,2.224116802215576172e+00,2.183298110961914062e+00,2.143950939178466797e+00,2.105996608734130859e+00,2.069362640380859375e+00,2.033981800079345703e+00,1.999790191650390625e+00,1.966729164123535156e+00,1.934743642807006836e+00,1.903781533241271973e+00,1.873794913291931152e+00,1.844738483428955078e+00
2.255134344100952148e+00,2.254876852035522461e+00,2.254619359970092773e+00,2.254361867904663086e+00,2.254104375839233398e+00,2.253847122192382812e+00,2.253589868545532227e+00,2.253332853317260742e+00,2.253075599670410156e+00,2.252818346023559570e+00,2.252561569213867188e+00,2.252304315567016602e+00,2.252047538757324219e+00,2.251790761947631836e+00,2.251533746719360352e+00,2.251277208328247070e+00,2.251020431518554688e+00,2.250763654708862305e+00,2.250507354736328125e+00,2.250250577926635742e+00,2.029244422912597656e+00,2.047811508178710938e+00,2.249481439590454102e+00,2.249225378036499023e+00,2.248970270156860352e+00,1.640229940414428711e+00,1.620694279670715332e+00,1.614414095878601074e+00,2.247951030731201172e+00,2.247696399688720703e+00,2.247441768646240234e+00,2.247187137603759766e+00,2.246932744979858398e+00,2.246678352355957031e+00,2.246423959732055664e+00,2.246169805526733398e+00,2.245915412902832031e+00,2.245661258697509766e+00,2.245407104492187500e+00,2.245153188705444336e+00,2.244899034500122070e+00,2.244645118713378906e+00,2.244391202926635742e+00,2.244137287139892578e+00,2.243883609771728516e+00,2.243629693984985352e+00,2.243376255035400391e+00,2.243122577667236328e+00,2.242868900299072266e+00,2.242615461349487305e+00,2.242362022399902344e+00,2.242108821868896484e+00,2.241855382919311523e+00,2.241602182388305664e+00,2.241348981857299805e+00,2.241095781326293945e+00,2.240842819213867188e+00,2.240589618682861328e+00,2.240336656570434570e+00,2.240083694458007812e+00,2.239830732345581055e+00,2.239578008651733398e+00,2.239325284957885742e+00,2.239072561264038086e+00,2.238819837570190430e+00,2.238567352294921875e+00,2.238314867019653320e+00,2.238062381744384766e+00,2.224145412445068359e+00,2.183326005935668945e+00,2.143977642059326172e+00,2.106022357940673828e+00,2.069387674331665039e+00,2.034005880355834961e+00,1.999813318252563477e+00,1.966751694679260254e+00,1.934765219688415527e+00,1.903802752494812012e+00,1.873815417289733887e+00,1.844758152961730957e+00
1.988131999969482422e+00,1.987931966781616211e+00,1.987731814384460449e+00,1.987531661987304688e+00,1.987331509590148926e+00,1.987131476402282715e+00,1.986931681632995605e+00,1.986731648445129395e+00,1.986531734466552734e+00,1.986331820487976074e+00,1.986131906509399414e+00,1.985932111740112305e+00,1.985732555389404297e+00,1.985532760620117188e+00,1.985333085060119629e+00,1.985133409500122070e+00,1.984933853149414062e+00,1.984734416007995605e+00,1.984534859657287598e+00,1.984335303306579590e+00,1.984135866165161133e+00,1.983936429023742676e+00,1.983737349510192871e+00,1.983537912368774414e+00,1.983338594436645508e+00,1.632876873016357422e+00,1.594143748283386230e+00,1.578135251998901367e+00,1.575005531311035156e+00,1.565471529960632324e+00,1.541393518447875977e+00,1.981944799423217773e+00,1.981745839118957520e+00,1.981547117233276367e+00,1.981348156929016113e+00,1.981149315834045410e+00,1.980950474739074707e+00,1.980751633644104004e+00,1.980552911758422852e+00,1.980354428291320801e+00,1.980155825614929199e+00,1.979957103729248047e+00,1.979758501052856445e+00,1.979560017585754395e+00,1.979361653327941895e+00,1.979163169860839844e+00,1.978964805603027344e+00,1.978766441345214844e+00,1.978568077087402344e+00,1.978369951248168945e+00,1.978171706199645996e+00,1.977973461151123047e+00,1.977775216102600098e+00,1.977577090263366699e+00,1.977378964424133301e+00,1.977181077003479004e+00,1.976983070373535156e+00,1.976785063743591309e+00,1.976587057113647461e+00,1.976389169692993164e+00,1.976191520690917969e+00,1.975993633270263672e+00,1.975795865058898926e+00,1.975598096847534180e+00,1.975400447845458984e+00,1.975202679634094238e+00,1.975005269050598145e+00,1.974807739257812500e+00,1.974610090255737305e+00,1.974412560462951660e+00,1.974215149879455566e+00,1.974017858505249023e+00,1.973820447921752930e+00,1.973623156547546387e+00,1.973425745964050293e+00,1.966774106025695801e+00,1.934787154197692871e+00,1.903823733329772949e+00,1.873835682868957520e+00,1.844778060913085938e+00
1.777661323547363281e+00,1.777501225471496582e+00,1.777341246604919434e+00,1.777181386947631836e+00,1.777021408081054688e+00,1.776861429214477539e+00,1.776701450347900391e+00,1.776541590690612793e+00,1.776381850242614746e+00,1.776221990585327148e+00,1.776062130928039551e+00,1.775902390480041504e+00,1.775742650032043457e+00,1.775583028793334961e+00,1.775423407554626465e+00,1.775263667106628418e+00,1.775104045867919922e+00,1.774944424629211426e+00,1.774784803390502930e+00,1.774625420570373535e+00,1.774465918540954590e+00,1.774306297302246094e+00,1.774146914482116699e+00,1.773987412452697754e+00,1.773828148841857910e+00,1.635788917541503906e+00,1.553775310516357422e+00,1.531737208366394043e+00,1.543365359306335449e+00,1.568293213844299316e+00,1.772872328758239746e+00,1.772713184356689453e+00,1.772553920745849609e+00,1.772394776344299316e+00,1.772235631942749023e+00,1.772076725959777832e+00,1.771917581558227539e+00,1.771758556365966797e+00,1.771599531173706055e+00,1.771440505981445312e+00,1.771281719207763672e+00,1.771122813224792480e+00,1.770963907241821289e+00,1.770805001258850098e+00,1.770646214485168457e+00,1.770487308502197266e+00,1.770328760147094727e+00,1.770169973373413086e+00,1.770011186599731445e+00,1.769852519035339355e+00,1.769693851470947266e+00,1.769535303115844727e+00,1.769376754760742188e+00,1.769218087196350098e+00,1.769059538841247559e+00,1.768900990486145020e+00,1.768742442131042480e+00,1.768584132194519043e+00,1.768425703048706055e+00,1.768267273902893066e+00,1.768108844757080078e+00,1.767950534820556641e+00,1.767792344093322754e+00,1.767634034156799316e+00,1.767475724220275879e+00,1.767317533493041992e+00,1.767159223556518555e+00,1.767001271247863770e+00,1.766843080520629883e+00,1.766684889793395996e+00,1.766526818275451660e+00,1.766368746757507324e+00,1.766210675239562988e+00,1.766052842140197754e+00,1.765894770622253418e+00,1.765736818313598633e+00,1.765578866004943848e+00,1.765421032905578613e+00,1.765263319015502930e+00,1.765105485916137695e+00
1.607487082481384277e+00,1.607356190681457520e+00,1.607225298881530762e+00,1.607094526290893555e+00,1.606963753700256348e+00,1.606832981109619141e+00,1.606702208518981934e+00,1.606571435928344727e+00,1.606440663337707520e+00,1.606309890747070312e+00,1.606179356575012207e+00,1.606048703193664551e+00,1.605917930603027344e+00,1.605787277221679688e+00,1.605656743049621582e+00,1.605526208877563477e+00,1.605395674705505371e+00,1.605265140533447266e+00,1.605134606361389160e+00,1.605004072189331055e+00,1.604873657226562500e+00,1.604743242263793945e+00,1.604612708091735840e+00,1.604482293128967285e+00,1.604351878166198730e+00,1.604221463203430176e+00,1.604091286659240723e+00,1.603960871696472168e+00,1.603830575942993164e+00,1.603700280189514160e+00,1.603569984436035156e+00,1.603439927101135254e+00,1.603309631347656250e+00,1.603179335594177246e+00,1.603049159049987793e+00,1.602918982505798340e+00,1.602788805961608887e+00,1.602658867835998535e+00,1.602528691291809082e+00,1.602398633956909180e+00,1.602268576622009277e+00,1.602138519287109375e+00,1.602008581161499023e+00,1.601878643035888672e+00,1.601748585700988770e+00,1.601618647575378418e+00,1.601488709449768066e+00,1.601358890533447266e+00,1.601228952407836914e+00,1.601099133491516113e+00,1.600969195365905762e+00,1.600839376449584961e+00,1.600709557533264160e+00,1.600579977035522461e+00,1.600450158119201660e+00,1.600320339202880859e+00,1.600190639495849609e+00,1.600060939788818359e+00,1.599931359291076660e+00,1.599801659584045410e+00,1.599671959877014160e+00,1.599542379379272461e+00,1.599412798881530762e+00,1.599283218383789062e+00,1.599153757095336914e+00,1.599024176597595215e+00,1.598894715309143066e+00,1.598765134811401367e+00,1.598635673522949219e+00,1.598506331443786621e+00,1.598376870155334473e+00,1.598247528076171875e+00,1.598118066787719727e+00,1.597988724708557129e+00,1.597859501838684082e+00,1.597730159759521484e+00,1.597600817680358887e+00,1.597471475601196289e+00,1.597342252731323242e+00,1.597213029861450195e+00
1.467047572135925293e+00,1.466938734054565430e+00,1.466829657554626465e+00,1.466720700263977051e+00,1.466611623764038086e+00,1.466502666473388672e+00,1.466393828392028809e+00,1.466284990310668945e+00,1.466176033020019531e+00,1.466067075729370117e+00,1.465958237648010254e+00,1.465849518775939941e+00,1.465740680694580078e+00,1.465631842613220215e+00,1.465523004531860352e+00,1.465414166450500488e+00,1.465305328369140625e+00,1.465196728706359863e+00,1.465088009834289551e+00,1.464979171752929688e+00,1.464870452880859375e+00,1.464761734008789062e+00,1.464653253555297852e+00,1.464544534683227539e+00,1.464435935020446777e+00,1.464327216148376465e+00,1.464218616485595703e+00,1.464110016822814941e+00,1.464001536369323730e+00,1.463892936706542969e+00,1.463784337043762207e+00,1.463675856590270996e+00,1.463567256927490234e+00,1.463458895683288574e+00,1.463350415229797363e+00,1.463241934776306152e+00,1.463133454322814941e+00,1.463024973869323730e+00,1.462916731834411621e+00,1.462808251380920410e+00,1.462699890136718750e+00,1.462591528892517090e+00,1.462483167648315430e+00,1.462374806404113770e+00,1.462266564369201660e+00,1.462158203125000000e+00,1.462049961090087891e+00,1.461941599845886230e+00,1.461833357810974121e+00,1.461725234985351562e+00,1.461616992950439453e+00,1.461508750915527344e+00,1.461400628089904785e+00,1.461292386054992676e+00,1.461184263229370117e+00,1.461076140403747559e+00,1.460968017578125000e+00,1.460859894752502441e+00,1.460751771926879883e+00,1.460643649101257324e+00,1.460535764694213867e+00,1.460427641868591309e+00,1.460319638252258301e+00,1.460211634635925293e+00,1.460103511810302734e+00,1.459995627403259277e+00,1.459887742996215820e+00,1.459779739379882812e+00,1.459671735763549805e+00,1.459563851356506348e+00,1.459455966949462891e+00,1.459348082542419434e+00,1.459240198135375977e+00,1.459132313728332520e+00,1.459024548530578613e+00,1.458916664123535156e+00,1.458809018135070801e+00,1.458701133728027344e+00,1.458593368530273438e+00,1.458485603332519531e+00
1.349175691604614258e+00,1.349083542823791504e+00,1.348991394042968750e+00,1.348899245262145996e+00,1.348806977272033691e+00,1.348714828491210938e+00,1.348622679710388184e+00,1.348530530929565430e+00,1.348438501358032227e+00,1.348346471786499023e+00,1.348254323005676270e+00,1.348162293434143066e+00,1.348070144653320312e+00,1.347978234291076660e+00,1.347886204719543457e+00,1.347794175148010254e+00,1.347702145576477051e+00,1.347610116004943848e+00,1.347518205642700195e+00,1.347426176071166992e+00,1.347334265708923340e+00,1.347242355346679688e+00,1.347150325775146484e+00,1.347058415412902832e+00,1.346966624259948730e+00,1.346874713897705078e+00,1.346782803535461426e+00,1.346690893173217773e+00,1.346598982810974121e+00,1.346507310867309570e+00,1.346415400505065918e+00,1.346323609352111816e+00,1.346231698989868164e+00,1.346139907836914062e+00,1.346048116683959961e+00,1.345956444740295410e+00,1.345864653587341309e+00,1.345772862434387207e+00,1.345681190490722656e+00,1.345589399337768555e+00,1.345497846603393555e+00,1.345406055450439453e+00,1.345314383506774902e+00,1.345222711563110352e+00,1.345131039619445801e+00,1.345039486885070801e+00,1.344947814941406250e+00,1.344856142997741699e+00,1.344764590263366699e+00,1.344672918319702148e+00,1.344581365585327148e+00,1.344489812850952148e+00,1.344398260116577148e+00,1.344306707382202148e+00,1.344215154647827148e+00,1.344123601913452148e+00,1.344032168388366699e+00,1.343940615653991699e+00,1.343849182128906250e+00,1.343757629394531250e+00,1.343666195869445801e+00,1.343574762344360352e+00,1.343483328819274902e+00,1.343391895294189453e+00,1.343300461769104004e+00,1.343209147453308105e+00,1.343117713928222656e+00,1.343026399612426758e+00,1.342935085296630859e+00,1.342843651771545410e+00,1.342752337455749512e+00,1.342661023139953613e+00,1.342569708824157715e+00,1.342478394508361816e+00,1.342387080192565918e+00,1.342295885086059570e+00,1.342204570770263672e+00,1.342113256454467773e+00,1.342022180557250977e+00,1.341930866241455078e+00
1.248836278915405273e+00,1.248757362365722656e+00,1.248678326606750488e+00,1.248599410057067871e+00,1.248520493507385254e+00,1.248441457748413086e+00,1.248362541198730469e+00,1.248283624649047852e+00,1.248204708099365234e+00,1.248125791549682617e+00,1.248046875000000000e+00,1.247967958450317383e+00,1.247889041900634766e+00,1.247810244560241699e+00,1.247731328010559082e+00,1.247652530670166016e+00,1.247573733329772949e+00,1.247494816780090332e+00,1.247416019439697266e+00,1.247337102890014648e+00,1.247258424758911133e+00,1.247179627418518066e+00,1.247100830078125000e+00,1.247022032737731934e+00,1.246943235397338867e+00,1.246864557266235352e+00,1.246785759925842285e+00,1.246707081794738770e+00,1.246628284454345703e+00,1.246549606323242188e+00,1.246470808982849121e+00,1.246392250061035156e+00,1.246313571929931641e+00,1.246234893798828125e+00,1.246156215667724609e+00,1.246077537536621094e+00,1.245998978614807129e+00,1.245920300483703613e+00,1.245841622352600098e+00,1.245762944221496582e+00,1.245684385299682617e+00,1.245605707168579102e+00,1.245527267456054688e+00,1.245448708534240723e+00,1.245370030403137207e+00,1.245291471481323242e+00,1.245212912559509277e+00,1.245134472846984863e+00,1.245055913925170898e+00,1.244977355003356934e+00,1.244898915290832520e+00,1.244820356369018555e+00,1.244741916656494141e+00,1.244663476943969727e+00,1.244585037231445312e+00,1.244506478309631348e+00,1.244428038597106934e+00,1.244349598884582520e+00,1.244271278381347656e+00,1.244192838668823242e+00,1.244114398956298828e+00,1.244035959243774414e+00,1.243957519531250000e+00,1.243879318237304688e+00,1.243800878524780273e+00,1.243722558021545410e+00,1.243644118309020996e+00,1.243565797805786133e+00,1.243487477302551270e+00,1.243409156799316406e+00,1.243330836296081543e+00,1.243252515792846680e+00,1.243174314498901367e+00,1.243095993995666504e+00,1.243017792701721191e+00,1.242939472198486328e+00,1.242861270904541016e+00,1.242782950401306152e+00,1.242704749107360840e+00,1.242626547813415527e+00
1.162388563156127930e+00,1.162320137023925781e+00,1.162251591682434082e+00,1.162183165550231934e+00,1.162114739418029785e+00,1.162046313285827637e+00,1.161978006362915039e+00,1.161909580230712891e+00,1.161841273307800293e+00,1.161772847175598145e+00,1.161704421043395996e+00,1.161636233329772949e+00,1.161567807197570801e+00,1.161499500274658203e+00,1.161431074142456055e+00,1.161362767219543457e+00,1.161294579505920410e+00,1.161226272583007812e+00,1.161157846450805664e+00,1.161089539527893066e+00,1.161021351814270020e+00,1.160953044891357422e+00,1.160884857177734375e+00,1.160816550254821777e+00,1.160748243331909180e+00,1.160680055618286133e+00,1.160611748695373535e+00,1.160543560981750488e+00,1.160475373268127441e+00,1.160407185554504395e+00,1.160338878631591797e+00,1.160270690917968750e+00,1.160202503204345703e+00,1.160134434700012207e+00,1.160066246986389160e+00,1.159998059272766113e+00,1.159929871559143066e+00,1.159861683845520020e+00,1.159793615341186523e+00,1.159725427627563477e+00,1.159657359123229980e+00,1.159589171409606934e+00,1.159521102905273438e+00,1.159453034400939941e+00,1.159384965896606445e+00,1.159316778182983398e+00,1.159248709678649902e+00,1.159180641174316406e+00,1.159112572669982910e+00,1.159044623374938965e+00,1.158976554870605469e+00,1.158908486366271973e+00,1.158840417861938477e+00,1.158772468566894531e+00,1.158704519271850586e+00,1.158636450767517090e+00,1.158568382263183594e+00,1.158500432968139648e+00,1.158432483673095703e+00,1.158364534378051758e+00,1.158296585083007812e+00,1.158228635787963867e+00,1.158160686492919922e+00,1.158092737197875977e+00,1.158024787902832031e+00,1.157956957817077637e+00,1.157889008522033691e+00,1.157821059226989746e+00,1.157753109931945801e+00,1.157685279846191406e+00,1.157617449760437012e+00,1.157549500465393066e+00,1.157481670379638672e+00,1.157413721084594727e+00,1.157345890998840332e+00,1.157278060913085938e+00,1.157210230827331543e+00,1.157142400741577148e+00,1.157074570655822754e+00,1.157006740570068359e+00
1.087134122848510742e+00,1.087074160575866699e+00,1.087014436721801758e+00,1.086954474449157715e+00,1.086894631385803223e+00,1.086834788322448730e+00,1.086774945259094238e+00,1.086715221405029297e+00,1.086655378341674805e+00,1.086595535278320312e+00,1.086535811424255371e+00,1.086475968360900879e+00,1.086416125297546387e+00,1.086356401443481445e+00,1.086296677589416504e+00,1.086236834526062012e+00,1.086177110671997070e+00,1.086117267608642578e+00,1.086057662963867188e+00,1.085997819900512695e+00,1.085938096046447754e+00,1.085878372192382812e+00,1.085818648338317871e+00,1.085758924484252930e+00,1.085699319839477539e+00,1.085639595985412598e+00,1.085579872131347656e+00,1.085520148277282715e+00,1.085460424423217773e+00,1.085400819778442383e+00,1.085341095924377441e+00,1.085281491279602051e+00,1.085221767425537109e+00,1.085162162780761719e+00,1.085102558135986328e+00,1.085042953491210938e+00,1.084983229637145996e+00,1.084923624992370605e+00,1.084864020347595215e+00,1.084804415702819824e+00,1.084744811058044434e+00,1.084685206413269043e+00,1.084625601768493652e+00,1.084565997123718262e+00,1.084506392478942871e+00,1.084446907043457031e+00,1.084387302398681641e+00,1.084327697753906250e+00,1.084268212318420410e+00,1.084208607673645020e+00,1.084149122238159180e+00,1.084089636802673340e+00,1.084030032157897949e+00,1.083970546722412109e+00,1.083910942077636719e+00,1.083851456642150879e+00,1.083791971206665039e+00,1.083732485771179199e+00,1.083673000335693359e+00,1.083613514900207520e+00,1.083554029464721680e+00,1.083494663238525391e+00,1.083435177803039551e+00,1.083375692367553711e+00,1.083316206932067871e+00,1.083256721496582031e+00,1.083197355270385742e+00,1.083137989044189453e+00,1.083078503608703613e+00,1.083019137382507324e+00,1.082959651947021484e+00,1.082900285720825195e+00,1.082840919494628906e+00,1.082781553268432617e+00,1.082722067832946777e+00,1.082662701606750488e+00,1.082603335380554199e+00,1.082543969154357910e+00,1.082484602928161621e+00,1.082425236701965332e+00
1.021031260490417480e+00,1.020978450775146484e+00,1.020925641059875488e+00,1.020872950553894043e+00,1.020820140838623047e+00,1.020767331123352051e+00,1.020714521408081055e+00,1.020661830902099609e+00,1.020609021186828613e+00,1.020556330680847168e+00,1.020503520965576172e+00,1.020450830459594727e+00,1.020398020744323730e+00,1.020345330238342285e+00,1.020292639732360840e+00,1.020239830017089844e+00,1.020187139511108398e+00,1.020134449005126953e+00,1.020081639289855957e+00,1.020028948783874512e+00,1.019976258277893066e+00,1.019923567771911621e+00,1.019870877265930176e+00,1.019818186759948730e+00,1.019765496253967285e+00,1.019712924957275391e+00,1.019660234451293945e+00,1.019607543945312500e+00,1.019554853439331055e+00,1.019502282142639160e+00,1.019449591636657715e+00,1.019397020339965820e+00,1.019344329833984375e+00,1.019291758537292480e+00,1.019239068031311035e+00,1.019186496734619141e+00,1.019133925437927246e+00,1.019081234931945801e+00,1.019028663635253906e+00,1.018976092338562012e+00,1.018923401832580566e+00,1.018870949745178223e+00,1.018818259239196777e+00,1.018765687942504883e+00,1.018713116645812988e+00,1.018660545349121094e+00,1.018607974052429199e+00,1.018555521965026855e+00,1.018502950668334961e+00,1.018450379371643066e+00,1.018397808074951172e+00,1.018345236778259277e+00,1.018292784690856934e+00,1.018240332603454590e+00,1.018187761306762695e+00,1.018135190010070801e+00,1.018082737922668457e+00,1.018030166625976562e+00,1.017977714538574219e+00,1.017925262451171875e+00,1.017872810363769531e+00,1.017820239067077637e+00,1.017767786979675293e+00,1.017715334892272949e+00,1.017662882804870605e+00,1.017610430717468262e+00,1.017557978630065918e+00,1.017505526542663574e+00,1.017453193664550781e+00,1.017400741577148438e+00,1.017348289489746094e+00,1.017295837402343750e+00,1.017243385314941406e+00,1.017190933227539062e+00,1.017138600349426270e+00,1.017086267471313477e+00,1.017033815383911133e+00,1.016981363296508789e+00,1.016929030418395996e+00,1.016876697540283203e+00
9.625065326690673828e-01,9.624595642089843750e-01,9.624126553535461426e-01,9.623656868934631348e-01,9.623187780380249023e-01,9.622719883918762207e-01,9.622250795364379883e-01,9.621781706809997559e-01,9.621312618255615234e-01,9.620843529701232910e-01,9.620375037193298340e-01,9.619905948638916016e-01,9.619437456130981445e-01,9.618968367576599121e-01,9.618499875068664551e-01,9.618030786514282227e-01,9.617563486099243164e-01,9.617094993591308594e-01,9.616626501083374023e-01,9.616158008575439453e-01,9.615689516067504883e-01,9.615221023559570312e-01,9.614752531051635742e-01,9.614284038543701172e-01,9.613816142082214355e-01,9.613347649574279785e-01,9.612879753112792969e-01,9.612412452697753906e-01,9.611944556236267090e-01,9.611476063728332520e-01,9.611008167266845703e-01,9.610540270805358887e-01,9.610072374343872070e-01,9.609604477882385254e-01,9.609136581420898438e-01,9.608668684959411621e-01,9.608201384544372559e-01,9.607733488082885742e-01,9.607266783714294434e-01,9.606799483299255371e-01,9.606331586837768555e-01,9.605864286422729492e-01,9.605396986007690430e-01,9.604929685592651367e-01,9.604461789131164551e-01,9.603994488716125488e-01,9.603527188301086426e-01,9.603059887886047363e-01,9.602594375610351562e-01,9.602127075195312500e-01,9.601659774780273438e-01,9.601192474365234375e-01,9.600725769996643066e-01,9.600259065628051758e-01,9.599791765213012695e-01,9.599325060844421387e-01,9.598858356475830078e-01,9.598391056060791016e-01,9.597924351692199707e-01,9.597458839416503906e-01,9.596992135047912598e-01,9.596526026725769043e-01,9.596059322357177734e-01,9.595592617988586426e-01,9.595125913619995117e-01,9.594659805297851562e-01,9.594193100929260254e-01,9.593726992607116699e-01,9.593260884284973145e-01,9.592794775962829590e-01,9.592329263687133789e-01,9.591863155364990234e-01,9.591397047042846680e-01,9.590930938720703125e-01,9.590464830398559570e-01,9.589999318122863770e-01,9.589533209800720215e-01,9.589067101478576660e-01,9.588601589202880859e-01,9.588135480880737305e-01
9.103271365165710449e-01,9.102851152420043945e-01,9.102432727813720703e-01,9.102013111114501953e-01,9.101592898368835449e-01,9.101173281669616699e-01,9.100753664970397949e-01,9.100334048271179199e-01,9.099914431571960449e-01,9.099495410919189453e-01,9.099075794219970703e-01,9.098656177520751953e-01,9.098237752914428711e-01,9.097818136215209961e-01,9.097399115562438965e-01,9.096979498863220215e-01,9.096560478210449219e-01,9.096141457557678223e-01,9.095722436904907227e-01,9.095302820205688477e-01,9.094883799552917480e-01,9.094464778900146484e-01,9.094045758247375488e-01,9.093627929687500000e-01,9.093208909034729004e-01,9.092789888381958008e-01,9.092370867729187012e-01,9.091952443122863770e-01,9.091533422470092773e-01,9.091114997863769531e-01,9.090695977210998535e-01,9.090277552604675293e-01,9.089858531951904297e-01,9.089440107345581055e-01,9.089022874832153320e-01,9.088603854179382324e-01,9.088185429573059082e-01,9.087767004966735840e-01,9.087348580360412598e-01,9.086930155754089355e-01,9.086512327194213867e-01,9.086093902587890625e-01,9.085675477981567383e-01,9.085257649421691895e-01,9.084839224815368652e-01,9.084421992301940918e-01,9.084004163742065430e-01,9.083585739135742188e-01,9.083167910575866699e-01,9.082750082015991211e-01,9.082332253456115723e-01,9.081914424896240234e-01,9.081496000289916992e-01,9.081078171730041504e-01,9.080660939216613770e-01,9.080243110656738281e-01,9.079826474189758301e-01,9.079408645629882812e-01,9.078990817070007324e-01,9.078573584556579590e-01,9.078155755996704102e-01,9.077737927436828613e-01,9.077320694923400879e-01,9.076903462409973145e-01,9.076485633850097656e-01,9.076068401336669922e-01,9.075652360916137695e-01,9.075235128402709961e-01,9.074817895889282227e-01,9.074400663375854492e-01,9.073983430862426758e-01,9.073566198348999023e-01,9.073148965835571289e-01,9.072732329368591309e-01,9.072315096855163574e-01,9.071897864341735840e-01,9.071481227874755859e-01,9.071065187454223633e-01,9.070648550987243652e-01,9.070231318473815918e-01
8.635143637657165527e-01,8.634766340255737305e-01,8.634388446807861328e-01,8.634010553359985352e-01,8.633633255958557129e-01,8.633255362510681152e-01,8.632878065109252930e-01,8.632500171661376953e-01,8.632122874259948730e-01,8.631746172904968262e-01,8.631368875503540039e-01,8.630990982055664062e-01,8.630613684654235840e-01,8.630236387252807617e-01,8.629859089851379395e-01,8.629481792449951172e-01,8.629104495048522949e-01,8.628727197647094727e-01,8.628349900245666504e-01,8.627973794937133789e-01,8.627596497535705566e-01,8.627219796180725098e-01,8.626842498779296875e-01,8.626465797424316406e-01,8.626088500022888184e-01,8.625711798667907715e-01,8.625334501266479492e-01,8.624957799911499023e-01,8.624581098556518555e-01,8.624203801155090332e-01,8.623828291893005371e-01,8.623450994491577148e-01,8.623074293136596680e-01,8.622697591781616211e-01,8.622320890426635742e-01,8.621944785118103027e-01,8.621568083763122559e-01,8.621191382408142090e-01,8.620814681053161621e-01,8.620437979698181152e-01,8.620061874389648438e-01,8.619686365127563477e-01,8.619309663772583008e-01,8.618933558464050293e-01,8.618556857109069824e-01,8.618180751800537109e-01,8.617804646492004395e-01,8.617428541183471680e-01,8.617051839828491211e-01,8.616675734519958496e-01,8.616299629211425781e-01,8.615923523902893066e-01,8.615548610687255859e-01,8.615172505378723145e-01,8.614796400070190430e-01,8.614420294761657715e-01,8.614044189453125000e-01,8.613668680191040039e-01,8.613292574882507324e-01,8.612916469573974609e-01,8.612540960311889648e-01,8.612164855003356934e-01,8.611789345741271973e-01,8.611414432525634766e-01,8.611038923263549805e-01,8.610663414001464844e-01,8.610287308692932129e-01,8.609911799430847168e-01,8.609536290168762207e-01,8.609160780906677246e-01,8.608785271644592285e-01,8.608409762382507324e-01,8.608034253120422363e-01,8.607659935951232910e-01,8.607284426689147949e-01,8.606909513473510742e-01,8.606534004211425781e-01,8.606158494949340820e-01,8.605783581733703613e-01,8.605408072471618652e-01
8.212807178497314453e-01,8.212465047836303711e-01,8.212123513221740723e-01,8.211781978607177734e-01,8.211440443992614746e-01,8.211099505424499512e-01,8.210757970809936523e-01,8.210416436195373535e-01,8.210074901580810547e-01,8.209733366966247559e-01,8.209391832351684570e-01,8.209050893783569336e-01,8.208709359169006348e-01,8.208367824554443359e-01,8.208026289939880371e-01,8.207685351371765137e-01,8.207345008850097656e-01,8.207003474235534668e-01,8.206662535667419434e-01,8.206321001052856445e-01,8.205980062484741211e-01,8.205638527870178223e-01,8.205297589302062988e-01,8.204956650733947754e-01,8.204615712165832520e-01,8.204274773597717285e-01,8.203933238983154297e-01,8.203593492507934570e-01,8.203252553939819336e-01,8.202911615371704102e-01,8.202570676803588867e-01,8.202229738235473633e-01,8.201888799667358398e-01,8.201547861099243164e-01,8.201207518577575684e-01,8.200866580009460449e-01,8.200525641441345215e-01,8.200185894966125488e-01,8.199845552444458008e-01,8.199504613876342773e-01,8.199164271354675293e-01,8.198823332786560059e-01,8.198482990264892578e-01,8.198142647743225098e-01,8.197801709175109863e-01,8.197461366653442383e-01,8.197121024131774902e-01,8.196780681610107422e-01,8.196440935134887695e-01,8.196100592613220215e-01,8.195760250091552734e-01,8.195419907569885254e-01,8.195079565048217773e-01,8.194739222526550293e-01,8.194399476051330566e-01,8.194059133529663086e-01,8.193718791007995605e-01,8.193379044532775879e-01,8.193038702011108398e-01,8.192699551582336426e-01,8.192359209060668945e-01,8.192019462585449219e-01,8.191679120063781738e-01,8.191339373588562012e-01,8.190999627113342285e-01,8.190659284591674805e-01,8.190319538116455078e-01,8.189979791641235352e-01,8.189640045166015625e-01,8.189300298690795898e-01,8.188961148262023926e-01,8.188621401786804199e-01,8.188281655311584473e-01,8.187941908836364746e-01,8.187602758407592773e-01,8.187263011932373047e-01,8.186923265457153320e-01,8.186583518981933594e-01,8.186244368553161621e-01,8.185904622077941895e-01
7.829856276512145996e-01,7.829546332359313965e-01,7.829235792160034180e-01,7.828925251960754395e-01,7.828614711761474609e-01,7.828304171562194824e-01,7.827993631362915039e-01,7.827683091163635254e-01,7.827373147010803223e-01,7.827062606811523438e-01,7.826752066612243652e-01,7.826442122459411621e-01,7.826132178306579590e-01,7.825822234153747559e-01,7.825511693954467773e-01,7.825201153755187988e-01,7.824891209602355957e-01,7.824581265449523926e-01,7.824270725250244141e-01,7.823960781097412109e-01,7.823650240898132324e-01,7.823340296745300293e-01,7.823030352592468262e-01,7.822721004486083984e-01,7.822411060333251953e-01,7.822101116180419922e-01,7.821791172027587891e-01,7.821481227874755859e-01,7.821171283721923828e-01,7.820861339569091797e-01,7.820551395416259766e-01,7.820241451263427734e-01,7.819931507110595703e-01,7.819621562957763672e-01,7.819312810897827148e-01,7.819002866744995117e-01,7.818693518638610840e-01,7.818383574485778809e-01,7.818073630332946777e-01,7.817764282226562500e-01,7.817454338073730469e-01,7.817144989967346191e-01,7.816835641860961914e-01,7.816525697708129883e-01,7.816216945648193359e-01,7.815907597541809082e-01,7.815598249435424805e-01,7.815288305282592773e-01,7.814978957176208496e-01,7.814669609069824219e-01,7.814360260963439941e-01,7.814050912857055664e-01,7.813741564750671387e-01,7.813432216644287109e-01,7.813122868537902832e-01,7.812814712524414062e-01,7.812505364418029785e-01,7.812196016311645508e-01,7.811886668205261230e-01,7.811577320098876953e-01,7.811268568038940430e-01,7.810959219932556152e-01,7.810650467872619629e-01,7.810341119766235352e-01,7.810032367706298828e-01,7.809723019599914551e-01,7.809414863586425781e-01,7.809106111526489258e-01,7.808796763420104980e-01,7.808488011360168457e-01,7.808179259300231934e-01,7.807869911193847656e-01,7.807561159133911133e-01,7.807252407073974609e-01,7.806943655014038086e-01,7.806634902954101562e-01,7.806326150894165039e-01,7.806017994880676270e-01,7.805709242820739746e-01,7.805401086807250977e-01
7.481027841567993164e-01,7.480744123458862305e-01,7.480461001396179199e-01,7.480177283287048340e-01,7.479893565177917480e-01,7.479610443115234375e-01,7.479326725006103516e-01,7.479043602943420410e-01,7.478761076927185059e-01,7.478477358818054199e-01,7.478194236755371094e-01,7.477910518646240234e-01,7.477627396583557129e-01,7.477344274520874023e-01,7.477061152458190918e-01,7.476777434349060059e-01,7.476494312286376953e-01,7.476211190223693848e-01,7.475928068161010742e-01,7.475645542144775391e-01,7.475362420082092285e-01,7.475079298019409180e-01,7.474796175956726074e-01,7.474513053894042969e-01,7.474229931831359863e-01,7.473947405815124512e-01,7.473664283752441406e-01,7.473381161689758301e-01,7.473098039627075195e-01,7.472815513610839844e-01,7.472532987594604492e-01,7.472250461578369141e-01,7.471967339515686035e-01,7.471684217453002930e-01,7.471401691436767578e-01,7.471118569374084473e-01,7.470836043357849121e-01,7.470553517341613770e-01,7.470270395278930664e-01,7.469987869262695312e-01,7.469705343246459961e-01,7.469422817230224609e-01,7.469140291213989258e-01,7.468857765197753906e-01,7.468575239181518555e-01,7.468292713165283203e-01,7.468010187149047852e-01,7.467727661132812500e-01,7.467445135116577148e-01,7.467162609100341797e-01,7.466880083084106445e-01,7.466598153114318848e-01,7.466315627098083496e-01,7.466033101081848145e-01,7.465751171112060547e-01,7.465468645095825195e-01,7.465186119079589844e-01,7.464903593063354492e-01,7.464621663093566895e-01,7.464339137077331543e-01,7.464056611061096191e-01,7.463774681091308594e-01,7.463493347167968750e-01,7.463210821151733398e-01,7.462928891181945801e-01,7.462646365165710449e-01,7.462364435195922852e-01,7.462082505226135254e-01,7.461799979209899902e-01,7.461518049240112305e-01,7.461236119270324707e-01,7.460954189300537109e-01,7.460672259330749512e-01,7.460390925407409668e-01,7.460108399391174316e-01,7.459826469421386719e-01,7.459544539451599121e-01,7.459262609481811523e-01,7.458980679512023926e-01,7.458699345588684082e-01
7.161954641342163086e-01,7.161694765090942383e-01,7.161434888839721680e-01,7.161175012588500977e-01,7.160915136337280273e-01,7.160655856132507324e-01,7.160395979881286621e-01,7.160136103630065918e-01,7.159876823425292969e-01,7.159616947174072266e-01,7.159357070922851562e-01,7.159097790718078613e-01,7.158837914466857910e-01,7.158578038215637207e-01,7.158318758010864258e-01,7.158059477806091309e-01,7.157800197601318359e-01,7.157540321350097656e-01,7.157281041145324707e-01,7.157021164894104004e-01,7.156761884689331055e-01,7.156502604484558105e-01,7.156242728233337402e-01,7.155983448028564453e-01,7.155724167823791504e-01,7.155464887619018555e-01,7.155205607414245605e-01,7.154946327209472656e-01,7.154687047004699707e-01,7.154427766799926758e-01,7.154168486595153809e-01,7.153909206390380859e-01,7.153649926185607910e-01,7.153390645980834961e-01,7.153131365776062012e-01,7.152872085571289062e-01,7.152612805366516113e-01,7.152354121208190918e-01,7.152095437049865723e-01,7.151836156845092773e-01,7.151576876640319824e-01,7.151317596435546875e-01,7.151058912277221680e-01,7.150799632072448730e-01,7.150540351867675781e-01,7.150281667709350586e-01,7.150022387504577637e-01,7.149763703346252441e-01,7.149505019187927246e-01,7.149246335029602051e-01,7.148987054824829102e-01,7.148728370666503906e-01,7.148469686508178711e-01,7.148210406303405762e-01,7.147951722145080566e-01,7.147693037986755371e-01,7.147434353828430176e-01,7.147175073623657227e-01,7.146916389465332031e-01,7.146658301353454590e-01,7.146399617195129395e-01,7.146140933036804199e-01,7.145882248878479004e-01,7.145623564720153809e-01,7.145364880561828613e-01,7.145106196403503418e-01,7.144847512245178223e-01,7.144588828086853027e-01,7.144330143928527832e-01,7.144072055816650391e-01,7.143813371658325195e-01,7.143555283546447754e-01,7.143296599388122559e-01,7.143037915229797363e-01,7.142779827117919922e-01,7.142521142959594727e-01,7.142262458801269531e-01,7.142004370689392090e-01,7.141745686531066895e-01,7.141487598419189453e-01
6.868985295295715332e-01,6.868746876716613770e-01,6.868507862091064453e-01,6.868268847465515137e-01,6.868029832839965820e-01,6.867790818214416504e-01,6.867551803588867188e-01,6.867312788963317871e-01,6.867073774337768555e-01,6.866835355758666992e-01,6.866596341133117676e-01,6.866357326507568359e-01,6.866118907928466797e-01,6.865879893302917480e-01,6.865641474723815918e-01,6.865402460098266602e-01,6.865164041519165039e-01,6.864925026893615723e-01,6.864686012268066406e-01,6.864447593688964844e-01,6.864208579063415527e-01,6.863970160484313965e-01,6.863731741905212402e-01,6.863493323326110840e-01,6.863254308700561523e-01,6.863015890121459961e-01,6.862777471542358398e-01,6.862538456916809082e-01,6.862300038337707520e-01,6.862061619758605957e-01,6.861823201179504395e-01,6.861584186553955078e-01,6.861345767974853516e-01,6.861107945442199707e-01,6.860869526863098145e-01,6.860631108283996582e-01,6.860392689704895020e-01,6.860154271125793457e-01,6.859915852546691895e-01,6.859677433967590332e-01,6.859439015388488770e-01,6.859200596809387207e-01,6.858962178230285645e-01,6.858723759651184082e-01,6.858485937118530273e-01,6.858247518539428711e-01,6.858009696006774902e-01,6.857771277427673340e-01,6.857532858848571777e-01,6.857294440269470215e-01,6.857056617736816406e-01,6.856818199157714844e-01,6.856579780578613281e-01,6.856341958045959473e-01,6.856103539466857910e-01,6.855866312980651855e-01,6.855627894401550293e-01,6.855390071868896484e-01,6.855151653289794922e-01,6.854913830757141113e-01,6.854675412178039551e-01,6.854437589645385742e-01,6.854199767112731934e-01,6.853961348533630371e-01,6.853723526000976562e-01,6.853485703468322754e-01,6.853247880935668945e-01,6.853010058403015137e-01,6.852772235870361328e-01,6.852534413337707520e-01,6.852296590805053711e-01,6.852058768272399902e-01,6.851820945739746094e-01,6.851583123207092285e-01,6.851345300674438477e-01,6.851107478141784668e-01,6.850869655609130859e-01,6.850632429122924805e-01,6.850394606590270996e-01,6.850156784057617188e-01
6.599043011665344238e-01,6.598822474479675293e-01,6.598601937294006348e-01,6.598381400108337402e-01,6.598160862922668457e-01,6.597940325736999512e-01,6.597719788551330566e-01,6.597499251365661621e-01,6.597279310226440430e-01,6.597058773040771484e-01,6.596838235855102539e-01,6.596617698669433594e-01,6.596397161483764648e-01,6.596177220344543457e-01,6.595956683158874512e-01,6.595736145973205566e-01,6.595515608787536621e-01,6.595295071601867676e-01,6.595075130462646484e-01,6.594855189323425293e-01,6.594634652137756348e-01,6.594414710998535156e-01,6.594194173812866211e-01,6.593973636627197266e-01,6.593753695487976074e-01,6.593533158302307129e-01,6.593313217163085938e-01,6.593092679977416992e-01,6.592872738838195801e-01,6.592652201652526855e-01,6.592432856559753418e-01,6.592212319374084473e-01,6.591992378234863281e-01,6.591772437095642090e-01,6.591551899909973145e-01,6.591331958770751953e-01,6.591112017631530762e-01,6.590892076492309570e-01,6.590671539306640625e-01,6.590451598167419434e-01,6.590232253074645996e-01,6.590012311935424805e-01,6.589791774749755859e-01,6.589571833610534668e-01,6.589351892471313477e-01,6.589131951332092285e-01,6.588912010192871094e-01,6.588692069053649902e-01,6.588472127914428711e-01,6.588252186775207520e-01,6.588032245635986328e-01,6.587812900543212891e-01,6.587592959403991699e-01,6.587373614311218262e-01,6.587153673171997070e-01,6.586933732032775879e-01,6.586713790893554688e-01,6.586493849754333496e-01,6.586274504661560059e-01,6.586054563522338867e-01,6.585834622383117676e-01,6.585615277290344238e-01,6.585395932197570801e-01,6.585175991058349609e-01,6.584956645965576172e-01,6.584736704826354980e-01,6.584517359733581543e-01,6.584297418594360352e-01,6.584078073501586914e-01,6.583858132362365723e-01,6.583638787269592285e-01,6.583418846130371094e-01,6.583199501037597656e-01,6.582980155944824219e-01,6.582760810852050781e-01,6.582541465759277344e-01,6.582321524620056152e-01,6.582102179527282715e-01,6.581882834434509277e-01,6.581663489341735840e-01
