5.000000000000000000e+00,5.000000000000000000e+00,5.000000000000000000e+00,5.000000000000000000e+00,5.000000000000000000e+00,5.000000000000000000e+00,5.000000000000000000e+00,5.000000000000000000e+00,5.000000000000000000e+00,5.000000000000000000e+00,5.000000000000000000e+00,5.000000000000000000e+00,5.000000000000000000e+00,5.000000000000000000e+00,5.000000000000000000e+00,5.000000000000000000e+00,5.000000000000000000e+00,5.000000000000000000e+00,5.000000000000000000e+00,5.000000000000000000e+00,5.000000000000000000e+00,5.000000000000000000e+00,5.000000000000000000e+00,5.000000000000000000e+00,5.000000000000000000e+00,5.000000000000000000e+00,5.000000000000000000e+00,5.000000000000000000e+00,5.000000000000000000e+00,5.000000000000000000e+00,5.000000000000000000e+00,5.000000000000000000e+00,5.000000000000000000e+00,5.000000000000000000e+00,5.000000000000000000e+00,5.000000000000000000e+00,5.000000000000000000e+00,5.000000000000000000e+00,5.000000000000000000e+00,5.000000000000000000e+00,4.675209045410156250e+00,4.498342037200927734e+00,4.334369182586669922e+00,4.181930065155029297e+00,4.039849281311035156e+00,3.907105922698974609e+00,3.782807826995849609e+00,3.666174888610839844e+00,3.556519269943237305e+00,3.453232526779174805e+00,3.355775833129882812e+00,3.263668775558471680e+00,3.176482677459716797e+00,3.093833923339843750e+00,3.015376806259155273e+00,2.940800666809082031e+00,2.869824171066284180e+00,2.802192926406860352e+00,2.737675905227661133e+00,2.676063060760498047e+00,2.617162466049194336e+00,2.560798645019531250e+00,2.506811380386352539e+00,2.455053567886352539e+00,2.405389785766601562e+00,2.357695579528808594e+00,2.311855792999267578e+00,2.267764568328857422e+00,2.225323438644409180e+00,2.184442043304443359e+00,2.145035505294799805e+00,2.107025623321533203e+00,2.070339202880859375e+00,2.034908056259155273e+00,2.000669717788696289e+00,1.967564702033996582e+00,1.935536980628967285e+00,1.904535531997680664e+00,1.874511241912841797e+00,1.845418930053710938e+00
5.000000000000000000e+00,5.000000000000000000e+00,5.000000000000000000e+00,5.000000000000000000e+00,5.000000000000000000e+00,5.000000000000000000e+00,5.000000000000000000e+00,5.000000000000000000e+00,5.000000000000000000e+00,5.000000000000000000e+00,5.000000000000000000e+00,5.000000000000000000e+00,5.000000000000000000e+00,5.000000000000000000e+00,5.000000000000000000e+00,5.000000000000000000e+00,5.000000000000000000e+00,5.000000000000000000e+00,5.000000000000000000e+00,5.000000000000000000e+00,5.000000000000000000e+00,5.000000000000000000e+00,5.000000000000000000e+00,5.000000000000000000e+00,5.000000000000000000e+00,5.000000000000000000e+00,5.000000000000000000e+00,5.000000000000000000e+00,5.000000000000000000e+00,5.000000000000000000e+00,5.000000000000000000e+00,5.000000000000000000e+00,5.000000000000000000e+00,5.000000000000000000e+00,5.000000000000000000e+00,5.000000000000000000e+00,5.000000000000000000e+00,5.000000000000000000e+00,5.000000000000000000e+00,4.866693496704101562e+00,4.675338268280029297e+00,4.498461246490478516e+00,4.334480285644531250e+00,4.182033061981201172e+00,4.039945602416992188e+00,3.907195806503295898e+00,3.782892227172851562e+00,3.666254281997680664e+00,3.556593894958496094e+00,3.453302860260009766e+00,3.355842113494873047e+00,3.263731479644775391e+00,3.176542282104492188e+00,3.093890428543090820e+00,3.015430450439453125e+00,2.940851688385009766e+00,2.869872808456420898e+00,2.802239179611206055e+00,2.737720012664794922e+00,2.676105260848999023e+00,2.617202758789062500e+00,2.560837268829345703e+00,2.506848573684692383e+00,2.455089092254638672e+00,2.405423879623413086e+00,2.357728481292724609e+00,2.311887264251708984e+00,2.267794847488403320e+00,2.225352764129638672e+00,2.184470176696777344e+00,2.145062685012817383e+00,2.107051610946655273e+00,2.070364236831665039e+00,2.034932613372802734e+00,2.000693321228027344e+00,1.967587471008300781e+00,1.935559034347534180e+00,1.904556870460510254e+00,1.874531984329223633e+00,1.845439076423645020e+00
5.000000000000000000e+00,5.000000000000000000e+00,5.000000000000000000e+00,5.000000000000000000e+00,5.000000000000000000e+00,5.000000000000000000e+00,5.000000000000000000e+00,5.000000000000000000e+00,5.000000000000000000e+00,5.000000000000000000e+00,5.000000000000000000e+00,5.000000000000000000e+00,5.000000000000000000e+00,5.000000000000000000e+00,5.000000000000000000e+00,5.000000000000000000e+00,5.000000000000000000e+00,5.000000000000000000e+00,5.000000000000000000e+00,5.000000000000000000e+00,5.000000000000000000e+00,5.000000000000000000e+00,5.000000000000000000e+00,5.000000000000000000e+00,5.000000000000000000e+00,5.000000000000000000e+00,5.000000000000000000e+00,5.000000000000000000e+00,5.000000000000000000e+00,5.000000000000000000e+00,5.000000000000000000e+00,5.000000000000000000e+00,5.000000000000000000e+00,5.000000000000000000e+00,5.000000000000000000e+00,5.000000000000000000e+00,5.000000000000000000e+00,5.000000000000000000e+00,5.000000000000000000e+00,4.866833209991455078e+00,4.675467014312744141e+00,4.498580932617187500e+00,4.334590911865234375e+00,4.182136535644531250e+00,4.040041923522949219e+00,3.907285928726196289e+00,3.782976627349853516e+00,3.666333675384521484e+00,3.556668519973754883e+00,3.453373193740844727e+00,3.355908632278442383e+00,3.263794183731079102e+00,3.176601886749267578e+00,3.093946933746337891e+00,3.015484094619750977e+00,2.940902709960937500e+00,2.869921445846557617e+00,2.802285432815551758e+00,2.737764358520507812e+00,2.676147699356079102e+00,2.617243289947509766e+00,2.560876131057739258e+00,2.506885528564453125e+00,2.455124616622924805e+00,2.405457973480224609e+00,2.357761144638061523e+00,2.311918973922729492e+00,2.267825126647949219e+00,2.225382089614868164e+00,2.184498310089111328e+00,2.145089864730834961e+00,2.107077598571777344e+00,2.070389509201049805e+00,2.034956932067871094e+00,2.000716924667358398e+00,1.967610359191894531e+00,1.935581207275390625e+00,1.904578328132629395e+00,1.874552726745605469e+00,1.845459103584289551e+00
5.000000000000000000e+00,5.000000000000000000e+00,5.000000000000000000e+00,5.000000000000000000e+00,5.000000000000000000e+00,5.000000000000000000e+00,5.000000000000000000e+00,5.000000000000000000e+00,5.000000000000000000e+00,5.000000000000000000e+00,5.000000000000000000e+00,5.000000000000000000e+00,5.000000000000000000e+00,5.000000000000000000e+00,5.000000000000000000e+00,5.000000000000000000e+00,5.000000000000000000e+00,5.000000000000000000e+00,5.000000000000000000e+00,5.000000000000000000e+00,5.000000000000000000e+00,5.000000000000000000e+00,5.000000000000000000e+00,5.000000000000000000e+00,5.000000000000000000e+00,5.000000000000000000e+00,5.000000000000000000e+00,5.000000000000000000e+00,5.000000000000000000e+00,5.000000000000000000e+00,5.000000000000000000e+00,5.000000000000000000e+00,5.000000000000000000e+00,5.000000000000000000e+00,5.000000000000000000e+00,5.000000000000000000e+00,5.000000000000000000e+00,5.000000000000000000e+00,5.000000000000000000e+00,4.866972923278808594e+00,4.675596237182617188e+00,4.498700141906738281e+00,4.334702014923095703e+00,4.182239532470703125e+00,4.040138244628906250e+00,3.907376050949096680e+00,3.783061265945434570e+00,3.666412830352783203e+00,3.556743144989013672e+00,3.453443527221679688e+00,3.355975151062011719e+00,3.263857126235961914e+00,3.176661252975463867e+00,3.094003438949584961e+00,3.015537738800048828e+00,2.940953731536865234e+00,2.869970083236694336e+00,2.802331924438476562e+00,2.737808465957641602e+00,2.676189899444580078e+00,2.617283582687377930e+00,2.560914754867553711e+00,2.506922721862792969e+00,2.455160140991210938e+00,2.405492305755615234e+00,2.357794046401977539e+00,2.311950445175170898e+00,2.267855405807495117e+00,2.225411176681518555e+00,2.184526681900024414e+00,2.145116806030273438e+00,2.107103824615478516e+00,2.070414781570434570e+00,2.034981489181518555e+00,2.000740528106689453e+00,1.967633247375488281e+00,1.935603260993957520e+00,1.904599666595458984e+00,1.874573469161987305e+00,1.845479249954223633e+00
5.000000000000000000e+00,5.000000000000000000e+00,5.000000000000000000e+00,5.000000000000000000e+00,5.000000000000000000e+00,5.000000000000000000e+00,5.000000000000000000e+00,5.000000000000000000e+00,5.000000000000000000e+00,5.000000000000000000e+00,5.000000000000000000e+00,5.000000000000000000e+00,5.000000000000000000e+00,5.000000000000000000e+00,5.000000000000000000e+00,5.000000000000000000e+00,5.000000000000000000e+00,5.000000000000000000e+00,5.000000000000000000e+00,5.000000000000000000e+00,5.000000000000000000e+00,5.000000000000000000e+00,5.000000000000000000e+00,5.000000000000000000e+00,5.000000000000000000e+00,5.000000000000000000e+00,5.000000000000000000e+00,5.000000000000000000e+00,5.000000000000000000e+00,5.000000000000000000e+00,5.000000000000000000e+00,5.000000000000000000e+00,5.000000000000000000e+00,5.000000000000000000e+00,5.000000000000000000e+00,5.000000000000000000e+00,5.000000000000000000e+00,5.000000000000000000e+00,5.000000000000000000e+00,4.867112636566162109e+00,4.675724983215332031e+00,4.498819828033447266e+00,4.334812641143798828e+00,4.182343006134033203e+00,4.040234565734863281e+00,3.907466173171997070e+00,3.783145666122436523e+00,3.666492223739624023e+00,3.556817770004272461e+00,3.453514099121093750e+00,3.356041669845581055e+00,3.263919830322265625e+00,3.176720857620239258e+00,3.094059705734252930e+00,3.015591382980346680e+00,2.941004753112792969e+00,2.870018243789672852e+00,2.802378177642822266e+00,2.737852811813354492e+00,2.676232099533081055e+00,2.617324113845825195e+00,2.560953378677368164e+00,2.506959676742553711e+00,2.455195903778076172e+00,2.405526399612426758e+00,2.357826709747314453e+00,2.311981916427612305e+00,2.267885923385620117e+00,2.225440502166748047e+00,2.184554576873779297e+00,2.145143985748291016e+00,2.107130050659179688e+00,2.070439815521240234e+00,2.035005807876586914e+00,2.000764131546020508e+00,1.967656016349792480e+00,1.935625433921813965e+00,1.904621124267578125e+00,1.874594211578369141e+00,1.845499277114868164e+00
5.000000000000000000e+00,5.000000000000000000e+00,5.000000000000000000e+00,5.000000000000000000e+00,5.000000000000000000e+00,5.000000000000000000e+00,5.000000000000000000e+00,5.000000000000000000e+00,5.000000000000000000e+00,5.000000000000000000e+00,5.000000000000000000e+00,5.000000000000000000e+00,5.000000000000000000e+00,5.000000000000000000e+00,5.000000000000000000e+00,5.000000000000000000e+00,5.000000000000000000e+00,5.000000000000000000e+00,5.000000000000000000e+00,5.000000000000000000e+00,5.000000000000000000e+00,5.000000000000000000e+00,5.000000000000000000e+00,5.000000000000000000e+00,5.000000000000000000e+00,5.000000000000000000e+00,5.000000000000000000e+00,5.000000000000000000e+00,5.000000000000000000e+00,5.000000000000000000e+00,5.000000000000000000e+00,5.000000000000000000e+00,5.000000000000000000e+00,5.000000000000000000e+00,5.000000000000000000e+00,5.000000000000000000e+00,5.000000000000000000e+00,5.000000000000000000e+00,5.000000000000000000e+00,4.867252349853515625e+00,4.675853729248046875e+00,4.498939037322998047e+00,4.334923744201660156e+00,4.182446002960205078e+00,4.040330886840820312e+00,3.907556295394897461e+00,3.783230066299438477e+00,3.666571617126464844e+00,3.556892395019531250e+00,3.453584432601928711e+00,3.356107950210571289e+00,3.263982772827148438e+00,3.176780462265014648e+00,3.094116210937500000e+00,3.015645027160644531e+00,2.941055774688720703e+00,2.870066881179809570e+00,2.802424430847167969e+00,2.737897157669067383e+00,2.676274299621582031e+00,2.617364406585693359e+00,2.560992240905761719e+00,2.506996870040893555e+00,2.455231428146362305e+00,2.405560493469238281e+00,2.357859611511230469e+00,2.312013387680053711e+00,2.267916202545166016e+00,2.225469350814819336e+00,2.184582710266113281e+00,2.145170927047729492e+00,2.107156276702880859e+00,2.070465087890625000e+00,2.035030364990234375e+00,2.000787734985351562e+00,1.967678904533386230e+00,1.935647487640380859e+00,1.904642581939697266e+00,1.874614834785461426e+00,1.845519423484802246e+00
5.000000000000000000e+00,5.000000000000000000e+00,5.000000000000000000e+00,5.000000000000000000e+00,5.000000000000000000e+00,5.000000000000000000e+00,5.000000000000000000e+00,5.000000000000000000e+00,5.000000000000000000e+00,5.000000000000000000e+00,5.000000000000000000e+00,5.000000000000000000e+00,5.000000000000000000e+00,5.000000000000000000e+00,5.000000000000000000e+00,5.000000000000000000e+00,5.000000000000000000e+00,5.000000000000000000e+00,5.000000000000000000e+00,5.000000000000000000e+00,5.000000000000000000e+00,5.000000000000000000e+00,5.000000000000000000e+00,5.000000000000000000e+00,5.000000000000000000e+00,5.000000000000000000e+00,5.000000000000000000e+00,5.000000000000000000e+00,5.000000000000000000e+00,5.000000000000000000e+00,5.000000000000000000e+00,5.000000000000000000e+00,5.000000000000000000e+00,5.000000000000000000e+00,5.000000000000000000e+00,5.000000000000000000e+00,5.000000000000000000e+00,5.000000000000000000e+00,5.000000000000000000e+00,4.867392063140869141e+00,4.675982952117919922e+00,4.499058723449707031e+00,4.335034370422363281e+00,4.182549476623535156e+00,4.040427207946777344e+00,3.907645940780639648e+00,3.783314466476440430e+00,3.666651010513305664e+00,3.556967020034790039e+00,3.453654766082763672e+00,3.356174468994140625e+00,3.264045715332031250e+00,3.176840066909790039e+00,3.094172716140747070e+00,3.015698671340942383e+00,2.941106796264648438e+00,2.870115518569946289e+00,2.802470922470092773e+00,2.737941265106201172e+00,2.676316738128662109e+00,2.617404937744140625e+00,2.561030626296997070e+00,2.507033824920654297e+00,2.455266952514648438e+00,2.405594587326049805e+00,2.357892274856567383e+00,2.312045097351074219e+00,2.267946243286132812e+00,2.225498676300048828e+00,2.184610843658447266e+00,2.145198106765747070e+00,2.107182502746582031e+00,2.070490598678588867e+00,2.035054683685302734e+00,2.000811338424682617e+00,1.967701673507690430e+00,1.935669660568237305e+00,1.904663681983947754e+00,1.874635577201843262e+00,1.845539450645446777e+00
5.000000000000000000e+00,5.000000000000000000e+00,5.000000000000000000e+00,5.000000000000000000e+00,5.000000000000000000e+00,5.000000000000000000e+00,5.000000000000000000e+00,5.000000000000000000e+00,5.000000000000000000e+00,5.000000000000000000e+00,5.000000000000000000e+00,5.000000000000000000e+00,5.000000000000000000e+00,5.000000000000000000e+00,5.000000000000000000e+00,5.000000000000000000e+00,5.000000000000000000e+00,5.000000000000000000e+00,5.000000000000000000e+00,5.000000000000000000e+00,5.000000000000000000e+00,5.000000000000000000e+00,5.000000000000000000e+00,5.000000000000000000e+00,5.000000000000000000e+00,5.000000000000000000e+00,5.000000000000000000e+00,5.000000000000000000e+00,5.000000000000000000e+00,5.000000000000000000e+00,5.000000000000000000e+00,5.000000000000000000e+00,5.000000000000000000e+00,5.000000000000000000e+00,5.000000000000000000e+00,5.000000000000000000e+00,5.000000000000000000e+00,5.000000000000000000e+00,5.000000000000000000e+00,4.867532253265380859e+00,4.676111698150634766e+00,4.499177932739257812e+00,4.335145473480224609e+00,4.182652473449707031e+00,4.040523529052734375e+00,3.907736063003540039e+00,3.783398866653442383e+00,3.666730165481567383e+00,3.557041645050048828e+00,3.453725099563598633e+00,3.356240987777709961e+00,3.264108419418334961e+00,3.176899671554565430e+00,3.094229221343994141e+00,3.015752553939819336e+00,2.941157817840576172e+00,2.870164155960083008e+00,2.802517175674438477e+00,2.737985610961914062e+00,2.676358938217163086e+00,2.617445468902587891e+00,2.561069488525390625e+00,2.507071018218994141e+00,2.455302476882934570e+00,2.405628681182861328e+00,2.357925176620483398e+00,2.312076330184936523e+00,2.267976522445678711e+00,2.225527763366699219e+00,2.184638977050781250e+00,2.145225286483764648e+00,2.107208728790283203e+00,2.070515871047973633e+00,2.035079240798950195e+00,2.000835180282592773e+00,1.967724561691284180e+00,1.935691714286804199e+00,1.904685139656066895e+00,1.874656319618225098e+00,1.845559597015380859e+00
5.000000000000000000e+00,5.000000000000000000e+00,5.000000000000000000e+00,5.000000000000000000e+00,5.000000000000000000e+00,5.000000000000000000e+00,5.000000000000000000e+00,5.000000000000000000e+00,5.000000000000000000e+00,5.000000000000000000e+00,5.000000000000000000e+00,5.000000000000000000e+00,5.000000000000000000e+00,5.000000000000000000e+00,5.000000000000000000e+00,5.000000000000000000e+00,5.000000000000000000e+00,5.000000000000000000e+00,5.000000000000000000e+00,5.000000000000000000e+00,5.000000000000000000e+00,5.000000000000000000e+00,5.000000000000000000e+00,5.000000000000000000e+00,5.000000000000000000e+00,5.000000000000000000e+00,5.000000000000000000e+00,5.000000000000000000e+00,5.000000000000000000e+00,5.000000000000000000e+00,5.000000000000000000e+00,5.000000000000000000e+00,5.000000000000000000e+00,5.000000000000000000e+00,5.000000000000000000e+00,5.000000000000000000e+00,5.000000000000000000e+00,5.000000000000000000e+00,5.000000000000000000e+00,4.867671966552734375e+00,4.676240921020507812e+00,4.499297618865966797e+00,4.335256099700927734e+00,4.182755947113037109e+00,4.040619850158691406e+00,3.907826185226440430e+00,3.783483505249023438e+00,3.666809558868408203e+00,3.557116270065307617e+00,3.453795433044433594e+00,3.356307506561279297e+00,3.264171361923217773e+00,3.176959037780761719e+00,3.094285726547241211e+00,3.015806198120117188e+00,2.941208839416503906e+00,2.870212793350219727e+00,2.802563667297363281e+00,2.738029956817626953e+00,2.676401138305664062e+00,2.617485761642456055e+00,2.561108112335205078e+00,2.507107973098754883e+00,2.455338001251220703e+00,2.405663013458251953e+00,2.357957839965820312e+00,2.312107801437377930e+00,2.268007040023803711e+00,2.225557088851928711e+00,2.184667110443115234e+00,2.145252466201782227e+00,2.107234954833984375e+00,2.070541143417358398e+00,2.035103559494018555e+00,2.000858783721923828e+00,1.967747449874877930e+00,1.935713887214660645e+00,1.904706478118896484e+00,1.874677062034606934e+00,1.845579743385314941e+00
5.000000000000000000e+00,5.000000000000000000e+00,5.000000000000000000e+00,5.000000000000000000e+00,5.000000000000000000e+00,5.000000000000000000e+00,5.000000000000000000e+00,5.000000000000000000e+00,5.000000000000000000e+00,5.000000000000000000e+00,5.000000000000000000e+00,5.000000000000000000e+00,5.000000000000000000e+00,5.000000000000000000e+00,5.000000000000000000e+00,5.000000000000000000e+00,5.000000000000000000e+00,5.000000000000000000e+00,5.000000000000000000e+00,5.000000000000000000e+00,5.000000000000000000e+00,5.000000000000000000e+00,5.000000000000000000e+00,5.000000000000000000e+00,5.000000000000000000e+00,5.000000000000000000e+00,5.000000000000000000e+00,5.000000000000000000e+00,5.000000000000000000e+00,5.000000000000000000e+00,5.000000000000000000e+00,5.000000000000000000e+00,5.000000000000000000e+00,5.000000000000000000e+00,5.000000000000000000e+00,5.000000000000000000e+00,5.000000000000000000e+00,5.000000000000000000e+00,5.000000000000000000e+00,4.867811679840087891e+00,4.676369667053222656e+00,4.499416828155517578e+00,4.335366725921630859e+00,4.182858943939208984e+00,4.040716171264648438e+00,3.907916307449340820e+00,3.783567905426025391e+00,3.666888952255249023e+00,3.557191133499145508e+00,3.453866004943847656e+00,3.356373548507690430e+00,3.264234304428100586e+00,3.177018642425537109e+00,3.094342231750488281e+00,3.015859842300415039e+00,2.941260099411010742e+00,2.870261430740356445e+00,2.802609920501708984e+00,2.738074064254760742e+00,2.676443576812744141e+00,2.617526292800903320e+00,2.561146736145019531e+00,2.507145166397094727e+00,2.455373764038085938e+00,2.405696868896484375e+00,2.357990503311157227e+00,2.312139272689819336e+00,2.268037319183349609e+00,2.225586414337158203e+00,2.184695243835449219e+00,2.145279645919799805e+00,2.107261180877685547e+00,2.070566415786743164e+00,2.035128116607666016e+00,2.000882387161254883e+00,1.967770338058471680e+00,1.935735940933227539e+00,1.904727935791015625e+00,1.874697804450988770e+00,1.845599770545959473e+00
5.000000000000000000e+00,5.000000000000000000e+00,5.000000000000000000e+00,5.000000000000000000e+00,5.000000000000000000e+00,5.000000000000000000e+00,5.000000000000000000e+00,5.000000000000000000e+00,5.000000000000000000e+00,5.000000000000000000e+00,5.000000000000000000e+00,5.000000000000000000e+00,5.000000000000000000e+00,5.000000000000000000e+00,5.000000000000000000e+00,5.000000000000000000e+00,5.000000000000000000e+00,5.000000000000000000e+00,5.000000000000000000e+00,5.000000000000000000e+00,5.000000000000000000e+00,5.000000000000000000e+00,5.000000000000000000e+00,5.000000000000000000e+00,5.000000000000000000e+00,5.000000000000000000e+00,5.000000000000000000e+00,5.000000000000000000e+00,5.000000000000000000e+00,5.000000000000000000e+00,5.000000000000000000e+00,5.000000000000000000e+00,5.000000000000000000e+00,5.000000000000000000e+00,5.000000000000000000e+00,5.000000000000000000e+00,5.000000000000000000e+00,5.000000000000000000e+00,5.000000000000000000e+00,4.867951393127441406e+00,4.676498889923095703e+00,4.499536514282226562e+00,4.335477828979492188e+00,4.182962417602539062e+00,4.040812492370605469e+00,3.908006429672241211e+00,3.783652305603027344e+00,3.666968345642089844e+00,3.557265758514404297e+00,3.453936338424682617e+00,3.356440067291259766e+00,3.264297246932983398e+00,3.177078247070312500e+00,3.094398736953735352e+00,3.015913486480712891e+00,2.941311120986938477e+00,2.870310068130493164e+00,2.802656173706054688e+00,2.738118410110473633e+00,2.676485776901245117e+00,2.617566585540771484e+00,2.561185598373413086e+00,2.507182359695434570e+00,2.455409049987792969e+00,2.405730962753295898e+00,2.358023405075073242e+00,2.312170743942260742e+00,2.268067598342895508e+00,2.225615501403808594e+00,2.184723377227783203e+00,2.145306825637817383e+00,2.107287406921386719e+00,2.070591688156127930e+00,2.035152435302734375e+00,2.000905990600585938e+00,1.967793107032775879e+00,1.935757994651794434e+00,1.904749393463134766e+00,1.874718546867370605e+00,1.845619916915893555e+00
5.000000000000000000e+00,5.000000000000000000e+00,5.000000000000000000e+00,5.000000000000000000e+00,5.000000000000000000e+00,5.000000000000000000e+00,5.000000000000000000e+00,5.000000000000000000e+00,5.000000000000000000e+00,5.000000000000000000e+00,5.000000000000000000e+00,5.000000000000000000e+00,5.000000000000000000e+00,5.000000000000000000e+00,5.000000000000000000e+00,5.000000000000000000e+00,5.000000000000000000e+00,5.000000000000000000e+00,5.000000000000000000e+00,5.000000000000000000e+00,5.000000000000000000e+00,5.000000000000000000e+00,5.000000000000000000e+00,5.000000000000000000e+00,5.000000000000000000e+00,5.000000000000000000e+00,5.000000000000000000e+00,5.000000000000000000e+00,5.000000000000000000e+00,5.000000000000000000e+00,5.000000000000000000e+00,5.000000000000000000e+00,5.000000000000000000e+00,5.000000000000000000e+00,5.000000000000000000e+00,5.000000000000000000e+00,5.000000000000000000e+00,5.000000000000000000e+00,5.000000000000000000e+00,4.868091583251953125e+00,4.676628112792968750e+00,4.499655723571777344e+00,4.335588932037353516e+00,4.183065414428710938e+00,4.040908813476562500e+00,3.908096551895141602e+00,3.783736944198608398e+00,3.667047500610351562e+00,3.557340383529663086e+00,3.454006671905517578e+00,3.356506586074829102e+00,3.264359951019287109e+00,3.177137851715087891e+00,3.094455242156982422e+00,3.015967130661010742e+00,2.941362142562866211e+00,2.870358705520629883e+00,2.802702665328979492e+00,2.738162517547607422e+00,2.676527976989746094e+00,2.617607116699218750e+00,2.561224222183227539e+00,2.507219076156616211e+00,2.455444574356079102e+00,2.405765056610107422e+00,2.358056306838989258e+00,2.312202453613281250e+00,2.268098115921020508e+00,2.225644826889038086e+00,2.184751749038696289e+00,2.145334005355834961e+00,2.107313394546508789e+00,2.070616960525512695e+00,2.035176992416381836e+00,2.000929594039916992e+00,1.967815995216369629e+00,1.935780167579650879e+00,1.904770731925964355e+00,1.874739289283752441e+00,1.845639944076538086e+00
5.000000000000000000e+00,5.000000000000000000e+00,5.000000000000000000e+00,5.000000000000000000e+00,5.000000000000000000e+00,5.000000000000000000e+00,5.000000000000000000e+00,5.000000000000000000e+00,5.000000000000000000e+00,5.000000000000000000e+00,5.000000000000000000e+00,5.000000000000000000e+00,5.000000000000000000e+00,5.000000000000000000e+00,5.000000000000000000e+00,5.000000000000000000e+00,5.000000000000000000e+00,5.000000000000000000e+00,5.000000000000000000e+00,5.000000000000000000e+00,5.000000000000000000e+00,5.000000000000000000e+00,5.000000000000000000e+00,5.000000000000000000e+00,5.000000000000000000e+00,5.000000000000000000e+00,5.000000000000000000e+00,5.000000000000000000e+00,5.000000000000000000e+00,5.000000000000000000e+00,5.000000000000000000e+00,5.000000000000000000e+00,5.000000000000000000e+00,5.000000000000000000e+00,5.000000000000000000e+00,5.000000000000000000e+00,5.000000000000000000e+00,5.000000000000000000e+00,5.000000000000000000e+00,4.868230819702148438e+00,4.676756858825683594e+00,4.499775409698486328e+00,4.335699558258056641e+00,4.183168888092041016e+00,4.041005134582519531e+00,3.908186674118041992e+00,3.783821344375610352e+00,3.667126893997192383e+00,3.557415008544921875e+00,3.454077243804931641e+00,3.356573104858398438e+00,3.264422893524169922e+00,3.177197456359863281e+00,3.094511747360229492e+00,3.016020774841308594e+00,2.941412925720214844e+00,2.870407342910766602e+00,2.802748918533325195e+00,2.738206863403320312e+00,2.676570177078247070e+00,2.617647647857666016e+00,2.561262845993041992e+00,2.507256269454956055e+00,2.455480098724365234e+00,2.405799388885498047e+00,2.358088970184326172e+00,2.312233924865722656e+00,2.268128395080566406e+00,2.225673913955688477e+00,2.184779882431030273e+00,2.145361185073852539e+00,2.107339620590209961e+00,2.070642232894897461e+00,2.035201311111450195e+00,2.000953197479248047e+00,1.967838883399963379e+00,1.935802221298217773e+00,1.904792189598083496e+00,1.874760031700134277e+00,1.845660090446472168e+00
5.000000000000000000e+00,5.000000000000000000e+00,5.000000000000000000e+00,5.000000000000000000e+00,5.000000000000000000e+00,5.000000000000000000e+00,5.000000000000000000e+00,5.000000000000000000e+00,5.000000000000000000e+00,5.000000000000000000e+00,5.000000000000000000e+00,5.000000000000000000e+00,5.000000000000000000e+00,5.000000000000000000e+00,5.000000000000000000e+00,5.000000000000000000e+00,5.000000000000000000e+00,5.000000000000000000e+00,5.000000000000000000e+00,5.000000000000000000e+00,5.000000000000000000e+00,5.000000000000000000e+00,5.000000000000000000e+00,5.000000000000000000e+00,5.000000000000000000e+00,5.000000000000000000e+00,5.000000000000000000e+00,5.000000000000000000e+00,5.000000000000000000e+00,5.000000000000000000e+00,5.000000000000000000e+00,5.000000000000000000e+00,5.000000000000000000e+00,5.000000000000000000e+00,5.000000000000000000e+00,5.000000000000000000e+00,5.000000000000000000e+00,5.000000000000000000e+00,5.000000000000000000e+00,4.868370532989501953e+00,4.676886081695556641e+00,4.499894618988037109e+00,4.335810661315917969e+00,4.183271884918212891e+00,4.041101455688476562e+00,3.908276796340942383e+00,3.783905744552612305e+00,3.667206287384033203e+00,3.557489633560180664e+00,3.454147577285766602e+00,3.356639623641967773e+00,3.264485836029052734e+00,3.177257061004638672e+00,3.094568252563476562e+00,3.016074419021606445e+00,2.941463947296142578e+00,2.870455980300903320e+00,2.802795410156250000e+00,2.738250970840454102e+00,2.676612615585327148e+00,2.617687702178955078e+00,2.561301469802856445e+00,2.507293224334716797e+00,2.455515861511230469e+00,2.405833482742309570e+00,2.358121871948242188e+00,2.312265396118164062e+00,2.268158674240112305e+00,2.225703239440917969e+00,2.184808015823364258e+00,2.145388364791870117e+00,2.107365846633911133e+00,2.070667505264282227e+00,2.035225868225097656e+00,2.000976800918579102e+00,1.967861652374267578e+00,1.935824394226074219e+00,1.904813528060913086e+00,1.874780774116516113e+00,1.845680236816406250e+00
5.000000000000000000e+00,5.000000000000000000e+00,5.000000000000000000e+00,5.000000000000000000e+00,5.000000000000000000e+00,5.000000000000000000e+00,5.000000000000000000e+00,5.000000000000000000e+00,5.000000000000000000e+00,5.000000000000000000e+00,5.000000000000000000e+00,5.000000000000000000e+00,5.000000000000000000e+00,5.000000000000000000e+00,5.000000000000000000e+00,5.000000000000000000e+00,5.000000000000000000e+00,5.000000000000000000e+00,5.000000000000000000e+00,5.000000000000000000e+00,5.000000000000000000e+00,5.000000000000000000e+00,5.000000000000000000e+00,5.000000000000000000e+00,5.000000000000000000e+00,5.000000000000000000e+00,5.000000000000000000e+00,5.000000000000000000e+00,5.000000000000000000e+00,5.000000000000000000e+00,5.000000000000000000e+00,5.000000000000000000e+00,5.000000000000000000e+00,5.000000000000000000e+00,5.000000000000000000e+00,5.000000000000000000e+00,5.000000000000000000e+00,5.000000000000000000e+00,5.000000000000000000e+00,4.868510723114013672e+00,4.677015304565429688e+00,4.500014305114746094e+00,4.335921764373779297e+00,4.183375358581542969e+00,4.041197776794433594e+00,3.908366918563842773e+00,3.783990383148193359e+00,3.667285680770874023e+00,3.557564496994018555e+00,3.454217910766601562e+00,3.356705904006958008e+00,3.264548778533935547e+00,3.177316427230834961e+00,3.094624757766723633e+00,3.016128063201904297e+00,2.941514968872070312e+00,2.870504379272460938e+00,2.802841663360595703e+00,2.738295316696166992e+00,2.676654815673828125e+00,2.617727994918823242e+00,2.561340093612670898e+00,2.507330417633056641e+00,2.455551385879516602e+00,2.405867576599121094e+00,2.358154535293579102e+00,2.312297105789184570e+00,2.268189191818237305e+00,2.225732564926147461e+00,2.184836149215698242e+00,2.145415544509887695e+00,2.107392072677612305e+00,2.070692777633666992e+00,2.035250186920166016e+00,2.001000404357910156e+00,1.967884540557861328e+00,1.935846447944641113e+00,1.904834985733032227e+00,1.874801516532897949e+00,1.845700263977050781e+00
5.000000000000000000e+00,5.000000000000000000e+00,5.000000000000000000e+00,5.000000000000000000e+00,5.000000000000000000e+00,5.000000000000000000e+00,5.000000000000000000e+00,5.000000000000000000e+00,5.000000000000000000e+00,5.000000000000000000e+00,5.000000000000000000e+00,5.000000000000000000e+00,5.000000000000000000e+00,5.000000000000000000e+00,5.000000000000000000e+00,5.000000000000000000e+00,5.000000000000000000e+00,5.000000000000000000e+00,5.000000000000000000e+00,5.000000000000000000e+00,5.000000000000000000e+00,5.000000000000000000e+00,5.000000000000000000e+00,5.000000000000000000e+00,5.000000000000000000e+00,5.000000000000000000e+00,5.000000000000000000e+00,5.000000000000000000e+00,5.000000000000000000e+00,5.000000000000000000e+00,5.000000000000000000e+00,5.000000000000000000e+00,5.000000000000000000e+00,5.000000000000000000e+00,5.000000000000000000e+00,5.000000000000000000e+00,5.000000000000000000e+00,5.000000000000000000e+00,5.000000000000000000e+00,4.868650436401367188e+00,4.677144050598144531e+00,4.500133991241455078e+00,4.336032390594482422e+00,4.183478355407714844e+00,4.041294097900390625e+00,3.908457040786743164e+00,3.784074783325195312e+00,3.667365074157714844e+00,3.557639122009277344e+00,3.454288244247436523e+00,3.356772422790527344e+00,3.264611482620239258e+00,3.177376031875610352e+00,3.094681262969970703e+00,3.016181945800781250e+00,2.941565990447998047e+00,2.870553016662597656e+00,2.802888154983520508e+00,2.738339424133300781e+00,2.676696777343750000e+00,2.617768287658691406e+00,2.561378717422485352e+00,2.507367610931396484e+00,2.455586910247802734e+00,2.405901670455932617e+00,2.358187437057495117e+00,2.312328577041625977e+00,2.268219470977783203e+00,2.225761651992797852e+00,2.184864282608032227e+00,2.145442485809326172e+00,2.107418298721313477e+00,2.070718288421630859e+00,2.035274744033813477e+00,2.001024007797241211e+00,1.967907428741455078e+00,1.935868620872497559e+00,1.904856443405151367e+00,1.874822258949279785e+00,1.845720410346984863e+00
5.000000000000000000e+00,5.000000000000000000e+00,5.000000000000000000e+00,5.000000000000000000e+00,5.000000000000000000e+00,5.000000000000000000e+00,5.000000000000000000e+00,5.000000000000000000e+00,5.000000000000000000e+00,5.000000000000000000e+00,5.000000000000000000e+00,5.000000000000000000e+00,5.000000000000000000e+00,5.000000000000000000e+00,5.000000000000000000e+00,5.000000000000000000e+00,5.000000000000000000e+00,5.000000000000000000e+00,5.000000000000000000e+00,5.000000000000000000e+00,5.000000000000000000e+00,5.000000000000000000e+00,5.000000000000000000e+00,5.000000000000000000e+00,5.000000000000000000e+00,5.000000000000000000e+00,5.000000000000000000e+00,5.000000000000000000e+00,5.000000000000000000e+00,5.000000000000000000e+00,5.000000000000000000e+00,5.000000000000000000e+00,5.000000000000000000e+00,5.000000000000000000e+00,5.000000000000000000e+00,5.000000000000000000e+00,5.000000000000000000e+00,5.000000000000000000e+00,5.000000000000000000e+00,4.868790149688720703e+00,4.677273273468017578e+00,4.500253200531005859e+00,4.336143493652343750e+00,4.183581829071044922e+00,4.041390419006347656e+00,3.908547163009643555e+00,3.784159421920776367e+00,3.667444467544555664e+00,3.557713747024536133e+00,3.454358816146850586e+00,3.356838941574096680e+00,3.264674425125122070e+00,3.177435636520385742e+00,3.094737768173217773e+00,3.016235589981079102e+00,2.941617012023925781e+00,2.870601654052734375e+00,2.802934408187866211e+00,2.738383531570434570e+00,2.676739215850830078e+00,2.617808818817138672e+00,2.561417579650878906e+00,2.507404565811157227e+00,2.455622434616088867e+00,2.405936002731323242e+00,2.358220338821411133e+00,2.312360048294067383e+00,2.268249750137329102e+00,2.225790977478027344e+00,2.184892416000366211e+00,2.145469665527343750e+00,2.107444286346435547e+00,2.070743560791015625e+00,2.035299301147460938e+00,2.001047611236572266e+00,1.967930197715759277e+00,1.935890674591064453e+00,1.904877781867980957e+00,1.874843001365661621e+00,1.845740556716918945e+00
5.000000000000000000e+00,5.000000000000000000e+00,5.000000000000000000e+00,5.000000000000000000e+00,5.000000000000000000e+00,5.000000000000000000e+00,5.000000000000000000e+00,5.000000000000000000e+00,5.000000000000000000e+00,5.000000000000000000e+00,5.000000000000000000e+00,5.000000000000000000e+00,5.000000000000000000e+00,5.000000000000000000e+00,5.000000000000000000e+00,5.000000000000000000e+00,5.000000000000000000e+00,5.000000000000000000e+00,5.000000000000000000e+00,5.000000000000000000e+00,5.000000000000000000e+00,5.000000000000000000e+00,5.000000000000000000e+00,5.000000000000000000e+00,5.000000000000000000e+00,5.000000000000000000e+00,5.000000000000000000e+00,5.000000000000000000e+00,5.000000000000000000e+00,5.000000000000000000e+00,5.000000000000000000e+00,5.000000000000000000e+00,5.000000000000000000e+00,5.000000000000000000e+00,5.000000000000000000e+00,5.000000000000000000e+00,5.000000000000000000e+00,5.000000000000000000e+00,5.000000000000000000e+00,4.868930339813232422e+00,4.677402496337890625e+00,4.500372409820556641e+00,4.336254596710205078e+00,4.183685302734375000e+00,4.041486740112304688e+00,3.908637285232543945e+00,3.784243822097778320e+00,3.667523860931396484e+00,3.557788372039794922e+00,3.454428911209106445e+00,3.356905460357666016e+00,3.264737367630004883e+00,3.177495241165161133e+00,3.094794273376464844e+00,3.016289234161376953e+00,2.941668272018432617e+00,2.870650291442871094e+00,2.802980422973632812e+00,2.738427877426147461e+00,2.676781415939331055e+00,2.617849349975585938e+00,2.561456203460693359e+00,2.507441759109497070e+00,2.455658197402954102e+00,2.405970096588134766e+00,2.358253002166748047e+00,2.312391757965087891e+00,2.268280267715454102e+00,2.225820064544677734e+00,2.184920549392700195e+00,2.145496845245361328e+00,2.107470512390136719e+00,2.070768833160400391e+00,2.035323619842529297e+00,2.001071214675903320e+00,1.967953085899353027e+00,1.935912847518920898e+00,1.904899239540100098e+00,1.874863743782043457e+00,1.845760583877563477e+00
5.000000000000000000e+00,5.000000000000000000e+00,5.000000000000000000e+00,5.000000000000000000e+00,5.000000000000000000e+00,5.000000000000000000e+00,5.000000000000000000e+00,5.000000000000000000e+00,5.000000000000000000e+00,5.000000000000000000e+00,5.000000000000000000e+00,5.000000000000000000e+00,5.000000000000000000e+00,5.000000000000000000e+00,5.000000000000000000e+00,5.000000000000000000e+00,5.000000000000000000e+00,5.000000000000000000e+00,5.000000000000000000e+00,5.000000000000000000e+00,5.000000000000000000e+00,5.000000000000000000e+00,5.000000000000000000e+00,5.000000000000000000e+00,5.000000000000000000e+00,5.000000000000000000e+00,5.000000000000000000e+00,5.000000000000000000e+00,5.000000000000000000e+00,5.000000000000000000e+00,5.000000000000000000e+00,5.000000000000000000e+00,5.000000000000000000e+00,5.000000000000000000e+00,5.000000000000000000e+00,5.000000000000000000e+00,5.000000000000000000e+00,5.000000000000000000e+00,5.000000000000000000e+00,4.869070053100585938e+00,4.677531719207763672e+00,4.500492095947265625e+00,4.336365222930908203e+00,4.183788299560546875e+00,4.041583061218261719e+00,3.908727407455444336e+00,3.784328460693359375e+00,3.667603254318237305e+00,3.557863235473632812e+00,3.454499244689941406e+00,3.356971979141235352e+00,3.264800310134887695e+00,3.177554845809936523e+00,3.094850778579711914e+00,3.016342878341674805e+00,2.941719293594360352e+00,2.870698690414428711e+00,2.803026914596557617e+00,2.738471984863281250e+00,2.676823616027832031e+00,2.617889642715454102e+00,2.561495065689086914e+00,2.507478713989257812e+00,2.455693721771240234e+00,2.406004190444946289e+00,2.358285665512084961e+00,2.312423229217529297e+00,2.268310546875000000e+00,2.225849390029907227e+00,2.184948921203613281e+00,2.145524024963378906e+00,2.107496738433837891e+00,2.070794105529785156e+00,2.035348176956176758e+00,2.001095056533813477e+00,1.967975974082946777e+00,1.935935020446777344e+00,1.904920697212219238e+00,1.874884486198425293e+00,1.165375471115112305e+00
5.000000000000000000e+00,5.000000000000000000e+00,5.000000000000000000e+00,5.000000000000000000e+00,5.000000000000000000e+00,5.000000000000000000e+00,5.000000000000000000e+00,5.000000000000000000e+00,5.000000000000000000e+00,5.000000000000000000e+00,5.000000000000000000e+00,5.000000000000000000e+00,5.000000000000000000e+00,5.000000000000000000e+00,5.000000000000000000e+00,5.000000000000000000e+00,5.000000000000000000e+00,5.000000000000000000e+00,5.000000000000000000e+00,5.000000000000000000e+00,5.000000000000000000e+00,5.000000000000000000e+00,5.000000000000000000e+00,5.000000000000000000e+00,5.000000000000000000e+00,5.000000000000000000e+00,5.000000000000000000e+00,5.000000000000000000e+00,5.000000000000000000e+00,5.000000000000000000e+00,5.000000000000000000e+00,5.000000000000000000e+00,5.000000000000000000e+00,5.000000000000000000e+00,5.000000000000000000e+00,5.000000000000000000e+00,5.000000000000000000e+00,5.000000000000000000e+00,5.000000000000000000e+00,4.869210243225097656e+00,4.677660465240478516e+00,4.500611305236816406e+00,4.336476325988769531e+00,4.183891773223876953e+00,4.041679382324218750e+00,3.908817529678344727e+00,3.784412860870361328e+00,3.667682647705078125e+00,3.557937860488891602e+00,3.454569578170776367e+00,3.357038497924804688e+00,3.264863252639770508e+00,3.177614450454711914e+00,3.094907522201538086e+00,3.016396522521972656e+00,2.941770076751708984e+00,2.870747327804565430e+00,2.803073167800903320e+00,2.738516330718994141e+00,2.676866054534912109e+00,2.617930173873901367e+00,2.561533689498901367e+00,2.507515907287597656e+00,2.455729246139526367e+00,2.406038522720336914e+00,2.358318567276000977e+00,2.312454700469970703e+00,2.268340826034545898e+00,2.225878715515136719e+00,2.184977054595947266e+00,2.145551204681396484e+00,2.107522964477539062e+00,2.070819377899169922e+00,2.035372495651245117e+00,2.001118659973144531e+00,1.967998743057250977e+00,1.935957074165344238e+00,1.904942035675048828e+00,1.171818614006042480e+00,1.134561538696289062e+00
5.000000000000000000e+00,5.000000000000000000e+00,5.000000000000000000e+00,5.000000000000000000e+00,5.000000000000000000e+00,5.000000000000000000e+00,5.000000000000000000e+00,5.000000000000000000e+00,5.000000000000000000e+00,5.000000000000000000e+00,5.000000000000000000e+00,5.000000000000000000e+00,5.000000000000000000e+00,5.000000000000000000e+00,5.000000000000000000e+00,5.000000000000000000e+00,5.000000000000000000e+00,5.000000000000000000e+00,5.000000000000000000e+00,5.000000000000000000e+00,5.000000000000000000e+00,5.000000000000000000e+00,5.000000000000000000e+00,5.000000000000000000e+00,5.000000000000000000e+00,5.000000000000000000e+00,5.000000000000000000e+00,5.000000000000000000e+00,5.000000000000000000e+00,5.000000000000000000e+00,5.000000000000000000e+00,5.000000000000000000e+00,5.000000000000000000e+00,5.000000000000000000e+00,5.000000000000000000e+00,5.000000000000000000e+00,5.000000000000000000e+00,5.000000000000000000e+00,5.000000000000000000e+00,4.869349956512451172e+00,4.677789688110351562e+00,4.500730991363525391e+00,4.336587429046630859e+00,4.183994770050048828e+00,4.041776180267333984e+00,3.908907890319824219e+00,3.784497261047363281e+00,3.667761802673339844e+00,3.558012485504150391e+00,3.454640150070190430e+00,3.357105016708374023e+00,3.264925956726074219e+00,3.177674055099487305e+00,3.094964027404785156e+00,3.016449689865112305e+00,2.941821098327636719e+00,2.870795965194702148e+00,2.803119659423828125e+00,2.738560676574707031e+00,2.676908254623413086e+00,2.617970705032348633e+00,2.561572313308715820e+00,2.507553100585937500e+00,2.455764770507812500e+00,2.406072616577148438e+00,2.358351469039916992e+00,2.312486410140991211e+00,2.268371343612670898e+00,2.225907802581787109e+00,2.185005187988281250e+00,2.145578384399414062e+00,2.107549190521240234e+00,2.070844650268554688e+00,2.035397052764892578e+00,2.001142263412475586e+00,1.968021631240844727e+00,1.935979247093200684e+00,1.178161859512329102e+00,1.148323655128479004e+00,1.129990816116333008e+00
5.000000000000000000e+00,5.000000000000000000e+00,5.000000000000000000e+00,5.000000000000000000e+00,5.000000000000000000e+00,5.000000000000000000e+00,5.000000000000000000e+00,5.000000000000000000e+00,5.000000000000000000e+00,5.000000000000000000e+00,5.000000000000000000e+00,5.000000000000000000e+00,5.000000000000000000e+00,5.000000000000000000e+00,5.000000000000000000e+00,5.000000000000000000e+00,5.000000000000000000e+00,5.000000000000000000e+00,5.000000000000000000e+00,5.000000000000000000e+00,5.000000000000000000e+00,5.000000000000000000e+00,5.000000000000000000e+00,5.000000000000000000e+00,5.000000000000000000e+00,5.000000000000000000e+00,5.000000000000000000e+00,5.000000000000000000e+00,5.000000000000000000e+00,5.000000000000000000e+00,5.000000000000000000e+00,5.000000000000000000e+00,5.000000000000000000e+00,5.000000000000000000e+00,5.000000000000000000e+00,5.000000000000000000e+00,5.000000000000000000e+00,5.000000000000000000e+00,5.000000000000000000e+00,4.869489669799804688e+00,4.677918910980224609e+00,4.500850677490234375e+00,4.336698055267333984e+00,4.184098243713378906e+00,4.041872501373291016e+00,3.908998012542724609e+00,3.784581899642944336e+00,3.667841196060180664e+00,3.558087348937988281e+00,3.454710483551025391e+00,3.357171535491943359e+00,3.264988899230957031e+00,3.177733659744262695e+00,3.095020294189453125e+00,3.016503334045410156e+00,2.941872119903564453e+00,2.870844602584838867e+00,2.803165912628173828e+00,2.738604784011840820e+00,2.676950454711914062e+00,2.618010997772216797e+00,2.561611175537109375e+00,2.507590055465698242e+00,2.455800533294677734e+00,2.406106710433959961e+00,2.358384132385253906e+00,2.312517881393432617e+00,2.268401622772216797e+00,2.225937128067016602e+00,2.185033321380615234e+00,2.145605564117431641e+00,2.107575416564941406e+00,2.070869922637939453e+00,2.035421371459960938e+00,2.001165866851806641e+00,1.968044519424438477e+00,1.184245944023132324e+00,1.162423729896545410e+00,1.144171714782714844e+00,1.125268697738647461e+00
5.000000000000000000e+00,5.000000000000000000e+00,5.000000000000000000e+00,5.000000000000000000e+00,5.000000000000000000e+00,5.000000000000000000e+00,5.000000000000000000e+00,5.000000000000000000e+00,5.000000000000000000e+00,5.000000000000000000e+00,5.000000000000000000e+00,5.000000000000000000e+00,5.000000000000000000e+00,5.000000000000000000e+00,5.000000000000000000e+00,5.000000000000000000e+00,5.000000000000000000e+00,5.000000000000000000e+00,5.000000000000000000e+00,5.000000000000000000e+00,5.000000000000000000e+00,5.000000000000000000e+00,5.000000000000000000e+00,5.000000000000000000e+00,5.000000000000000000e+00,5.000000000000000000e+00,5.000000000000000000e+00,5.000000000000000000e+00,5.000000000000000000e+00,5.000000000000000000e+00,5.000000000000000000e+00,5.000000000000000000e+00,5.000000000000000000e+00,5.000000000000000000e+00,5.000000000000000000e+00,5.000000000000000000e+00,5.000000000000000000e+00,5.000000000000000000e+00,5.000000000000000000e+00,4.869629859924316406e+00,4.678048133850097656e+00,4.500969886779785156e+00,4.336809158325195312e+00,4.184201240539550781e+00,4.041968822479248047e+00,3.909088134765625000e+00,3.784666538238525391e+00,3.667920589447021484e+00,3.558161973953247070e+00,3.454780817031860352e+00,3.357238054275512695e+00,3.265051841735839844e+00,3.177793025970458984e+00,3.095076799392700195e+00,3.016557216644287109e+00,2.941923379898071289e+00,2.870893239974975586e+00,2.803212404251098633e+00,2.738649129867553711e+00,2.676992654800415039e+00,2.618051528930664062e+00,2.561649799346923828e+00,2.507627248764038086e+00,2.455836057662963867e+00,2.406140804290771484e+00,2.358417034149169922e+00,2.312549352645874023e+00,2.268432140350341797e+00,2.225966453552246094e+00,2.185061454772949219e+00,2.145632505416870117e+00,2.107601642608642578e+00,2.070895433425903320e+00,2.035445928573608398e+00,2.001189470291137695e+00,1.195375561714172363e+00,1.176874399185180664e+00,1.158712983131408691e+00,1.139330625534057617e+00,1.128475427627563477e+00
5.000000000000000000e+00,5.000000000000000000e+00,5.000000000000000000e+00,5.000000000000000000e+00,5.000000000000000000e+00,5.000000000000000000e+00,5.000000000000000000e+00,5.000000000000000000e+00,5.000000000000000000e+00,5.000000000000000000e+00,5.000000000000000000e+00,5.000000000000000000e+00,5.000000000000000000e+00,5.000000000000000000e+00,5.000000000000000000e+00,5.000000000000000000e+00,5.000000000000000000e+00,5.000000000000000000e+00,5.000000000000000000e+00,5.000000000000000000e+00,5.000000000000000000e+00,5.000000000000000000e+00,5.000000000000000000e+00,5.000000000000000000e+00,5.000000000000000000e+00,5.000000000000000000e+00,5.000000000000000000e+00,5.000000000000000000e+00,5.000000000000000000e+00,5.000000000000000000e+00,5.000000000000000000e+00,5.000000000000000000e+00,5.000000000000000000e+00,5.000000000000000000e+00,5.000000000000000000e+00,5.000000000000000000e+00,5.000000000000000000e+00,5.000000000000000000e+00,5.000000000000000000e+00,4.869769573211669922e+00,4.678177356719970703e+00,4.501089572906494141e+00,4.336920261383056641e+00,4.184304714202880859e+00,4.042065143585205078e+00,3.909178256988525391e+00,3.784750938415527344e+00,3.667999982833862305e+00,3.558236598968505859e+00,3.454851388931274414e+00,3.357304573059082031e+00,3.265114545822143555e+00,3.177852392196655273e+00,3.095133304595947266e+00,3.016610860824584961e+00,2.941974401473999023e+00,2.870941877365112305e+00,2.803258657455444336e+00,2.738693237304687500e+00,2.677034854888916016e+00,2.618091821670532227e+00,2.561688661575317383e+00,2.507664442062377930e+00,2.455871582031250000e+00,2.406175136566162109e+00,2.358449935913085938e+00,2.312581062316894531e+00,2.268462419509887695e+00,2.225995540618896484e+00,2.185089588165283203e+00,2.145659685134887695e+00,2.107627868652343750e+00,2.070920705795288086e+00,1.260449290275573730e+00,1.211173057556152344e+00,1.191688895225524902e+00,1.173300862312316895e+00,1.154918670654296875e+00,1.144725918769836426e+00,1.134712815284729004e+00
5.000000000000000000e+00,5.000000000000000000e+00,5.000000000000000000e+00,5.000000000000000000e+00,5.000000000000000000e+00,5.000000000000000000e+00,5.000000000000000000e+00,5.000000000000000000e+00,5.000000000000000000e+00,5.000000000000000000e+00,5.000000000000000000e+00,5.000000000000000000e+00,5.000000000000000000e+00,5.000000000000000000e+00,5.000000000000000000e+00,5.000000000000000000e+00,5.000000000000000000e+00,5.000000000000000000e+00,5.000000000000000000e+00,5.000000000000000000e+00,5.000000000000000000e+00,5.000000000000000000e+00,5.000000000000000000e+00,5.000000000000000000e+00,5.000000000000000000e+00,5.000000000000000000e+00,5.000000000000000000e+00,5.000000000000000000e+00,5.000000000000000000e+00,5.000000000000000000e+00,5.000000000000000000e+00,5.000000000000000000e+00,5.000000000000000000e+00,5.000000000000000000e+00,5.000000000000000000e+00,5.000000000000000000e+00,5.000000000000000000e+00,5.000000000000000000e+00,5.000000000000000000e+00,4.869907855987548828e+00,4.678306579589843750e+00,4.501209259033203125e+00,4.337031364440917969e+00,4.184407711029052734e+00,4.042161464691162109e+00,3.909268379211425781e+00,3.784835577011108398e+00,3.668079376220703125e+00,3.558311462402343750e+00,3.454921722412109375e+00,3.357370853424072266e+00,3.265177488327026367e+00,3.177911996841430664e+00,3.095189809799194336e+00,3.016664505004882812e+00,2.942025423049926758e+00,2.870990514755249023e+00,2.803305149078369141e+00,2.738737583160400391e+00,2.677077293395996094e+00,2.618132352828979492e+00,2.561727285385131836e+00,2.507701396942138672e+00,2.455907106399536133e+00,2.406209230422973633e+00,2.358482599258422852e+00,2.312612533569335938e+00,2.268492698669433594e+00,2.226024866104125977e+00,2.185117721557617188e+00,2.145686864852905273e+00,2.107654094696044922e+00,1.267222285270690918e+00,1.228422164916992188e+00,1.207979202270507812e+00,1.188024997711181641e+00,1.171945452690124512e+00,1.161538600921630859e+00,1.151351213455200195e+00,1.141341090202331543e+00
5.000000000000000000e+00,5.000000000000000000e+00,5.000000000000000000e+00,5.000000000000000000e+00,5.000000000000000000e+00,5.000000000000000000e+00,5.000000000000000000e+00,5.000000000000000000e+00,5.000000000000000000e+00,5.000000000000000000e+00,5.000000000000000000e+00,5.000000000000000000e+00,5.000000000000000000e+00,5.000000000000000000e+00,5.000000000000000000e+00,5.000000000000000000e+00,5.000000000000000000e+00,5.000000000000000000e+00,5.000000000000000000e+00,5.000000000000000000e+00,5.000000000000000000e+00,5.000000000000000000e+00,5.000000000000000000e+00,5.000000000000000000e+00,5.000000000000000000e+00,5.000000000000000000e+00,5.000000000000000000e+00,5.000000000000000000e+00,5.000000000000000000e+00,5.000000000000000000e+00,5.000000000000000000e+00,5.000000000000000000e+00,5.000000000000000000e+00,5.000000000000000000e+00,5.000000000000000000e+00,5.000000000000000000e+00,5.000000000000000000e+00,5.000000000000000000e+00,5.000000000000000000e+00,4.870047092437744141e+00,4.678433895111083984e+00,4.501328945159912109e+00,4.337141990661621094e+00,4.184511184692382812e+00,4.042257785797119141e+00,3.909358739852905273e+00,3.784919977188110352e+00,3.668158769607543945e+00,3.558385848999023438e+00,3.454992055892944336e+00,3.357437372207641602e+00,3.265240430831909180e+00,3.177971601486206055e+00,3.095246315002441406e+00,3.016718149185180664e+00,2.942076444625854492e+00,2.871039152145385742e+00,2.803351402282714844e+00,2.738781929016113281e+00,2.677119493484497070e+00,2.618172883987426758e+00,2.561765909194946289e+00,2.507738590240478516e+00,2.455942869186401367e+00,2.406243324279785156e+00,2.358515501022338867e+00,2.312644004821777344e+00,2.268523216247558594e+00,2.226053953170776367e+00,2.185146093368530273e+00,2.145714044570922852e+00,1.274992823600769043e+00,1.246018528938293457e+00,1.225486397743225098e+00,1.204802155494689941e+00,1.189973473548889160e+00,1.179005980491638184e+00,1.168484926223754883e+00,1.158175945281982422e+00,1.148047327995300293e+00
5.000000000000000000e+00,5.000000000000000000e+00,5.000000000000000000e+00,5.000000000000000000e+00,5.000000000000000000e+00,5.000000000000000000e+00,5.000000000000000000e+00,5.000000000000000000e+00,5.000000000000000000e+00,5.000000000000000000e+00,5.000000000000000000e+00,5.000000000000000000e+00,5.000000000000000000e+00,5.000000000000000000e+00,5.000000000000000000e+00,5.000000000000000000e+00,5.000000000000000000e+00,5.000000000000000000e+00,5.000000000000000000e+00,5.000000000000000000e+00,5.000000000000000000e+00,5.000000000000000000e+00,5.000000000000000000e+00,5.000000000000000000e+00,5.000000000000000000e+00,5.000000000000000000e+00,5.000000000000000000e+00,5.000000000000000000e+00,5.000000000000000000e+00,5.000000000000000000e+00,5.000000000000000000e+00,5.000000000000000000e+00,5.000000000000000000e+00,5.000000000000000000e+00,5.000000000000000000e+00,5.000000000000000000e+00,5.000000000000000000e+00,5.000000000000000000e+00,5.000000000000000000e+00,4.870186328887939453e+00,4.678562164306640625e+00,4.501448154449462891e+00,4.337253093719482422e+00,4.184614658355712891e+00,4.042354583740234375e+00,3.909448862075805664e+00,3.785004615783691406e+00,3.668238162994384766e+00,3.558460235595703125e+00,3.455062389373779297e+00,3.357503890991210938e+00,3.265303373336791992e+00,3.178031206130981445e+00,3.095302820205688477e+00,3.016772031784057617e+00,2.942127466201782227e+00,2.871087789535522461e+00,2.803397893905639648e+00,2.738826036453247070e+00,2.677161693572998047e+00,2.618213176727294922e+00,2.561804771423339844e+00,2.507775545120239258e+00,2.455978393554687500e+00,2.406277418136596680e+00,2.358548402786254883e+00,2.312675714492797852e+00,2.268553495407104492e+00,2.226083278656005859e+00,2.185174226760864258e+00,1.293339729309082031e+00,1.264126181602478027e+00,1.243508338928222656e+00,1.222216606140136719e+00,1.209109783172607422e+00,1.197788596153259277e+00,1.186677336692810059e+00,1.175770282745361328e+00,1.165095448493957520e+00,1.158988118171691895e+00
5.000000000000000000e+00,5.000000000000000000e+00,5.000000000000000000e+00,5.000000000000000000e+00,5.000000000000000000e+00,5.000000000000000000e+00,5.000000000000000000e+00,5.000000000000000000e+00,5.000000000000000000e+00,5.000000000000000000e+00,5.000000000000000000e+00,5.000000000000000000e+00,5.000000000000000000e+00,5.000000000000000000e+00,5.000000000000000000e+00,5.000000000000000000e+00,5.000000000000000000e+00,5.000000000000000000e+00,5.000000000000000000e+00,5.000000000000000000e+00,5.000000000000000000e+00,5.000000000000000000e+00,5.000000000000000000e+00,5.000000000000000000e+00,5.000000000000000000e+00,5.000000000000000000e+00,5.000000000000000000e+00,5.000000000000000000e+00,5.000000000000000000e+00,5.000000000000000000e+00,5.000000000000000000e+00,5.000000000000000000e+00,5.000000000000000000e+00,5.000000000000000000e+00,5.000000000000000000e+00,5.000000000000000000e+00,5.000000000000000000e+00,5.000000000000000000e+00,5.000000000000000000e+00,4.870325088500976562e+00,4.678690910339355469e+00,4.501566410064697266e+00,4.337364196777343750e+00,4.184718132019042969e+00,4.042450904846191406e+00,3.909538984298706055e+00,3.785089015960693359e+00,3.668317556381225586e+00,3.558534860610961914e+00,3.455132961273193359e+00,3.357570409774780273e+00,3.265366077423095703e+00,3.178090810775756836e+00,3.095359325408935547e+00,3.016825675964355469e+00,2.942178726196289062e+00,2.871136426925659180e+00,2.803444147109985352e+00,2.738870382308959961e+00,2.677204132080078125e+00,2.618253707885742188e+00,2.561843395233154297e+00,2.507812738418579102e+00,2.456013917922973633e+00,2.406311511993408203e+00,2.358581066131591797e+00,2.312707185745239258e+00,2.268583774566650391e+00,2.226112604141235352e+00,2.185202360153198242e+00,1.282768011093139648e+00,1.261736154556274414e+00,1.240791320800781250e+00,1.228871822357177734e+00,1.217179298400878906e+00,1.205741763114929199e+00,1.194589018821716309e+00,1.188125967979431152e+00,1.179877638816833496e+00,1.845961689949035645e+00
5.000000000000000000e+00,5.000000000000000000e+00,5.000000000000000000e+00,5.000000000000000000e+00,5.000000000000000000e+00,5.000000000000000000e+00,5.000000000000000000e+00,5.000000000000000000e+00,5.000000000000000000e+00,5.000000000000000000e+00,5.000000000000000000e+00,5.000000000000000000e+00,5.000000000000000000e+00,5.000000000000000000e+00,5.000000000000000000e+00,5.000000000000000000e+00,5.000000000000000000e+00,5.000000000000000000e+00,5.000000000000000000e+00,5.000000000000000000e+00,5.000000000000000000e+00,5.000000000000000000e+00,5.000000000000000000e+00,5.000000000000000000e+00,5.000000000000000000e+00,5.000000000000000000e+00,5.000000000000000000e+00,5.000000000000000000e+00,5.000000000000000000e+00,5.000000000000000000e+00,5.000000000000000000e+00,5.000000000000000000e+00,5.000000000000000000e+00,5.000000000000000000e+00,5.000000000000000000e+00,5.000000000000000000e+00,5.000000000000000000e+00,5.000000000000000000e+00,5.000000000000000000e+00,4.870464324951171875e+00,4.678818702697753906e+00,4.501684665679931641e+00,4.337473392486572266e+00,4.184821128845214844e+00,4.042547225952148438e+00,3.909629106521606445e+00,3.785173416137695312e+00,3.668396949768066406e+00,3.558609724044799805e+00,3.455203294754028320e+00,3.357636928558349609e+00,3.265429019927978516e+00,3.178150415420532227e+00,3.095415592193603516e+00,3.016879320144653320e+00,2.942229747772216797e+00,2.871185064315795898e+00,2.803490638732910156e+00,2.738914728164672852e+00,2.677246332168579102e+00,2.618294239044189453e+00,2.561882257461547852e+00,2.507849931716918945e+00,2.456049680709838867e+00,2.406345605850219727e+00,2.358613967895507812e+00,2.312738895416259766e+00,2.268614292144775391e+00,1.343034148216247559e+00,1.324614405632019043e+00,1.296527862548828125e+00,1.261611461639404297e+00,1.249370574951171875e+00,1.237400293350219727e+00,1.225657224655151367e+00,1.214134931564331055e+00,1.212217330932617188e+00,1.203632354736328125e+00,1.875091910362243652e+00,1.845981717109680176e+00
5.000000000000000000e+00,5.000000000000000000e+00,5.000000000000000000e+00,5.000000000000000000e+00,5.000000000000000000e+00,5.000000000000000000e+00,5.000000000000000000e+00,5.000000000000000000e+00,5.000000000000000000e+00,5.000000000000000000e+00,5.000000000000000000e+00,5.000000000000000000e+00,5.000000000000000000e+00,5.000000000000000000e+00,5.000000000000000000e+00,5.000000000000000000e+00,5.000000000000000000e+00,5.000000000000000000e+00,5.000000000000000000e+00,5.000000000000000000e+00,5.000000000000000000e+00,5.000000000000000000e+00,5.000000000000000000e+00,5.000000000000000000e+00,5.000000000000000000e+00,5.000000000000000000e+00,5.000000000000000000e+00,5.000000000000000000e+00,5.000000000000000000e+00,5.000000000000000000e+00,5.000000000000000000e+00,5.000000000000000000e+00,5.000000000000000000e+00,5.000000000000000000e+00,5.000000000000000000e+00,5.000000000000000000e+00,5.000000000000000000e+00,5.000000000000000000e+00,5.000000000000000000e+00,4.870603561401367188e+00,4.678947448730468750e+00,4.501803874969482422e+00,4.337583541870117188e+00,4.184923171997070312e+00,4.042643547058105469e+00,3.909719228744506836e+00,3.785257816314697266e+00,3.668476343154907227e+00,3.558684349060058594e+00,3.455273866653442383e+00,3.357703447341918945e+00,3.265491962432861328e+00,3.178210020065307617e+00,3.095472097396850586e+00,3.016932964324951172e+00,2.942280769348144531e+00,2.871233701705932617e+00,2.803536891937255859e+00,2.738958835601806641e+00,2.677288770675659180e+00,2.618334531784057617e+00,2.561920881271362305e+00,2.507886886596679688e+00,2.456085205078125000e+00,2.406379938125610352e+00,2.358646869659423828e+00,2.312770366668701172e+00,1.350366592407226562e+00,1.332270622253417969e+00,1.312402248382568359e+00,1.292387843132019043e+00,1.277688980102539062e+00,1.258384466171264648e+00,1.246241569519042969e+00,1.234330892562866211e+00,1.237305879592895508e+00,1.936178207397460938e+00,1.905156254768371582e+00,1.875112771987915039e+00,1.846001863479614258e+00
4.875550746917724609e+00,4.874339103698730469e+00,4.873128414154052734e+00,4.871918201446533203e+00,4.870708465576171875e+00,4.869499206542968750e+00,4.868290901184082031e+00,4.867083072662353516e+00,4.865875720977783203e+00,4.864668846130371094e+00,4.863462924957275391e+00,4.862257480621337891e+00,4.861052513122558594e+00,4.859848499298095703e+00,4.858644485473632812e+00,4.857441425323486328e+00,4.856239318847656250e+00,4.855037212371826172e+00,4.853836059570312500e+00,4.852635383605957031e+00,4.851435184478759766e+00,4.850235939025878906e+00,4.849036693572998047e+00,4.847838401794433594e+00,4.846640586853027344e+00,4.845443725585937500e+00,4.844246864318847656e+00,4.843050956726074219e+00,4.841855525970458984e+00,4.840661048889160156e+00,4.839466571807861328e+00,4.838273048400878906e+00,4.837080001831054688e+00,4.835887432098388672e+00,4.834695816040039062e+00,4.833504676818847656e+00,4.832314014434814453e+00,4.831123828887939453e+00,4.829934120178222656e+00,4.828745365142822266e+00,4.679076194763183594e+00,4.501922607421875000e+00,4.337694168090820312e+00,4.185026168823242188e+00,4.042740345001220703e+00,3.909809350967407227e+00,3.785342454910278320e+00,3.668555736541748047e+00,3.558759212493896484e+00,3.455344200134277344e+00,3.357769966125488281e+00,3.265554904937744141e+00,3.178269624710083008e+00,3.095528841018676758e+00,3.016986846923828125e+00,2.942331790924072266e+00,2.871282339096069336e+00,2.803583383560180664e+00,2.739002943038940430e+00,2.677330970764160156e+00,2.618375062942504883e+00,2.561959743499755859e+00,2.507924079895019531e+00,2.456120729446411133e+00,2.406414031982421875e+00,2.358679533004760742e+00,2.312801837921142578e+00,1.345950603485107422e+00,1.327736973762512207e+00,1.309196233749389648e+00,1.295471549034118652e+00,1.287217974662780762e+00,1.280841231346130371e+00,1.262055754661560059e+00,2.001378297805786133e+00,1.968250036239624023e+00,1.936200380325317383e+00,1.905177593231201172e+00,1.875133514404296875e+00,1.846022009849548340e+00
3.778337001800537109e+00,3.777609109878540039e+00,3.776881933212280273e+00,3.776154756546020508e+00,3.775428295135498047e+00,3.774701595306396484e+00,3.773975610733032227e+00,3.773249387741088867e+00,3.772523880004882812e+00,3.771798372268676758e+00,3.771073579788208008e+00,3.770348548889160156e+00,3.769624233245849609e+00,3.768899679183959961e+00,3.768176078796386719e+00,3.767452001571655273e+00,3.766728878021240234e+00,3.766005516052246094e+00,3.765282869338989258e+00,3.764559984207153320e+00,3.763838052749633789e+00,3.763115882873535156e+00,3.762394189834594727e+00,3.761672496795654297e+00,3.760951519012451172e+00,3.760230541229248047e+00,3.759510040283203125e+00,3.758789539337158203e+00,3.758069515228271484e+00,3.757349491119384766e+00,3.756630182266235352e+00,3.755910873413085938e+00,3.755192041397094727e+00,3.754472970962524414e+00,3.753754854202270508e+00,3.753036499023437500e+00,3.752318859100341797e+00,3.751600980758666992e+00,3.750883817672729492e+00,3.750166654586791992e+00,3.749449968338012695e+00,3.748733282089233398e+00,3.748017311096191406e+00,3.747301101684570312e+00,3.746585607528686523e+00,3.745869874954223633e+00,3.745155096054077148e+00,3.668635129928588867e+00,3.558833837509155273e+00,3.455414772033691406e+00,3.357836484909057617e+00,3.265617847442626953e+00,3.178329229354858398e+00,3.095585346221923828e+00,3.017040491104125977e+00,2.942383050918579102e+00,2.871330976486206055e+00,2.803629636764526367e+00,2.739047288894653320e+00,2.677373170852661133e+00,2.618415594100952148e+00,2.561998367309570312e+00,2.507961273193359375e+00,2.456156253814697266e+00,2.406448125839233398e+00,2.358712434768676758e+00,2.312833547592163086e+00,2.268705368041992188e+00,1.324196100234985352e+00,1.308890342712402344e+00,1.300305008888244629e+00,1.295907974243164062e+00,2.071123123168945312e+00,2.035665988922119141e+00,2.001402139663696289e+00,1.968272805213928223e+00,1.936222553253173828e+00,1.905199050903320312e+00,1.875154256820678711e+00,1.846042156219482422e+00
3.084245443344116211e+00,3.083760738372802734e+00,3.083276033401489258e+00,3.082791566848754883e+00,3.082307100296020508e+00,3.081822872161865234e+00,3.081338644027709961e+00,3.080854892730712891e+00,3.080371141433715820e+00,3.079887628555297852e+00,3.079403877258300781e+00,3.078920841217041016e+00,3.078437566757202148e+00,3.077954530715942383e+00,3.077471494674682617e+00,3.076988935470581055e+00,3.076506376266479492e+00,3.076024055480957031e+00,3.075541496276855469e+00,3.075059652328491211e+00,3.074577569961547852e+00,3.074095726013183594e+00,3.073614120483398438e+00,3.073132753372192383e+00,3.072651147842407227e+00,3.072170019149780273e+00,3.071688890457153320e+00,3.071208000183105469e+00,3.070727109909057617e+00,3.070246696472167969e+00,3.069766044616699219e+00,3.069285869598388672e+00,3.068805694580078125e+00,3.068325757980346680e+00,3.067845821380615234e+00,3.067366361618041992e+00,3.066886663436889648e+00,3.066407203674316406e+00,3.065927982330322266e+00,3.065448999404907227e+00,3.064970016479492188e+00,3.064491271972656250e+00,3.064012527465820312e+00,3.063534021377563477e+00,3.063055753707885742e+00,3.062577486038208008e+00,3.062099456787109375e+00,3.061621665954589844e+00,3.061143636703491211e+00,3.060666322708129883e+00,3.060188531875610352e+00,3.059711456298828125e+00,3.059234142303466797e+00,3.058757305145263672e+00,3.017094135284423828e+00,2.942434072494506836e+00,2.871379613876342773e+00,2.803676128387451172e+00,2.739091396331787109e+00,2.677415609359741211e+00,2.618455886840820312e+00,2.562036991119384766e+00,2.507998228073120117e+00,2.456192016601562500e+00,2.406482458114624023e+00,2.358745336532592773e+00,2.312865018844604492e+00,2.268735647201538086e+00,1.321183204650878906e+00,1.308557510375976562e+00,1.301615357398986816e+00,1.298599004745483398e+00,2.071148395538330078e+00,2.035690307617187500e+00,2.001425743103027344e+00,1.968295693397521973e+00,1.936244606971740723e+00,1.905220508575439453e+00,1.875174999237060547e+00,1.846062183380126953e+00
2.605590820312500000e+00,2.605244874954223633e+00,2.604898929595947266e+00,2.604553222656250000e+00,2.604207277297973633e+00,2.603861808776855469e+00,2.603516101837158203e+00,2.603170633316040039e+00,2.602825164794921875e+00,2.602479934692382812e+00,2.602134704589843750e+00,2.601789474487304688e+00,2.601444482803344727e+00,2.601099491119384766e+00,2.600754737854003906e+00,2.600409984588623047e+00,2.600065231323242188e+00,2.599720716476440430e+00,2.599376201629638672e+00,2.599031925201416016e+00,2.598687410354614258e+00,2.598343372344970703e+00,2.597999095916748047e+00,2.597655296325683594e+00,2.597311258316040039e+00,2.596967458724975586e+00,2.596623659133911133e+00,2.596280097961425781e+00,2.595936298370361328e+00,2.595592975616455078e+00,2.595249414443969727e+00,2.594906330108642578e+00,2.594563007354736328e+00,2.594219923019409180e+00,2.593876838684082031e+00,2.593533992767333984e+00,2.593190908432006836e+00,2.592848300933837891e+00,2.592505693435668945e+00,2.592163085937500000e+00,2.591820478439331055e+00,2.591478109359741211e+00,2.591135740280151367e+00,2.590793609619140625e+00,2.590451478958129883e+00,2.590109586715698242e+00,2.589767456054687500e+00,2.589425802230834961e+00,2.589083909988403320e+00,2.588742256164550781e+00,2.588400602340698242e+00,2.588059186935424805e+00,2.587717771530151367e+00,2.587376594543457031e+00,2.587035179138183594e+00,2.586694240570068359e+00,2.586353063583374023e+00,2.586012125015258789e+00,2.585671186447143555e+00,2.585330724716186523e+00,2.584989786148071289e+00,2.562075853347778320e+00,2.508035421371459961e+00,2.456227302551269531e+00,2.406516551971435547e+00,2.358777999877929688e+00,2.312896728515625000e+00,2.268766164779663086e+00,1.320383310317993164e+00,1.306884884834289551e+00,1.303610563278198242e+00,1.304003715515136719e+00,2.071173667907714844e+00,2.035714864730834961e+00,2.001449346542358398e+00,1.968318581581115723e+00,1.936266779899597168e+00,1.905241847038269043e+00,1.875195741653442383e+00,1.846082329750061035e+00
2.255557298660278320e+00,2.255297422409057617e+00,2.255037546157836914e+00,2.254777908325195312e+00,2.254518270492553711e+00,2.254258632659912109e+00,2.253998994827270508e+00,2.253739595413208008e+00,2.253480195999145508e+00,2.253220558166503906e+00,2.252961397171020508e+00,2.252701997756958008e+00,2.252442836761474609e+00,2.252183675765991211e+00,2.251924753189086914e+00,2.251665592193603516e+00,2.251406669616699219e+00,2.251147985458374023e+00,2.250889062881469727e+00,2.250630378723144531e+00,2.250371456146240234e+00,2.250113010406494141e+00,2.249854087829589844e+00,2.249596118927001953e+00,2.249338150024414062e+00,2.249080181121826172e+00,2.248822450637817383e+00,2.248564720153808594e+00,2.248306989669799805e+00,2.248049259185791016e+00,2.247791767120361328e+00,2.247534275054931641e+00,2.247276782989501953e+00,2.247019290924072266e+00,2.246762037277221680e+00,2.246504545211791992e+00,2.246247529983520508e+00,2.245990276336669922e+00,2.245733261108398438e+00,2.245476007461547852e+00,2.245218992233276367e+00,2.244961977005004883e+00,2.244705200195312500e+00,2.244448423385620117e+00,2.244191646575927734e+00,2.243934869766235352e+00,2.243678331375122070e+00,2.243421554565429688e+00,2.243165016174316406e+00,2.242908477783203125e+00,2.242652177810668945e+00,2.242395877838134766e+00,2.242139577865600586e+00,2.241883277893066406e+00,2.241627216339111328e+00,2.241370916366577148e+00,2.241114854812622070e+00,2.240858793258666992e+00,2.240602970123291016e+00,2.240347146987915039e+00,2.240091323852539062e+00,2.239835500717163086e+00,2.239579677581787109e+00,2.239324092864990234e+00,2.239068508148193359e+00,2.238812923431396484e+00,2.238557577133178711e+00,2.238301992416381836e+00,1.319557070732116699e+00,1.302510857582092285e+00,1.304000854492187500e+00,1.308716773986816406e+00,2.071198940277099609e+00,2.035739183425903320e+00,2.001472949981689453e+00,1.968341469764709473e+00,1.936288833618164062e+00,1.905263304710388184e+00,1.875216484069824219e+00,1.846102476119995117e+00
1.988456487655639648e+00,1.988254547119140625e+00,1.988052606582641602e+00,1.987850785255432129e+00,1.987648725509643555e+00,1.987446904182434082e+00,1.987245202064514160e+00,1.987043380737304688e+00,1.986841797828674316e+00,1.986640214920043945e+00,1.986438512802124023e+00,1.986237049102783203e+00,1.986035585403442383e+00,1.985834121704101562e+00,1.985632658004760742e+00,1.985431313514709473e+00,1.985229969024658203e+00,1.985028624534606934e+00,1.984827399253845215e+00,1.984626173973083496e+00,1.984424948692321777e+00,1.984223842620849609e+00,1.984022736549377441e+00,1.983821749687194824e+00,1.983620762825012207e+00,1.983419775962829590e+00,1.983218789100646973e+00,1.983017921447753906e+00,1.982817053794860840e+00,1.982616305351257324e+00,1.982415318489074707e+00,1.982214570045471191e+00,1.982013821601867676e+00,1.981813192367553711e+00,1.981612682342529297e+00,1.981412053108215332e+00,1.981211543083190918e+00,1.981011033058166504e+00,1.980810642242431641e+00,1.980610251426696777e+00,1.980409860610961914e+00,1.980209469795227051e+00,1.980009198188781738e+00,1.979809045791625977e+00,1.979608774185180664e+00,1.979408621788024902e+00,1.979208469390869141e+00,1.979008436203002930e+00,1.978808403015136719e+00,1.978608369827270508e+00,1.978408455848693848e+00,1.978208541870117188e+00,1.978008627891540527e+00,1.977808833122253418e+00,1.977609038352966309e+00,1.977409243583679199e+00,1.977209329605102539e+00,1.977009654045104980e+00,1.976809978485107422e+00,1.976610422134399414e+00,1.976410865783691406e+00,1.976211309432983398e+00,1.976011872291564941e+00,1.975812435150146484e+00,1.975612998008728027e+00,1.975413680076599121e+00,1.975214362144470215e+00,1.975015044212341309e+00,1.974815845489501953e+00,1.299032330513000488e+00,1.302369475364685059e+00,1.311845898628234863e+00,1.974019289016723633e+00,1.973820209503173828e+00,1.973621249198913574e+00,1.968364238739013672e+00,1.936311006546020508e+00,1.905284762382507324e+00,1.875237226486206055e+00,1.846122503280639648e+00
1.777917146682739258e+00,1.777755737304687500e+00,1.777594327926635742e+00,1.777432918548583984e+00,1.777271509170532227e+00,1.777110219001770020e+00,1.776948928833007812e+00,1.776787638664245605e+00,1.776626348495483398e+00,1.776465177536010742e+00,1.776304006576538086e+00,1.776142835617065430e+00,1.775981545448303223e+00,1.775820374488830566e+00,1.775659322738647461e+00,1.775498270988464355e+00,1.775337338447570801e+00,1.775176286697387695e+00,1.775015354156494141e+00,1.774854421615600586e+00,1.774693489074707031e+00,1.774532675743103027e+00,1.774371862411499023e+00,1.774211049079895020e+00,1.774050235748291016e+00,1.773889541625976562e+00,1.773728728294372559e+00,1.773568034172058105e+00,1.773407459259033203e+00,1.773246765136718750e+00,1.773086190223693848e+00,1.772925615310668945e+00,1.772765040397644043e+00,1.772604465484619141e+00,1.772444009780883789e+00,1.772283554077148438e+00,1.772123098373413086e+00,1.771962761878967285e+00,1.771802186965942383e+00,1.771641850471496582e+00,1.771481513977050781e+00,1.771321177482604980e+00,1.771160960197448730e+00,1.771000742912292480e+00,1.770840525627136230e+00,1.770680308341979980e+00,1.770520210266113281e+00,1.770360112190246582e+00,1.770200014114379883e+00,1.770039916038513184e+00,1.769879937171936035e+00,1.769719958305358887e+00,1.769559979438781738e+00,1.769400000572204590e+00,1.769240140914916992e+00,1.769080281257629395e+00,1.768920421600341797e+00,1.768760561943054199e+00,1.768600702285766602e+00,1.768440961837768555e+00,1.768281221389770508e+00,1.768121600151062012e+00,1.767961859703063965e+00,1.767802238464355469e+00,1.767642378807067871e+00,1.767482876777648926e+00,1.767323255538940430e+00,1.767163753509521484e+00,1.767004251480102539e+00,1.766844749450683594e+00,1.295065879821777344e+00,1.315056681632995605e+00,1.326256394386291504e+00,1.766207098960876465e+00,1.766047835350036621e+00,1.765888452529907227e+00,1.765729188919067383e+00,1.765569925308227539e+00,1.765410780906677246e+00,1.765251636505126953e+00
1.607693433761596680e+00,1.607561349868774414e+00,1.607429385185241699e+00,1.607297420501708984e+00,1.607165455818176270e+00,1.607033491134643555e+00,1.606901645660400391e+00,1.606769680976867676e+00,1.606637835502624512e+00,1.606505990028381348e+00,1.606374144554138184e+00,1.606242418289184570e+00,1.606110572814941406e+00,1.605978846549987793e+00,1.605847120285034180e+00,1.605715394020080566e+00,1.605583667755126953e+00,1.605452060699462891e+00,1.605320453643798828e+00,1.605188727378845215e+00,1.605057001113891602e+00,1.604925394058227539e+00,1.604793906211853027e+00,1.604662299156188965e+00,1.604530811309814453e+00,1.604399323463439941e+00,1.604267835617065430e+00,1.604136347770690918e+00,1.604004979133605957e+00,1.603873491287231445e+00,1.603742122650146484e+00,1.603610754013061523e+00,1.603479385375976562e+00,1.603348135948181152e+00,1.603216767311096191e+00,1.603085517883300781e+00,1.602954268455505371e+00,1.602823019027709961e+00,1.602691769599914551e+00,1.602560520172119141e+00,1.602429389953613281e+00,1.602298259735107422e+00,1.602167129516601562e+00,1.602035999298095703e+00,1.601904869079589844e+00,1.601773858070373535e+00,1.601642608642578125e+00,1.601511597633361816e+00,1.601380586624145508e+00,1.601249694824218750e+00,1.601118683815002441e+00,1.600987792015075684e+00,1.600856781005859375e+00,1.600725889205932617e+00,1.600594997406005859e+00,1.600464224815368652e+00,1.600333333015441895e+00,1.600202560424804688e+00,1.600071787834167480e+00,1.599940896034240723e+00,1.599810242652893066e+00,1.599679470062255859e+00,1.599548816680908203e+00,1.599418044090270996e+00,1.599287390708923340e+00,1.599156856536865234e+00,1.599026203155517578e+00,1.598895549774169922e+00,1.598765015602111816e+00,1.598634481430053711e+00,1.303138494491577148e+00,1.303034901618957520e+00,1.327678084373474121e+00,1.598112344741821289e+00,1.597981810569763184e+00,1.597851395606994629e+00,1.597720980644226074e+00,1.597590684890747070e+00,1.597460269927978516e+00,1.597329974174499512e+00
1.467217206954956055e+00,1.467107295989990234e+00,1.466997146606445312e+00,1.466887235641479492e+00,1.466777324676513672e+00,1.466667413711547852e+00,1.466557621955871582e+00,1.466447710990905762e+00,1.466337919235229492e+00,1.466228008270263672e+00,1.466118216514587402e+00,1.466008424758911133e+00,1.465898633003234863e+00,1.465788960456848145e+00,1.465679168701171875e+00,1.465569496154785156e+00,1.465459704399108887e+00,1.465350031852722168e+00,1.465240359306335449e+00,1.465130686759948730e+00,1.465021014213562012e+00,1.464911460876464844e+00,1.464801788330078125e+00,1.464692234992980957e+00,1.464582681655883789e+00,1.464473128318786621e+00,1.464363574981689453e+00,1.464254021644592285e+00,1.464144349098205566e+00,1.464034914970397949e+00,1.463925361633300781e+00,1.463815927505493164e+00,1.463706493377685547e+00,1.463597059249877930e+00,1.463487625122070312e+00,1.463378190994262695e+00,1.463268876075744629e+00,1.463159441947937012e+00,1.463050127029418945e+00,1.462940812110900879e+00,1.462831497192382812e+00,1.462722182273864746e+00,1.462612867355346680e+00,1.462503671646118164e+00,1.462394356727600098e+00,1.462285161018371582e+00,1.462175965309143066e+00,1.462066769599914551e+00,1.461957573890686035e+00,1.461848378181457520e+00,1.461739301681518555e+00,1.461630105972290039e+00,1.461521029472351074e+00,1.461411952972412109e+00,1.461302638053894043e+00,1.461193680763244629e+00,1.461084604263305664e+00,1.460975527763366699e+00,1.460866451263427734e+00,1.460757493972778320e+00,1.460648536682128906e+00,1.460539579391479492e+00,1.460430622100830078e+00,1.460321664810180664e+00,1.460212707519531250e+00,1.460103869438171387e+00,1.459994912147521973e+00,1.459886074066162109e+00,1.459777235984802246e+00,1.459668397903442383e+00,1.459559559822082520e+00,1.459450721740722656e+00,1.323300242424011230e+00,1.459233164787292480e+00,1.459124326705932617e+00,1.459015607833862305e+00,1.458906888961791992e+00,1.458798170089721680e+00,1.458689451217651367e+00,1.458580851554870605e+00
1.349317073822021484e+00,1.349224090576171875e+00,1.349131107330322266e+00,1.349038124084472656e+00,1.348945140838623047e+00,1.348852276802062988e+00,1.348759293556213379e+00,1.348666429519653320e+00,1.348573446273803711e+00,1.348480582237243652e+00,1.348387598991394043e+00,1.348294734954833984e+00,1.348201870918273926e+00,1.348109006881713867e+00,1.348016262054443359e+00,1.347923398017883301e+00,1.347830653190612793e+00,1.347737789154052734e+00,1.347645044326782227e+00,1.347552299499511719e+00,1.347459554672241211e+00,1.347366809844970703e+00,1.347274065017700195e+00,1.347181439399719238e+00,1.347088694572448730e+00,1.346995949745178223e+00,1.346903324127197266e+00,1.346810698509216309e+00,1.346718072891235352e+00,1.346625328063964844e+00,1.346532821655273438e+00,1.346440196037292480e+00,1.346347570419311523e+00,1.346254944801330566e+00,1.346162438392639160e+00,1.346069812774658203e+00,1.345977187156677246e+00,1.345884680747985840e+00,1.345792174339294434e+00,1.345699667930603027e+00,1.345607161521911621e+00,1.345514655113220215e+00,1.345422148704528809e+00,1.345329642295837402e+00,1.345237255096435547e+00,1.345144867897033691e+00,1.345052361488342285e+00,1.344959974288940430e+00,1.344867587089538574e+00,1.344775199890136719e+00,1.344682812690734863e+00,1.344590425491333008e+00,1.344498157501220703e+00,1.344405770301818848e+00,1.344313502311706543e+00,1.344221234321594238e+00,1.344128847122192383e+00,1.344036579132080078e+00,1.343944311141967773e+00,1.343852043151855469e+00,1.343759775161743164e+00,1.343667626380920410e+00,1.343575239181518555e+00,1.343483090400695801e+00,1.343390822410583496e+00,1.343298673629760742e+00,1.343206524848937988e+00,1.343114376068115234e+00,1.343022227287292480e+00,1.342930078506469727e+00,1.342837929725646973e+00,1.342745900154113770e+00,1.342653751373291016e+00,1.342561721801757812e+00,1.342469573020935059e+00,1.342377543449401855e+00,1.342285513877868652e+00,1.342193484306335449e+00,1.342101454734802246e+00,1.342009425163269043e+00
1.248955726623535156e+00,1.248875975608825684e+00,1.248796343803405762e+00,1.248716711997985840e+00,1.248637080192565918e+00,1.248557448387145996e+00,1.248477816581726074e+00,1.248398184776306152e+00,1.248318552970886230e+00,1.248239040374755859e+00,1.248159408569335938e+00,1.248079895973205566e+00,1.248000264167785645e+00,1.247920751571655273e+00,1.247841238975524902e+00,1.247761607170104980e+00,1.247682094573974609e+00,1.247602581977844238e+00,1.247523069381713867e+00,1.247443556785583496e+00,1.247364044189453125e+00,1.247284531593322754e+00,1.247205138206481934e+00,1.247125625610351562e+00,1.247046232223510742e+00,1.246966838836669922e+00,1.246887326240539551e+00,1.246807932853698730e+00,1.246728539466857910e+00,1.246649146080017090e+00,1.246569752693176270e+00,1.246490359306335449e+00,1.246411085128784180e+00,1.246331691741943359e+00,1.246252298355102539e+00,1.246173024177551270e+00,1.246093630790710449e+00,1.246014356613159180e+00,1.245935082435607910e+00,1.245855808258056641e+00,1.245776534080505371e+00,1.245697259902954102e+00,1.245617985725402832e+00,1.245538711547851562e+00,1.245459437370300293e+00,1.245380163192749023e+00,1.245300889015197754e+00,1.245221734046936035e+00,1.245142579078674316e+00,1.245063304901123047e+00,1.244984149932861328e+00,1.244904994964599609e+00,1.244825839996337891e+00,1.244746685028076172e+00,1.244667530059814453e+00,1.244588375091552734e+00,1.244509339332580566e+00,1.244430184364318848e+00,1.244351029396057129e+00,1.244271993637084961e+00,1.244192957878112793e+00,1.244113802909851074e+00,1.244034767150878906e+00,1.243955731391906738e+00,1.243876695632934570e+00,1.243797659873962402e+00,1.243718624114990234e+00,1.243639588356018066e+00,1.243560671806335449e+00,1.243481636047363281e+00,1.243402600288391113e+00,1.243323564529418945e+00,1.243244647979736328e+00,1.243165731430053711e+00,1.243086814880371094e+00,1.243007779121398926e+00,1.242928862571716309e+00,1.242850065231323242e+00,1.242771148681640625e+00,1.242692232131958008e+00
1.162490487098693848e+00,1.162421345710754395e+00,1.162352323532104492e+00,1.162283420562744141e+00,1.162214398384094238e+00,1.162145376205444336e+00,1.162076354026794434e+00,1.162007451057434082e+00,1.161938428878784180e+00,1.161869525909423828e+00,1.161800503730773926e+00,1.161731600761413574e+00,1.161662697792053223e+00,1.161593675613403320e+00,1.161524772644042969e+00,1.161455869674682617e+00,1.161386966705322266e+00,1.161318063735961914e+00,1.161249160766601562e+00,1.161180377006530762e+00,1.161111474037170410e+00,1.161042571067810059e+00,1.160973787307739258e+00,1.160904884338378906e+00,1.160836100578308105e+00,1.160767197608947754e+00,1.160698294639587402e+00,1.160629510879516602e+00,1.160560727119445801e+00,1.160491943359375000e+00,1.160423159599304199e+00,1.160354375839233398e+00,1.160285592079162598e+00,1.160216808319091797e+00,1.160148024559020996e+00,1.160079240798950195e+00,1.160010576248168945e+00,1.159941792488098145e+00,1.159873127937316895e+00,1.159804344177246094e+00,1.159735679626464844e+00,1.159666895866394043e+00,1.159598231315612793e+00,1.159529566764831543e+00,1.159460902214050293e+00,1.159392237663269043e+00,1.159323573112487793e+00,1.159254908561706543e+00,1.159186244010925293e+00,1.159117579460144043e+00,1.159049034118652344e+00,1.158980369567871094e+00,1.158911705017089844e+00,1.158843040466308594e+00,1.158774495124816895e+00,1.158705949783325195e+00,1.158637285232543945e+00,1.158568739891052246e+00,1.158500194549560547e+00,1.158431649208068848e+00,1.158363103866577148e+00,1.158294558525085449e+00,1.158226013183593750e+00,1.158157587051391602e+00,1.158089041709899902e+00,1.158020496368408203e+00,1.157952070236206055e+00,1.157883524894714355e+00,1.157815098762512207e+00,1.157746553421020508e+00,1.157678127288818359e+00,1.157609701156616211e+00,1.157541275024414062e+00,1.157472729682922363e+00,1.157404303550720215e+00,1.157335877418518066e+00,1.157267570495605469e+00,1.157199144363403320e+00,1.157130599021911621e+00,1.157062292098999023e+00
1.087221980094909668e+00,1.087161660194396973e+00,1.087101221084594727e+00,1.087040901184082031e+00,1.086980462074279785e+00,1.086920142173767090e+00,1.086859822273254395e+00,1.086799502372741699e+00,1.086739182472229004e+00,1.086678743362426758e+00,1.086618423461914062e+00,1.086558103561401367e+00,1.086497783660888672e+00,1.086437582969665527e+00,1.086377263069152832e+00,1.086316943168640137e+00,1.086256742477416992e+00,1.086196422576904297e+00,1.086136102676391602e+00,1.086075901985168457e+00,1.086015701293945312e+00,1.085955381393432617e+00,1.085895180702209473e+00,1.085834980010986328e+00,1.085774779319763184e+00,1.085714459419250488e+00,1.085654258728027344e+00,1.085594058036804199e+00,1.085533857345581055e+00,1.085473656654357910e+00,1.085413575172424316e+00,1.085353374481201172e+00,1.085293173789978027e+00,1.085232973098754883e+00,1.085172772407531738e+00,1.085112690925598145e+00,1.085052490234375000e+00,1.084992408752441406e+00,1.084932208061218262e+00,1.084872126579284668e+00,1.084812045097351074e+00,1.084751844406127930e+00,1.084691762924194336e+00,1.084631681442260742e+00,1.084571599960327148e+00,1.084511518478393555e+00,1.084451436996459961e+00,1.084391355514526367e+00,1.084331274032592773e+00,1.084271192550659180e+00,1.084211230278015137e+00,1.084151148796081543e+00,1.084091067314147949e+00,1.084031105041503906e+00,1.083971023559570312e+00,1.083911061286926270e+00,1.083851099014282227e+00,1.083791017532348633e+00,1.083731055259704590e+00,1.083671092987060547e+00,1.083611011505126953e+00,1.083551049232482910e+00,1.083491086959838867e+00,1.083431124687194824e+00,1.083371162414550781e+00,1.083311200141906738e+00,1.083251237869262695e+00,1.083191275596618652e+00,1.083131313323974609e+00,1.083071470260620117e+00,1.083011507987976074e+00,1.082951664924621582e+00,1.082891702651977539e+00,1.082831859588623047e+00,1.082771897315979004e+00,1.082712054252624512e+00,1.082652211189270020e+00,1.082592248916625977e+00,1.082532405853271484e+00,1.082472562789916992e+00
1.021107673645019531e+00,1.021054387092590332e+00,1.021001219749450684e+00,1.020947933197021484e+00,1.020894646644592285e+00,1.020841479301452637e+00,1.020788192749023438e+00,1.020735025405883789e+00,1.020681738853454590e+00,1.020628571510314941e+00,1.020575404167175293e+00,1.020522117614746094e+00,1.020468950271606445e+00,1.020415782928466797e+00,1.020362615585327148e+00,1.020309448242187500e+00,1.020256280899047852e+00,1.020202994346618652e+00,1.020149827003479004e+00,1.020096659660339355e+00,1.020043492317199707e+00,1.019990444183349609e+00,1.019937276840209961e+00,1.019884109497070312e+00,1.019830942153930664e+00,1.019777894020080566e+00,1.019724726676940918e+00,1.019671678543090820e+00,1.019618511199951172e+00,1.019565463066101074e+00,1.019512295722961426e+00,1.019459247589111328e+00,1.019406199455261230e+00,1.019353032112121582e+00,1.019299983978271484e+00,1.019246935844421387e+00,1.019193887710571289e+00,1.019140839576721191e+00,1.019087791442871094e+00,1.019034743309020996e+00,1.018981695175170898e+00,1.018928647041320801e+00,1.018875598907470703e+00,1.018822550773620605e+00,1.018769502639770508e+00,1.018716454505920410e+00,1.018663525581359863e+00,1.018610477447509766e+00,1.018557429313659668e+00,1.018504500389099121e+00,1.018451452255249023e+00,1.018398523330688477e+00,1.018345594406127930e+00,1.018292546272277832e+00,1.018239617347717285e+00,1.018186688423156738e+00,1.018133640289306641e+00,1.018080711364746094e+00,1.018027782440185547e+00,1.017974853515625000e+00,1.017921924591064453e+00,1.017868995666503906e+00,1.017816066741943359e+00,1.017763137817382812e+00,1.017710328102111816e+00,1.017657399177551270e+00,1.017604470252990723e+00,1.017551541328430176e+00,1.017498612403869629e+00,1.017445802688598633e+00,1.017392873764038086e+00,1.017339944839477539e+00,1.017287135124206543e+00,1.017234325408935547e+00,1.017181396484375000e+00,1.017128586769104004e+00,1.017075777053833008e+00,1.017022848129272461e+00,1.016970038414001465e+00,1.016917228698730469e+00
9.625733494758605957e-01,9.625260829925537109e-01,9.624786972999572754e-01,9.624314308166503906e-01,9.623840451240539551e-01,9.623367786407470703e-01,9.622894525527954102e-01,9.622421860694885254e-01,9.621948599815368652e-01,9.621475934982299805e-01,9.621002674102783203e-01,9.620530605316162109e-01,9.620057344436645508e-01,9.619584679603576660e-01,9.619112014770507812e-01,9.618639945983886719e-01,9.618166685104370117e-01,9.617694616317749023e-01,9.617221951484680176e-01,9.616749882698059082e-01,9.616276621818542480e-01,9.615805149078369141e-01,9.615332484245300293e-01,9.614860415458679199e-01,9.614387750625610352e-01,9.613915085792541504e-01,9.613443613052368164e-01,9.612970948219299316e-01,9.612499475479125977e-01,9.612026810646057129e-01,9.611555337905883789e-01,9.611083269119262695e-01,9.610611796379089355e-01,9.610139727592468262e-01,9.609668254852294922e-01,9.609196186065673828e-01,9.608725309371948242e-01,9.608253240585327148e-01,9.607781767845153809e-01,9.607309699058532715e-01,9.606838822364807129e-01,9.606366753578186035e-01,9.605896472930908203e-01,9.605424404144287109e-01,9.604953527450561523e-01,9.604482054710388184e-01,9.604011178016662598e-01,9.603539705276489258e-01,9.603068828582763672e-01,9.602597355842590332e-01,9.602127075195312500e-01,9.601655602455139160e-01,9.601184129714965820e-01,9.600713849067687988e-01,9.600242376327514648e-01,9.599772095680236816e-01,9.599300622940063477e-01,9.598830938339233398e-01,9.598359465599060059e-01,9.597889184951782227e-01,9.597418308258056641e-01,9.596948623657226562e-01,9.596477150917053223e-01,9.596007466316223145e-01,9.595536589622497559e-01,9.595066905021667480e-01,9.594596028327941895e-01,9.594126343727111816e-01,9.593655467033386230e-01,9.593186378479003906e-01,9.592715501785278320e-01,9.592245817184448242e-01,9.591775536537170410e-01,9.591305851936340332e-01,9.590835571289062500e-01,9.590366482734680176e-01,9.589896202087402344e-01,9.589425921440124512e-01,9.588956832885742188e-01,9.588486552238464355e-01
9.103860855102539062e-01,9.103437066078186035e-01,9.103014469146728516e-01,9.102590680122375488e-01,9.102168083190917969e-01,9.101744294166564941e-01,9.101321697235107422e-01,9.100897908210754395e-01,9.100474119186401367e-01,9.100052118301391602e-01,9.099628329277038574e-01,9.099205732345581055e-01,9.098782539367675781e-01,9.098359942436218262e-01,9.097936749458312988e-01,9.097514748573303223e-01,9.097091555595397949e-01,9.096668958663940430e-01,9.096245765686035156e-01,9.095823764801025391e-01,9.095400571823120117e-01,9.094978570938110352e-01,9.094555377960205078e-01,9.094133377075195312e-01,9.093710780143737793e-01,9.093288779258728027e-01,9.092866182327270508e-01,9.092444181442260742e-01,9.092021584510803223e-01,9.091599583625793457e-01,9.091176986694335938e-01,9.090754985809326172e-01,9.090332388877868652e-01,9.089909791946411133e-01,9.089488387107849121e-01,9.089065790176391602e-01,9.088644385337829590e-01,9.088221788406372070e-01,9.087800383567810059e-01,9.087378382682800293e-01,9.086956977844238281e-01,9.086534976959228516e-01,9.086113572120666504e-01,9.085691571235656738e-01,9.085270166397094727e-01,9.084848165512084961e-01,9.084426760673522949e-01,9.084004759788513184e-01,9.083583950996398926e-01,9.083161950111389160e-01,9.082741141319274902e-01,9.082319140434265137e-01,9.081898331642150879e-01,9.081476330757141113e-01,9.081056118011474609e-01,9.080634117126464844e-01,9.080213308334350586e-01,9.079791903495788574e-01,9.079371094703674316e-01,9.078949689865112305e-01,9.078528285026550293e-01,9.078107476234436035e-01,9.077686071395874023e-01,9.077265858650207520e-01,9.076844453811645508e-01,9.076424241065979004e-01,9.076002836227416992e-01,9.075582623481750488e-01,9.075161218643188477e-01,9.074741005897521973e-01,9.074320197105407715e-01,9.073899984359741211e-01,9.073478579521179199e-01,9.073058962821960449e-01,9.072637557983398438e-01,9.072217941284179688e-01,9.071797132492065430e-01,9.071376919746398926e-01,9.070956110954284668e-01,9.070536494255065918e-01
8.635665774345397949e-01,8.635284304618835449e-01,8.634904026985168457e-01,8.634522557258605957e-01,8.634142279624938965e-01,8.633760809898376465e-01,8.633380532264709473e-01,8.632999658584594727e-01,8.632619380950927734e-01,8.632238507270812988e-01,8.631858229637145996e-01,8.631476759910583496e-01,8.631097078323364258e-01,8.630716204643249512e-01,8.630335927009582520e-01,8.629955053329467773e-01,8.629574179649353027e-01,8.629194498062133789e-01,8.628813624382019043e-01,8.628433346748352051e-01,8.628053069114685059e-01,8.627672791481018066e-01,8.627292513847351074e-01,8.626912832260131836e-01,8.626531958580017090e-01,8.626152276992797852e-01,8.625771999359130859e-01,8.625392317771911621e-01,8.625012040138244629e-01,8.624632358551025391e-01,8.624252080917358398e-01,8.623872399330139160e-01,8.623492121696472168e-01,8.623112440109252930e-01,8.622732162475585938e-01,8.622353076934814453e-01,8.621972799301147461e-01,8.621593713760375977e-01,8.621213436126708984e-01,8.620834350585937500e-01,8.620454072952270508e-01,8.620074391365051270e-01,8.619695305824279785e-01,8.619315028190612793e-01,8.618935942649841309e-01,8.618556261062622070e-01,8.618177175521850586e-01,8.617797493934631348e-01,8.617418408393859863e-01,8.617038726806640625e-01,8.616659641265869141e-01,8.616279959678649902e-01,8.615901470184326172e-01,8.615521788597106934e-01,8.615143299102783203e-01,8.614763617515563965e-01,8.614385128021240234e-01,8.614005446434020996e-01,8.613626956939697266e-01,8.613247275352478027e-01,8.612868785858154297e-01,8.612489700317382812e-01,8.612111210823059082e-01,8.611732125282287598e-01,8.611353635787963867e-01,8.610974550247192383e-01,8.610596060752868652e-01,8.610216975212097168e-01,8.609837889671325684e-01,8.609459400177001953e-01,8.609080314636230469e-01,8.608702421188354492e-01,8.608323335647583008e-01,8.607945442199707031e-01,8.607566356658935547e-01,8.607188463211059570e-01,8.606809377670288086e-01,8.606431484222412109e-01,8.606052994728088379e-01,8.605675101280212402e-01
