5.000000000000000000e+00,5.000000000000000000e+00,5.000000000000000000e+00,5.000000000000000000e+00,5.000000000000000000e+00,5.000000000000000000e+00,5.000000000000000000e+00,5.000000000000000000e+00,5.000000000000000000e+00,5.000000000000000000e+00,5.000000000000000000e+00,5.000000000000000000e+00,5.000000000000000000e+00,5.000000000000000000e+00,5.000000000000000000e+00,5.000000000000000000e+00,5.000000000000000000e+00,5.000000000000000000e+00,1.575776219367980957e+00,1.550943374633789062e+00,1.554384827613830566e+00,1.520153760910034180e+00,1.486566305160522461e+00,1.489890217781066895e+00,1.493711113929748535e+00,1.515203595161437988e+00,1.554324626922607422e+00,1.553810954093933105e+00,1.572568655014038086e+00,1.587007761001586914e+00,1.592918395996093750e+00,1.630138754844665527e+00,1.768992781639099121e+00,1.721222758293151855e+00,1.707418680191040039e+00,1.719349503517150879e+00,5.000000000000000000e+00,5.000000000000000000e+00,5.000000000000000000e+00,4.854063510894775391e+00,4.663767337799072266e+00,4.487829208374023438e+00,4.324682712554931641e+00,4.172982215881347656e+00,4.031563282012939453e+00,3.899415493011474609e+00,3.775655984878540039e+00,3.659510374069213867e+00,3.550297498703002930e+00,3.447413921356201172e+00,3.350325584411621094e+00,3.258555889129638672e+00,3.171679496765136719e+00,3.089315414428710938e+00,3.011120557785034180e+00,2.936786651611328125e+00,2.866034269332885742e+00,2.798610925674438477e+00,2.734286785125732422e+00,2.672853231430053711e+00,2.614119529724121094e+00,2.557911396026611328e+00,2.504069805145263672e+00,2.452447891235351562e+00,2.402911424636840820e+00,2.355336666107177734e+00,2.309608936309814453e+00,2.265623092651367188e+00,2.223281383514404297e+00,2.182492971420288086e+00,2.143174409866333008e+00,2.105247497558593750e+00,2.068639516830444336e+00,2.033282995223999023e+00,1.999114990234375000e+00,1.966076135635375977e+00,1.934111595153808594e+00,1.903169631958007812e+00,1.873202323913574219e+00,1.844163894653320312e+00
5.000000000000000000e+00,5.000000000000000000e+00,5.000000000000000000e+00,5.000000000000000000e+00,5.000000000000000000e+00,5.000000000000000000e+00,5.000000000000000000e+00,5.000000000000000000e+00,5.000000000000000000e+00,5.000000000000000000e+00,5.000000000000000000e+00,5.000000000000000000e+00,5.000000000000000000e+00,5.000000000000000000e+00,5.000000000000000000e+00,5.000000000000000000e+00,5.000000000000000000e+00,5.000000000000000000e+00,1.570024490356445312e+00,1.540745496749877930e+00,1.547289133071899414e+00,1.511213183403015137e+00,1.478780269622802734e+00,1.480165123939514160e+00,1.481741309165954590e+00,1.484927654266357422e+00,1.534030318260192871e+00,1.579338431358337402e+00,1.584049463272094727e+00,1.582279443740844727e+00,1.585133910179138184e+00,1.615714669227600098e+00,5.000000000000000000e+00,1.726794004440307617e+00,1.699192166328430176e+00,1.700896263122558594e+00,5.000000000000000000e+00,5.000000000000000000e+00,5.000000000000000000e+00,4.854202747344970703e+00,4.663896083831787109e+00,4.487948417663574219e+00,4.324793338775634766e+00,4.173084735870361328e+00,4.031659126281738281e+00,3.899505376815795898e+00,3.775740146636962891e+00,3.659589529037475586e+00,3.550371885299682617e+00,3.447484016418457031e+00,3.350391864776611328e+00,3.258618593215942383e+00,3.171738862991333008e+00,3.089371681213378906e+00,3.011174201965332031e+00,2.936837673187255859e+00,2.866082906723022461e+00,2.798657178878784180e+00,2.734330892562866211e+00,2.672895431518554688e+00,2.614159822463989258e+00,2.557950019836425781e+00,2.504106760025024414e+00,2.452483415603637695e+00,2.402945518493652344e+00,2.355369567871093750e+00,2.309640407562255859e+00,2.265653371810913086e+00,2.223310232162475586e+00,2.182521104812622070e+00,2.143201589584350586e+00,2.105273723602294922e+00,2.068664789199829102e+00,2.033307552337646484e+00,1.999138593673706055e+00,1.966098904609680176e+00,1.934133648872375488e+00,1.903190970420837402e+00,1.873223066329956055e+00,1.844183921813964844e+00
5.000000000000000000e+00,5.000000000000000000e+00,5.000000000000000000e+00,5.000000000000000000e+00,5.000000000000000000e+00,5.000000000000000000e+00,5.000000000000000000e+00,5.000000000000000000e+00,5.000000000000000000e+00,5.000000000000000000e+00,5.000000000000000000e+00,5.000000000000000000e+00,5.000000000000000000e+00,5.000000000000000000e+00,5.000000000000000000e+00,5.000000000000000000e+00,5.000000000000000000e+00,5.000000000000000000e+00,1.556706786155700684e+00,1.533329963684082031e+00,1.544006466865539551e+00,1.508753538131713867e+00,1.475569725036621094e+00,1.476844310760498047e+00,1.478121042251586914e+00,1.479666590690612793e+00,1.509322047233581543e+00,1.595849037170410156e+00,1.569615125656127930e+00,1.569514870643615723e+00,1.569925546646118164e+00,1.586802721023559570e+00,1.632041215896606445e+00,5.000000000000000000e+00,1.697311282157897949e+00,1.682671308517456055e+00,5.000000000000000000e+00,5.000000000000000000e+00,5.000000000000000000e+00,4.854341506958007812e+00,4.664024353027343750e+00,4.488067150115966797e+00,4.324903488159179688e+00,4.173187732696533203e+00,4.031754970550537109e+00,3.899595022201538086e+00,3.775824069976806641e+00,3.659668445587158203e+00,3.550446271896362305e+00,3.447554349899291992e+00,3.350457906723022461e+00,3.258681297302246094e+00,3.171798229217529297e+00,3.089427947998046875e+00,3.011227607727050781e+00,2.936888456344604492e+00,2.866131305694580078e+00,2.798703432083129883e+00,2.734375000000000000e+00,2.672937631607055664e+00,2.614200115203857422e+00,2.557988643646240234e+00,2.504143714904785156e+00,2.452518939971923828e+00,2.402979612350463867e+00,2.355402231216430664e+00,2.309671878814697266e+00,2.265683412551879883e+00,2.223339557647705078e+00,2.182549238204956055e+00,2.143228769302368164e+00,2.105299949645996094e+00,2.068690061569213867e+00,2.033331871032714844e+00,1.999162197113037109e+00,1.966121673583984375e+00,1.934155702590942383e+00,1.903212428092956543e+00,1.873243689537048340e+00,1.844204068183898926e+00
5.000000000000000000e+00,5.000000000000000000e+00,5.000000000000000000e+00,5.000000000000000000e+00,5.000000000000000000e+00,5.000000000000000000e+00,5.000000000000000000e+00,5.000000000000000000e+00,5.000000000000000000e+00,5.000000000000000000e+00,5.000000000000000000e+00,5.000000000000000000e+00,5.000000000000000000e+00,5.000000000000000000e+00,5.000000000000000000e+00,5.000000000000000000e+00,5.000000000000000000e+00,5.000000000000000000e+00,1.549398422241210938e+00,1.528777837753295898e+00,1.542774319648742676e+00,1.507106542587280273e+00,1.473173499107360840e+00,1.474309325218200684e+00,1.475446939468383789e+00,1.476586341857910156e+00,1.501194596290588379e+00,1.536797285079956055e+00,1.558577656745910645e+00,1.557046651840209961e+00,1.558864831924438477e+00,1.568796634674072266e+00,1.611619353294372559e+00,5.000000000000000000e+00,1.712428212165832520e+00,1.689507365226745605e+00,5.000000000000000000e+00,5.000000000000000000e+00,5.000000000000000000e+00,4.854480743408203125e+00,4.664152622222900391e+00,4.488185882568359375e+00,4.325014114379882812e+00,4.173290252685546875e+00,4.031850814819335938e+00,3.899684906005859375e+00,3.775908231735229492e+00,3.659747600555419922e+00,3.550520658493041992e+00,3.447624444961547852e+00,3.350524187088012695e+00,3.258744001388549805e+00,3.171857595443725586e+00,3.089484214782714844e+00,3.011281251907348633e+00,2.936939477920532227e+00,2.866179704666137695e+00,2.798749685287475586e+00,2.734419107437133789e+00,2.672979593276977539e+00,2.614240407943725586e+00,2.558027267456054688e+00,2.504180669784545898e+00,2.452554464340209961e+00,2.403013706207275391e+00,2.355434894561767578e+00,2.309703111648559570e+00,2.265713691711425781e+00,2.223368644714355469e+00,2.182577371597290039e+00,2.143255710601806641e+00,2.105325937271118164e+00,2.068715333938598633e+00,2.033356189727783203e+00,1.999185681343078613e+00,1.966144561767578125e+00,1.934177875518798828e+00,1.903233766555786133e+00,1.873264431953430176e+00,1.844224095344543457e+00
5.000000000000000000e+00,5.000000000000000000e+00,5.000000000000000000e+00,5.000000000000000000e+00,5.000000000000000000e+00,5.000000000000000000e+00,5.000000000000000000e+00,5.000000000000000000e+00,5.000000000000000000e+00,5.000000000000000000e+00,5.000000000000000000e+00,5.000000000000000000e+00,5.000000000000000000e+00,5.000000000000000000e+00,5.000000000000000000e+00,5.000000000000000000e+00,5.000000000000000000e+00,5.000000000000000000e+00,5.000000000000000000e+00,1.536749720573425293e+00,5.000000000000000000e+00,1.510676741600036621e+00,1.472817897796630859e+00,1.473046898841857910e+00,1.474182486534118652e+00,1.475319981575012207e+00,1.497237563133239746e+00,1.530783176422119141e+00,1.559479117393493652e+00,1.552735090255737305e+00,1.553993940353393555e+00,1.558778405189514160e+00,1.602139830589294434e+00,5.000000000000000000e+00,5.000000000000000000e+00,1.657634854316711426e+00,1.682896375656127930e+00,5.000000000000000000e+00,5.000000000000000000e+00,4.854619503021240234e+00,4.664280891418457031e+00,4.488305091857910156e+00,4.325124263763427734e+00,4.173393249511718750e+00,4.031947135925292969e+00,3.899774551391601562e+00,3.775992393493652344e+00,3.659826517105102539e+00,3.550595045089721680e+00,3.447694540023803711e+00,3.350590467453002930e+00,3.258806705474853516e+00,3.171916961669921875e+00,3.089540719985961914e+00,3.011334657669067383e+00,2.936990261077880859e+00,2.866228103637695312e+00,2.798795700073242188e+00,2.734463214874267578e+00,2.673021793365478516e+00,2.614280700683593750e+00,2.558065891265869141e+00,2.504217863082885742e+00,2.452589988708496094e+00,2.403047800064086914e+00,2.355467319488525391e+00,2.309734582901000977e+00,2.265743970870971680e+00,2.223397970199584961e+00,2.182605504989624023e+00,2.143282890319824219e+00,2.105352163314819336e+00,2.068740606307983398e+00,2.033380746841430664e+00,1.999209284782409668e+00,1.966167330741882324e+00,1.934199929237365723e+00,1.903255105018615723e+00,1.873285174369812012e+00,1.844244122505187988e+00
5.000000000000000000e+00,5.000000000000000000e+00,5.000000000000000000e+00,5.000000000000000000e+00,5.000000000000000000e+00,5.000000000000000000e+00,5.000000000000000000e+00,5.000000000000000000e+00,5.000000000000000000e+00,5.000000000000000000e+00,5.000000000000000000e+00,5.000000000000000000e+00,5.000000000000000000e+00,5.000000000000000000e+00,5.000000000000000000e+00,5.000000000000000000e+00,5.000000000000000000e+00,5.000000000000000000e+00,5.000000000000000000e+00,1.519830703735351562e+00,1.522672891616821289e+00,1.530729413032531738e+00,1.479661345481872559e+00,1.472436189651489258e+00,1.472920298576354980e+00,1.474055767059326172e+00,1.494268774986267090e+00,1.526641607284545898e+00,1.562240719795227051e+00,1.550298333168029785e+00,1.552167534828186035e+00,1.554041385650634766e+00,1.595114350318908691e+00,5.000000000000000000e+00,5.000000000000000000e+00,1.638576626777648926e+00,1.648000121116638184e+00,5.000000000000000000e+00,5.000000000000000000e+00,4.854759216308593750e+00,4.664409637451171875e+00,4.488423824310302734e+00,4.325234889984130859e+00,4.173496246337890625e+00,4.032042980194091797e+00,3.899864673614501953e+00,3.776077032089233398e+00,3.659906148910522461e+00,3.550669670104980469e+00,3.447765111923217773e+00,3.350656986236572266e+00,3.258869647979736328e+00,3.171976804733276367e+00,3.089597225189208984e+00,3.011388540267944336e+00,2.937041521072387695e+00,2.866276979446411133e+00,2.798842191696166992e+00,2.734507560729980469e+00,2.673064231872558594e+00,2.614321231842041016e+00,2.558104753494262695e+00,2.504255056381225586e+00,2.452625513076782227e+00,2.403081893920898438e+00,2.355500221252441406e+00,2.309766292572021484e+00,2.265774488449096680e+00,2.223427057266235352e+00,2.182633638381958008e+00,2.143310070037841797e+00,2.105378389358520508e+00,2.068765878677368164e+00,2.033405303955078125e+00,1.999232888221740723e+00,1.966190338134765625e+00,1.934221982955932617e+00,1.903276681900024414e+00,1.873305797576904297e+00,1.844264388084411621e+00
5.000000000000000000e+00,5.000000000000000000e+00,5.000000000000000000e+00,5.000000000000000000e+00,5.000000000000000000e+00,5.000000000000000000e+00,5.000000000000000000e+00,5.000000000000000000e+00,5.000000000000000000e+00,5.000000000000000000e+00,5.000000000000000000e+00,5.000000000000000000e+00,5.000000000000000000e+00,5.000000000000000000e+00,5.000000000000000000e+00,5.000000000000000000e+00,5.000000000000000000e+00,5.000000000000000000e+00,1.531487822532653809e+00,1.505481958389282227e+00,1.514538288116455078e+00,1.561850786209106445e+00,1.490653276443481445e+00,1.472189545631408691e+00,1.472054481506347656e+00,1.472793698310852051e+00,1.491311550140380859e+00,1.521935224533081055e+00,1.564195036888122559e+00,1.548400998115539551e+00,1.551066279411315918e+00,1.552937507629394531e+00,1.589352130889892578e+00,5.000000000000000000e+00,5.000000000000000000e+00,1.623778343200683594e+00,1.636677384376525879e+00,5.000000000000000000e+00,5.000000000000000000e+00,4.854897975921630859e+00,4.664537906646728516e+00,4.488543033599853516e+00,4.325345516204833984e+00,4.173599243164062500e+00,4.032139301300048828e+00,3.899954557418823242e+00,3.776161193847656250e+00,3.659985065460205078e+00,3.550744056701660156e+00,3.447835206985473633e+00,3.350723266601562500e+00,3.258932352066040039e+00,3.172036170959472656e+00,3.089653491973876953e+00,3.011441946029663086e+00,2.937092304229736328e+00,2.866325378417968750e+00,2.798888444900512695e+00,2.734551668167114258e+00,2.673106431961059570e+00,2.614361763000488281e+00,2.558143377304077148e+00,2.504292011260986328e+00,2.452660799026489258e+00,2.403115987777709961e+00,2.355533123016357422e+00,2.309797763824462891e+00,2.265804767608642578e+00,2.223456382751464844e+00,2.182661771774291992e+00,2.143337249755859375e+00,2.105404615402221680e+00,2.068791151046752930e+00,2.033429622650146484e+00,1.999256491661071777e+00,1.966213226318359375e+00,1.934244036674499512e+00,1.903298139572143555e+00,1.873326539993286133e+00,1.844284534454345703e+00
5.000000000000000000e+00,5.000000000000000000e+00,5.000000000000000000e+00,5.000000000000000000e+00,5.000000000000000000e+00,5.000000000000000000e+00,5.000000000000000000e+00,5.000000000000000000e+00,5.000000000000000000e+00,5.000000000000000000e+00,5.000000000000000000e+00,5.000000000000000000e+00,5.000000000000000000e+00,5.000000000000000000e+00,5.000000000000000000e+00,5.000000000000000000e+00,5.000000000000000000e+00,5.000000000000000000e+00,1.514775991439819336e+00,1.497213840484619141e+00,5.000000000000000000e+00,5.000000000000000000e+00,1.501809597015380859e+00,1.471943140029907227e+00,1.471808195114135742e+00,1.471673250198364258e+00,1.487642407417297363e+00,1.517257809638977051e+00,1.565942287445068359e+00,1.545452833175659180e+00,1.549575328826904297e+00,1.551835060119628906e+00,1.583631634712219238e+00,5.000000000000000000e+00,5.000000000000000000e+00,5.000000000000000000e+00,1.723081946372985840e+00,1.656117081642150879e+00,5.000000000000000000e+00,4.855037212371826172e+00,4.664666652679443359e+00,4.488661766052246094e+00,4.325455665588378906e+00,4.173701763153076172e+00,4.032235145568847656e+00,3.900044202804565430e+00,3.776245355606079102e+00,3.660064220428466797e+00,3.550818443298339844e+00,3.447905302047729492e+00,3.350789546966552734e+00,3.258994817733764648e+00,3.172095537185668945e+00,3.089709997177124023e+00,3.011495590209960938e+00,2.937143325805664062e+00,2.866374015808105469e+00,2.798934698104858398e+00,2.734595775604248047e+00,2.673148632049560547e+00,2.614402055740356445e+00,2.558182001113891602e+00,2.504328727722167969e+00,2.452696323394775391e+00,2.403150081634521484e+00,2.355565786361694336e+00,2.309829235076904297e+00,2.265835046768188477e+00,2.223485469818115234e+00,2.182689905166625977e+00,2.143364429473876953e+00,2.105430841445922852e+00,2.068816423416137695e+00,2.033453941345214844e+00,1.999280095100402832e+00,1.966235995292663574e+00,1.934266090393066406e+00,1.903319478034973145e+00,1.873347282409667969e+00,1.844304561614990234e+00
5.000000000000000000e+00,5.000000000000000000e+00,5.000000000000000000e+00,5.000000000000000000e+00,5.000000000000000000e+00,5.000000000000000000e+00,5.000000000000000000e+00,5.000000000000000000e+00,5.000000000000000000e+00,5.000000000000000000e+00,5.000000000000000000e+00,5.000000000000000000e+00,5.000000000000000000e+00,5.000000000000000000e+00,5.000000000000000000e+00,5.000000000000000000e+00,5.000000000000000000e+00,5.000000000000000000e+00,1.508152604103088379e+00,1.486236691474914551e+00,5.000000000000000000e+00,5.000000000000000000e+00,1.513134241104125977e+00,1.470768332481384277e+00,1.470117211341857910e+00,1.469978451728820801e+00,1.483252286911010742e+00,1.512609004974365234e+00,1.567527770996093750e+00,1.542515635490417480e+00,1.546622514724731445e+00,1.550734400749206543e+00,1.579839825630187988e+00,5.000000000000000000e+00,5.000000000000000000e+00,5.000000000000000000e+00,5.000000000000000000e+00,1.642983317375183105e+00,5.000000000000000000e+00,4.855176448822021484e+00,4.664794921875000000e+00,4.488780498504638672e+00,4.325566291809082031e+00,4.173804759979248047e+00,4.032330989837646484e+00,3.900134086608886719e+00,3.776329517364501953e+00,3.660143136978149414e+00,3.550892829895019531e+00,3.447975397109985352e+00,3.350855827331542969e+00,3.259057521820068359e+00,3.172154903411865234e+00,3.089766263961791992e+00,3.011548995971679688e+00,2.937194108963012695e+00,2.866422414779663086e+00,2.798980951309204102e+00,2.734639883041381836e+00,2.673190832138061523e+00,2.614442348480224609e+00,2.558220624923706055e+00,2.504365682601928711e+00,2.452731847763061523e+00,2.403183937072753906e+00,2.355598449707031250e+00,2.309860706329345703e+00,2.265865325927734375e+00,2.223514795303344727e+00,2.182718038558959961e+00,2.143391370773315430e+00,2.105456829071044922e+00,2.068841695785522461e+00,2.033478498458862305e+00,1.999303698539733887e+00,1.966258764266967773e+00,1.934288144111633301e+00,1.903340816497802734e+00,1.873367905616760254e+00,1.844324588775634766e+00
5.000000000000000000e+00,5.000000000000000000e+00,5.000000000000000000e+00,5.000000000000000000e+00,5.000000000000000000e+00,5.000000000000000000e+00,5.000000000000000000e+00,5.000000000000000000e+00,5.000000000000000000e+00,5.000000000000000000e+00,5.000000000000000000e+00,5.000000000000000000e+00,5.000000000000000000e+00,5.000000000000000000e+00,5.000000000000000000e+00,5.000000000000000000e+00,5.000000000000000000e+00,5.000000000000000000e+00,1.501855015754699707e+00,1.477084994316101074e+00,5.000000000000000000e+00,5.000000000000000000e+00,1.535569787025451660e+00,1.479469537734985352e+00,1.466933250427246094e+00,1.466795206069946289e+00,1.479066729545593262e+00,1.508234977722167969e+00,1.569116353988647461e+00,1.539788365364074707e+00,1.544143199920654297e+00,1.548521399497985840e+00,1.574794292449951172e+00,5.000000000000000000e+00,5.000000000000000000e+00,5.000000000000000000e+00,5.000000000000000000e+00,5.000000000000000000e+00,5.000000000000000000e+00,4.855315685272216797e+00,4.664923191070556641e+00,4.488899707794189453e+00,4.325676441192626953e+00,4.173907279968261719e+00,4.032426834106445312e+00,3.900223731994628906e+00,3.776413679122924805e+00,3.660222291946411133e+00,3.550967216491699219e+00,3.448045730590820312e+00,3.350922107696533203e+00,3.259120225906372070e+00,3.172214269638061523e+00,3.089822530746459961e+00,3.011602640151977539e+00,2.937245130538940430e+00,2.866470813751220703e+00,2.799027204513549805e+00,2.734683990478515625e+00,2.673232793807983398e+00,2.614482402801513672e+00,2.558259010314941406e+00,2.504402875900268555e+00,2.452767372131347656e+00,2.403218030929565430e+00,2.355631351470947266e+00,2.309892177581787109e+00,2.265895605087280273e+00,2.223543882369995117e+00,2.182746171951293945e+00,2.143418550491333008e+00,2.105483055114746094e+00,2.068866968154907227e+00,2.033502817153930664e+00,1.999327301979064941e+00,1.966281652450561523e+00,1.934310317039489746e+00,1.903362274169921875e+00,1.873388648033142090e+00,1.844344735145568848e+00
5.000000000000000000e+00,5.000000000000000000e+00,5.000000000000000000e+00,5.000000000000000000e+00,5.000000000000000000e+00,5.000000000000000000e+00,5.000000000000000000e+00,5.000000000000000000e+00,5.000000000000000000e+00,5.000000000000000000e+00,5.000000000000000000e+00,5.000000000000000000e+00,5.000000000000000000e+00,5.000000000000000000e+00,5.000000000000000000e+00,5.000000000000000000e+00,5.000000000000000000e+00,5.000000000000000000e+00,1.494552969932556152e+00,5.000000000000000000e+00,5.000000000000000000e+00,5.000000000000000000e+00,1.560532569885253906e+00,1.491935610771179199e+00,1.465932726860046387e+00,1.463625550270080566e+00,1.474904537200927734e+00,1.502355694770812988e+00,1.568814635276794434e+00,1.540853381156921387e+00,1.542955994606018066e+00,1.547327399253845215e+00,1.567025303840637207e+00,5.000000000000000000e+00,5.000000000000000000e+00,5.000000000000000000e+00,5.000000000000000000e+00,5.000000000000000000e+00,5.000000000000000000e+00,4.855454444885253906e+00,4.665051937103271484e+00,4.489018440246582031e+00,4.325787067413330078e+00,4.174010276794433594e+00,4.032522678375244141e+00,3.900313615798950195e+00,3.776497840881347656e+00,3.660301208496093750e+00,3.551041603088378906e+00,3.448115825653076172e+00,3.350988388061523438e+00,3.259182929992675781e+00,3.172273635864257812e+00,3.089878797531127930e+00,3.011656045913696289e+00,2.937295913696289062e+00,2.866519451141357422e+00,2.799073457717895508e+00,2.734728336334228516e+00,2.673274993896484375e+00,2.614522695541381836e+00,2.558297634124755859e+00,2.504439830780029297e+00,2.452802896499633789e+00,2.403252124786376953e+00,2.355664014816284180e+00,2.309923648834228516e+00,2.265925884246826172e+00,2.223572969436645508e+00,2.182774305343627930e+00,2.143445730209350586e+00,2.105509281158447266e+00,2.068892240524291992e+00,2.033527135848999023e+00,1.999350786209106445e+00,1.966304421424865723e+00,1.934332370758056641e+00,1.903383612632751465e+00,1.873409390449523926e+00,1.844364762306213379e+00
5.000000000000000000e+00,5.000000000000000000e+00,5.000000000000000000e+00,5.000000000000000000e+00,5.000000000000000000e+00,5.000000000000000000e+00,5.000000000000000000e+00,5.000000000000000000e+00,5.000000000000000000e+00,5.000000000000000000e+00,5.000000000000000000e+00,5.000000000000000000e+00,5.000000000000000000e+00,5.000000000000000000e+00,5.000000000000000000e+00,5.000000000000000000e+00,5.000000000000000000e+00,5.000000000000000000e+00,5.000000000000000000e+00,5.000000000000000000e+00,5.000000000000000000e+00,5.000000000000000000e+00,5.000000000000000000e+00,1.504416704177856445e+00,1.467356920242309570e+00,1.460469722747802734e+00,1.470765829086303711e+00,1.495940327644348145e+00,1.567375302314758301e+00,1.541919827461242676e+00,1.540228962898254395e+00,1.546135187149047852e+00,1.559332370758056641e+00,5.000000000000000000e+00,5.000000000000000000e+00,5.000000000000000000e+00,5.000000000000000000e+00,5.000000000000000000e+00,5.000000000000000000e+00,4.855593681335449219e+00,4.665180206298828125e+00,4.489137649536132812e+00,4.325897693634033203e+00,4.174112796783447266e+00,4.032618999481201172e+00,3.900403261184692383e+00,3.776582002639770508e+00,3.660380363464355469e+00,3.551116228103637695e+00,3.448185920715332031e+00,3.351054668426513672e+00,3.259245634078979492e+00,3.172333002090454102e+00,3.089935302734375000e+00,3.011709690093994141e+00,2.937346935272216797e+00,2.866567850112915039e+00,2.799119710922241211e+00,2.734772205352783203e+00,2.673316955566406250e+00,2.614563226699829102e+00,2.558336257934570312e+00,2.504476785659790039e+00,2.452838420867919922e+00,2.403286218643188477e+00,2.355696916580200195e+00,2.309955358505249023e+00,2.265956163406372070e+00,2.223602294921875000e+00,2.182802438735961914e+00,2.143472671508789062e+00,2.105535507202148438e+00,2.068917512893676758e+00,2.033551692962646484e+00,1.999374389648437500e+00,1.966327309608459473e+00,1.934354424476623535e+00,1.903404951095581055e+00,1.873430132865905762e+00,1.844384908676147461e+00
5.000000000000000000e+00,5.000000000000000000e+00,5.000000000000000000e+00,5.000000000000000000e+00,5.000000000000000000e+00,5.000000000000000000e+00,5.000000000000000000e+00,5.000000000000000000e+00,5.000000000000000000e+00,5.000000000000000000e+00,5.000000000000000000e+00,5.000000000000000000e+00,5.000000000000000000e+00,5.000000000000000000e+00,5.000000000000000000e+00,5.000000000000000000e+00,5.000000000000000000e+00,5.000000000000000000e+00,5.000000000000000000e+00,5.000000000000000000e+00,5.000000000000000000e+00,5.000000000000000000e+00,5.000000000000000000e+00,1.524905562400817871e+00,1.468783736228942871e+00,1.461128950119018555e+00,1.465687155723571777e+00,1.489579439163208008e+00,1.565938472747802734e+00,1.542987704277038574e+00,1.536416292190551758e+00,1.544755697250366211e+00,1.551714897155761719e+00,5.000000000000000000e+00,5.000000000000000000e+00,5.000000000000000000e+00,5.000000000000000000e+00,5.000000000000000000e+00,5.000000000000000000e+00,4.855732917785644531e+00,4.665308475494384766e+00,4.489256381988525391e+00,4.326007843017578125e+00,4.174215793609619141e+00,4.032714843750000000e+00,3.900493144989013672e+00,3.776666164398193359e+00,3.660459280014038086e+00,3.551190614700317383e+00,3.448256015777587891e+00,3.351120948791503906e+00,3.259308338165283203e+00,3.172392368316650391e+00,3.089991569519042969e+00,3.011763095855712891e+00,2.937397718429565430e+00,2.866616249084472656e+00,2.799165964126586914e+00,2.734816312789916992e+00,2.673359155654907227e+00,2.614603519439697266e+00,2.558374881744384766e+00,2.504513740539550781e+00,2.452873945236206055e+00,2.403320312500000000e+00,2.355729579925537109e+00,2.309986829757690430e+00,2.265986680984497070e+00,2.223631381988525391e+00,2.182830572128295898e+00,2.143499851226806641e+00,2.105561494827270508e+00,2.068942785263061523e+00,2.033576011657714844e+00,1.999397993087768555e+00,1.966350078582763672e+00,1.934376478195190430e+00,1.903426408767700195e+00,1.873450756072998047e+00,1.844404935836791992e+00
5.000000000000000000e+00,5.000000000000000000e+00,5.000000000000000000e+00,5.000000000000000000e+00,5.000000000000000000e+00,5.000000000000000000e+00,5.000000000000000000e+00,5.000000000000000000e+00,5.000000000000000000e+00,5.000000000000000000e+00,5.000000000000000000e+00,5.000000000000000000e+00,5.000000000000000000e+00,5.000000000000000000e+00,5.000000000000000000e+00,5.000000000000000000e+00,5.000000000000000000e+00,5.000000000000000000e+00,5.000000000000000000e+00,5.000000000000000000e+00,5.000000000000000000e+00,5.000000000000000000e+00,5.000000000000000000e+00,1.539377450942993164e+00,1.479310870170593262e+00,1.461358189582824707e+00,1.463180541992187500e+00,1.485935091972351074e+00,1.564504384994506836e+00,1.544057130813598633e+00,1.532622575759887695e+00,1.540920734405517578e+00,1.548132419586181641e+00,5.000000000000000000e+00,5.000000000000000000e+00,5.000000000000000000e+00,5.000000000000000000e+00,5.000000000000000000e+00,5.000000000000000000e+00,4.855872154235839844e+00,4.665437221527099609e+00,4.489375114440917969e+00,4.326118469238281250e+00,4.174318790435791016e+00,4.032810688018798828e+00,3.900582790374755859e+00,3.776750326156616211e+00,3.660538434982299805e+00,3.551265001296997070e+00,3.448326349258422852e+00,3.351187229156494141e+00,3.259371042251586914e+00,3.172451734542846680e+00,3.090047836303710938e+00,3.011816501617431641e+00,2.937448740005493164e+00,2.866664886474609375e+00,2.799211740493774414e+00,2.734860420227050781e+00,2.673401355743408203e+00,2.614643812179565430e+00,2.558413505554199219e+00,2.504550695419311523e+00,2.452909469604492188e+00,2.403354406356811523e+00,2.355762243270874023e+00,2.310018301010131836e+00,2.266016960144042969e+00,2.223660469055175781e+00,2.182858705520629883e+00,2.143527030944824219e+00,2.105587720870971680e+00,2.068968057632446289e+00,2.033600330352783203e+00,1.999421596527099609e+00,1.966372847557067871e+00,1.934398651123046875e+00,1.903447747230529785e+00,1.873471498489379883e+00,1.844424962997436523e+00
5.000000000000000000e+00,5.000000000000000000e+00,5.000000000000000000e+00,5.000000000000000000e+00,5.000000000000000000e+00,5.000000000000000000e+00,5.000000000000000000e+00,5.000000000000000000e+00,5.000000000000000000e+00,5.000000000000000000e+00,5.000000000000000000e+00,5.000000000000000000e+00,5.000000000000000000e+00,5.000000000000000000e+00,5.000000000000000000e+00,5.000000000000000000e+00,5.000000000000000000e+00,5.000000000000000000e+00,5.000000000000000000e+00,5.000000000000000000e+00,5.000000000000000000e+00,5.000000000000000000e+00,5.000000000000000000e+00,5.000000000000000000e+00,1.494548678398132324e+00,1.466532826423645020e+00,1.465440273284912109e+00,1.486769795417785645e+00,5.000000000000000000e+00,1.545145750045776367e+00,1.530836343765258789e+00,1.539329409599304199e+00,1.547732234001159668e+00,5.000000000000000000e+00,5.000000000000000000e+00,5.000000000000000000e+00,5.000000000000000000e+00,5.000000000000000000e+00,5.000000000000000000e+00,4.856010913848876953e+00,4.665565490722656250e+00,4.489494323730468750e+00,4.326228618621826172e+00,4.174421310424804688e+00,4.032906532287597656e+00,3.900672674179077148e+00,3.776834487915039062e+00,3.660617589950561523e+00,3.551339387893676758e+00,3.448396444320678711e+00,3.351253509521484375e+00,3.259433746337890625e+00,3.172511100769042969e+00,3.090104341506958008e+00,3.011870145797729492e+00,2.937499761581420898e+00,2.866713047027587891e+00,2.799257993698120117e+00,2.734904527664184570e+00,2.673443555831909180e+00,2.614684104919433594e+00,2.558452129364013672e+00,2.504587888717651367e+00,2.452944755554199219e+00,2.403388500213623047e+00,2.355795145034790039e+00,2.310049772262573242e+00,2.266047239303588867e+00,2.223689794540405273e+00,2.182886838912963867e+00,2.143554210662841797e+00,2.105613946914672852e+00,2.068993091583251953e+00,2.033624887466430664e+00,1.999445199966430664e+00,1.966395735740661621e+00,1.934420704841613770e+00,1.903469085693359375e+00,1.873492240905761719e+00,1.844445109367370605e+00
5.000000000000000000e+00,5.000000000000000000e+00,5.000000000000000000e+00,5.000000000000000000e+00,5.000000000000000000e+00,5.000000000000000000e+00,5.000000000000000000e+00,5.000000000000000000e+00,5.000000000000000000e+00,5.000000000000000000e+00,5.000000000000000000e+00,5.000000000000000000e+00,5.000000000000000000e+00,5.000000000000000000e+00,5.000000000000000000e+00,5.000000000000000000e+00,5.000000000000000000e+00,5.000000000000000000e+00,5.000000000000000000e+00,5.000000000000000000e+00,5.000000000000000000e+00,5.000000000000000000e+00,5.000000000000000000e+00,5.000000000000000000e+00,1.497901439666748047e+00,1.475998163223266602e+00,1.475508451461791992e+00,1.498225808143615723e+00,5.000000000000000000e+00,1.549248695373535156e+00,1.535077452659606934e+00,1.544353604316711426e+00,1.553200125694274902e+00,5.000000000000000000e+00,5.000000000000000000e+00,5.000000000000000000e+00,5.000000000000000000e+00,5.000000000000000000e+00,5.000000000000000000e+00,4.856150150299072266e+00,4.665693759918212891e+00,4.489613056182861328e+00,4.326339244842529297e+00,4.174524307250976562e+00,4.033002853393554688e+00,3.900762319564819336e+00,3.776918649673461914e+00,3.660696506500244141e+00,3.551413774490356445e+00,3.448466539382934570e+00,3.351319789886474609e+00,3.259496450424194336e+00,3.172570466995239258e+00,3.090160608291625977e+00,3.011923551559448242e+00,2.937550306320190430e+00,2.866761684417724609e+00,2.799304246902465820e+00,2.734948635101318359e+00,2.673485755920410156e+00,2.614724397659301758e+00,2.558490753173828125e+00,2.504624843597412109e+00,2.452980279922485352e+00,2.403422594070434570e+00,2.355827808380126953e+00,2.310081243515014648e+00,2.266077518463134766e+00,2.223718881607055664e+00,2.182914972305297852e+00,2.143581151962280273e+00,2.105639934539794922e+00,2.069018363952636719e+00,2.033649206161499023e+00,1.999468803405761719e+00,1.966418504714965820e+00,1.934442758560180664e+00,1.903490543365478516e+00,1.873512983322143555e+00,1.844465136528015137e+00
5.000000000000000000e+00,5.000000000000000000e+00,5.000000000000000000e+00,5.000000000000000000e+00,5.000000000000000000e+00,5.000000000000000000e+00,5.000000000000000000e+00,5.000000000000000000e+00,5.000000000000000000e+00,5.000000000000000000e+00,5.000000000000000000e+00,5.000000000000000000e+00,5.000000000000000000e+00,5.000000000000000000e+00,5.000000000000000000e+00,5.000000000000000000e+00,5.000000000000000000e+00,5.000000000000000000e+00,5.000000000000000000e+00,5.000000000000000000e+00,5.000000000000000000e+00,5.000000000000000000e+00,5.000000000000000000e+00,5.000000000000000000e+00,1.500667691230773926e+00,1.490387082099914551e+00,1.488302946090698242e+00,1.511419177055358887e+00,1.596109032630920410e+00,1.562528848648071289e+00,1.546796202659606934e+00,1.554540276527404785e+00,1.563189148902893066e+00,5.000000000000000000e+00,5.000000000000000000e+00,5.000000000000000000e+00,5.000000000000000000e+00,5.000000000000000000e+00,5.000000000000000000e+00,4.856289863586425781e+00,4.665822505950927734e+00,4.489732265472412109e+00,4.326449871063232422e+00,4.174627304077148438e+00,4.033098697662353516e+00,3.900852203369140625e+00,3.777002811431884766e+00,3.660775661468505859e+00,3.551488161087036133e+00,3.448536872863769531e+00,3.351386070251464844e+00,3.259559154510498047e+00,3.172629833221435547e+00,3.090216875076293945e+00,3.011976957321166992e+00,2.937601327896118164e+00,2.866810083389282227e+00,2.799350500106811523e+00,2.734992742538452148e+00,2.673527956008911133e+00,2.614764928817749023e+00,2.558529376983642578e+00,2.504661798477172852e+00,2.453015804290771484e+00,2.403456687927246094e+00,2.355860471725463867e+00,2.310112714767456055e+00,2.266107797622680664e+00,2.223748207092285156e+00,2.182943105697631836e+00,2.143608331680297852e+00,2.105666160583496094e+00,2.069043636322021484e+00,2.033673524856567383e+00,1.999492406845092773e+00,1.966441392898559570e+00,1.934464812278747559e+00,1.903511881828308105e+00,1.873533606529235840e+00,1.844485282897949219e+00
5.000000000000000000e+00,5.000000000000000000e+00,5.000000000000000000e+00,5.000000000000000000e+00,5.000000000000000000e+00,5.000000000000000000e+00,5.000000000000000000e+00,5.000000000000000000e+00,5.000000000000000000e+00,5.000000000000000000e+00,5.000000000000000000e+00,5.000000000000000000e+00,5.000000000000000000e+00,5.000000000000000000e+00,5.000000000000000000e+00,5.000000000000000000e+00,5.000000000000000000e+00,5.000000000000000000e+00,5.000000000000000000e+00,5.000000000000000000e+00,5.000000000000000000e+00,5.000000000000000000e+00,5.000000000000000000e+00,1.552147388458251953e+00,1.509212136268615723e+00,1.503147959709167480e+00,1.501321315765380859e+00,1.532329201698303223e+00,1.632158637046813965e+00,1.588945388793945312e+00,1.571976780891418457e+00,1.575501918792724609e+00,5.000000000000000000e+00,5.000000000000000000e+00,5.000000000000000000e+00,5.000000000000000000e+00,5.000000000000000000e+00,5.000000000000000000e+00,5.000000000000000000e+00,4.856429100036621094e+00,4.665951251983642578e+00,4.489851474761962891e+00,4.326560497283935547e+00,4.174730300903320312e+00,4.033195018768310547e+00,3.900942087173461914e+00,3.777086973190307617e+00,3.660854816436767578e+00,3.551562547683715820e+00,3.448606967926025391e+00,3.351452350616455078e+00,3.259621858596801758e+00,3.172689437866210938e+00,3.090273141860961914e+00,3.012030601501464844e+00,2.937652111053466797e+00,2.866858482360839844e+00,2.799396753311157227e+00,2.735036849975585938e+00,2.673570156097412109e+00,2.614805221557617188e+00,2.558568000793457031e+00,2.504698991775512695e+00,2.453051328659057617e+00,2.403490781784057617e+00,2.355893373489379883e+00,2.310144186019897461e+00,2.266138076782226562e+00,2.223777294158935547e+00,2.182971000671386719e+00,2.143635511398315430e+00,2.105692386627197266e+00,2.069068908691406250e+00,2.033698081970214844e+00,1.999516010284423828e+00,1.966464161872863770e+00,1.934486865997314453e+00,1.903533220291137695e+00,1.873554348945617676e+00,1.844505310058593750e+00
5.000000000000000000e+00,5.000000000000000000e+00,5.000000000000000000e+00,5.000000000000000000e+00,5.000000000000000000e+00,5.000000000000000000e+00,5.000000000000000000e+00,5.000000000000000000e+00,5.000000000000000000e+00,5.000000000000000000e+00,5.000000000000000000e+00,5.000000000000000000e+00,5.000000000000000000e+00,5.000000000000000000e+00,5.000000000000000000e+00,5.000000000000000000e+00,5.000000000000000000e+00,5.000000000000000000e+00,5.000000000000000000e+00,5.000000000000000000e+00,5.000000000000000000e+00,5.000000000000000000e+00,5.000000000000000000e+00,1.543645024299621582e+00,1.517854452133178711e+00,1.513105154037475586e+00,1.514569520950317383e+00,1.554693341255187988e+00,1.650428414344787598e+00,1.627128481864929199e+00,1.615127921104431152e+00,1.661929130554199219e+00,5.000000000000000000e+00,5.000000000000000000e+00,5.000000000000000000e+00,5.000000000000000000e+00,5.000000000000000000e+00,5.000000000000000000e+00,5.000000000000000000e+00,4.856568336486816406e+00,4.666079521179199219e+00,4.489970207214355469e+00,4.326671123504638672e+00,4.174833297729492188e+00,4.033290863037109375e+00,3.901031732559204102e+00,3.777171134948730469e+00,3.660933732986450195e+00,3.551637172698974609e+00,3.448677062988281250e+00,3.351518630981445312e+00,3.259684562683105469e+00,3.172748565673828125e+00,3.090329408645629883e+00,3.012084007263183594e+00,2.937703132629394531e+00,2.866907119750976562e+00,2.799443006515502930e+00,2.735081195831298828e+00,2.673612117767333984e+00,2.614845514297485352e+00,2.558606624603271484e+00,2.504735946655273438e+00,2.453086853027343750e+00,2.403524875640869141e+00,2.355926036834716797e+00,2.310175657272338867e+00,2.266168355941772461e+00,2.223806381225585938e+00,2.182999134063720703e+00,2.143662691116333008e+00,2.105718612670898438e+00,2.069094181060791016e+00,2.033722400665283203e+00,1.999539613723754883e+00,1.966486930847167969e+00,1.934509038925170898e+00,1.903554677963256836e+00,1.873575091361999512e+00,1.844525456428527832e+00
5.000000000000000000e+00,5.000000000000000000e+00,5.000000000000000000e+00,5.000000000000000000e+00,5.000000000000000000e+00,5.000000000000000000e+00,5.000000000000000000e+00,5.000000000000000000e+00,5.000000000000000000e+00,5.000000000000000000e+00,5.000000000000000000e+00,5.000000000000000000e+00,5.000000000000000000e+00,5.000000000000000000e+00,5.000000000000000000e+00,5.000000000000000000e+00,5.000000000000000000e+00,5.000000000000000000e+00,5.000000000000000000e+00,5.000000000000000000e+00,5.000000000000000000e+00,5.000000000000000000e+00,5.000000000000000000e+00,1.548640489578247070e+00,1.526450276374816895e+00,1.521950125694274902e+00,1.528233647346496582e+00,1.565065264701843262e+00,1.673483848571777344e+00,1.668653607368469238e+00,1.660715103149414062e+00,5.000000000000000000e+00,5.000000000000000000e+00,5.000000000000000000e+00,5.000000000000000000e+00,5.000000000000000000e+00,5.000000000000000000e+00,5.000000000000000000e+00,5.000000000000000000e+00,4.856707096099853516e+00,4.666208267211914062e+00,4.490089416503906250e+00,4.326781272888183594e+00,4.174935817718505859e+00,4.033386707305908203e+00,3.901121616363525391e+00,3.777255296707153320e+00,3.661012887954711914e+00,3.551711559295654297e+00,3.448747396469116211e+00,3.351584911346435547e+00,3.259747028350830078e+00,3.172807931900024414e+00,3.090385675430297852e+00,3.012137651443481445e+00,2.937753915786743164e+00,2.866955518722534180e+00,2.799489259719848633e+00,2.735125303268432617e+00,2.673654317855834961e+00,2.614885807037353516e+00,2.558645248413085938e+00,2.504772901535034180e+00,2.453122377395629883e+00,2.403558969497680664e+00,2.355958700180053711e+00,2.310207128524780273e+00,2.266198635101318359e+00,2.223835706710815430e+00,2.183027267456054688e+00,2.143689632415771484e+00,2.105744600296020508e+00,2.069119453430175781e+00,2.033746719360351562e+00,1.999563097953796387e+00,1.966509819030761719e+00,1.934531092643737793e+00,1.903576016426086426e+00,1.873595833778381348e+00,1.844545483589172363e+00
5.000000000000000000e+00,5.000000000000000000e+00,5.000000000000000000e+00,5.000000000000000000e+00,5.000000000000000000e+00,5.000000000000000000e+00,5.000000000000000000e+00,5.000000000000000000e+00,5.000000000000000000e+00,5.000000000000000000e+00,5.000000000000000000e+00,5.000000000000000000e+00,5.000000000000000000e+00,5.000000000000000000e+00,5.000000000000000000e+00,5.000000000000000000e+00,5.000000000000000000e+00,5.000000000000000000e+00,5.000000000000000000e+00,5.000000000000000000e+00,5.000000000000000000e+00,5.000000000000000000e+00,5.000000000000000000e+00,1.556721448898315430e+00,1.534332275390625000e+00,1.525527238845825195e+00,1.530499100685119629e+00,1.566874980926513672e+00,1.699896335601806641e+00,1.695509910583496094e+00,1.719896435737609863e+00,5.000000000000000000e+00,5.000000000000000000e+00,5.000000000000000000e+00,5.000000000000000000e+00,5.000000000000000000e+00,5.000000000000000000e+00,5.000000000000000000e+00,5.000000000000000000e+00,4.856844902038574219e+00,4.666336536407470703e+00,4.490208148956298828e+00,4.326891899108886719e+00,4.175038814544677734e+00,4.033483028411865234e+00,3.901211500167846680e+00,3.777339458465576172e+00,3.661092042922973633e+00,3.551785945892333984e+00,3.448817491531372070e+00,3.351650953292846680e+00,3.259809732437133789e+00,3.172867298126220703e+00,3.090442180633544922e+00,3.012191057205200195e+00,2.937804937362670898e+00,2.867004156112670898e+00,2.799535512924194336e+00,2.735169410705566406e+00,2.673696517944335938e+00,2.614926099777221680e+00,2.558683872222900391e+00,2.504809856414794922e+00,2.453157901763916016e+00,2.403593063354492188e+00,2.355991601943969727e+00,2.310238599777221680e+00,2.266228914260864258e+00,2.223864793777465820e+00,2.183055400848388672e+00,2.143716812133789062e+00,2.105770826339721680e+00,2.069144725799560547e+00,2.033771276473999023e+00,1.999586701393127441e+00,1.966532588005065918e+00,1.934553146362304688e+00,1.903597474098205566e+00,1.873616456985473633e+00,1.844565510749816895e+00
5.000000000000000000e+00,5.000000000000000000e+00,5.000000000000000000e+00,5.000000000000000000e+00,5.000000000000000000e+00,5.000000000000000000e+00,5.000000000000000000e+00,5.000000000000000000e+00,5.000000000000000000e+00,5.000000000000000000e+00,5.000000000000000000e+00,5.000000000000000000e+00,5.000000000000000000e+00,5.000000000000000000e+00,5.000000000000000000e+00,5.000000000000000000e+00,5.000000000000000000e+00,5.000000000000000000e+00,5.000000000000000000e+00,5.000000000000000000e+00,5.000000000000000000e+00,5.000000000000000000e+00,5.000000000000000000e+00,5.000000000000000000e+00,1.542389512062072754e+00,1.529121398925781250e+00,1.532771468162536621e+00,1.568563818931579590e+00,1.727156043052673340e+00,1.723244905471801758e+00,5.000000000000000000e+00,5.000000000000000000e+00,5.000000000000000000e+00,5.000000000000000000e+00,5.000000000000000000e+00,5.000000000000000000e+00,5.000000000000000000e+00,5.000000000000000000e+00,5.000000000000000000e+00,4.856983661651611328e+00,4.666465282440185547e+00,4.490327358245849609e+00,4.327002525329589844e+00,4.175141811370849609e+00,4.033578872680664062e+00,3.901301145553588867e+00,3.777423620223999023e+00,3.661171197891235352e+00,3.551860332489013672e+00,3.448887348175048828e+00,3.351717233657836914e+00,3.259872436523437500e+00,3.172926664352416992e+00,3.090498447418212891e+00,3.012244701385498047e+00,2.937855958938598633e+00,2.867052555084228516e+00,2.799581766128540039e+00,2.735213518142700195e+00,2.673738718032836914e+00,2.614966630935668945e+00,2.558722496032714844e+00,2.504847049713134766e+00,2.453193426132202148e+00,2.403627157211303711e+00,2.356024265289306641e+00,2.310270071029663086e+00,2.266259193420410156e+00,2.223894119262695312e+00,2.183083534240722656e+00,2.143743991851806641e+00,2.105797052383422852e+00,2.069169998168945312e+00,2.033795595169067383e+00,1.999610304832458496e+00,1.966555476188659668e+00,1.934575200080871582e+00,1.903618812561035156e+00,1.873637199401855469e+00,1.844585657119750977e+00
5.000000000000000000e+00,5.000000000000000000e+00,5.000000000000000000e+00,5.000000000000000000e+00,5.000000000000000000e+00,5.000000000000000000e+00,5.000000000000000000e+00,5.000000000000000000e+00,5.000000000000000000e+00,5.000000000000000000e+00,5.000000000000000000e+00,5.000000000000000000e+00,5.000000000000000000e+00,5.000000000000000000e+00,5.000000000000000000e+00,5.000000000000000000e+00,5.000000000000000000e+00,5.000000000000000000e+00,5.000000000000000000e+00,5.000000000000000000e+00,5.000000000000000000e+00,5.000000000000000000e+00,5.000000000000000000e+00,5.000000000000000000e+00,1.550531864166259766e+00,1.534304738044738770e+00,1.535050272941589355e+00,1.570256590843200684e+00,1.755665183067321777e+00,1.754301905632019043e+00,5.000000000000000000e+00,5.000000000000000000e+00,5.000000000000000000e+00,5.000000000000000000e+00,5.000000000000000000e+00,5.000000000000000000e+00,5.000000000000000000e+00,5.000000000000000000e+00,5.000000000000000000e+00,4.857121944427490234e+00,4.666591644287109375e+00,4.490446090698242188e+00,4.327112674713134766e+00,4.175244331359863281e+00,4.033674716949462891e+00,3.901391029357910156e+00,3.777508020401000977e+00,3.661250114440917969e+00,3.551934719085693359e+00,3.448957681655883789e+00,3.351783514022827148e+00,3.259935140609741211e+00,3.172986030578613281e+00,3.090554952621459961e+00,3.012298107147216797e+00,2.937906742095947266e+00,2.867101192474365234e+00,2.799628019332885742e+00,2.735257625579833984e+00,2.673780918121337891e+00,2.615006923675537109e+00,2.558761119842529297e+00,2.504884004592895508e+00,2.453228950500488281e+00,2.403661251068115234e+00,2.356057167053222656e+00,2.310301542282104492e+00,2.266289710998535156e+00,2.223923206329345703e+00,2.183111667633056641e+00,2.143770933151245117e+00,2.105823278427124023e+00,2.069195270538330078e+00,2.033820152282714844e+00,1.999633908271789551e+00,1.966578245162963867e+00,1.934597373008728027e+00,1.903640151023864746e+00,1.873657941818237305e+00,1.844605684280395508e+00
5.000000000000000000e+00,5.000000000000000000e+00,5.000000000000000000e+00,5.000000000000000000e+00,5.000000000000000000e+00,5.000000000000000000e+00,5.000000000000000000e+00,5.000000000000000000e+00,5.000000000000000000e+00,5.000000000000000000e+00,5.000000000000000000e+00,5.000000000000000000e+00,5.000000000000000000e+00,5.000000000000000000e+00,5.000000000000000000e+00,5.000000000000000000e+00,5.000000000000000000e+00,5.000000000000000000e+00,5.000000000000000000e+00,5.000000000000000000e+00,5.000000000000000000e+00,5.000000000000000000e+00,5.000000000000000000e+00,5.000000000000000000e+00,1.558760404586791992e+00,1.539912939071655273e+00,1.537336230278015137e+00,1.571952939033508301e+00,1.786447048187255859e+00,5.000000000000000000e+00,5.000000000000000000e+00,5.000000000000000000e+00,5.000000000000000000e+00,5.000000000000000000e+00,5.000000000000000000e+00,5.000000000000000000e+00,5.000000000000000000e+00,5.000000000000000000e+00,5.000000000000000000e+00,4.857260227203369141e+00,4.666719436645507812e+00,4.490563869476318359e+00,4.327223300933837891e+00,4.175347328186035156e+00,4.033771038055419922e+00,3.901480913162231445e+00,3.777592182159423828e+00,3.661329030990600586e+00,3.552009105682373047e+00,3.449027776718139648e+00,3.351849794387817383e+00,3.259997844696044922e+00,3.173045396804809570e+00,3.090611219406127930e+00,3.012351751327514648e+00,2.937957763671875000e+00,2.867149591445922852e+00,2.799674272537231445e+00,2.735301733016967773e+00,2.673823118209838867e+00,2.615047216415405273e+00,2.558799743652343750e+00,2.504920959472656250e+00,2.453264474868774414e+00,2.403695344924926758e+00,2.356089830398559570e+00,2.310333251953125000e+00,2.266319990158081055e+00,2.223952293395996094e+00,2.183139801025390625e+00,2.143798112869262695e+00,2.105849266052246094e+00,2.069220542907714844e+00,2.033844470977783203e+00,1.999657511711120605e+00,1.966601133346557617e+00,1.934619426727294922e+00,1.903661608695983887e+00,1.873678684234619141e+00,1.844625830650329590e+00
5.000000000000000000e+00,5.000000000000000000e+00,5.000000000000000000e+00,5.000000000000000000e+00,5.000000000000000000e+00,5.000000000000000000e+00,5.000000000000000000e+00,5.000000000000000000e+00,5.000000000000000000e+00,5.000000000000000000e+00,5.000000000000000000e+00,5.000000000000000000e+00,5.000000000000000000e+00,5.000000000000000000e+00,5.000000000000000000e+00,5.000000000000000000e+00,5.000000000000000000e+00,5.000000000000000000e+00,5.000000000000000000e+00,5.000000000000000000e+00,5.000000000000000000e+00,5.000000000000000000e+00,5.000000000000000000e+00,5.000000000000000000e+00,1.567191004753112793e+00,1.546171426773071289e+00,1.539961695671081543e+00,1.574681520462036133e+00,5.000000000000000000e+00,5.000000000000000000e+00,5.000000000000000000e+00,5.000000000000000000e+00,5.000000000000000000e+00,5.000000000000000000e+00,5.000000000000000000e+00,5.000000000000000000e+00,5.000000000000000000e+00,5.000000000000000000e+00,5.000000000000000000e+00,4.857398509979248047e+00,4.666847229003906250e+00,4.490681648254394531e+00,4.327332496643066406e+00,4.175450325012207031e+00,4.033866882324218750e+00,3.901570558547973633e+00,3.777676105499267578e+00,3.661408185958862305e+00,3.552083492279052734e+00,3.449098110198974609e+00,3.351916074752807617e+00,3.260060548782348633e+00,3.173105001449584961e+00,3.090667486190795898e+00,3.012405157089233398e+00,2.938008785247802734e+00,2.867197990417480469e+00,2.799720525741577148e+00,2.735346078872680664e+00,2.673865318298339844e+00,2.615087509155273438e+00,2.558838367462158203e+00,2.504958152770996094e+00,2.453299999237060547e+00,2.403729438781738281e+00,2.356122493743896484e+00,2.310364723205566406e+00,2.266350269317626953e+00,2.223981618881225586e+00,2.183167934417724609e+00,2.143825292587280273e+00,2.105875492095947266e+00,2.069245815277099609e+00,2.033868789672851562e+00,1.999681115150451660e+00,1.966623902320861816e+00,1.934641480445861816e+00,1.903682947158813477e+00,1.873699426651000977e+00,1.844645857810974121e+00
5.000000000000000000e+00,5.000000000000000000e+00,5.000000000000000000e+00,5.000000000000000000e+00,5.000000000000000000e+00,5.000000000000000000e+00,5.000000000000000000e+00,5.000000000000000000e+00,5.000000000000000000e+00,5.000000000000000000e+00,5.000000000000000000e+00,5.000000000000000000e+00,5.000000000000000000e+00,5.000000000000000000e+00,5.000000000000000000e+00,5.000000000000000000e+00,5.000000000000000000e+00,5.000000000000000000e+00,5.000000000000000000e+00,5.000000000000000000e+00,5.000000000000000000e+00,5.000000000000000000e+00,5.000000000000000000e+00,5.000000000000000000e+00,1.576834559440612793e+00,1.555366754531860352e+00,1.550490021705627441e+00,1.577800869941711426e+00,5.000000000000000000e+00,5.000000000000000000e+00,5.000000000000000000e+00,5.000000000000000000e+00,5.000000000000000000e+00,5.000000000000000000e+00,5.000000000000000000e+00,5.000000000000000000e+00,5.000000000000000000e+00,5.000000000000000000e+00,5.000000000000000000e+00,4.857537269592285156e+00,4.666975021362304688e+00,4.490800380706787109e+00,4.327442646026611328e+00,4.175553321838378906e+00,4.033962726593017578e+00,3.901660203933715820e+00,3.777760267257690430e+00,3.661487340927124023e+00,3.552157878875732422e+00,3.449168205261230469e+00,3.351982355117797852e+00,3.260123252868652344e+00,3.173164367675781250e+00,3.090723991394042969e+00,3.012458801269531250e+00,2.938059568405151367e+00,2.867246627807617188e+00,2.799766778945922852e+00,2.735390186309814453e+00,2.673907518386840820e+00,2.615128040313720703e+00,2.558876991271972656e+00,2.504995107650756836e+00,2.453335523605346680e+00,2.403763532638549805e+00,2.356155395507812500e+00,2.310396194458007812e+00,2.266380548477172852e+00,2.224010705947875977e+00,2.183196067810058594e+00,2.143852472305297852e+00,2.105901718139648438e+00,2.069271087646484375e+00,2.033893346786499023e+00,1.999704718589782715e+00,1.966646671295166016e+00,1.934663653373718262e+00,1.903704404830932617e+00,1.873720049858093262e+00,1.844665884971618652e+00
4.875446319580078125e+00,4.874235630035400391e+00,4.873025417327880859e+00,4.871816158294677734e+00,4.870606899261474609e+00,4.869398117065429688e+00,4.868190765380859375e+00,4.866983413696289062e+00,4.865777015686035156e+00,4.864571094512939453e+00,4.863365650177001953e+00,4.862161159515380859e+00,4.860956668853759766e+00,4.859753131866455078e+00,4.858550071716308594e+00,4.857347965240478516e+00,4.856145858764648438e+00,4.854944705963134766e+00,4.853744506835937500e+00,4.852544307708740234e+00,4.851344585418701172e+00,4.850145816802978516e+00,4.848948001861572266e+00,4.847750186920166016e+00,1.586597681045532227e+00,1.565012097358703613e+00,1.561163306236267090e+00,1.580932617187500000e+00,4.841770648956298828e+00,4.840576648712158203e+00,4.839383125305175781e+00,4.838190555572509766e+00,4.836997985839843750e+00,4.835806369781494141e+00,4.834615230560302734e+00,4.833424568176269531e+00,4.832234382629394531e+00,4.831045150756835938e+00,4.829856395721435547e+00,4.828668117523193359e+00,4.667102813720703125e+00,4.490918636322021484e+00,4.327552318572998047e+00,4.175654411315917969e+00,4.034059047698974609e+00,3.901750087738037109e+00,3.777844429016113281e+00,3.661566495895385742e+00,3.552232503890991211e+00,3.449238538742065430e+00,3.352048635482788086e+00,3.260185956954956055e+00,3.173223733901977539e+00,3.090780258178710938e+00,3.012512445449829102e+00,2.938110589981079102e+00,2.867295026779174805e+00,2.799813032150268555e+00,2.735434293746948242e+00,2.673949718475341797e+00,2.615168333053588867e+00,2.558915615081787109e+00,2.505032062530517578e+00,2.453371047973632812e+00,2.403797626495361328e+00,2.356188058853149414e+00,2.310427665710449219e+00,2.266410827636718750e+00,2.224040031433105469e+00,2.183224201202392578e+00,2.143879413604736328e+00,2.105927944183349609e+00,2.069296360015869141e+00,2.033917665481567383e+00,1.999728322029113770e+00,1.966669559478759766e+00,1.934685707092285156e+00,1.903725743293762207e+00,1.873740792274475098e+00,1.844686031341552734e+00
3.778267621994018555e+00,3.777540683746337891e+00,3.776813507080078125e+00,3.776087284088134766e+00,3.775360584259033203e+00,3.774634838104248047e+00,3.773908853530883789e+00,3.773183107376098633e+00,3.772458314895629883e+00,3.771733045578002930e+00,3.771008729934692383e+00,3.770284175872802734e+00,3.769560337066650391e+00,3.768836259841918945e+00,3.768112897872924805e+00,3.767389535903930664e+00,3.766666412353515625e+00,3.765943765640258789e+00,3.765221357345581055e+00,3.764499187469482422e+00,3.763777256011962891e+00,3.763055801391601562e+00,3.762334346771240234e+00,3.761613130569458008e+00,1.596482634544372559e+00,1.574777722358703613e+00,1.568682312965393066e+00,1.584076762199401855e+00,3.758012294769287109e+00,3.757292747497558594e+00,3.756573438644409180e+00,3.755854845046997070e+00,3.755136013031005859e+00,3.754418134689331055e+00,3.753699779510498047e+00,3.752982378005981445e+00,3.752264738082885742e+00,3.751547336578369141e+00,3.750830650329589844e+00,3.750113725662231445e+00,3.749397516250610352e+00,3.748681306838989258e+00,3.747965812683105469e+00,3.747250080108642578e+00,3.746534824371337891e+00,3.745819807052612305e+00,3.745104789733886719e+00,3.661645412445068359e+00,3.552306890487670898e+00,3.449308633804321289e+00,3.352114915847778320e+00,3.260248661041259766e+00,3.173283100128173828e+00,3.090836763381958008e+00,3.012565851211547852e+00,2.938161611557006836e+00,2.867343664169311523e+00,2.799859285354614258e+00,2.735478401184082031e+00,2.673991918563842773e+00,2.615208625793457031e+00,2.558954238891601562e+00,2.505069017410278320e+00,2.453406572341918945e+00,2.403831720352172852e+00,2.356220960617065430e+00,2.310459136962890625e+00,2.266441106796264648e+00,2.224069118499755859e+00,2.183252334594726562e+00,2.143906593322753906e+00,2.105954170227050781e+00,2.069321632385253906e+00,2.033941984176635742e+00,1.999751925468444824e+00,1.966692328453063965e+00,1.934707760810852051e+00,1.903747081756591797e+00,1.873761534690856934e+00,1.844706058502197266e+00
3.084195375442504883e+00,3.083710670471191406e+00,3.083226442337036133e+00,3.082741975784301758e+00,3.082257986068725586e+00,3.081773996353149414e+00,3.081290483474731445e+00,3.080806493759155273e+00,3.080323219299316406e+00,3.079839706420898438e+00,3.079356431961059570e+00,3.078873634338378906e+00,3.078390598297119141e+00,3.077908039093017578e+00,3.077425241470336914e+00,3.076942920684814453e+00,3.076460599899291992e+00,3.075978279113769531e+00,3.075496435165405273e+00,3.075014591217041016e+00,3.074532985687255859e+00,3.074051380157470703e+00,3.073570013046264648e+00,3.073088645935058594e+00,3.072607517242431641e+00,1.584666132926940918e+00,1.573529243469238281e+00,1.588783979415893555e+00,3.070684671401977539e+00,3.070204496383666992e+00,3.069724321365356445e+00,3.069244384765625000e+00,3.068764448165893555e+00,3.068284511566162109e+00,3.067805051803588867e+00,3.067325592041015625e+00,3.066846609115600586e+00,3.066367149353027344e+00,3.065888404846191406e+00,3.065409660339355469e+00,3.064930677413940430e+00,3.064452409744262695e+00,3.063973903656005859e+00,3.063495874404907227e+00,3.063017606735229492e+00,3.062539815902709961e+00,3.062062025070190430e+00,3.061584234237670898e+00,3.061106920242309570e+00,3.060629367828369141e+00,3.060152292251586914e+00,3.059675216674804688e+00,3.059198379516601562e+00,3.058721542358398438e+00,3.012619733810424805e+00,2.938212633132934570e+00,2.867392301559448242e+00,2.799905776977539062e+00,2.735522747039794922e+00,2.674034357070922852e+00,2.615249156951904297e+00,2.558993101119995117e+00,2.505106449127197266e+00,2.453442096710205078e+00,2.403866052627563477e+00,2.356253862380981445e+00,2.310490846633911133e+00,2.266471624374389648e+00,2.224098443984985352e+00,2.183280706405639648e+00,2.143934011459350586e+00,2.105980396270751953e+00,2.069347143173217773e+00,2.033966541290283203e+00,1.999775767326354980e+00,1.966715216636657715e+00,1.934730052947998047e+00,1.903768539428710938e+00,1.873782396316528320e+00,1.844726204872131348e+00
2.605552196502685547e+00,2.605206251144409180e+00,2.604860782623291016e+00,2.604514837265014648e+00,2.604169368743896484e+00,2.603823900222778320e+00,2.603478431701660156e+00,2.603133201599121094e+00,2.602787971496582031e+00,2.602442979812622070e+00,2.602097988128662109e+00,2.601752758026123047e+00,2.601408243179321289e+00,2.601063251495361328e+00,2.600718736648559570e+00,2.600374221801757812e+00,2.600029706954956055e+00,2.599685430526733398e+00,2.599340915679931641e+00,2.598996877670288086e+00,2.598652601242065430e+00,2.598308801651000977e+00,2.597964763641357422e+00,2.597620964050292969e+00,2.597277164459228516e+00,1.605249285697937012e+00,1.592604875564575195e+00,1.621613621711730957e+00,2.595903158187866211e+00,2.595559835433959961e+00,2.595216751098632812e+00,2.594873428344726562e+00,2.594530582427978516e+00,2.594187736511230469e+00,2.593844652175903320e+00,2.593502044677734375e+00,2.593159437179565430e+00,2.592816829681396484e+00,2.592474222183227539e+00,2.592132091522216797e+00,2.591789722442626953e+00,2.591447353363037109e+00,2.591105461120605469e+00,2.590763330459594727e+00,2.590421438217163086e+00,2.590079545974731445e+00,2.589737892150878906e+00,2.589396238327026367e+00,2.589054822921752930e+00,2.588713169097900391e+00,2.588371753692626953e+00,2.588030576705932617e+00,2.587689161300659180e+00,2.587348222732543945e+00,2.587007045745849609e+00,2.586666345596313477e+00,2.586325407028198242e+00,2.585984468460083008e+00,2.585644006729125977e+00,2.585303306579589844e+00,2.584963083267211914e+00,2.559031724929809570e+00,2.505143404006958008e+00,2.453477621078491211e+00,2.403900146484375000e+00,2.356286525726318359e+00,2.310522317886352539e+00,2.266501903533935547e+00,2.224127531051635742e+00,2.183308839797973633e+00,2.143960952758789062e+00,2.106006622314453125e+00,2.069372415542602539e+00,2.033991098403930664e+00,1.999799370765686035e+00,1.966737985610961914e+00,1.934752225875854492e+00,1.903789877891540527e+00,1.873803138732910156e+00,1.844746232032775879e+00
2.255526781082153320e+00,2.255267143249511719e+00,2.255007505416870117e+00,2.254748106002807617e+00,2.254488468170166016e+00,2.254228830337524414e+00,2.253969669342041016e+00,2.253710031509399414e+00,2.253450870513916016e+00,2.253191709518432617e+00,2.252932548522949219e+00,2.252673149108886719e+00,2.252414226531982422e+00,2.252155303955078125e+00,2.251896142959594727e+00,2.251637220382690430e+00,2.251378536224365234e+00,2.251119852066040039e+00,2.250860929489135742e+00,2.250602245330810547e+00,2.250343799591064453e+00,2.250085115432739258e+00,2.249826669692993164e+00,2.249568223953247070e+00,2.249310493469238281e+00,1.612885355949401855e+00,1.590898275375366211e+00,1.588245749473571777e+00,2.248279809951782227e+00,2.248022317886352539e+00,2.247764825820922852e+00,2.247507572174072266e+00,2.247250080108642578e+00,2.246992826461791992e+00,2.246735572814941406e+00,2.246478557586669922e+00,2.246221542358398438e+00,2.245964288711547852e+00,2.245707511901855469e+00,2.245450496673583984e+00,2.245193719863891602e+00,2.244936704635620117e+00,2.244680166244506836e+00,2.244423389434814453e+00,2.244166612625122070e+00,2.243910312652587891e+00,2.243653535842895508e+00,2.243397235870361328e+00,2.243140935897827148e+00,2.242884635925292969e+00,2.242628335952758789e+00,2.242372035980224609e+00,2.242115974426269531e+00,2.241859674453735352e+00,2.241603851318359375e+00,2.241347789764404297e+00,2.241091966629028320e+00,2.240835905075073242e+00,2.240580081939697266e+00,2.240324497222900391e+00,2.240068674087524414e+00,2.239813089370727539e+00,2.239557504653930664e+00,2.239302158355712891e+00,2.239046573638916016e+00,2.238791227340698242e+00,2.238535881042480469e+00,2.238280534744262695e+00,2.224156856536865234e+00,2.183336973190307617e+00,2.143988132476806641e+00,2.106032609939575195e+00,2.069397449493408203e+00,2.034015417098999023e+00,1.999822974205017090e+00,1.966760873794555664e+00,1.934774279594421387e+00,1.903811335563659668e+00,1.873823881149291992e+00,1.844766378402709961e+00
1.988432645797729492e+00,1.988230705261230469e+00,1.988028764724731445e+00,1.987827181816101074e+00,1.987625360488891602e+00,1.987423539161682129e+00,1.987222075462341309e+00,1.987020373344421387e+00,1.986818671226501465e+00,1.986617326736450195e+00,1.986415743827819824e+00,1.986214518547058105e+00,1.986012935638427734e+00,1.985811471939086914e+00,1.985610365867614746e+00,1.985409021377563477e+00,1.985207676887512207e+00,1.985006570816040039e+00,1.984805345535278320e+00,1.984604120254516602e+00,1.984403133392333984e+00,1.984202027320861816e+00,1.984000921249389648e+00,1.983800172805786133e+00,1.983599185943603516e+00,1.617161512374877930e+00,1.571856021881103516e+00,1.562669277191162109e+00,1.572996854782104492e+00,1.982595205307006836e+00,1.982394456863403320e+00,1.982193946838378906e+00,1.981993317604064941e+00,1.981792688369750977e+00,1.981592297554016113e+00,1.981391668319702148e+00,1.981191158294677734e+00,1.980990886688232422e+00,1.980790495872497559e+00,1.980590343475341797e+00,1.980389952659606934e+00,1.980189681053161621e+00,1.979989647865295410e+00,1.979789376258850098e+00,1.979589223861694336e+00,1.979389309883117676e+00,1.979189157485961914e+00,1.978989005088806152e+00,1.978789210319519043e+00,1.978589296340942383e+00,1.978389263153076172e+00,1.978189587593078613e+00,1.977989792823791504e+00,1.977789878845214844e+00,1.977590322494506836e+00,1.977390646934509277e+00,1.977191090583801270e+00,1.976991415023803711e+00,1.976791858673095703e+00,1.976592421531677246e+00,1.976392865180969238e+00,1.976193428039550781e+00,1.975994110107421875e+00,1.975794672966003418e+00,1.975595355033874512e+00,1.975396156311035156e+00,1.975196838378906250e+00,1.974997639656066895e+00,1.974798679351806641e+00,1.974599480628967285e+00,1.974400520324707031e+00,1.974201440811157227e+00,1.974002361297607422e+00,1.973803520202636719e+00,1.973604559898376465e+00,1.966783642768859863e+00,1.934796333312988281e+00,1.903832674026489258e+00,1.873844623565673828e+00,1.844786405563354492e+00
1.777897953987121582e+00,1.777736544609069824e+00,1.777575254440307617e+00,1.777413845062255859e+00,1.777252554893493652e+00,1.777091383934020996e+00,1.776930093765258789e+00,1.776768803596496582e+00,1.776607751846313477e+00,1.776446580886840820e+00,1.776285409927368164e+00,1.776124477386474609e+00,1.775963306427001953e+00,1.775802254676818848e+00,1.775641322135925293e+00,1.775480270385742188e+00,1.775319457054138184e+00,1.775158524513244629e+00,1.774997472763061523e+00,1.774836778640747070e+00,1.774675846099853516e+00,1.774515032768249512e+00,1.774354338645935059e+00,1.774193525314331055e+00,1.774032831192016602e+00,1.773872256278991699e+00,1.549250483512878418e+00,1.538251042366027832e+00,1.537956118583679199e+00,1.539837241172790527e+00,1.773069143295288086e+00,1.772908687591552734e+00,1.772748231887817383e+00,1.772587895393371582e+00,1.772427320480346680e+00,1.772266864776611328e+00,1.772106647491455078e+00,1.771946310997009277e+00,1.771785855293273926e+00,1.771625757217407227e+00,1.771465420722961426e+00,1.771305084228515625e+00,1.771145105361938477e+00,1.770984888076782227e+00,1.770824670791625977e+00,1.770664691925048828e+00,1.770504474639892578e+00,1.770344614982604980e+00,1.770184516906738281e+00,1.770024418830871582e+00,1.769864678382873535e+00,1.769704580307006836e+00,1.769544601440429688e+00,1.769384860992431641e+00,1.769225001335144043e+00,1.769065141677856445e+00,1.768905401229858398e+00,1.768745660781860352e+00,1.768585801124572754e+00,1.768426299095153809e+00,1.768266558647155762e+00,1.768107056617736816e+00,1.767947316169738770e+00,1.767787694931030273e+00,1.767628192901611328e+00,1.767468690872192383e+00,1.767309069633483887e+00,1.767149806022644043e+00,1.766990303993225098e+00,1.766830801963806152e+00,1.766671538352966309e+00,1.766512155532836914e+00,1.766352772712707520e+00,1.766193509101867676e+00,1.766034245491027832e+00,1.765874862670898438e+00,1.765715837478637695e+00,1.765556573867797852e+00,1.765397548675537109e+00,1.765238404273986816e+00
1.607677578926086426e+00,1.607545495033264160e+00,1.607413649559020996e+00,1.607281684875488281e+00,1.607149720191955566e+00,1.607017993927001953e+00,1.606886029243469238e+00,1.606754302978515625e+00,1.606622457504272461e+00,1.606490612030029297e+00,1.606359004974365234e+00,1.606227159500122070e+00,1.606095433235168457e+00,1.605963826179504395e+00,1.605832099914550781e+00,1.605700373649597168e+00,1.605568766593933105e+00,1.605437159538269043e+00,1.605305552482604980e+00,1.605174064636230469e+00,1.605042457580566406e+00,1.604910850524902344e+00,1.604779481887817383e+00,1.604647874832153320e+00,1.604516506195068359e+00,1.604385018348693848e+00,1.518021345138549805e+00,1.502419710159301758e+00,1.501219391822814941e+00,1.506629467010498047e+00,1.603728175163269043e+00,1.603596806526184082e+00,1.603465437889099121e+00,1.603334307670593262e+00,1.603202939033508301e+00,1.603071689605712891e+00,1.602940559387207031e+00,1.602809309959411621e+00,1.602678298950195312e+00,1.602547049522399902e+00,1.602415919303894043e+00,1.602284908294677734e+00,1.602153778076171875e+00,1.602022647857666016e+00,1.601891756057739258e+00,1.601760745048522949e+00,1.601629614830017090e+00,1.601498723030090332e+00,1.601367831230163574e+00,1.601236820220947266e+00,1.601106047630310059e+00,1.600975036621093750e+00,1.600844144821166992e+00,1.600713372230529785e+00,1.600582480430603027e+00,1.600451827049255371e+00,1.600321054458618164e+00,1.600190162658691406e+00,1.600059509277343750e+00,1.599928736686706543e+00,1.599797964096069336e+00,1.599667429924011230e+00,1.599536776542663574e+00,1.599406003952026367e+00,1.599275588989257812e+00,1.599144935607910156e+00,1.599014282226562500e+00,1.598883867263793945e+00,1.598753333091735840e+00,1.598622918128967285e+00,1.598492383956909180e+00,1.598361849784851074e+00,1.598231554031372070e+00,1.598101019859313965e+00,1.597970604896545410e+00,1.597840309143066406e+00,1.597709894180297852e+00,1.597579479217529297e+00,1.597449302673339844e+00,1.597319006919860840e+00
1.467203736305236816e+00,1.467093944549560547e+00,1.466983914375305176e+00,1.466874003410339355e+00,1.466764211654663086e+00,1.466654419898986816e+00,1.466544508934020996e+00,1.466434717178344727e+00,1.466324925422668457e+00,1.466215133666992188e+00,1.466105461120605469e+00,1.465995669364929199e+00,1.465885877609252930e+00,1.465776205062866211e+00,1.465666532516479492e+00,1.465556859970092773e+00,1.465447187423706055e+00,1.465337514877319336e+00,1.465227961540222168e+00,1.465118288993835449e+00,1.465008616447448730e+00,1.464899182319641113e+00,1.464789509773254395e+00,1.464679956436157227e+00,1.464570522308349609e+00,1.464460968971252441e+00,1.464351415634155273e+00,1.464241981506347656e+00,1.464132428169250488e+00,1.464023113250732422e+00,1.463913679122924805e+00,1.463804125785827637e+00,1.463694810867309570e+00,1.463585376739501953e+00,1.463476061820983887e+00,1.463366746902465820e+00,1.463257312774658203e+00,1.463147997856140137e+00,1.463038802146911621e+00,1.462929487228393555e+00,1.462820172309875488e+00,1.462710976600646973e+00,1.462601661682128906e+00,1.462492465972900391e+00,1.462383270263671875e+00,1.462274074554443359e+00,1.462164998054504395e+00,1.462055802345275879e+00,1.461946606636047363e+00,1.461837530136108398e+00,1.461728453636169434e+00,1.461619257926940918e+00,1.461510300636291504e+00,1.461401224136352539e+00,1.461292147636413574e+00,1.461183190345764160e+00,1.461074113845825195e+00,1.460965156555175781e+00,1.460856199264526367e+00,1.460747241973876953e+00,1.460638403892517090e+00,1.460529327392578125e+00,1.460420370101928711e+00,1.460311651229858398e+00,1.460202693939208984e+00,1.460093736648559570e+00,1.459985017776489258e+00,1.459876179695129395e+00,1.459767222404479980e+00,1.459658622741699219e+00,1.459549784660339355e+00,1.459440946578979492e+00,1.459332227706909180e+00,1.459223508834838867e+00,1.459114909172058105e+00,1.459006071090698242e+00,1.458897352218627930e+00,1.458788752555847168e+00,1.458680152893066406e+00,1.458571434020996094e+00
1.349305629730224609e+00,1.349212765693664551e+00,1.349119782447814941e+00,1.349026799201965332e+00,1.348933935165405273e+00,1.348840951919555664e+00,1.348748207092285156e+00,1.348655223846435547e+00,1.348562359809875488e+00,1.348469495773315430e+00,1.348376631736755371e+00,1.348283767700195312e+00,1.348191022872924805e+00,1.348098278045654297e+00,1.348005414009094238e+00,1.347912669181823730e+00,1.347819924354553223e+00,1.347727060317993164e+00,1.347634434700012207e+00,1.347541689872741699e+00,1.347449064254760742e+00,1.347356319427490234e+00,1.347263574600219727e+00,1.347171068191528320e+00,1.347078323364257812e+00,1.346985578536987305e+00,1.346893072128295898e+00,1.346800446510314941e+00,1.346707701683044434e+00,1.346615195274353027e+00,1.346522569656372070e+00,1.346429944038391113e+00,1.346337556838989258e+00,1.346244931221008301e+00,1.346152305603027344e+00,1.346059918403625488e+00,1.345967411994934082e+00,1.345874905586242676e+00,1.345782399177551270e+00,1.345689892768859863e+00,1.345597505569458008e+00,1.345504999160766602e+00,1.345412611961364746e+00,1.345320224761962891e+00,1.345227718353271484e+00,1.345135331153869629e+00,1.345043063163757324e+00,1.344950556755065918e+00,1.344858169555664062e+00,1.344765901565551758e+00,1.344673514366149902e+00,1.344581365585327148e+00,1.344488978385925293e+00,1.344396591186523438e+00,1.344304442405700684e+00,1.344212174415588379e+00,1.344119787216186523e+00,1.344027638435363770e+00,1.343935370445251465e+00,1.343843102455139160e+00,1.343750953674316406e+00,1.343658804893493652e+00,1.343566536903381348e+00,1.343474507331848145e+00,1.343382239341735840e+00,1.343290090560913086e+00,1.343198060989379883e+00,1.343105912208557129e+00,1.343013882637023926e+00,1.342921733856201172e+00,1.342829585075378418e+00,1.342737555503845215e+00,1.342645525932312012e+00,1.342553377151489258e+00,1.342461466789245605e+00,1.342369437217712402e+00,1.342277407646179199e+00,1.342185497283935547e+00,1.342093467712402344e+00,1.342001438140869141e+00
1.248945832252502441e+00,1.248866200447082520e+00,1.248786449432373047e+00,1.248706936836242676e+00,1.248627305030822754e+00,1.248547673225402832e+00,1.248468160629272461e+00,1.248388528823852539e+00,1.248308897018432617e+00,1.248229503631591797e+00,1.248149871826171875e+00,1.248070240020751953e+00,1.247990846633911133e+00,1.247911214828491211e+00,1.247831821441650391e+00,1.247752308845520020e+00,1.247672796249389648e+00,1.247593283653259277e+00,1.247513890266418457e+00,1.247434377670288086e+00,1.247354984283447266e+00,1.247275471687316895e+00,1.247196078300476074e+00,1.247116684913635254e+00,1.247037172317504883e+00,1.246957778930664062e+00,1.246878504753112793e+00,1.246798992156982422e+00,1.246719717979431152e+00,1.246640324592590332e+00,1.246560931205749512e+00,1.246481657028198242e+00,1.246402382850646973e+00,1.246322989463806152e+00,1.246243715286254883e+00,1.246164441108703613e+00,1.246085047721862793e+00,1.246005892753601074e+00,1.245926499366760254e+00,1.245847225189208984e+00,1.245768070220947266e+00,1.245688796043395996e+00,1.245609641075134277e+00,1.245530366897583008e+00,1.245451211929321289e+00,1.245372056961059570e+00,1.245292782783508301e+00,1.245213627815246582e+00,1.245134472846984863e+00,1.245055317878723145e+00,1.244976162910461426e+00,1.244897007942199707e+00,1.244817852973937988e+00,1.244738698005676270e+00,1.244659662246704102e+00,1.244580507278442383e+00,1.244501471519470215e+00,1.244422435760498047e+00,1.244343280792236328e+00,1.244264364242553711e+00,1.244185209274291992e+00,1.244106173515319824e+00,1.244027256965637207e+00,1.243948221206665039e+00,1.243869066238403320e+00,1.243790149688720703e+00,1.243711113929748535e+00,1.243632197380065918e+00,1.243553280830383301e+00,1.243474245071411133e+00,1.243395328521728516e+00,1.243316411972045898e+00,1.243237495422363281e+00,1.243158578872680664e+00,1.243079662322998047e+00,1.243000745773315430e+00,1.242921948432922363e+00,1.242843031883239746e+00,1.242764115333557129e+00,1.242685317993164062e+00
1.162481784820556641e+00,1.162412762641906738e+00,1.162343740463256836e+00,1.162274837493896484e+00,1.162205815315246582e+00,1.162136912345886230e+00,1.162067890167236328e+00,1.161998987197875977e+00,1.161930084228515625e+00,1.161861062049865723e+00,1.161792159080505371e+00,1.161723256111145020e+00,1.161654353141784668e+00,1.161585450172424316e+00,1.161516547203063965e+00,1.161447644233703613e+00,1.161378741264343262e+00,1.161309957504272461e+00,1.161241054534912109e+00,1.161172270774841309e+00,1.161103367805480957e+00,1.161034584045410156e+00,1.160965800285339355e+00,1.160896897315979004e+00,1.160828113555908203e+00,1.160759329795837402e+00,1.160690546035766602e+00,1.160621762275695801e+00,1.160552978515625000e+00,1.160484194755554199e+00,1.160415410995483398e+00,1.160346746444702148e+00,1.160277962684631348e+00,1.160209178924560547e+00,1.160140514373779297e+00,1.160071730613708496e+00,1.160003066062927246e+00,1.159934282302856445e+00,1.159865617752075195e+00,1.159796953201293945e+00,1.159728288650512695e+00,1.159659624099731445e+00,1.159590959548950195e+00,1.159522294998168945e+00,1.159453630447387695e+00,1.159384965896606445e+00,1.159316301345825195e+00,1.159247756004333496e+00,1.159179091453552246e+00,1.159110546112060547e+00,1.159042000770568848e+00,1.158973336219787598e+00,1.158904671669006348e+00,1.158836245536804199e+00,1.158767580986022949e+00,1.158699035644531250e+00,1.158630490303039551e+00,1.158561944961547852e+00,1.158493399620056152e+00,1.158424973487854004e+00,1.158356428146362305e+00,1.158287882804870605e+00,1.158219456672668457e+00,1.158150911331176758e+00,1.158082485198974609e+00,1.158013939857482910e+00,1.157945513725280762e+00,1.157877087593078613e+00,1.157808542251586914e+00,1.157740116119384766e+00,1.157671689987182617e+00,1.157603263854980469e+00,1.157534837722778320e+00,1.157466530799865723e+00,1.157397985458374023e+00,1.157329678535461426e+00,1.157261252403259277e+00,1.157192826271057129e+00,1.157124519348144531e+00,1.157056212425231934e+00
1.087214350700378418e+00,1.087153911590576172e+00,1.087093591690063477e+00,1.087033271789550781e+00,1.086972951889038086e+00,1.086912631988525391e+00,1.086852312088012695e+00,1.086791992187500000e+00,1.086731672286987305e+00,1.086671352386474609e+00,1.086611151695251465e+00,1.086550831794738770e+00,1.086490511894226074e+00,1.086430311203002930e+00,1.086369991302490234e+00,1.086309671401977539e+00,1.086249470710754395e+00,1.086189270019531250e+00,1.086128950119018555e+00,1.086068749427795410e+00,1.086008548736572266e+00,1.085948348045349121e+00,1.085888147354125977e+00,1.085827946662902832e+00,1.085767745971679688e+00,1.085707545280456543e+00,1.085647344589233398e+00,1.085587263107299805e+00,1.085527062416076660e+00,1.085466861724853516e+00,1.085406661033630371e+00,1.085346579551696777e+00,1.085286378860473633e+00,1.085226297378540039e+00,1.085166096687316895e+00,1.085106015205383301e+00,1.085045933723449707e+00,1.084985733032226562e+00,1.084925651550292969e+00,1.084865570068359375e+00,1.084805488586425781e+00,1.084745407104492188e+00,1.084685325622558594e+00,1.084625244140625000e+00,1.084565162658691406e+00,1.084505081176757812e+00,1.084444999694824219e+00,1.084385037422180176e+00,1.084324955940246582e+00,1.084264993667602539e+00,1.084204912185668945e+00,1.084144949913024902e+00,1.084084868431091309e+00,1.084024906158447266e+00,1.083964943885803223e+00,1.083904981613159180e+00,1.083844900131225586e+00,1.083784937858581543e+00,1.083724975585937500e+00,1.083665013313293457e+00,1.083605051040649414e+00,1.083545088768005371e+00,1.083485126495361328e+00,1.083425164222717285e+00,1.083365321159362793e+00,1.083305358886718750e+00,1.083245396614074707e+00,1.083185553550720215e+00,1.083125591278076172e+00,1.083065748214721680e+00,1.083005905151367188e+00,1.082945942878723145e+00,1.082886099815368652e+00,1.082826256752014160e+00,1.082766294479370117e+00,1.082706570625305176e+00,1.082646608352661133e+00,1.082586765289306641e+00,1.082526922225952148e+00,1.082467079162597656e+00
1.021100878715515137e+00,1.021047711372375488e+00,1.020994424819946289e+00,1.020941138267517090e+00,1.020887970924377441e+00,1.020834803581237793e+00,1.020781517028808594e+00,1.020728349685668945e+00,1.020675182342529297e+00,1.020621895790100098e+00,1.020568728446960449e+00,1.020515561103820801e+00,1.020462393760681152e+00,1.020409226417541504e+00,1.020356059074401855e+00,1.020302891731262207e+00,1.020249843597412109e+00,1.020196676254272461e+00,1.020143508911132812e+00,1.020090341567993164e+00,1.020037174224853516e+00,1.019984126091003418e+00,1.019930958747863770e+00,1.019877910614013672e+00,1.019824743270874023e+00,1.019771695137023926e+00,1.019718527793884277e+00,1.019665479660034180e+00,1.019612431526184082e+00,1.019559264183044434e+00,1.019506216049194336e+00,1.019453167915344238e+00,1.019400119781494141e+00,1.019347071647644043e+00,1.019294023513793945e+00,1.019240975379943848e+00,1.019187927246093750e+00,1.019134879112243652e+00,1.019081830978393555e+00,1.019028782844543457e+00,1.018975734710693359e+00,1.018922805786132812e+00,1.018869757652282715e+00,1.018816709518432617e+00,1.018763780593872070e+00,1.018710851669311523e+00,1.018657803535461426e+00,1.018604874610900879e+00,1.018551826477050781e+00,1.018498897552490234e+00,1.018445968627929688e+00,1.018392920494079590e+00,1.018339991569519043e+00,1.018287062644958496e+00,1.018234133720397949e+00,1.018181204795837402e+00,1.018128275871276855e+00,1.018075346946716309e+00,1.018022418022155762e+00,1.017969489097595215e+00,1.017916560173034668e+00,1.017863750457763672e+00,1.017810821533203125e+00,1.017757892608642578e+00,1.017704963684082031e+00,1.017652153968811035e+00,1.017599225044250488e+00,1.017546415328979492e+00,1.017493486404418945e+00,1.017440676689147949e+00,1.017387866973876953e+00,1.017334938049316406e+00,1.017282128334045410e+00,1.017229318618774414e+00,1.017176389694213867e+00,1.017123579978942871e+00,1.017070770263671875e+00,1.017017960548400879e+00,1.016965150833129883e+00,1.016912341117858887e+00
9.625672698020935059e-01,9.625200033187866211e-01,9.624726176261901855e-01,9.624253511428833008e-01,9.623780846595764160e-01,9.623306989669799805e-01,9.622834920883178711e-01,9.622362256050109863e-01,9.621888995170593262e-01,9.621416330337524414e-01,9.620944261550903320e-01,9.620471000671386719e-01,9.619998931884765625e-01,9.619526267051696777e-01,9.619053602218627930e-01,9.618581533432006836e-01,9.618109464645385742e-01,9.617636203765869141e-01,9.617164134979248047e-01,9.616692662239074707e-01,9.616219401359558105e-01,9.615747928619384766e-01,9.615275859832763672e-01,9.614804387092590332e-01,9.614331722259521484e-01,9.613860249519348145e-01,9.613388180732727051e-01,9.612916111946105957e-01,9.612444639205932617e-01,9.611973166465759277e-01,9.611500501632690430e-01,9.611029028892517090e-01,9.610558152198791504e-01,9.610085487365722656e-01,9.609614610671997070e-01,9.609143137931823730e-01,9.608671069145202637e-01,9.608200192451477051e-01,9.607729315757751465e-01,9.607257246971130371e-01,9.606786370277404785e-01,9.606315493583679199e-01,9.605843424797058105e-01,9.605372548103332520e-01,9.604901671409606934e-01,9.604430198669433594e-01,9.603959321975708008e-01,9.603489041328430176e-01,9.603017568588256836e-01,9.602546691894531250e-01,9.602076411247253418e-01,9.601604938507080078e-01,9.601134657859802246e-01,9.600664377212524414e-01,9.600194096565246582e-01,9.599722623825073242e-01,9.599252343177795410e-01,9.598782062530517578e-01,9.598311185836791992e-01,9.597840905189514160e-01,9.597371220588684082e-01,9.596900343894958496e-01,9.596430063247680664e-01,9.595960378646850586e-01,9.595489501953125000e-01,9.595019817352294922e-01,9.594550132751464844e-01,9.594079256057739258e-01,9.593609571456909180e-01,9.593139886856079102e-01,9.592669606208801270e-01,9.592199921607971191e-01,9.591730833053588867e-01,9.591259956359863281e-01,9.590790867805480957e-01,9.590321183204650879e-01,9.589850902557373047e-01,9.589381814002990723e-01,9.588912725448608398e-01,9.588442444801330566e-01
9.103805422782897949e-01,9.103381633758544922e-01,9.102959036827087402e-01,9.102536439895629883e-01,9.102112650871276855e-01,9.101690053939819336e-01,9.101267457008361816e-01,9.100843667984008789e-01,9.100421071052551270e-01,9.099998474121093750e-01,9.099575281143188477e-01,9.099152684211730957e-01,9.098730087280273438e-01,9.098306894302368164e-01,9.097884297370910645e-01,9.097462296485900879e-01,9.097039103507995605e-01,9.096616506576538086e-01,9.096194505691528320e-01,9.095771312713623047e-01,9.095349311828613281e-01,9.094927310943603516e-01,9.094504117965698242e-01,9.094082117080688477e-01,9.093660116195678711e-01,9.093237519264221191e-01,9.092815518379211426e-01,9.092393517494201660e-01,9.091970920562744141e-01,9.091549515724182129e-01,9.091127514839172363e-01,9.090706110000610352e-01,9.090283513069152832e-01,9.089861512184143066e-01,9.089440107345581055e-01,9.089017510414123535e-01,9.088596105575561523e-01,9.088174700736999512e-01,9.087752699851989746e-01,9.087331295013427734e-01,9.086909890174865723e-01,9.086487293243408203e-01,9.086066484451293945e-01,9.085645079612731934e-01,9.085223078727722168e-01,9.084801673889160156e-01,9.084380865097045898e-01,9.083958864212036133e-01,9.083537459373474121e-01,9.083116650581359863e-01,9.082694649696350098e-01,9.082273840904235840e-01,9.081853032112121582e-01,9.081431627273559570e-01,9.081010818481445312e-01,9.080590009689331055e-01,9.080168008804321289e-01,9.079747796058654785e-01,9.079326987266540527e-01,9.078905582427978516e-01,9.078484773635864258e-01,9.078064560890197754e-01,9.077643752098083496e-01,9.077222347259521484e-01,9.076802134513854980e-01,9.076381921768188477e-01,9.075960516929626465e-01,9.075540304183959961e-01,9.075120091438293457e-01,9.074698686599731445e-01,9.074278473854064941e-01,9.073858857154846191e-01,9.073437452316284180e-01,9.073017835617065430e-01,9.072597622871398926e-01,9.072176814079284668e-01,9.071756601333618164e-01,9.071336984634399414e-01,9.070916175842285156e-01,9.070496559143066406e-01
8.635615110397338867e-01,8.635234832763671875e-01,8.634853363037109375e-01,8.634473085403442383e-01,8.634092211723327637e-01,8.633711338043212891e-01,8.633331060409545898e-01,8.632950782775878906e-01,8.632570505142211914e-01,8.632189631462097168e-01,8.631809353828430176e-01,8.631429076194763184e-01,8.631048202514648438e-01,8.630667924880981445e-01,8.630288243293762207e-01,8.629907369613647461e-01,8.629527091979980469e-01,8.629147410392761230e-01,8.628766536712646484e-01,8.628386259078979492e-01,8.628006577491760254e-01,8.627626299858093262e-01,8.627246022224426270e-01,8.626866340637207031e-01,8.626486063003540039e-01,8.626106381416320801e-01,8.625726699829101562e-01,8.625346422195434570e-01,8.624966740608215332e-01,8.624587059020996094e-01,8.624206781387329102e-01,8.623827099800109863e-01,8.623448014259338379e-01,8.623067736625671387e-01,8.622688055038452148e-01,8.622308969497680664e-01,8.621928691864013672e-01,8.621549010276794434e-01,8.621169924736022949e-01,8.620790839195251465e-01,8.620410561561584473e-01,8.620031476020812988e-01,8.619652390480041504e-01,8.619272708892822266e-01,8.618893623352050781e-01,8.618514537811279297e-01,8.618134856224060059e-01,8.617755770683288574e-01,8.617376685142517090e-01,8.616997003555297852e-01,8.616618514060974121e-01,8.616239428520202637e-01,8.615859746932983398e-01,8.615481257438659668e-01,8.615102171897888184e-01,8.614723086357116699e-01,8.614344000816345215e-01,8.613965511322021484e-01,8.613586425781250000e-01,8.613207936286926270e-01,8.612829446792602539e-01,8.612449765205383301e-01,8.612071275711059570e-01,8.611692786216735840e-01,8.611313700675964355e-01,8.610935211181640625e-01,8.610557317733764648e-01,8.610178828239440918e-01,8.609799742698669434e-01,8.609421253204345703e-01,8.609043359756469727e-01,8.608664274215698242e-01,8.608286380767822266e-01,8.607907891273498535e-01,8.607529401779174805e-01,8.607151508331298828e-01,8.606773018836975098e-01,8.606394529342651367e-01,8.606016635894775391e-01,8.605638742446899414e-01
8.213226199150085449e-01,8.212881088256835938e-01,8.212536573410034180e-01,8.212192654609680176e-01,8.211848139762878418e-01,8.211503624916076660e-01,8.211159706115722656e-01,8.210815191268920898e-01,8.210471272468566895e-01,8.210127353668212891e-01,8.209782242774963379e-01,8.209438920021057129e-01,8.209095001220703125e-01,8.208751082420349121e-01,8.208406567573547363e-01,8.208062648773193359e-01,8.207718729972839355e-01,8.207374215126037598e-01,8.207030892372131348e-01,8.206686973571777344e-01,8.206342458724975586e-01,8.205999135971069336e-01,8.205655813217163086e-01,8.205311298370361328e-01,8.204967975616455078e-01,8.204624652862548828e-01,8.204280138015747070e-01,8.203936815261840820e-01,8.203593492507934570e-01,8.203248977661132812e-01,8.202905654907226562e-01,8.202562332153320312e-01,8.202218413352966309e-01,8.201875090599060059e-01,8.201531767845153809e-01,8.201187849044799805e-01,8.200845122337341309e-01,8.200501799583435059e-01,8.200157880783081055e-01,8.199814558029174805e-01,8.199471831321716309e-01,8.199127912521362305e-01,8.198785185813903809e-01,8.198441863059997559e-01,8.198099136352539062e-01,8.197755217552185059e-01,8.197412490844726562e-01,8.197069764137268066e-01,8.196725845336914062e-01,8.196383118629455566e-01,8.196040391921997070e-01,8.195697069168090820e-01,8.195354342460632324e-01,8.195011615753173828e-01,8.194668292999267578e-01,8.194325566291809082e-01,8.193982839584350586e-01,8.193639516830444336e-01,8.193297386169433594e-01,8.192954659461975098e-01,8.192611336708068848e-01,8.192269206047058105e-01,8.191926479339599609e-01,8.191583156585693359e-01,8.191241025924682617e-01,8.190898895263671875e-01,8.190555572509765625e-01,8.190213441848754883e-01,8.189871311187744141e-01,8.189527988433837891e-01,8.189185857772827148e-01,8.188843727111816406e-01,8.188501000404357910e-01,8.188158869743347168e-01,8.187816739082336426e-01,8.187474608421325684e-01,8.187131881713867188e-01,8.186789751052856445e-01,8.186447620391845703e-01,8.186104893684387207e-01
7.830229997634887695e-01,7.829917073249816895e-01,7.829604148864746094e-01,7.829290628433227539e-01,7.828977704048156738e-01,7.828665375709533691e-01,7.828351855278015137e-01,7.828038930892944336e-01,7.827726602554321289e-01,7.827413082122802734e-01,7.827100753784179688e-01,7.826787829399108887e-01,7.826474905014038086e-01,7.826161980628967285e-01,7.825849652290344238e-01,7.825536727905273438e-01,7.825223803520202637e-01,7.824911475181579590e-01,7.824598550796508789e-01,7.824286222457885742e-01,7.823973894119262695e-01,7.823661565780639648e-01,7.823348641395568848e-01,7.823036313056945801e-01,7.822723984718322754e-01,7.822411060333251953e-01,7.822098731994628906e-01,7.821786403656005859e-01,7.821473479270935059e-01,7.821161746978759766e-01,7.820849418640136719e-01,7.820536494255065918e-01,7.820224761962890625e-01,7.819912433624267578e-01,7.819600105285644531e-01,7.819287776947021484e-01,7.818976044654846191e-01,7.818663120269775391e-01,7.818351387977600098e-01,7.818039655685424805e-01,7.817727327346801758e-01,7.817414999008178711e-01,7.817103266716003418e-01,7.816790938377380371e-01,7.816479206085205078e-01,7.816167473793029785e-01,7.815855145454406738e-01,7.815543413162231445e-01,7.815231680870056152e-01,7.814919352531433105e-01,7.814607620239257812e-01,7.814296483993530273e-01,7.813984751701354980e-01,7.813672423362731934e-01,7.813360691070556641e-01,7.813049554824829102e-01,7.812737226486206055e-01,7.812426090240478516e-01,7.812114357948303223e-01,7.811802625656127930e-01,7.811490893363952637e-01,7.811179757118225098e-01,7.810867428779602051e-01,7.810556292533874512e-01,7.810245156288146973e-01,7.809933423995971680e-01,7.809622287750244141e-01,7.809311151504516602e-01,7.808998823165893555e-01,7.808687686920166016e-01,7.808376550674438477e-01,7.808064818382263184e-01,7.807753682136535645e-01,7.807443141937255859e-01,7.807131409645080566e-01,7.806820273399353027e-01,7.806509137153625488e-01,7.806197404861450195e-01,7.805886864662170410e-01,7.805575728416442871e-01
7.481362223625183105e-01,7.481076717376708984e-01,7.480790019035339355e-01,7.480504512786865234e-01,7.480219006538391113e-01,7.479932904243469238e-01,7.479647397994995117e-01,7.479362487792968750e-01,7.479076385498046875e-01,7.478790879249572754e-01,7.478505373001098633e-01,7.478219270706176758e-01,7.477934360504150391e-01,7.477648854255676270e-01,7.477362751960754395e-01,7.477077841758728027e-01,7.476792335510253906e-01,7.476506233215332031e-01,7.476221323013305664e-01,7.475935816764831543e-01,7.475650310516357422e-01,7.475365400314331055e-01,7.475079894065856934e-01,7.474794387817382812e-01,7.474509477615356445e-01,7.474223971366882324e-01,7.473939061164855957e-01,7.473653554916381836e-01,7.473368644714355469e-01,7.473083734512329102e-01,7.472798228263854980e-01,7.472513318061828613e-01,7.472228407859802246e-01,7.471942901611328125e-01,7.471657991409301758e-01,7.471373081207275391e-01,7.471087574958801270e-01,7.470802664756774902e-01,7.470517754554748535e-01,7.470232844352722168e-01,7.469947934150695801e-01,7.469663023948669434e-01,7.469378113746643066e-01,7.469093203544616699e-01,7.468808889389038086e-01,7.468523383140563965e-01,7.468238472938537598e-01,7.467954158782958984e-01,7.467669248580932617e-01,7.467384338378906250e-01,7.467100024223327637e-01,7.466814517974853516e-01,7.466530203819274902e-01,7.466245889663696289e-01,7.465960979461669922e-01,7.465676665306091309e-01,7.465392351150512695e-01,7.465108036994934082e-01,7.464822530746459961e-01,7.464538216590881348e-01,7.464253902435302734e-01,7.463968992233276367e-01,7.463685274124145508e-01,7.463400959968566895e-01,7.463116049766540527e-01,7.462831735610961914e-01,7.462547421455383301e-01,7.462263107299804688e-01,7.461978793144226074e-01,7.461694478988647461e-01,7.461410164833068848e-01,7.461125850677490234e-01,7.460841536521911621e-01,7.460557222366333008e-01,7.460272908210754395e-01,7.459989190101623535e-01,7.459704875946044922e-01,7.459420561790466309e-01,7.459136843681335449e-01,7.458852529525756836e-01
7.162254452705383301e-01,7.161992788314819336e-01,7.161731123924255371e-01,7.161469459533691406e-01,7.161207199096679688e-01,7.160945534706115723e-01,7.160683870315551758e-01,7.160421609878540039e-01,7.160159945487976074e-01,7.159898281097412109e-01,7.159636616706848145e-01,7.159374952316284180e-01,7.159113287925720215e-01,7.158851027488708496e-01,7.158589959144592285e-01,7.158328294754028320e-01,7.158066034317016602e-01,7.157804965972900391e-01,7.157543301582336426e-01,7.157281637191772461e-01,7.157019972801208496e-01,7.156758904457092285e-01,7.156496644020080566e-01,7.156235575675964355e-01,7.155974507331848145e-01,7.155712246894836426e-01,7.155451178550720215e-01,7.155190110206604004e-01,7.154928445816040039e-01,7.154666781425476074e-01,7.154405713081359863e-01,7.154144048690795898e-01,7.153882980346679688e-01,7.153621912002563477e-01,7.153360843658447266e-01,7.153099179267883301e-01,7.152838110923767090e-01,7.152577042579650879e-01,7.152315378189086914e-01,7.152054309844970703e-01,7.151793241500854492e-01,7.151531577110290527e-01,7.151271104812622070e-01,7.151010036468505859e-01,7.150748372077941895e-01,7.150487899780273438e-01,7.150226831436157227e-01,7.149965167045593262e-01,7.149704694747924805e-01,7.149443626403808594e-01,7.149182558059692383e-01,7.148921489715576172e-01,7.148661017417907715e-01,7.148399353027343750e-01,7.148138880729675293e-01,7.147877812385559082e-01,7.147616744041442871e-01,7.147356271743774414e-01,7.147095203399658203e-01,7.146834135055541992e-01,7.146573662757873535e-01,7.146313190460205078e-01,7.146052122116088867e-01,7.145791649818420410e-01,7.145531177520751953e-01,7.145270109176635742e-01,7.145009040832519531e-01,7.144748568534851074e-01,7.144488692283630371e-01,7.144227623939514160e-01,7.143967151641845703e-01,7.143706679344177246e-01,7.143445611000061035e-01,7.143185138702392578e-01,7.142924666404724121e-01,7.142664194107055664e-01,7.142403721809387207e-01,7.142143249511718750e-01,7.141882777214050293e-01,7.141622304916381836e-01
