5.000000000000000000e+00,5.000000000000000000e+00,5.000000000000000000e+00,5.000000000000000000e+00,5.000000000000000000e+00,5.000000000000000000e+00,5.000000000000000000e+00,5.000000000000000000e+00,5.000000000000000000e+00,5.000000000000000000e+00,5.000000000000000000e+00,5.000000000000000000e+00,5.000000000000000000e+00,5.000000000000000000e+00,5.000000000000000000e+00,5.000000000000000000e+00,5.000000000000000000e+00,5.000000000000000000e+00,5.000000000000000000e+00,5.000000000000000000e+00,5.000000000000000000e+00,5.000000000000000000e+00,5.000000000000000000e+00,5.000000000000000000e+00,5.000000000000000000e+00,5.000000000000000000e+00,5.000000000000000000e+00,5.000000000000000000e+00,5.000000000000000000e+00,5.000000000000000000e+00,1.995759487152099609e+00,1.989797711372375488e+00,2.012401819229125977e+00,1.969945073127746582e+00,1.953782439231872559e+00,1.947466969490051270e+00,1.949458956718444824e+00,1.956803202629089355e+00,1.971938967704772949e+00,2.004046201705932617e+00,2.124775886535644531e+00,2.119409799575805664e+00,2.153129100799560547e+00,4.170712471008300781e+00,4.029458999633789062e+00,3.897460699081420898e+00,3.773835897445678711e+00,3.657812595367431641e+00,3.548710584640502930e+00,3.445928335189819336e+00,3.348932504653930664e+00,3.257247686386108398e+00,3.170448780059814453e+00,3.088156223297119141e+00,3.010027408599853516e+00,2.935754537582397461e+00,2.865058660507202148e+00,2.797687530517578125e+00,2.733412027359008789e+00,2.672023773193359375e+00,2.613332271575927734e+00,2.557163476943969727e+00,2.503358602523803711e+00,2.451771020889282227e+00,2.402266740798950195e+00,2.354722261428833008e+00,2.309022903442382812e+00,2.265063762664794922e+00,2.222747087478637695e+00,2.181982755661010742e+00,2.142686367034912109e+00,2.104780673980712891e+00,2.068192481994628906e+00,2.032854795455932617e+00,1.998704314231872559e+00,1.965682506561279297e+00,1.933733701705932617e+00,1.902807235717773438e+00,1.872854113578796387e+00,1.843829631805419922e+00
5.000000000000000000e+00,5.000000000000000000e+00,5.000000000000000000e+00,5.000000000000000000e+00,5.000000000000000000e+00,5.000000000000000000e+00,5.000000000000000000e+00,5.000000000000000000e+00,5.000000000000000000e+00,5.000000000000000000e+00,5.000000000000000000e+00,5.000000000000000000e+00,5.000000000000000000e+00,5.000000000000000000e+00,5.000000000000000000e+00,5.000000000000000000e+00,5.000000000000000000e+00,5.000000000000000000e+00,5.000000000000000000e+00,5.000000000000000000e+00,5.000000000000000000e+00,5.000000000000000000e+00,5.000000000000000000e+00,5.000000000000000000e+00,5.000000000000000000e+00,5.000000000000000000e+00,5.000000000000000000e+00,5.000000000000000000e+00,5.000000000000000000e+00,5.000000000000000000e+00,1.995331764221191406e+00,1.986851453781127930e+00,2.013528585433959961e+00,1.976221799850463867e+00,1.956586599349975586e+00,1.949846148490905762e+00,1.950784921646118164e+00,1.958514690399169922e+00,1.973360419273376465e+00,2.001046419143676758e+00,2.125875473022460938e+00,2.121166229248046875e+00,2.165190696716308594e+00,4.170814514160156250e+00,4.029554843902587891e+00,3.897549867630004883e+00,3.773919582366943359e+00,3.657891273498535156e+00,3.548784494400024414e+00,3.445998191833496094e+00,3.348998308181762695e+00,3.257309913635253906e+00,3.170508146286010742e+00,3.088212490081787109e+00,3.010081052780151367e+00,2.935805320739746094e+00,2.865106821060180664e+00,2.797733545303344727e+00,2.733455896377563477e+00,2.672065734863281250e+00,2.613372325897216797e+00,2.557201862335205078e+00,2.503395318984985352e+00,2.451806306838989258e+00,2.402300834655761719e+00,2.354754924774169922e+00,2.309054136276245117e+00,2.265093803405761719e+00,2.222776174545288086e+00,2.182010650634765625e+00,2.142713308334350586e+00,2.104806661605834961e+00,2.068217515945434570e+00,2.032879114151000977e+00,1.998727917671203613e+00,1.965705394744873047e+00,1.933755755424499512e+00,1.902828335762023926e+00,1.872874855995178223e+00,1.843849539756774902e+00
5.000000000000000000e+00,5.000000000000000000e+00,5.000000000000000000e+00,5.000000000000000000e+00,5.000000000000000000e+00,5.000000000000000000e+00,5.000000000000000000e+00,5.000000000000000000e+00,5.000000000000000000e+00,5.000000000000000000e+00,5.000000000000000000e+00,5.000000000000000000e+00,5.000000000000000000e+00,5.000000000000000000e+00,5.000000000000000000e+00,5.000000000000000000e+00,5.000000000000000000e+00,5.000000000000000000e+00,5.000000000000000000e+00,5.000000000000000000e+00,5.000000000000000000e+00,5.000000000000000000e+00,5.000000000000000000e+00,5.000000000000000000e+00,5.000000000000000000e+00,5.000000000000000000e+00,5.000000000000000000e+00,5.000000000000000000e+00,5.000000000000000000e+00,5.000000000000000000e+00,1.997202277183532715e+00,1.993355870246887207e+00,2.019566059112548828e+00,1.967708945274353027e+00,1.947919011116027832e+00,1.944614052772521973e+00,1.954777359962463379e+00,1.957922816276550293e+00,1.967293262481689453e+00,1.995749235153198242e+00,2.134861707687377930e+00,2.128118038177490234e+00,2.177958726882934570e+00,4.170917034149169922e+00,4.029650211334228516e+00,3.897639513015747070e+00,3.774003505706787109e+00,3.657970190048217773e+00,3.548858404159545898e+00,3.446067810058593750e+00,3.349064111709594727e+00,3.257372140884399414e+00,3.170567035675048828e+00,3.088268518447875977e+00,3.010134220123291016e+00,2.935856103897094727e+00,2.865155220031738281e+00,2.797779560089111328e+00,2.733500003814697266e+00,2.672107696533203125e+00,2.613412380218505859e+00,2.557240247726440430e+00,2.503432035446166992e+00,2.451841831207275391e+00,2.402334690093994141e+00,2.354787349700927734e+00,2.309085607528686523e+00,2.265124082565307617e+00,2.222805261611938477e+00,2.182038784027099609e+00,2.142740249633789062e+00,2.104832649230957031e+00,2.068242788314819336e+00,2.032903432846069336e+00,1.998751401901245117e+00,1.965727925300598145e+00,1.933777809143066406e+00,1.902849793434143066e+00,1.872895479202270508e+00,1.843869566917419434e+00
5.000000000000000000e+00,5.000000000000000000e+00,5.000000000000000000e+00,5.000000000000000000e+00,5.000000000000000000e+00,5.000000000000000000e+00,5.000000000000000000e+00,5.000000000000000000e+00,5.000000000000000000e+00,5.000000000000000000e+00,5.000000000000000000e+00,5.000000000000000000e+00,5.000000000000000000e+00,5.000000000000000000e+00,5.000000000000000000e+00,5.000000000000000000e+00,5.000000000000000000e+00,5.000000000000000000e+00,5.000000000000000000e+00,5.000000000000000000e+00,5.000000000000000000e+00,5.000000000000000000e+00,5.000000000000000000e+00,5.000000000000000000e+00,5.000000000000000000e+00,5.000000000000000000e+00,5.000000000000000000e+00,5.000000000000000000e+00,5.000000000000000000e+00,5.000000000000000000e+00,1.999224066734313965e+00,2.000015020370483398e+00,2.010406494140625000e+00,1.959557294845581055e+00,1.940111994743347168e+00,1.939227581024169922e+00,1.946223139762878418e+00,1.948774218559265137e+00,1.959938883781433105e+00,1.984095335006713867e+00,2.146931886672973633e+00,2.143674850463867188e+00,2.194974422454833984e+00,4.171019077301025391e+00,4.029745578765869141e+00,3.897728681564331055e+00,3.774087190628051758e+00,3.658048868179321289e+00,3.548932790756225586e+00,3.446137905120849609e+00,3.349130392074584961e+00,3.257434844970703125e+00,3.170626163482666016e+00,3.088324308395385742e+00,3.010187387466430664e+00,2.935906648635864258e+00,2.865203380584716797e+00,2.797825574874877930e+00,2.733543872833251953e+00,2.672149658203125000e+00,2.613452672958374023e+00,2.557278871536254883e+00,2.503468990325927734e+00,2.451877117156982422e+00,2.402368545532226562e+00,2.354820013046264648e+00,2.309116840362548828e+00,2.265154361724853516e+00,2.222834348678588867e+00,2.182066679000854492e+00,2.142767429351806641e+00,2.104858636856079102e+00,2.068267822265625000e+00,2.032927751541137695e+00,1.998774766921997070e+00,1.965750694274902344e+00,1.933799743652343750e+00,1.902871131896972656e+00,1.872915983200073242e+00,1.843889713287353516e+00
5.000000000000000000e+00,5.000000000000000000e+00,5.000000000000000000e+00,5.000000000000000000e+00,5.000000000000000000e+00,5.000000000000000000e+00,5.000000000000000000e+00,5.000000000000000000e+00,5.000000000000000000e+00,5.000000000000000000e+00,5.000000000000000000e+00,5.000000000000000000e+00,5.000000000000000000e+00,5.000000000000000000e+00,5.000000000000000000e+00,5.000000000000000000e+00,5.000000000000000000e+00,5.000000000000000000e+00,5.000000000000000000e+00,5.000000000000000000e+00,5.000000000000000000e+00,5.000000000000000000e+00,5.000000000000000000e+00,5.000000000000000000e+00,5.000000000000000000e+00,5.000000000000000000e+00,5.000000000000000000e+00,5.000000000000000000e+00,5.000000000000000000e+00,5.000000000000000000e+00,1.987111687660217285e+00,1.998336434364318848e+00,2.007563591003417969e+00,1.967799186706542969e+00,1.959428071975708008e+00,1.949478507041931152e+00,1.939281463623046875e+00,1.945636749267578125e+00,1.954982519149780273e+00,1.978799581527709961e+00,2.055648565292358398e+00,2.159460544586181641e+00,4.322668075561523438e+00,4.171121597290039062e+00,4.029841423034667969e+00,3.897817850112915039e+00,3.774170875549316406e+00,3.658127307891845703e+00,3.549006700515747070e+00,3.446207761764526367e+00,3.349196195602416992e+00,3.257497072219848633e+00,3.170685529708862305e+00,3.088380813598632812e+00,3.010240793228149414e+00,2.935957193374633789e+00,2.865251779556274414e+00,2.797871589660644531e+00,2.733587741851806641e+00,2.672191619873046875e+00,2.613492727279663086e+00,2.557317256927490234e+00,2.503505945205688477e+00,2.451912403106689453e+00,2.402402639389038086e+00,2.354852676391601562e+00,2.309148311614990234e+00,2.265184402465820312e+00,2.222863197326660156e+00,2.182094573974609375e+00,2.142794370651245117e+00,2.104884624481201172e+00,2.068293094635009766e+00,2.032952070236206055e+00,1.998798370361328125e+00,1.965773463249206543e+00,1.933821797370910645e+00,1.902892231941223145e+00,1.872936725616455078e+00,1.843909502029418945e+00
5.000000000000000000e+00,5.000000000000000000e+00,5.000000000000000000e+00,5.000000000000000000e+00,5.000000000000000000e+00,5.000000000000000000e+00,5.000000000000000000e+00,5.000000000000000000e+00,5.000000000000000000e+00,5.000000000000000000e+00,5.000000000000000000e+00,5.000000000000000000e+00,5.000000000000000000e+00,5.000000000000000000e+00,5.000000000000000000e+00,5.000000000000000000e+00,5.000000000000000000e+00,5.000000000000000000e+00,5.000000000000000000e+00,5.000000000000000000e+00,5.000000000000000000e+00,5.000000000000000000e+00,5.000000000000000000e+00,5.000000000000000000e+00,5.000000000000000000e+00,5.000000000000000000e+00,5.000000000000000000e+00,5.000000000000000000e+00,5.000000000000000000e+00,5.000000000000000000e+00,1.953722119331359863e+00,1.960258245468139648e+00,2.007160186767578125e+00,1.969813823699951172e+00,1.952209591865539551e+00,1.949632763862609863e+00,1.946230888366699219e+00,1.958717346191406250e+00,1.969627976417541504e+00,1.998016595840454102e+00,2.054359436035156250e+00,2.168586254119873047e+00,4.322777748107910156e+00,4.171223640441894531e+00,4.029936790466308594e+00,3.897907495498657227e+00,3.774254798889160156e+00,3.658206224441528320e+00,3.549080848693847656e+00,3.446277379989624023e+00,3.349261999130249023e+00,3.257559537887573242e+00,3.170744419097900391e+00,3.088436603546142578e+00,3.010293960571289062e+00,2.936008214950561523e+00,2.865300178527832031e+00,2.797917842864990234e+00,2.733631849288940430e+00,2.672233581542968750e+00,2.613532781600952148e+00,2.557355642318725586e+00,2.503542661666870117e+00,2.451947689056396484e+00,2.402436494827270508e+00,2.354885339736938477e+00,2.309179782867431641e+00,2.265214681625366211e+00,2.222892522811889648e+00,2.182122468948364258e+00,2.142821311950683594e+00,2.104910850524902344e+00,2.068318128585815430e+00,2.032976388931274414e+00,1.998821973800659180e+00,1.965796113014221191e+00,1.933843851089477539e+00,1.902913570404052734e+00,1.872957468032836914e+00,1.843929529190063477e+00
5.000000000000000000e+00,5.000000000000000000e+00,5.000000000000000000e+00,5.000000000000000000e+00,5.000000000000000000e+00,5.000000000000000000e+00,5.000000000000000000e+00,5.000000000000000000e+00,5.000000000000000000e+00,5.000000000000000000e+00,5.000000000000000000e+00,5.000000000000000000e+00,5.000000000000000000e+00,5.000000000000000000e+00,5.000000000000000000e+00,5.000000000000000000e+00,5.000000000000000000e+00,5.000000000000000000e+00,5.000000000000000000e+00,5.000000000000000000e+00,5.000000000000000000e+00,5.000000000000000000e+00,5.000000000000000000e+00,5.000000000000000000e+00,5.000000000000000000e+00,5.000000000000000000e+00,5.000000000000000000e+00,5.000000000000000000e+00,5.000000000000000000e+00,5.000000000000000000e+00,1.929080367088317871e+00,1.939866900444030762e+00,1.995016336441040039e+00,1.968814373016357422e+00,1.955904364585876465e+00,1.951975941658020020e+00,1.954848051071166992e+00,1.966151237487792969e+00,1.979050636291503906e+00,2.004686355590820312e+00,2.080179691314697266e+00,2.159638643264770508e+00,4.322887420654296875e+00,4.171326160430908203e+00,4.030032157897949219e+00,3.897996902465820312e+00,3.774338483810424805e+00,3.658284902572631836e+00,3.549154996871948242e+00,3.446347475051879883e+00,3.349328279495239258e+00,3.257622003555297852e+00,3.170803546905517578e+00,3.088492631912231445e+00,3.010347366333007812e+00,2.936058759689331055e+00,2.865348339080810547e+00,2.797963857650756836e+00,2.733675718307495117e+00,2.672275781631469727e+00,2.613573312759399414e+00,2.557394266128540039e+00,2.503579616546630859e+00,2.451982975006103516e+00,2.402470350265502930e+00,2.354917764663696289e+00,2.309211015701293945e+00,2.265244722366333008e+00,2.222921371459960938e+00,2.182150602340698242e+00,2.142848491668701172e+00,2.104936838150024414e+00,2.068343400955200195e+00,2.033000707626342773e+00,1.998845219612121582e+00,1.965818881988525391e+00,1.933865666389465332e+00,1.902935028076171875e+00,1.872977972030639648e+00,1.843949675559997559e+00
5.000000000000000000e+00,5.000000000000000000e+00,5.000000000000000000e+00,5.000000000000000000e+00,5.000000000000000000e+00,5.000000000000000000e+00,5.000000000000000000e+00,5.000000000000000000e+00,5.000000000000000000e+00,5.000000000000000000e+00,5.000000000000000000e+00,5.000000000000000000e+00,5.000000000000000000e+00,5.000000000000000000e+00,5.000000000000000000e+00,5.000000000000000000e+00,5.000000000000000000e+00,5.000000000000000000e+00,5.000000000000000000e+00,5.000000000000000000e+00,5.000000000000000000e+00,5.000000000000000000e+00,5.000000000000000000e+00,5.000000000000000000e+00,5.000000000000000000e+00,5.000000000000000000e+00,5.000000000000000000e+00,5.000000000000000000e+00,5.000000000000000000e+00,5.000000000000000000e+00,1.897752285003662109e+00,1.918518304824829102e+00,1.986679434776306152e+00,1.969459295272827148e+00,1.964979171752929688e+00,1.970146536827087402e+00,1.956291556358337402e+00,1.985516667366027832e+00,1.975948810577392578e+00,1.980701446533203125e+00,2.011358499526977539e+00,2.154849529266357422e+00,2.208372116088867188e+00,4.171428680419921875e+00,4.030127525329589844e+00,3.898086071014404297e+00,3.774422168731689453e+00,3.658363342285156250e+00,3.549228906631469727e+00,3.446417331695556641e+00,3.349394083023071289e+00,3.257684469223022461e+00,3.170862913131713867e+00,3.088548898696899414e+00,3.010400772094726562e+00,2.936109304428100586e+00,2.865396499633789062e+00,2.798009872436523438e+00,2.733719587326049805e+00,2.672317743301391602e+00,2.613613367080688477e+00,2.557432651519775391e+00,2.503616571426391602e+00,2.452018499374389648e+00,2.402504444122314453e+00,2.354950666427612305e+00,2.309242248535156250e+00,2.265275001525878906e+00,2.222950458526611328e+00,2.182178497314453125e+00,2.142875432968139648e+00,2.104962825775146484e+00,2.068368434906005859e+00,2.033025026321411133e+00,1.998868823051452637e+00,1.965841650962829590e+00,1.933887720108032227e+00,1.902956128120422363e+00,1.872998595237731934e+00,1.843969464302062988e+00
5.000000000000000000e+00,5.000000000000000000e+00,5.000000000000000000e+00,5.000000000000000000e+00,5.000000000000000000e+00,5.000000000000000000e+00,5.000000000000000000e+00,5.000000000000000000e+00,5.000000000000000000e+00,5.000000000000000000e+00,5.000000000000000000e+00,5.000000000000000000e+00,5.000000000000000000e+00,5.000000000000000000e+00,5.000000000000000000e+00,5.000000000000000000e+00,5.000000000000000000e+00,5.000000000000000000e+00,5.000000000000000000e+00,5.000000000000000000e+00,5.000000000000000000e+00,5.000000000000000000e+00,5.000000000000000000e+00,5.000000000000000000e+00,5.000000000000000000e+00,5.000000000000000000e+00,5.000000000000000000e+00,5.000000000000000000e+00,5.000000000000000000e+00,5.000000000000000000e+00,1.889543414115905762e+00,1.905477762222290039e+00,1.982246518135070801e+00,1.972050786018371582e+00,1.967300534248352051e+00,1.990399718284606934e+00,1.996525645256042480e+00,1.955019354820251465e+00,1.926345109939575195e+00,1.927833318710327148e+00,1.959822058677673340e+00,2.152074337005615234e+00,2.194989919662475586e+00,4.171530723571777344e+00,4.030223369598388672e+00,3.898175716400146484e+00,3.774506092071533203e+00,3.658442497253417969e+00,3.549303054809570312e+00,3.446486949920654297e+00,3.349460124969482422e+00,3.257746696472167969e+00,3.170921802520751953e+00,3.088604927062988281e+00,3.010453939437866211e+00,2.936160087585449219e+00,2.865444898605346680e+00,2.798055887222290039e+00,2.733763456344604492e+00,2.672359466552734375e+00,2.613653421401977539e+00,2.557471036911010742e+00,2.503653287887573242e+00,2.452053785324096680e+00,2.402538299560546875e+00,2.354983091354370117e+00,2.309273719787597656e+00,2.265305280685424805e+00,2.222979545593261719e+00,2.182206630706787109e+00,2.142902374267578125e+00,2.104988813400268555e+00,2.068393707275390625e+00,2.033049345016479492e+00,1.998892426490783691e+00,1.965864300727844238e+00,1.933909773826599121e+00,1.902977466583251953e+00,1.873019337654113770e+00,1.843989610671997070e+00
5.000000000000000000e+00,5.000000000000000000e+00,5.000000000000000000e+00,5.000000000000000000e+00,5.000000000000000000e+00,5.000000000000000000e+00,5.000000000000000000e+00,5.000000000000000000e+00,5.000000000000000000e+00,5.000000000000000000e+00,5.000000000000000000e+00,5.000000000000000000e+00,5.000000000000000000e+00,5.000000000000000000e+00,5.000000000000000000e+00,5.000000000000000000e+00,5.000000000000000000e+00,5.000000000000000000e+00,5.000000000000000000e+00,5.000000000000000000e+00,5.000000000000000000e+00,5.000000000000000000e+00,5.000000000000000000e+00,5.000000000000000000e+00,5.000000000000000000e+00,5.000000000000000000e+00,5.000000000000000000e+00,5.000000000000000000e+00,5.000000000000000000e+00,5.000000000000000000e+00,1.849238514900207520e+00,1.860921740531921387e+00,1.980543017387390137e+00,1.972731590270996094e+00,1.966988921165466309e+00,1.990847826004028320e+00,2.004337072372436523e+00,1.924936532974243164e+00,1.908729910850524902e+00,1.907161116600036621e+00,1.938081264495849609e+00,2.150789022445678711e+00,2.168951749801635742e+00,4.171633243560791016e+00,4.030318737030029297e+00,3.898264884948730469e+00,3.774589776992797852e+00,3.658520936965942383e+00,3.549377441406250000e+00,3.446557044982910156e+00,3.349526166915893555e+00,3.257808923721313477e+00,3.170980930328369141e+00,3.088660955429077148e+00,3.010507106781005859e+00,2.936210870742797852e+00,2.865493059158325195e+00,2.798101902008056641e+00,2.733807563781738281e+00,2.672401666641235352e+00,2.613693714141845703e+00,2.557509660720825195e+00,2.503690004348754883e+00,2.452089071273803711e+00,2.402572154998779297e+00,2.355015754699707031e+00,2.309305191040039062e+00,2.265335321426391602e+00,2.223008632659912109e+00,2.182234764099121094e+00,2.142929553985595703e+00,2.105015039443969727e+00,2.068418979644775391e+00,2.033073425292968750e+00,1.998915791511535645e+00,1.965887069702148438e+00,1.933931708335876465e+00,1.902998924255371094e+00,1.873039841651916504e+00,1.844009637832641602e+00
5.000000000000000000e+00,5.000000000000000000e+00,5.000000000000000000e+00,5.000000000000000000e+00,5.000000000000000000e+00,5.000000000000000000e+00,5.000000000000000000e+00,5.000000000000000000e+00,5.000000000000000000e+00,5.000000000000000000e+00,5.000000000000000000e+00,5.000000000000000000e+00,5.000000000000000000e+00,5.000000000000000000e+00,5.000000000000000000e+00,5.000000000000000000e+00,5.000000000000000000e+00,5.000000000000000000e+00,5.000000000000000000e+00,5.000000000000000000e+00,5.000000000000000000e+00,5.000000000000000000e+00,5.000000000000000000e+00,5.000000000000000000e+00,5.000000000000000000e+00,5.000000000000000000e+00,5.000000000000000000e+00,5.000000000000000000e+00,5.000000000000000000e+00,1.853480815887451172e+00,1.819863319396972656e+00,1.811104774475097656e+00,1.981838941574096680e+00,1.971047759056091309e+00,1.965460062026977539e+00,1.990108966827392578e+00,1.985846042633056641e+00,1.910625219345092773e+00,1.896950602531433105e+00,1.890444636344909668e+00,1.920821189880371094e+00,2.154065847396850586e+00,2.156112909317016602e+00,4.171735763549804688e+00,4.030414104461669922e+00,3.898354053497314453e+00,3.774673461914062500e+00,3.658599615097045898e+00,3.549451351165771484e+00,3.446626901626586914e+00,3.349591970443725586e+00,3.257871627807617188e+00,3.171040296554565430e+00,3.088717222213745117e+00,3.010560512542724609e+00,2.936261415481567383e+00,2.865541458129882812e+00,2.798147916793823242e+00,2.733851432800292969e+00,2.672443628311157227e+00,2.613733768463134766e+00,2.557548046112060547e+00,2.503727197647094727e+00,2.452124595642089844e+00,2.402606248855590820e+00,2.355048179626464844e+00,2.309336423873901367e+00,2.265365600585937500e+00,2.223037719726562500e+00,2.182262659072875977e+00,2.142956495285034180e+00,2.105041027069091797e+00,2.068444013595581055e+00,2.033097982406616211e+00,1.998939275741577148e+00,1.965909838676452637e+00,1.933953762054443359e+00,1.903020024299621582e+00,1.873060464859008789e+00,1.844029545783996582e+00
5.000000000000000000e+00,5.000000000000000000e+00,5.000000000000000000e+00,5.000000000000000000e+00,5.000000000000000000e+00,5.000000000000000000e+00,5.000000000000000000e+00,5.000000000000000000e+00,5.000000000000000000e+00,5.000000000000000000e+00,5.000000000000000000e+00,5.000000000000000000e+00,5.000000000000000000e+00,5.000000000000000000e+00,5.000000000000000000e+00,5.000000000000000000e+00,5.000000000000000000e+00,5.000000000000000000e+00,5.000000000000000000e+00,5.000000000000000000e+00,5.000000000000000000e+00,5.000000000000000000e+00,5.000000000000000000e+00,5.000000000000000000e+00,5.000000000000000000e+00,5.000000000000000000e+00,5.000000000000000000e+00,5.000000000000000000e+00,5.000000000000000000e+00,1.817871689796447754e+00,1.797056198120117188e+00,1.803090691566467285e+00,1.988681077957153320e+00,1.977396845817565918e+00,1.968406677246093750e+00,1.992447257041931152e+00,2.071521520614624023e+00,1.895711898803710938e+00,1.884578704833984375e+00,1.874018788337707520e+00,1.905326724052429199e+00,2.154660940170288086e+00,2.181478977203369141e+00,4.171837806701660156e+00,4.030509948730468750e+00,3.898443698883056641e+00,3.774757623672485352e+00,3.658678054809570312e+00,3.549525260925292969e+00,3.446696519851684570e+00,3.349658012390136719e+00,3.257933855056762695e+00,3.171099185943603516e+00,3.088773250579833984e+00,3.010613918304443359e+00,2.936312198638916016e+00,2.865589857101440430e+00,2.798194169998168945e+00,2.733895301818847656e+00,2.672485589981079102e+00,2.613774061203002930e+00,2.557586431503295898e+00,2.503763914108276367e+00,2.452159881591796875e+00,2.402640104293823242e+00,2.355081081390380859e+00,2.309367895126342773e+00,2.265395879745483398e+00,2.223066806793212891e+00,2.182290554046630859e+00,2.142983436584472656e+00,2.105067014694213867e+00,2.068469047546386719e+00,2.033122062683105469e+00,1.998962879180908203e+00,1.965932488441467285e+00,1.933975815773010254e+00,1.903041362762451172e+00,1.873081207275390625e+00,1.844049572944641113e+00
5.000000000000000000e+00,5.000000000000000000e+00,5.000000000000000000e+00,5.000000000000000000e+00,5.000000000000000000e+00,5.000000000000000000e+00,5.000000000000000000e+00,5.000000000000000000e+00,5.000000000000000000e+00,5.000000000000000000e+00,5.000000000000000000e+00,5.000000000000000000e+00,5.000000000000000000e+00,5.000000000000000000e+00,5.000000000000000000e+00,5.000000000000000000e+00,5.000000000000000000e+00,5.000000000000000000e+00,5.000000000000000000e+00,5.000000000000000000e+00,5.000000000000000000e+00,5.000000000000000000e+00,5.000000000000000000e+00,5.000000000000000000e+00,5.000000000000000000e+00,5.000000000000000000e+00,5.000000000000000000e+00,5.000000000000000000e+00,5.000000000000000000e+00,1.789944648742675781e+00,5.000000000000000000e+00,5.000000000000000000e+00,1.997212767601013184e+00,1.985240936279296875e+00,1.974661231040954590e+00,1.999885082244873047e+00,5.000000000000000000e+00,1.886733651161193848e+00,1.870067834854125977e+00,1.859578132629394531e+00,1.891000509262084961e+00,2.128618240356445312e+00,2.150295734405517578e+00,4.171940326690673828e+00,4.030605316162109375e+00,3.898533105850219727e+00,3.774841308593750000e+00,3.658757209777832031e+00,3.549599647521972656e+00,3.446766614913940430e+00,3.349724054336547852e+00,3.257996320724487305e+00,3.171158313751220703e+00,3.088829278945922852e+00,3.010667085647583008e+00,2.936362981796264648e+00,2.865638017654418945e+00,2.798239946365356445e+00,2.733939409255981445e+00,2.672527790069580078e+00,2.613814353942871094e+00,2.557624816894531250e+00,2.503800630569458008e+00,2.452195167541503906e+00,2.402673959732055664e+00,2.355113506317138672e+00,2.309399127960205078e+00,2.265425920486450195e+00,2.223095893859863281e+00,2.182318687438964844e+00,2.143010377883911133e+00,2.105093240737915039e+00,2.068494319915771484e+00,2.033146381378173828e+00,1.998986244201660156e+00,1.965955257415771484e+00,1.933997631072998047e+00,1.903062820434570312e+00,1.873101711273193359e+00,1.844069600105285645e+00
5.000000000000000000e+00,4.965073585510253906e+00,4.968634605407714844e+00,5.000000000000000000e+00,5.000000000000000000e+00,5.000000000000000000e+00,5.000000000000000000e+00,5.000000000000000000e+00,5.000000000000000000e+00,5.000000000000000000e+00,5.000000000000000000e+00,5.000000000000000000e+00,5.000000000000000000e+00,5.000000000000000000e+00,5.000000000000000000e+00,5.000000000000000000e+00,5.000000000000000000e+00,5.000000000000000000e+00,5.000000000000000000e+00,5.000000000000000000e+00,5.000000000000000000e+00,5.000000000000000000e+00,5.000000000000000000e+00,5.000000000000000000e+00,5.000000000000000000e+00,5.000000000000000000e+00,5.000000000000000000e+00,5.000000000000000000e+00,5.000000000000000000e+00,1.810111165046691895e+00,5.000000000000000000e+00,5.000000000000000000e+00,2.007924795150756836e+00,1.994677305221557617e+00,1.985441207885742188e+00,2.010582923889160156e+00,5.000000000000000000e+00,1.877420663833618164e+00,1.857146024703979492e+00,1.846920967102050781e+00,1.870199799537658691e+00,2.118721723556518555e+00,2.136025905609130859e+00,4.172042846679687500e+00,4.030700683593750000e+00,3.898622274398803711e+00,3.774924993515014648e+00,3.658835649490356445e+00,3.549673557281494141e+00,3.446836471557617188e+00,3.349790096282958984e+00,3.258058786392211914e+00,3.171217679977416992e+00,3.088885545730590820e+00,3.010720252990722656e+00,2.936413526535034180e+00,2.865686178207397461e+00,2.798285961151123047e+00,2.733983278274536133e+00,2.672569751739501953e+00,2.613854408264160156e+00,2.557663440704345703e+00,2.503837585449218750e+00,2.452230691909790039e+00,2.402708053588867188e+00,2.355146169662475586e+00,2.309430599212646484e+00,2.265455961227416992e+00,2.223124742507934570e+00,2.182346582412719727e+00,2.143037319183349609e+00,2.105119228363037109e+00,2.068519592285156250e+00,2.033170938491821289e+00,1.999009847640991211e+00,1.965978026390075684e+00,1.934019684791564941e+00,1.903083920478820801e+00,1.873122453689575195e+00,1.844089508056640625e+00
5.000000000000000000e+00,4.966656208038330078e+00,4.975725173950195312e+00,4.984803199768066406e+00,5.000000000000000000e+00,5.000000000000000000e+00,5.000000000000000000e+00,5.000000000000000000e+00,5.000000000000000000e+00,5.000000000000000000e+00,5.000000000000000000e+00,5.000000000000000000e+00,5.000000000000000000e+00,5.000000000000000000e+00,5.000000000000000000e+00,5.000000000000000000e+00,5.000000000000000000e+00,5.000000000000000000e+00,5.000000000000000000e+00,5.000000000000000000e+00,5.000000000000000000e+00,5.000000000000000000e+00,5.000000000000000000e+00,5.000000000000000000e+00,5.000000000000000000e+00,5.000000000000000000e+00,5.000000000000000000e+00,5.000000000000000000e+00,5.000000000000000000e+00,5.000000000000000000e+00,5.000000000000000000e+00,5.000000000000000000e+00,2.018915176391601562e+00,2.004324674606323242e+00,1.996339559555053711e+00,2.020482063293457031e+00,5.000000000000000000e+00,1.869002461433410645e+00,1.841637134552001953e+00,1.834434986114501953e+00,1.849288582801818848e+00,2.121223449707031250e+00,2.125925302505493164e+00,4.172144889831542969e+00,4.030796527862548828e+00,3.898711919784545898e+00,3.775008916854858398e+00,3.658914327621459961e+00,3.549747467041015625e+00,3.446906089782714844e+00,3.349855899810791016e+00,3.258121252059936523e+00,3.171276569366455078e+00,3.088941574096679688e+00,3.010773658752441406e+00,2.936464309692382812e+00,2.865734815597534180e+00,2.798332214355468750e+00,2.734027147293090820e+00,2.672611474990844727e+00,2.613894462585449219e+00,2.557701826095581055e+00,2.503874540328979492e+00,2.452265977859497070e+00,2.402741909027099609e+00,2.355178833007812500e+00,2.309462070465087891e+00,2.265486240386962891e+00,2.223153829574584961e+00,2.182374715805053711e+00,2.143064498901367188e+00,2.105145215988159180e+00,2.068544626235961914e+00,2.033195018768310547e+00,1.999033451080322266e+00,1.966000676155090332e+00,1.934041857719421387e+00,1.903105258941650391e+00,1.873143076896667480e+00,1.844109535217285156e+00
5.000000000000000000e+00,4.963758945465087891e+00,4.996804714202880859e+00,4.985624313354492188e+00,5.000000000000000000e+00,5.000000000000000000e+00,5.000000000000000000e+00,5.000000000000000000e+00,5.000000000000000000e+00,5.000000000000000000e+00,5.000000000000000000e+00,5.000000000000000000e+00,5.000000000000000000e+00,5.000000000000000000e+00,5.000000000000000000e+00,5.000000000000000000e+00,5.000000000000000000e+00,5.000000000000000000e+00,5.000000000000000000e+00,5.000000000000000000e+00,5.000000000000000000e+00,5.000000000000000000e+00,5.000000000000000000e+00,5.000000000000000000e+00,5.000000000000000000e+00,5.000000000000000000e+00,5.000000000000000000e+00,5.000000000000000000e+00,5.000000000000000000e+00,5.000000000000000000e+00,5.000000000000000000e+00,5.000000000000000000e+00,2.040680170059204102e+00,2.015275955200195312e+00,2.007358074188232422e+00,2.029743432998657227e+00,5.000000000000000000e+00,1.861698150634765625e+00,1.824983596801757812e+00,1.819705128669738770e+00,1.835946798324584961e+00,4.486943721771240234e+00,2.120354890823364258e+00,4.172247409820556641e+00,4.030891895294189453e+00,3.898801326751708984e+00,3.775092601776123047e+00,3.658993244171142578e+00,3.549821853637695312e+00,3.446976184844970703e+00,3.349921703338623047e+00,3.258183479309082031e+00,3.171335697174072266e+00,3.088997602462768555e+00,3.010827064514160156e+00,2.936515092849731445e+00,2.865782976150512695e+00,2.798378229141235352e+00,2.734071254730224609e+00,2.672653675079345703e+00,2.613934755325317383e+00,2.557740211486816406e+00,2.503911256790161133e+00,2.452301263809204102e+00,2.402776002883911133e+00,2.355211496353149414e+00,2.309493303298950195e+00,2.265516281127929688e+00,2.223182916641235352e+00,2.182402610778808594e+00,2.143091440200805664e+00,2.105171442031860352e+00,2.068569660186767578e+00,2.033219337463378906e+00,1.999056696891784668e+00,1.966023445129394531e+00,1.934063673019409180e+00,1.903126716613769531e+00,1.873163580894470215e+00,1.844129681587219238e+00
5.000000000000000000e+00,4.966174125671386719e+00,4.996240139007568359e+00,4.980877399444580078e+00,5.000000000000000000e+00,5.000000000000000000e+00,5.000000000000000000e+00,5.000000000000000000e+00,5.000000000000000000e+00,5.000000000000000000e+00,5.000000000000000000e+00,5.000000000000000000e+00,5.000000000000000000e+00,5.000000000000000000e+00,5.000000000000000000e+00,5.000000000000000000e+00,5.000000000000000000e+00,5.000000000000000000e+00,5.000000000000000000e+00,5.000000000000000000e+00,5.000000000000000000e+00,5.000000000000000000e+00,5.000000000000000000e+00,5.000000000000000000e+00,5.000000000000000000e+00,5.000000000000000000e+00,5.000000000000000000e+00,5.000000000000000000e+00,5.000000000000000000e+00,5.000000000000000000e+00,5.000000000000000000e+00,5.000000000000000000e+00,5.000000000000000000e+00,2.023168325424194336e+00,2.016847848892211914e+00,2.039216756820678711e+00,5.000000000000000000e+00,1.853951454162597656e+00,1.812193393707275391e+00,1.809050798416137695e+00,1.822689652442932129e+00,4.487061977386474609e+00,4.323987007141113281e+00,4.172349452972412109e+00,4.030987262725830078e+00,3.898890495300292969e+00,3.775176286697387695e+00,3.659071922302246094e+00,3.549896001815795898e+00,3.447046041488647461e+00,3.349987983703613281e+00,3.258246183395385742e+00,3.171395063400268555e+00,3.089053869247436523e+00,3.010880231857299805e+00,2.936565637588500977e+00,2.865831136703491211e+00,2.798424243927001953e+00,2.734115123748779297e+00,2.672695636749267578e+00,2.613974809646606445e+00,2.557778835296630859e+00,2.503948211669921875e+00,2.452336788177490234e+00,2.402810096740722656e+00,2.355243921279907227e+00,2.309524536132812500e+00,2.265546560287475586e+00,2.223212003707885742e+00,2.182430744171142578e+00,2.143118381500244141e+00,2.105197429656982422e+00,2.068594932556152344e+00,2.033243656158447266e+00,1.999080300331115723e+00,1.966045975685119629e+00,1.934085726737976074e+00,1.903147816658020020e+00,1.873184323310852051e+00,1.844149470329284668e+00
5.000000000000000000e+00,4.921223640441894531e+00,4.985442638397216797e+00,4.989371776580810547e+00,5.000000000000000000e+00,5.000000000000000000e+00,5.000000000000000000e+00,5.000000000000000000e+00,5.000000000000000000e+00,5.000000000000000000e+00,5.000000000000000000e+00,5.000000000000000000e+00,5.000000000000000000e+00,5.000000000000000000e+00,5.000000000000000000e+00,5.000000000000000000e+00,5.000000000000000000e+00,5.000000000000000000e+00,5.000000000000000000e+00,5.000000000000000000e+00,5.000000000000000000e+00,5.000000000000000000e+00,5.000000000000000000e+00,5.000000000000000000e+00,5.000000000000000000e+00,5.000000000000000000e+00,5.000000000000000000e+00,5.000000000000000000e+00,5.000000000000000000e+00,5.000000000000000000e+00,5.000000000000000000e+00,5.000000000000000000e+00,5.000000000000000000e+00,2.030178546905517578e+00,2.026321887969970703e+00,2.047227382659912109e+00,5.000000000000000000e+00,1.850503444671630859e+00,1.810644507408142090e+00,1.807161331176757812e+00,1.825086832046508789e+00,4.487180233001708984e+00,4.324096679687500000e+00,4.172451972961425781e+00,4.031083106994628906e+00,3.898980140686035156e+00,3.775260448455810547e+00,3.659150600433349609e+00,3.549969911575317383e+00,3.447115659713745117e+00,3.350054025650024414e+00,3.258308410644531250e+00,3.171454191207885742e+00,3.089109897613525391e+00,3.010933637619018555e+00,2.936616659164428711e+00,2.865879535675048828e+00,2.798470258712768555e+00,2.734158992767333984e+00,2.672737598419189453e+00,2.614015102386474609e+00,2.557817220687866211e+00,2.503985166549682617e+00,2.452372074127197266e+00,2.402843952178955078e+00,2.355276823043823242e+00,2.309556007385253906e+00,2.265576839447021484e+00,2.223241090774536133e+00,2.182458639144897461e+00,2.143145322799682617e+00,2.105223417282104492e+00,2.068620204925537109e+00,2.033267974853515625e+00,1.999103903770446777e+00,1.966068863868713379e+00,1.934107780456542969e+00,1.903169274330139160e+00,1.873205065727233887e+00,1.844169616699218750e+00
5.000000000000000000e+00,4.865721702575683594e+00,4.985465049743652344e+00,5.000000000000000000e+00,5.000000000000000000e+00,5.000000000000000000e+00,5.000000000000000000e+00,5.000000000000000000e+00,5.000000000000000000e+00,5.000000000000000000e+00,5.000000000000000000e+00,5.000000000000000000e+00,5.000000000000000000e+00,5.000000000000000000e+00,5.000000000000000000e+00,5.000000000000000000e+00,5.000000000000000000e+00,5.000000000000000000e+00,5.000000000000000000e+00,5.000000000000000000e+00,5.000000000000000000e+00,5.000000000000000000e+00,5.000000000000000000e+00,5.000000000000000000e+00,5.000000000000000000e+00,5.000000000000000000e+00,5.000000000000000000e+00,5.000000000000000000e+00,5.000000000000000000e+00,5.000000000000000000e+00,5.000000000000000000e+00,5.000000000000000000e+00,5.000000000000000000e+00,2.039332389831542969e+00,2.035885095596313477e+00,2.054090976715087891e+00,5.000000000000000000e+00,1.859403252601623535e+00,1.818528771400451660e+00,1.814530134201049805e+00,1.840260744094848633e+00,4.487298965454101562e+00,4.324206829071044922e+00,4.172554492950439453e+00,4.031178951263427734e+00,3.899069309234619141e+00,3.775344133377075195e+00,3.659229516983032227e+00,3.550044298171997070e+00,3.447185993194580078e+00,3.350119829177856445e+00,3.258370876312255859e+00,3.171513080596923828e+00,3.089165925979614258e+00,3.010986804962158203e+00,2.936667203903198242e+00,2.865927934646606445e+00,2.798516273498535156e+00,2.734203100204467773e+00,2.672779798507690430e+00,2.614055395126342773e+00,2.557855844497680664e+00,2.504021883010864258e+00,2.452407360076904297e+00,2.402877807617187500e+00,2.355309247970581055e+00,2.309587478637695312e+00,2.265606880187988281e+00,2.223270177841186523e+00,2.182486772537231445e+00,2.143172502517700195e+00,2.105249404907226562e+00,2.068645238876342773e+00,2.033292293548583984e+00,1.999127268791198730e+00,1.966091632843017578e+00,1.934129595756530762e+00,1.903190612792968750e+00,1.873225569725036621e+00,1.844189643859863281e+00
5.000000000000000000e+00,4.826799869537353516e+00,4.989447116851806641e+00,5.000000000000000000e+00,4.983379840850830078e+00,5.000000000000000000e+00,5.000000000000000000e+00,5.000000000000000000e+00,5.000000000000000000e+00,5.000000000000000000e+00,5.000000000000000000e+00,5.000000000000000000e+00,5.000000000000000000e+00,5.000000000000000000e+00,5.000000000000000000e+00,5.000000000000000000e+00,5.000000000000000000e+00,5.000000000000000000e+00,5.000000000000000000e+00,5.000000000000000000e+00,5.000000000000000000e+00,5.000000000000000000e+00,5.000000000000000000e+00,5.000000000000000000e+00,5.000000000000000000e+00,5.000000000000000000e+00,5.000000000000000000e+00,5.000000000000000000e+00,5.000000000000000000e+00,5.000000000000000000e+00,5.000000000000000000e+00,5.000000000000000000e+00,5.000000000000000000e+00,2.052052259445190430e+00,2.043673753738403320e+00,2.061000585556030273e+00,5.000000000000000000e+00,1.873542785644531250e+00,1.831848740577697754e+00,1.823377370834350586e+00,1.850385308265686035e+00,4.487417221069335938e+00,4.324316978454589844e+00,4.172656536102294922e+00,4.031274318695068359e+00,3.899158716201782227e+00,3.775427818298339844e+00,3.659308195114135742e+00,3.550118207931518555e+00,3.447255611419677734e+00,3.350186109542846680e+00,3.258433580398559570e+00,3.171572446823120117e+00,3.089222431182861328e+00,3.011040210723876953e+00,2.936717748641967773e+00,2.865976095199584961e+00,2.798562288284301758e+00,2.734247207641601562e+00,2.672821760177612305e+00,2.614095449447631836e+00,2.557894468307495117e+00,2.504058837890625000e+00,2.452442884445190430e+00,2.402911663055419922e+00,2.355341911315917969e+00,2.309618711471557617e+00,2.265637159347534180e+00,2.223299264907836914e+00,2.182514667510986328e+00,2.143199443817138672e+00,2.105275630950927734e+00,2.068670511245727539e+00,2.033316612243652344e+00,1.999150872230529785e+00,1.966114282608032227e+00,1.934151768684387207e+00,1.903211712837219238e+00,1.873246192932128906e+00,1.844209551811218262e+00
5.000000000000000000e+00,5.000000000000000000e+00,5.000000000000000000e+00,5.000000000000000000e+00,4.964536190032958984e+00,4.965631484985351562e+00,5.000000000000000000e+00,5.000000000000000000e+00,5.000000000000000000e+00,5.000000000000000000e+00,5.000000000000000000e+00,5.000000000000000000e+00,5.000000000000000000e+00,5.000000000000000000e+00,5.000000000000000000e+00,5.000000000000000000e+00,5.000000000000000000e+00,5.000000000000000000e+00,5.000000000000000000e+00,5.000000000000000000e+00,5.000000000000000000e+00,5.000000000000000000e+00,5.000000000000000000e+00,5.000000000000000000e+00,5.000000000000000000e+00,5.000000000000000000e+00,5.000000000000000000e+00,5.000000000000000000e+00,5.000000000000000000e+00,5.000000000000000000e+00,5.000000000000000000e+00,5.000000000000000000e+00,5.000000000000000000e+00,2.070883035659790039e+00,2.057834148406982422e+00,2.073705911636352539e+00,5.000000000000000000e+00,1.887898921966552734e+00,1.845365047454833984e+00,1.832311272621154785e+00,1.859106659889221191e+00,4.487535476684570312e+00,4.324426651000976562e+00,4.172759056091308594e+00,4.031369686126708984e+00,3.899248361587524414e+00,3.775511503219604492e+00,3.659386873245239258e+00,3.550192117691040039e+00,3.447325468063354492e+00,3.350251913070678711e+00,3.258495807647705078e+00,3.171631574630737305e+00,3.089278459548950195e+00,3.011093616485595703e+00,2.936768770217895508e+00,2.866024494171142578e+00,2.798608303070068359e+00,2.734291076660156250e+00,2.672863721847534180e+00,2.614135503768920898e+00,2.557932853698730469e+00,2.504095792770385742e+00,2.452478170394897461e+00,2.402945756912231445e+00,2.355374574661254883e+00,2.309650182723999023e+00,2.265667438507080078e+00,2.223328351974487305e+00,2.182542562484741211e+00,2.143226385116577148e+00,2.105301618576049805e+00,2.068695545196533203e+00,2.033340930938720703e+00,1.999174475669860840e+00,1.966137051582336426e+00,1.934173822402954102e+00,1.903233170509338379e+00,1.873266696929931641e+00,1.844229578971862793e+00
5.000000000000000000e+00,5.000000000000000000e+00,5.000000000000000000e+00,5.000000000000000000e+00,4.937750339508056641e+00,4.929178237915039062e+00,5.000000000000000000e+00,5.000000000000000000e+00,5.000000000000000000e+00,5.000000000000000000e+00,5.000000000000000000e+00,5.000000000000000000e+00,5.000000000000000000e+00,5.000000000000000000e+00,5.000000000000000000e+00,5.000000000000000000e+00,5.000000000000000000e+00,5.000000000000000000e+00,5.000000000000000000e+00,5.000000000000000000e+00,5.000000000000000000e+00,5.000000000000000000e+00,5.000000000000000000e+00,5.000000000000000000e+00,5.000000000000000000e+00,5.000000000000000000e+00,5.000000000000000000e+00,5.000000000000000000e+00,5.000000000000000000e+00,5.000000000000000000e+00,5.000000000000000000e+00,5.000000000000000000e+00,5.000000000000000000e+00,2.120533466339111328e+00,2.092363595962524414e+00,2.129387855529785156e+00,5.000000000000000000e+00,1.896875739097595215e+00,1.854865908622741699e+00,1.840699076652526855e+00,1.867524981498718262e+00,4.487654209136962891e+00,4.324536800384521484e+00,4.172861576080322266e+00,4.031465053558349609e+00,3.899337530136108398e+00,3.775595664978027344e+00,3.659465789794921875e+00,3.550266504287719727e+00,3.447395563125610352e+00,3.350317955017089844e+00,3.258558273315429688e+00,3.171690702438354492e+00,3.089334487915039062e+00,3.011146783828735352e+00,2.936819314956665039e+00,2.866072654724121094e+00,2.798654556274414062e+00,2.734335184097290039e+00,2.672905921936035156e+00,2.614175796508789062e+00,2.557971239089965820e+00,2.504132509231567383e+00,2.452513456344604492e+00,2.402979612350463867e+00,2.355407238006591797e+00,2.309681415557861328e+00,2.265697479248046875e+00,2.223357439041137695e+00,2.182570695877075195e+00,2.143253564834594727e+00,2.105327606201171875e+00,2.068720817565917969e+00,2.033365249633789062e+00,1.999197721481323242e+00,1.966159820556640625e+00,1.934195637702941895e+00,1.903254508972167969e+00,1.873287439346313477e+00,1.844249606132507324e+00
5.000000000000000000e+00,5.000000000000000000e+00,5.000000000000000000e+00,5.000000000000000000e+00,4.932505130767822266e+00,4.920927047729492188e+00,5.000000000000000000e+00,5.000000000000000000e+00,5.000000000000000000e+00,5.000000000000000000e+00,5.000000000000000000e+00,5.000000000000000000e+00,5.000000000000000000e+00,5.000000000000000000e+00,5.000000000000000000e+00,5.000000000000000000e+00,5.000000000000000000e+00,5.000000000000000000e+00,5.000000000000000000e+00,5.000000000000000000e+00,5.000000000000000000e+00,5.000000000000000000e+00,5.000000000000000000e+00,5.000000000000000000e+00,5.000000000000000000e+00,5.000000000000000000e+00,5.000000000000000000e+00,5.000000000000000000e+00,5.000000000000000000e+00,5.000000000000000000e+00,5.000000000000000000e+00,5.000000000000000000e+00,5.000000000000000000e+00,2.174416542053222656e+00,2.157006502151489258e+00,2.260119199752807617e+00,5.000000000000000000e+00,1.893518090248107910e+00,1.853852272033691406e+00,1.839700818061828613e+00,1.867617964744567871e+00,4.487772941589355469e+00,4.324646949768066406e+00,4.172964096069335938e+00,4.031560897827148438e+00,3.899426937103271484e+00,3.775679349899291992e+00,3.659544467926025391e+00,3.550340652465820312e+00,3.447465419769287109e+00,3.350383996963500977e+00,3.258620738983154297e+00,3.171750068664550781e+00,3.089390516281127930e+00,3.011200189590454102e+00,2.936870098114013672e+00,2.866121053695678711e+00,2.798700571060180664e+00,2.734379053115844727e+00,2.672947645187377930e+00,2.614216089248657227e+00,2.558009862899780273e+00,2.504169464111328125e+00,2.452548980712890625e+00,2.403013467788696289e+00,2.355439662933349609e+00,2.309712886810302734e+00,2.265727519989013672e+00,2.223386526107788086e+00,2.182598829269409180e+00,2.143280506134033203e+00,2.105353832244873047e+00,2.068746089935302734e+00,2.033389568328857422e+00,1.999221324920654297e+00,1.966182470321655273e+00,1.934217691421508789e+00,1.903275609016418457e+00,1.873308181762695312e+00,1.844269514083862305e+00
5.000000000000000000e+00,5.000000000000000000e+00,5.000000000000000000e+00,5.000000000000000000e+00,5.000000000000000000e+00,4.946891307830810547e+00,5.000000000000000000e+00,5.000000000000000000e+00,5.000000000000000000e+00,5.000000000000000000e+00,5.000000000000000000e+00,5.000000000000000000e+00,5.000000000000000000e+00,5.000000000000000000e+00,5.000000000000000000e+00,5.000000000000000000e+00,5.000000000000000000e+00,5.000000000000000000e+00,5.000000000000000000e+00,5.000000000000000000e+00,5.000000000000000000e+00,5.000000000000000000e+00,5.000000000000000000e+00,5.000000000000000000e+00,5.000000000000000000e+00,5.000000000000000000e+00,5.000000000000000000e+00,5.000000000000000000e+00,5.000000000000000000e+00,5.000000000000000000e+00,5.000000000000000000e+00,5.000000000000000000e+00,5.000000000000000000e+00,2.214934110641479492e+00,2.216895341873168945e+00,5.000000000000000000e+00,5.000000000000000000e+00,1.890172600746154785e+00,1.851951241493225098e+00,1.838703632354736328e+00,1.875718951225280762e+00,4.487891197204589844e+00,4.324756622314453125e+00,4.173066616058349609e+00,4.031656742095947266e+00,3.899516582489013672e+00,3.775763034820556641e+00,3.659622907638549805e+00,3.550414562225341797e+00,3.447535037994384766e+00,3.350450038909912109e+00,3.258683204650878906e+00,3.171809196472167969e+00,3.089446783065795898e+00,3.011253595352172852e+00,2.936920881271362305e+00,2.866169452667236328e+00,2.798746585845947266e+00,2.734422922134399414e+00,2.672989606857299805e+00,2.614256143569946289e+00,2.558048248291015625e+00,2.504206418991088867e+00,2.452584266662597656e+00,2.403047561645507812e+00,2.355472564697265625e+00,2.309744358062744141e+00,2.265757799148559570e+00,2.223415374755859375e+00,2.182626724243164062e+00,2.143307447433471680e+00,2.105379819869995117e+00,2.068771123886108398e+00,2.033413887023925781e+00,1.999244928359985352e+00,1.966205239295959473e+00,1.934239864349365234e+00,1.903297066688537598e+00,1.873328685760498047e+00,1.844289541244506836e+00
5.000000000000000000e+00,5.000000000000000000e+00,5.000000000000000000e+00,5.000000000000000000e+00,5.000000000000000000e+00,4.943574428558349609e+00,5.000000000000000000e+00,5.000000000000000000e+00,5.000000000000000000e+00,5.000000000000000000e+00,5.000000000000000000e+00,5.000000000000000000e+00,5.000000000000000000e+00,5.000000000000000000e+00,5.000000000000000000e+00,5.000000000000000000e+00,5.000000000000000000e+00,5.000000000000000000e+00,5.000000000000000000e+00,5.000000000000000000e+00,5.000000000000000000e+00,5.000000000000000000e+00,5.000000000000000000e+00,5.000000000000000000e+00,5.000000000000000000e+00,5.000000000000000000e+00,5.000000000000000000e+00,5.000000000000000000e+00,5.000000000000000000e+00,5.000000000000000000e+00,5.000000000000000000e+00,5.000000000000000000e+00,5.000000000000000000e+00,2.252477169036865234e+00,2.256125211715698242e+00,5.000000000000000000e+00,5.000000000000000000e+00,1.887177944183349609e+00,1.849972605705261230e+00,1.837707400321960449e+00,1.883945345878601074e+00,4.488009452819824219e+00,4.324866771697998047e+00,4.173169136047363281e+00,4.031752109527587891e+00,3.899605989456176758e+00,3.775847196578979492e+00,3.659702062606811523e+00,3.550488948822021484e+00,3.447604894638061523e+00,3.350515842437744141e+00,3.258745431900024414e+00,3.171868085861206055e+00,3.089502811431884766e+00,3.011306762695312500e+00,2.936971426010131836e+00,2.866217613220214844e+00,2.798792839050292969e+00,2.734467029571533203e+00,2.673031806945800781e+00,2.614296197891235352e+00,2.558086633682250977e+00,2.504243135452270508e+00,2.452619791030883789e+00,2.403081655502319336e+00,2.355504989624023438e+00,2.309775590896606445e+00,2.265788078308105469e+00,2.223444700241088867e+00,2.182654857635498047e+00,2.143334627151489258e+00,2.105405807495117188e+00,2.068796157836914062e+00,2.033438205718994141e+00,1.999268293380737305e+00,1.966228008270263672e+00,1.934261679649353027e+00,1.903318405151367188e+00,1.873349308967590332e+00,1.844309687614440918e+00
5.000000000000000000e+00,5.000000000000000000e+00,5.000000000000000000e+00,5.000000000000000000e+00,5.000000000000000000e+00,4.945770263671875000e+00,5.000000000000000000e+00,5.000000000000000000e+00,5.000000000000000000e+00,5.000000000000000000e+00,5.000000000000000000e+00,5.000000000000000000e+00,5.000000000000000000e+00,5.000000000000000000e+00,5.000000000000000000e+00,5.000000000000000000e+00,5.000000000000000000e+00,5.000000000000000000e+00,5.000000000000000000e+00,5.000000000000000000e+00,5.000000000000000000e+00,5.000000000000000000e+00,5.000000000000000000e+00,5.000000000000000000e+00,5.000000000000000000e+00,5.000000000000000000e+00,5.000000000000000000e+00,5.000000000000000000e+00,5.000000000000000000e+00,5.000000000000000000e+00,5.000000000000000000e+00,5.000000000000000000e+00,5.000000000000000000e+00,2.298471689224243164e+00,2.295870304107666016e+00,5.000000000000000000e+00,5.000000000000000000e+00,1.887191772460937500e+00,1.848198175430297852e+00,1.836297512054443359e+00,1.892244219779968262e+00,4.488127231597900391e+00,4.324976444244384766e+00,4.173271179199218750e+00,4.031847476959228516e+00,3.899695158004760742e+00,3.775930881500244141e+00,3.659780740737915039e+00,3.550563097000122070e+00,3.447674989700317383e+00,3.350582122802734375e+00,3.258808135986328125e+00,3.171927452087402344e+00,3.089558839797973633e+00,3.011360168457031250e+00,2.937022209167480469e+00,2.866266012191772461e+00,2.798838853836059570e+00,2.734510898590087891e+00,2.673073768615722656e+00,2.614336729049682617e+00,2.558125257492065430e+00,2.504280090332031250e+00,2.452655076980590820e+00,2.403115510940551758e+00,2.355537652969360352e+00,2.309807062149047852e+00,2.265818119049072266e+00,2.223473787307739258e+00,2.182682752609252930e+00,2.143361568450927734e+00,2.105432033538818359e+00,2.068821430206298828e+00,2.033462524414062500e+00,1.999291896820068359e+00,1.966250658035278320e+00,1.934283733367919922e+00,1.903339624404907227e+00,1.873370051383972168e+00,1.844329476356506348e+00
5.000000000000000000e+00,5.000000000000000000e+00,5.000000000000000000e+00,5.000000000000000000e+00,5.000000000000000000e+00,4.948666095733642578e+00,5.000000000000000000e+00,5.000000000000000000e+00,5.000000000000000000e+00,5.000000000000000000e+00,5.000000000000000000e+00,5.000000000000000000e+00,5.000000000000000000e+00,5.000000000000000000e+00,5.000000000000000000e+00,5.000000000000000000e+00,5.000000000000000000e+00,5.000000000000000000e+00,5.000000000000000000e+00,5.000000000000000000e+00,5.000000000000000000e+00,5.000000000000000000e+00,5.000000000000000000e+00,5.000000000000000000e+00,5.000000000000000000e+00,5.000000000000000000e+00,5.000000000000000000e+00,5.000000000000000000e+00,5.000000000000000000e+00,5.000000000000000000e+00,5.000000000000000000e+00,5.000000000000000000e+00,5.000000000000000000e+00,2.348979234695434570e+00,2.339647293090820312e+00,5.000000000000000000e+00,5.000000000000000000e+00,1.890999794006347656e+00,1.847263336181640625e+00,1.836022734642028809e+00,1.902239561080932617e+00,4.488245010375976562e+00,4.325086116790771484e+00,4.173373699188232422e+00,4.031943321228027344e+00,3.899785041809082031e+00,3.776014566421508789e+00,3.659859418869018555e+00,3.550637006759643555e+00,3.447744846343994141e+00,3.350647926330566406e+00,3.258870601654052734e+00,3.171986579895019531e+00,3.089615106582641602e+00,3.011413574218750000e+00,2.937072992324829102e+00,2.866314172744750977e+00,2.798884630203247070e+00,2.734554767608642578e+00,2.673115730285644531e+00,2.614376783370971680e+00,2.558163642883300781e+00,2.504317045211791992e+00,2.452690601348876953e+00,2.403149604797363281e+00,2.355570316314697266e+00,2.309838533401489258e+00,2.265848398208618164e+00,2.223502635955810547e+00,2.182710886001586914e+00,2.143388509750366211e+00,2.105458021163940430e+00,2.068846702575683594e+00,2.033486843109130859e+00,1.999315500259399414e+00,1.966273427009582520e+00,1.934305787086486816e+00,1.903360962867736816e+00,1.873390555381774902e+00,1.844349622726440430e+00
5.000000000000000000e+00,5.000000000000000000e+00,5.000000000000000000e+00,5.000000000000000000e+00,5.000000000000000000e+00,4.948202133178710938e+00,5.000000000000000000e+00,5.000000000000000000e+00,5.000000000000000000e+00,5.000000000000000000e+00,5.000000000000000000e+00,5.000000000000000000e+00,5.000000000000000000e+00,5.000000000000000000e+00,5.000000000000000000e+00,5.000000000000000000e+00,5.000000000000000000e+00,5.000000000000000000e+00,5.000000000000000000e+00,5.000000000000000000e+00,5.000000000000000000e+00,5.000000000000000000e+00,5.000000000000000000e+00,5.000000000000000000e+00,5.000000000000000000e+00,5.000000000000000000e+00,5.000000000000000000e+00,5.000000000000000000e+00,5.000000000000000000e+00,5.000000000000000000e+00,5.000000000000000000e+00,5.000000000000000000e+00,5.000000000000000000e+00,2.426761388778686523e+00,2.386663913726806641e+00,5.000000000000000000e+00,5.000000000000000000e+00,5.000000000000000000e+00,1.846329569816589355e+00,1.847312808036804199e+00,4.664323806762695312e+00,4.488362789154052734e+00,4.325195789337158203e+00,4.173476219177246094e+00,4.032038688659667969e+00,3.899874210357666016e+00,3.776098728179931641e+00,3.659938335418701172e+00,3.550711393356323242e+00,3.447814702987670898e+00,3.350713968276977539e+00,3.258932828903198242e+00,3.172045707702636719e+00,3.089671134948730469e+00,3.011466741561889648e+00,2.937123775482177734e+00,2.866362571716308594e+00,2.798930883407592773e+00,2.734598875045776367e+00,2.673157930374145508e+00,2.614416837692260742e+00,2.558202028274536133e+00,2.504353761672973633e+00,2.452725887298583984e+00,2.403183460235595703e+00,2.355602979660034180e+00,2.309869766235351562e+00,2.265878677368164062e+00,2.223531961441040039e+00,2.182738780975341797e+00,2.143415451049804688e+00,2.105484008789062500e+00,2.068871736526489258e+00,2.033511161804199219e+00,1.999338746070861816e+00,1.966296315193176270e+00,1.934327721595764160e+00,1.903382301330566406e+00,1.873411297798156738e+00,1.844369649887084961e+00
4.875229835510253906e+00,4.874019622802734375e+00,4.872809410095214844e+00,4.871600151062011719e+00,4.870391368865966797e+00,4.869183063507080078e+00,4.867975711822509766e+00,4.866768360137939453e+00,4.865561962127685547e+00,4.864356517791748047e+00,4.863151073455810547e+00,4.861946582794189453e+00,4.860742568969726562e+00,4.859539508819580078e+00,4.858336448669433594e+00,4.857134342193603516e+00,4.855932712554931641e+00,4.854731559753417969e+00,4.853531360626220703e+00,4.852331638336181641e+00,4.851132392883300781e+00,4.849933624267578125e+00,4.848735332489013672e+00,4.847537994384765625e+00,4.846341133117675781e+00,4.845144748687744141e+00,4.843949317932128906e+00,4.842754364013671875e+00,4.841559886932373047e+00,4.840365886688232422e+00,4.839172363281250000e+00,4.837979793548583984e+00,4.836787700653076172e+00,2.434134483337402344e+00,2.415597200393676758e+00,4.833214282989501953e+00,4.832024574279785156e+00,4.830835342407226562e+00,1.845807552337646484e+00,1.849377155303955078e+00,4.664451599121093750e+00,4.488481044769287109e+00,4.325304985046386719e+00,4.173577308654785156e+00,4.032134532928466797e+00,3.899963617324829102e+00,3.776182413101196289e+00,3.660017013549804688e+00,3.550785541534423828e+00,3.447884798049926758e+00,3.350780248641967773e+00,3.258995532989501953e+00,3.172104835510253906e+00,3.089727163314819336e+00,3.011520147323608398e+00,2.937174320220947266e+00,2.866410970687866211e+00,2.798976898193359375e+00,2.734642982482910156e+00,2.673199892044067383e+00,2.614457130432128906e+00,2.558240652084350586e+00,2.504390954971313477e+00,2.452761173248291016e+00,2.403217315673828125e+00,2.355635404586791992e+00,2.309900999069213867e+00,2.265908718109130859e+00,2.223560810089111328e+00,2.182766914367675781e+00,2.143442630767822266e+00,2.105510234832763672e+00,2.068897008895874023e+00,2.033535480499267578e+00,1.999362349510192871e+00,1.966318845748901367e+00,1.934349775314331055e+00,1.903403520584106445e+00,1.873431921005249023e+00,1.844389557838439941e+00
3.778050184249877930e+00,3.777323246002197266e+00,3.776596307754516602e+00,3.775870084762573242e+00,3.775143623352050781e+00,3.774417877197265625e+00,3.773691892623901367e+00,3.772966861724853516e+00,3.772241592407226562e+00,3.771516799926757812e+00,3.770792484283447266e+00,3.770068168640136719e+00,3.769344329833984375e+00,3.768620252609252930e+00,3.767897129058837891e+00,3.767173767089843750e+00,3.766451120376586914e+00,3.765728235244750977e+00,3.765006303787231445e+00,3.764283895492553711e+00,3.763562440872192383e+00,3.762840747833251953e+00,3.762119531631469727e+00,3.761399030685424805e+00,3.760678052902221680e+00,3.759957790374755859e+00,3.759237527847290039e+00,3.758517980575561523e+00,3.757798194885253906e+00,3.757079124450683594e+00,3.756359815597534180e+00,3.755641222000122070e+00,3.754922628402709961e+00,2.419510364532470703e+00,2.405383348464965820e+00,3.752768993377685547e+00,3.752051830291748047e+00,3.751334667205810547e+00,1.846385955810546875e+00,1.849752187728881836e+00,3.749185323715209961e+00,3.748469114303588867e+00,3.747753381729125977e+00,3.747037887573242188e+00,3.746322870254516602e+00,3.745607852935791016e+00,3.744893312454223633e+00,3.660095691680908203e+00,3.550859451293945312e+00,3.447954654693603516e+00,3.350846052169799805e+00,3.259057998657226562e+00,3.172164201736450195e+00,3.089783668518066406e+00,3.011573553085327148e+00,2.937225341796875000e+00,2.866459131240844727e+00,2.799022912979125977e+00,2.734686851501464844e+00,2.673241853713989258e+00,2.614497423171997070e+00,2.558279037475585938e+00,2.504427671432495117e+00,2.452796697616577148e+00,2.403251409530639648e+00,2.355668306350708008e+00,2.309932470321655273e+00,2.265938997268676758e+00,2.223589897155761719e+00,2.182794809341430664e+00,2.143469572067260742e+00,2.105536222457885742e+00,2.068922042846679688e+00,2.033559799194335938e+00,1.999385952949523926e+00,1.966341614723205566e+00,1.934371829032897949e+00,1.903424859046936035e+00,1.873452425003051758e+00,1.844409584999084473e+00
3.083992004394531250e+00,3.083507537841796875e+00,3.083023309707641602e+00,3.082539081573486328e+00,3.082055091857910156e+00,3.081571102142333984e+00,3.081087589263916016e+00,3.080604076385498047e+00,3.080120563507080078e+00,3.079637289047241211e+00,3.079154253005981445e+00,3.078671216964721680e+00,3.078188419342041016e+00,3.077705860137939453e+00,3.077223300933837891e+00,3.076740980148315430e+00,3.076258659362792969e+00,3.075776576995849609e+00,3.075294733047485352e+00,3.074813127517700195e+00,3.074331521987915039e+00,3.073849916458129883e+00,3.073368787765502930e+00,3.072887420654296875e+00,3.072406530380249023e+00,3.071925640106201172e+00,3.071444988250732422e+00,3.070964336395263672e+00,3.070484161376953125e+00,3.070003747940063477e+00,3.069523811340332031e+00,3.069043636322021484e+00,3.068563938140869141e+00,2.403551578521728516e+00,2.396109104156494141e+00,3.067125797271728516e+00,3.066646337509155273e+00,3.066167354583740234e+00,1.855343103408813477e+00,1.871395349502563477e+00,3.064731121063232422e+00,3.064252853393554688e+00,3.063774347305297852e+00,3.063296318054199219e+00,3.062818288803100586e+00,3.062340497970581055e+00,3.061862945556640625e+00,3.061385393142700195e+00,3.060908079147338867e+00,3.060430526733398438e+00,3.059953689575195312e+00,3.059476613998413086e+00,3.058999776840209961e+00,3.058523178100585938e+00,3.011626958847045898e+00,2.937275886535644531e+00,2.866507530212402344e+00,2.799069166183471680e+00,2.734730958938598633e+00,2.673283815383911133e+00,2.614537477493286133e+00,2.558317661285400391e+00,2.504464387893676758e+00,2.452831983566284180e+00,2.403285264968872070e+00,2.355700731277465820e+00,2.309963941574096680e+00,2.265969276428222656e+00,2.223619222640991211e+00,2.182822942733764648e+00,2.143496513366699219e+00,2.105562448501586914e+00,2.068947315216064453e+00,2.033584117889404297e+00,1.999409317970275879e+00,1.966364502906799316e+00,1.934393644332885742e+00,1.903446197509765625e+00,1.873473167419433594e+00,1.844429731369018555e+00
2.605365276336669922e+00,2.605019569396972656e+00,2.604673862457275391e+00,2.604328393936157227e+00,2.603982925415039062e+00,2.603637456893920898e+00,2.603292226791381836e+00,2.602946996688842773e+00,2.602601766586303711e+00,2.602256774902343750e+00,2.601911783218383789e+00,2.601566791534423828e+00,2.601222276687622070e+00,2.600877523422241211e+00,2.600533008575439453e+00,2.600188255310058594e+00,2.599843978881835938e+00,2.599499940872192383e+00,2.599155426025390625e+00,2.598811388015747070e+00,2.598467350006103516e+00,2.598123550415039062e+00,2.597779512405395508e+00,2.597435712814331055e+00,2.597092151641845703e+00,2.596748590469360352e+00,2.596405029296875000e+00,2.596061706542968750e+00,2.595718145370483398e+00,2.595375061035156250e+00,2.595031976699829102e+00,2.594688892364501953e+00,2.594346046447753906e+00,2.594003200531005859e+00,2.370722770690917969e+00,2.593317747116088867e+00,2.592975139617919922e+00,2.592632532119750977e+00,1.824290156364440918e+00,1.843553781509399414e+00,2.591605663299560547e+00,2.591263532638549805e+00,2.590921640396118164e+00,2.590579748153686523e+00,2.590237617492675781e+00,2.589895963668823242e+00,2.589554309844970703e+00,2.589212656021118164e+00,2.588871240615844727e+00,2.588529825210571289e+00,2.588188409805297852e+00,2.587847232818603516e+00,2.587506055831909180e+00,2.587165117263793945e+00,2.586823940277099609e+00,2.586483240127563477e+00,2.586142539978027344e+00,2.585801839828491211e+00,2.585461378097534180e+00,2.585120677947998047e+00,2.584780454635620117e+00,2.558356285095214844e+00,2.504501581192016602e+00,2.452867269515991211e+00,2.403319120407104492e+00,2.355733394622802734e+00,2.309995174407958984e+00,2.265999317169189453e+00,2.223648071289062500e+00,2.182850837707519531e+00,2.143523693084716797e+00,2.105588436126708984e+00,2.068972587585449219e+00,2.033608436584472656e+00,1.999432921409606934e+00,1.966387033462524414e+00,1.934415817260742188e+00,1.903467416763305664e+00,1.873493909835815430e+00,1.844449520111083984e+00
2.255365371704101562e+00,2.255105257034301758e+00,2.254845380783081055e+00,2.254585266113281250e+00,2.254325628280639648e+00,2.254065752029418945e+00,2.253805875778198242e+00,2.253546237945556641e+00,2.253286361694335938e+00,2.253026962280273438e+00,2.252767324447631836e+00,2.252507925033569336e+00,2.252248525619506836e+00,2.251989126205444336e+00,2.251729726791381836e+00,2.251470565795898438e+00,2.251211404800415039e+00,2.250952243804931641e+00,2.250693321228027344e+00,2.250434160232543945e+00,2.250175237655639648e+00,2.249916315078735352e+00,2.249657392501831055e+00,2.249398708343505859e+00,2.249140501022338867e+00,2.248882770538330078e+00,2.248625278472900391e+00,2.248367786407470703e+00,2.248110055923461914e+00,2.247852802276611328e+00,2.247595310211181641e+00,2.247338056564331055e+00,2.247080564498901367e+00,2.246823549270629883e+00,2.246566295623779297e+00,2.246309280395507812e+00,2.246052026748657227e+00,2.245795249938964844e+00,1.773762702941894531e+00,1.793679714202880859e+00,2.245024681091308594e+00,2.244767904281616211e+00,2.244511127471923828e+00,2.244254589080810547e+00,2.243998050689697266e+00,2.243741512298583984e+00,2.243484973907470703e+00,2.243228673934936523e+00,2.242972373962402344e+00,2.242715835571289062e+00,2.242459774017333984e+00,2.242203474044799805e+00,2.241947412490844727e+00,2.241691589355468750e+00,2.241435527801513672e+00,2.241179704666137695e+00,2.240923643112182617e+00,2.240668058395385742e+00,2.240411996841430664e+00,2.240156412124633789e+00,2.239900827407836914e+00,2.239645242691040039e+00,2.239389657974243164e+00,2.239134311676025391e+00,2.238878726959228516e+00,2.238623619079589844e+00,2.238368272781372070e+00,2.238112926483154297e+00,2.223677158355712891e+00,2.182878971099853516e+00,2.143550634384155273e+00,2.105614423751831055e+00,2.068997621536254883e+00,2.033632755279541016e+00,1.999456524848937988e+00,1.966409921646118164e+00,1.934437870979309082e+00,1.903488755226135254e+00,1.873514413833618164e+00,1.844469666481018066e+00
1.988307714462280273e+00,1.988105654716491699e+00,1.987903475761413574e+00,1.987701416015625000e+00,1.987499356269836426e+00,1.987297415733337402e+00,1.987095713615417480e+00,1.986893773078918457e+00,1.986691951751708984e+00,1.986490130424499512e+00,1.986288309097290039e+00,1.986086606979370117e+00,1.985884904861450195e+00,1.985683202743530273e+00,1.985481619834899902e+00,1.985280036926269531e+00,1.985078454017639160e+00,1.984876990318298340e+00,1.984675526618957520e+00,1.984474062919616699e+00,1.984272956848144531e+00,1.984071612358093262e+00,1.983870267868041992e+00,1.983669042587280273e+00,1.983467817306518555e+00,1.983266711235046387e+00,1.983065485954284668e+00,1.982864379882812500e+00,1.982663393020629883e+00,1.982462406158447266e+00,1.982261419296264648e+00,1.982060432434082031e+00,1.981859564781188965e+00,1.981658935546875000e+00,1.981458187103271484e+00,1.981257438659667969e+00,1.981056690216064453e+00,1.980855941772460938e+00,1.699538826942443848e+00,1.721725106239318848e+00,1.760032892227172852e+00,1.980053663253784180e+00,1.979853153228759766e+00,1.979652762413024902e+00,1.979452252388000488e+00,1.979251980781555176e+00,1.979051828384399414e+00,1.978851556777954102e+00,1.978651285171508789e+00,1.978451132774353027e+00,1.978250980377197266e+00,1.978050827980041504e+00,1.977850794792175293e+00,1.977650761604309082e+00,1.977450728416442871e+00,1.977250814437866211e+00,1.977050900459289551e+00,1.976850986480712891e+00,1.976651191711425781e+00,1.976451396942138672e+00,1.976251840591430664e+00,1.976052045822143555e+00,1.975852370262145996e+00,1.975652813911437988e+00,1.975453138351440430e+00,1.975253582000732422e+00,1.975054144859313965e+00,1.974854707717895508e+00,1.974655270576477051e+00,1.974455833435058594e+00,1.974256515502929688e+00,1.974057197570800781e+00,1.973857879638671875e+00,1.973658919334411621e+00,1.973459720611572266e+00,1.966432690620422363e+00,1.934459686279296875e+00,1.903510212898254395e+00,1.873535156250000000e+00,1.844489693641662598e+00
1.777798652648925781e+00,1.777637004852294922e+00,1.777475714683532715e+00,1.777314066886901855e+00,1.777152538299560547e+00,1.776991128921508789e+00,1.776829600334167480e+00,1.776668190956115723e+00,1.776506781578063965e+00,1.776345372200012207e+00,1.776184082031250000e+00,1.776022672653198242e+00,1.775861382484436035e+00,1.775700092315673828e+00,1.775538921356201172e+00,1.775377869606018066e+00,1.775216698646545410e+00,1.775055527687072754e+00,1.774894475936889648e+00,1.774733304977416992e+00,1.774572253227233887e+00,1.774411201477050781e+00,1.774250268936157227e+00,1.774089217185974121e+00,1.773928284645080566e+00,1.773767352104187012e+00,1.773606538772583008e+00,1.773445606231689453e+00,1.773284792900085449e+00,1.773124217987060547e+00,1.772963404655456543e+00,1.772802710533142090e+00,1.772642016410827637e+00,1.772481322288513184e+00,1.772320628166198730e+00,1.772160053253173828e+00,1.771999359130859375e+00,1.771838903427124023e+00,1.771678328514099121e+00,1.771517753601074219e+00,1.771357297897338867e+00,1.771196842193603516e+00,1.771036624908447266e+00,1.770876169204711914e+00,1.770715832710266113e+00,1.770555496215820312e+00,1.770395159721374512e+00,1.770234942436218262e+00,1.770074725151062012e+00,1.769914507865905762e+00,1.769754290580749512e+00,1.769594073295593262e+00,1.769433975219726562e+00,1.769273877143859863e+00,1.769113779067993164e+00,1.768953919410705566e+00,1.768793940544128418e+00,1.768633961677551270e+00,1.768473982810974121e+00,1.768314003944396973e+00,1.768154144287109375e+00,1.767994284629821777e+00,1.767834424972534180e+00,1.767674684524536133e+00,1.767514824867248535e+00,1.767355084419250488e+00,1.767195343971252441e+00,1.767035722732543945e+00,1.766875982284545898e+00,1.766716599464416504e+00,1.766556978225708008e+00,1.766397356986999512e+00,1.766237854957580566e+00,1.766078233718872070e+00,1.765918731689453125e+00,1.765759348869323730e+00,1.765599846839904785e+00,1.765440464019775391e+00,1.765281081199645996e+00,1.765121817588806152e+00
1.607596993446350098e+00,1.607464790344238281e+00,1.607332706451416016e+00,1.607200503349304199e+00,1.607068419456481934e+00,1.606936454772949219e+00,1.606804370880126953e+00,1.606672286987304688e+00,1.606540322303771973e+00,1.606408357620239258e+00,1.606276392936706543e+00,1.606144547462463379e+00,1.606012701988220215e+00,1.605880737304687500e+00,1.605748891830444336e+00,1.605617046356201172e+00,1.605485200881958008e+00,1.605353474617004395e+00,1.605221629142761230e+00,1.605089902877807617e+00,1.604958176612854004e+00,1.604826450347900391e+00,1.604694724082946777e+00,1.604562997817993164e+00,1.604431390762329102e+00,1.604299902915954590e+00,1.604168295860290527e+00,1.604036688804626465e+00,1.603905081748962402e+00,1.603773593902587891e+00,1.603641986846923828e+00,1.603510499000549316e+00,1.603379011154174805e+00,1.603247523307800293e+00,1.603116154670715332e+00,1.602984666824340820e+00,1.602853298187255859e+00,1.602721929550170898e+00,1.602590680122375488e+00,1.602459430694580078e+00,1.602328062057495117e+00,1.602196812629699707e+00,1.602065563201904297e+00,1.601934313774108887e+00,1.601803064346313477e+00,1.601671814918518066e+00,1.601540684700012207e+00,1.601409554481506348e+00,1.601278305053710938e+00,1.601147294044494629e+00,1.601016163825988770e+00,1.600885272026062012e+00,1.600754141807556152e+00,1.600623130798339844e+00,1.600492119789123535e+00,1.600361108779907227e+00,1.600230216979980469e+00,1.600099205970764160e+00,1.599968314170837402e+00,1.599837303161621094e+00,1.599706530570983887e+00,1.599575638771057129e+00,1.599444746971130371e+00,1.599313974380493164e+00,1.599183201789855957e+00,1.599052548408508301e+00,1.598921775817871094e+00,1.598791003227233887e+00,1.598660349845886230e+00,1.598529696464538574e+00,1.598399043083190918e+00,1.598268389701843262e+00,1.598137736320495605e+00,1.598007082939147949e+00,1.597876548767089844e+00,1.597746014595031738e+00,1.597615480422973633e+00,1.597484946250915527e+00,1.597354531288146973e+00,1.597224116325378418e+00
1.467136979103088379e+00,1.467026948928833008e+00,1.466916918754577637e+00,1.466806888580322266e+00,1.466696858406066895e+00,1.466586828231811523e+00,1.466476798057556152e+00,1.466367006301879883e+00,1.466256976127624512e+00,1.466147065162658691e+00,1.466037154197692871e+00,1.465927243232727051e+00,1.465817332267761230e+00,1.465707421302795410e+00,1.465597629547119141e+00,1.465487718582153320e+00,1.465377926826477051e+00,1.465268135070800781e+00,1.465158343315124512e+00,1.465048551559448242e+00,1.464938879013061523e+00,1.464829206466674805e+00,1.464719414710998535e+00,1.464609742164611816e+00,1.464500069618225098e+00,1.464390397071838379e+00,1.464280724525451660e+00,1.464171051979064941e+00,1.464061498641967773e+00,1.463951826095581055e+00,1.463842272758483887e+00,1.463732600212097168e+00,1.463623046875000000e+00,1.463513493537902832e+00,1.463404178619384766e+00,1.463294625282287598e+00,1.463185191154479980e+00,1.463075637817382812e+00,1.462966203689575195e+00,1.462856769561767578e+00,1.462747335433959961e+00,1.462637901306152344e+00,1.462528467178344727e+00,1.462419152259826660e+00,1.462309718132019043e+00,1.462200403213500977e+00,1.462091088294982910e+00,1.461981892585754395e+00,1.461872577667236328e+00,1.461763381958007812e+00,1.461654067039489746e+00,1.461544871330261230e+00,1.461435556411743164e+00,1.461326360702514648e+00,1.461217164993286133e+00,1.461107969284057617e+00,1.460998773574829102e+00,1.460889697074890137e+00,1.460780501365661621e+00,1.460671424865722656e+00,1.460562467575073242e+00,1.460453391075134277e+00,1.460344314575195312e+00,1.460235238075256348e+00,1.460126161575317383e+00,1.460017204284667969e+00,1.459908127784729004e+00,1.459799170494079590e+00,1.459690213203430176e+00,1.459581255912780762e+00,1.459472298622131348e+00,1.459363341331481934e+00,1.459254503250122070e+00,1.459145545959472656e+00,1.459036827087402344e+00,1.458927989006042480e+00,1.458819150924682617e+00,1.458710312843322754e+00,1.458601474761962891e+00,1.458492636680603027e+00
1.349249482154846191e+00,1.349156379699707031e+00,1.349063277244567871e+00,1.348970413208007812e+00,1.348877310752868652e+00,1.348784208297729492e+00,1.348691225051879883e+00,1.348598241806030273e+00,1.348505258560180664e+00,1.348412275314331055e+00,1.348319292068481445e+00,1.348226308822631836e+00,1.348133325576782227e+00,1.348040342330932617e+00,1.347947478294372559e+00,1.347854495048522949e+00,1.347761750221252441e+00,1.347668886184692383e+00,1.347576022148132324e+00,1.347483158111572266e+00,1.347390294075012207e+00,1.347297430038452148e+00,1.347204685211181641e+00,1.347111821174621582e+00,1.347019076347351074e+00,1.346926212310791016e+00,1.346833467483520508e+00,1.346740722656250000e+00,1.346647977828979492e+00,1.346555233001708984e+00,1.346462607383728027e+00,1.346369862556457520e+00,1.346277236938476562e+00,1.346184492111206055e+00,1.346091866493225098e+00,1.345999240875244141e+00,1.345906615257263184e+00,1.345813870429992676e+00,1.345721364021301270e+00,1.345628738403320312e+00,1.345536112785339355e+00,1.345443487167358398e+00,1.345350980758666992e+00,1.345258474349975586e+00,1.345165967941284180e+00,1.345073461532592773e+00,1.344980955123901367e+00,1.344888448715209961e+00,1.344795942306518555e+00,1.344703435897827148e+00,1.344610929489135742e+00,1.344518542289733887e+00,1.344426035881042480e+00,1.344333648681640625e+00,1.344241261482238770e+00,1.344148755073547363e+00,1.344056487083435059e+00,1.343964099884033203e+00,1.343871712684631348e+00,1.343779444694519043e+00,1.343687057495117188e+00,1.343594789505004883e+00,1.343502402305603027e+00,1.343410134315490723e+00,1.343317866325378418e+00,1.343225598335266113e+00,1.343133330345153809e+00,1.343041062355041504e+00,1.342948794364929199e+00,1.342856645584106445e+00,1.342764496803283691e+00,1.342672228813171387e+00,1.342580080032348633e+00,1.342487931251525879e+00,1.342395782470703125e+00,1.342303514480590820e+00,1.342211484909057617e+00,1.342119336128234863e+00,1.342027187347412109e+00,1.341935038566589355e+00
1.248898029327392578e+00,1.248818278312683105e+00,1.248738527297973633e+00,1.248658776283264160e+00,1.248579144477844238e+00,1.248499393463134766e+00,1.248419642448425293e+00,1.248340010643005371e+00,1.248260259628295898e+00,1.248180627822875977e+00,1.248100876808166504e+00,1.248021245002746582e+00,1.247941732406616211e+00,1.247862100601196289e+00,1.247782468795776367e+00,1.247702836990356445e+00,1.247623205184936523e+00,1.247543573379516602e+00,1.247464060783386230e+00,1.247384428977966309e+00,1.247304916381835938e+00,1.247225284576416016e+00,1.247145771980285645e+00,1.247066259384155273e+00,1.246986746788024902e+00,1.246907234191894531e+00,1.246827721595764160e+00,1.246748328208923340e+00,1.246668815612792969e+00,1.246589303016662598e+00,1.246509790420532227e+00,1.246430397033691406e+00,1.246350884437561035e+00,1.246271491050720215e+00,1.246192097663879395e+00,1.246112704277038574e+00,1.246033191680908203e+00,1.245953798294067383e+00,1.245874524116516113e+00,1.245795130729675293e+00,1.245715856552124023e+00,1.245636463165283203e+00,1.245557069778442383e+00,1.245477795600891113e+00,1.245398402214050293e+00,1.245319128036499023e+00,1.245239853858947754e+00,1.245160579681396484e+00,1.245081305503845215e+00,1.245002031326293945e+00,1.244922757148742676e+00,1.244843482971191406e+00,1.244764328002929688e+00,1.244685053825378418e+00,1.244605898857116699e+00,1.244526624679565430e+00,1.244447469711303711e+00,1.244368195533752441e+00,1.244289040565490723e+00,1.244209885597229004e+00,1.244130730628967285e+00,1.244051575660705566e+00,1.243972420692443848e+00,1.243893265724182129e+00,1.243814110755920410e+00,1.243735194206237793e+00,1.243656039237976074e+00,1.243577003479003906e+00,1.243497848510742188e+00,1.243418812751770020e+00,1.243339776992797852e+00,1.243260741233825684e+00,1.243181586265563965e+00,1.243102550506591797e+00,1.243023633956909180e+00,1.242944598197937012e+00,1.242865562438964844e+00,1.242786526679992676e+00,1.242707610130310059e+00,1.242628693580627441e+00
1.162440657615661621e+00,1.162371516227722168e+00,1.162302494049072266e+00,1.162233352661132812e+00,1.162164330482482910e+00,1.162095189094543457e+00,1.162026166915893555e+00,1.161957144737243652e+00,1.161888122558593750e+00,1.161819100379943848e+00,1.161750078201293945e+00,1.161681056022644043e+00,1.161612033843994141e+00,1.161543011665344238e+00,1.161474108695983887e+00,1.161405086517333984e+00,1.161336064338684082e+00,1.161267161369323730e+00,1.161198139190673828e+00,1.161129236221313477e+00,1.161060214042663574e+00,1.160991430282592773e+00,1.160922527313232422e+00,1.160853505134582520e+00,1.160784602165222168e+00,1.160715699195861816e+00,1.160646796226501465e+00,1.160577893257141113e+00,1.160509109497070312e+00,1.160440206527709961e+00,1.160371303558349609e+00,1.160302519798278809e+00,1.160233616828918457e+00,1.160164833068847656e+00,1.160095930099487305e+00,1.160027265548706055e+00,1.159958362579345703e+00,1.159889578819274902e+00,1.159820795059204102e+00,1.159752011299133301e+00,1.159683227539062500e+00,1.159614443778991699e+00,1.159545660018920898e+00,1.159476876258850098e+00,1.159408211708068848e+00,1.159339427947998047e+00,1.159270644187927246e+00,1.159201979637145996e+00,1.159133315086364746e+00,1.159064650535583496e+00,1.158995866775512695e+00,1.158927202224731445e+00,1.158858537673950195e+00,1.158789873123168945e+00,1.158721208572387695e+00,1.158652544021606445e+00,1.158583879470825195e+00,1.158515214920043945e+00,1.158446550369262695e+00,1.158378005027770996e+00,1.158309340476989746e+00,1.158240795135498047e+00,1.158172249794006348e+00,1.158103704452514648e+00,1.158035039901733398e+00,1.157966494560241699e+00,1.157897949218750000e+00,1.157829403877258301e+00,1.157760858535766602e+00,1.157692313194274902e+00,1.157623767852783203e+00,1.157555222511291504e+00,1.157486677169799805e+00,1.157418131828308105e+00,1.157349705696105957e+00,1.157281279563903809e+00,1.157212734222412109e+00,1.157144308090209961e+00,1.157075762748718262e+00,1.157007336616516113e+00
1.087178468704223633e+00,1.087118029594421387e+00,1.087057590484619141e+00,1.086997151374816895e+00,1.086936831474304199e+00,1.086876392364501953e+00,1.086816072463989258e+00,1.086755633354187012e+00,1.086695194244384766e+00,1.086634874343872070e+00,1.086574435234069824e+00,1.086514115333557129e+00,1.086453676223754883e+00,1.086393356323242188e+00,1.086333036422729492e+00,1.086272597312927246e+00,1.086212277412414551e+00,1.086152076721191406e+00,1.086091756820678711e+00,1.086031436920166016e+00,1.085971117019653320e+00,1.085910797119140625e+00,1.085850477218627930e+00,1.085790157318115234e+00,1.085729837417602539e+00,1.085669636726379395e+00,1.085609316825866699e+00,1.085549116134643555e+00,1.085488796234130859e+00,1.085428595542907715e+00,1.085368394851684570e+00,1.085308194160461426e+00,1.085247874259948730e+00,1.085187673568725586e+00,1.085127472877502441e+00,1.085067272186279297e+00,1.085007071495056152e+00,1.084946870803833008e+00,1.084886670112609863e+00,1.084826469421386719e+00,1.084766268730163574e+00,1.084706068038940430e+00,1.084645867347717285e+00,1.084585785865783691e+00,1.084525704383850098e+00,1.084465503692626953e+00,1.084405422210693359e+00,1.084345221519470215e+00,1.084285140037536621e+00,1.084225058555603027e+00,1.084164857864379883e+00,1.084104776382446289e+00,1.084044694900512695e+00,1.083984613418579102e+00,1.083924531936645508e+00,1.083864450454711914e+00,1.083804368972778320e+00,1.083744287490844727e+00,1.083684325218200684e+00,1.083624243736267090e+00,1.083564162254333496e+00,1.083504080772399902e+00,1.083444118499755859e+00,1.083384037017822266e+00,1.083324074745178223e+00,1.083263993263244629e+00,1.083204030990600586e+00,1.083144068717956543e+00,1.083083987236022949e+00,1.083024024963378906e+00,1.082964181900024414e+00,1.082904100418090820e+00,1.082844138145446777e+00,1.082784175872802734e+00,1.082724213600158691e+00,1.082664370536804199e+00,1.082604408264160156e+00,1.082544445991516113e+00,1.082484483718872070e+00,1.082424640655517578e+00
1.021069526672363281e+00,1.021016240119934082e+00,1.020962953567504883e+00,1.020909547805786133e+00,1.020856261253356934e+00,1.020802974700927734e+00,1.020749688148498535e+00,1.020696401596069336e+00,1.020643115043640137e+00,1.020589947700500488e+00,1.020536661148071289e+00,1.020483374595642090e+00,1.020430088043212891e+00,1.020376920700073242e+00,1.020323634147644043e+00,1.020270466804504395e+00,1.020217180252075195e+00,1.020164012908935547e+00,1.020110726356506348e+00,1.020057559013366699e+00,1.020004391670227051e+00,1.019951105117797852e+00,1.019897937774658203e+00,1.019844770431518555e+00,1.019791603088378906e+00,1.019738435745239258e+00,1.019685268402099609e+00,1.019632101058959961e+00,1.019578933715820312e+00,1.019525766372680664e+00,1.019472599029541016e+00,1.019419431686401367e+00,1.019366383552551270e+00,1.019313216209411621e+00,1.019260048866271973e+00,1.019206881523132324e+00,1.019153833389282227e+00,1.019100666046142578e+00,1.019047617912292480e+00,1.018994450569152832e+00,1.018941402435302734e+00,1.018888354301452637e+00,1.018835306167602539e+00,1.018782138824462891e+00,1.018729090690612793e+00,1.018676042556762695e+00,1.018622994422912598e+00,1.018569946289062500e+00,1.018516898155212402e+00,1.018463850021362305e+00,1.018410801887512207e+00,1.018357753753662109e+00,1.018304705619812012e+00,1.018251776695251465e+00,1.018198728561401367e+00,1.018145680427551270e+00,1.018092632293701172e+00,1.018039703369140625e+00,1.017986655235290527e+00,1.017933726310729980e+00,1.017880678176879883e+00,1.017827749252319336e+00,1.017774701118469238e+00,1.017721772193908691e+00,1.017668843269348145e+00,1.017615795135498047e+00,1.017562985420227051e+00,1.017509937286376953e+00,1.017457008361816406e+00,1.017404079437255859e+00,1.017351150512695312e+00,1.017298221588134766e+00,1.017245292663574219e+00,1.017192363739013672e+00,1.017139434814453125e+00,1.017086625099182129e+00,1.017033696174621582e+00,1.016980767250061035e+00,1.016927838325500488e+00,1.016875028610229492e+00
9.625395536422729492e-01,9.624921679496765137e-01,9.624447822570800781e-01,9.623973965644836426e-01,9.623500108718872070e-01,9.623026847839355469e-01,9.622552990913391113e-01,9.622079730033874512e-01,9.621606469154357910e-01,9.621133804321289062e-01,9.620660543441772461e-01,9.620187282562255859e-01,9.619714021682739258e-01,9.619240760803222656e-01,9.618767499923706055e-01,9.618294835090637207e-01,9.617821574211120605e-01,9.617348313331604004e-01,9.616875648498535156e-01,9.616402387619018555e-01,9.615929722785949707e-01,9.615456461906433105e-01,9.614983797073364258e-01,9.614511132240295410e-01,9.614038467407226562e-01,9.613565802574157715e-01,9.613093137741088867e-01,9.612620472908020020e-01,9.612148404121398926e-01,9.611675739288330078e-01,9.611203074455261230e-01,9.610731005668640137e-01,9.610258340835571289e-01,9.609786272048950195e-01,9.609314203262329102e-01,9.608842730522155762e-01,9.608370661735534668e-01,9.607898592948913574e-01,9.607426524162292480e-01,9.606954455375671387e-01,9.606482386589050293e-01,9.606010317802429199e-01,9.605538845062255859e-01,9.605066776275634766e-01,9.604595303535461426e-01,9.604123234748840332e-01,9.603651762008666992e-01,9.603180289268493652e-01,9.602708220481872559e-01,9.602236747741699219e-01,9.601765275001525879e-01,9.601293802261352539e-01,9.600822329521179199e-01,9.600350856781005859e-01,9.599879980087280273e-01,9.599408507347106934e-01,9.598937034606933594e-01,9.598466157913208008e-01,9.597994685173034668e-01,9.597523808479309082e-01,9.597052931785583496e-01,9.596581459045410156e-01,9.596111774444580078e-01,9.595640897750854492e-01,9.595170021057128906e-01,9.594699144363403320e-01,9.594228267669677734e-01,9.593757987022399902e-01,9.593287110328674316e-01,9.592816233634948730e-01,9.592345952987670898e-01,9.591875076293945312e-01,9.591404795646667480e-01,9.590934514999389648e-01,9.590464234352111816e-01,9.589993357658386230e-01,9.589523077011108398e-01,9.589052796363830566e-01,9.588582515716552734e-01,9.588112831115722656e-01
9.103558659553527832e-01,9.103134870529174805e-01,9.102711081504821777e-01,9.102287292480468750e-01,9.101863503456115723e-01,9.101440906524658203e-01,9.101017713546752930e-01,9.100593924522399902e-01,9.100170135498046875e-01,9.099746942520141602e-01,9.099323153495788574e-01,9.098899960517883301e-01,9.098476767539978027e-01,9.098052978515625000e-01,9.097629785537719727e-01,9.097206592559814453e-01,9.096783399581909180e-01,9.096360206604003906e-01,9.095937013626098633e-01,9.095513820648193359e-01,9.095091223716735840e-01,9.094668030738830566e-01,9.094244837760925293e-01,9.093822240829467773e-01,9.093399047851562500e-01,9.092976450920104980e-01,9.092553257942199707e-01,9.092130661010742188e-01,9.091708064079284668e-01,9.091285467147827148e-01,9.090862870216369629e-01,9.090440869331359863e-01,9.090018272399902344e-01,9.089595675468444824e-01,9.089173078536987305e-01,9.088751077651977539e-01,9.088328480720520020e-01,9.087905883789062500e-01,9.087483882904052734e-01,9.087061285972595215e-01,9.086639285087585449e-01,9.086216688156127930e-01,9.085794687271118164e-01,9.085372686386108398e-01,9.084950685501098633e-01,9.084528088569641113e-01,9.084106087684631348e-01,9.083684086799621582e-01,9.083262085914611816e-01,9.082840681076049805e-01,9.082418680191040039e-01,9.081996679306030273e-01,9.081574678421020508e-01,9.081153273582458496e-01,9.080731272697448730e-01,9.080309867858886719e-01,9.079887866973876953e-01,9.079466462135314941e-01,9.079045653343200684e-01,9.078624248504638672e-01,9.078202843666076660e-01,9.077781438827514648e-01,9.077360033988952637e-01,9.076938629150390625e-01,9.076517224311828613e-01,9.076095819473266602e-01,9.075675010681152344e-01,9.075253605842590332e-01,9.074832201004028320e-01,9.074411392211914062e-01,9.073989987373352051e-01,9.073569178581237793e-01,9.073148369789123535e-01,9.072726964950561523e-01,9.072306156158447266e-01,9.071885347366333008e-01,9.071464538574218750e-01,9.071043729782104492e-01,9.070622920989990234e-01,9.070202112197875977e-01
8.635395765304565430e-01,8.635014295578002930e-01,8.634632825851440430e-01,8.634251356124877930e-01,8.633870482444763184e-01,8.633489012718200684e-01,8.633108139038085938e-01,8.632726669311523438e-01,8.632345795631408691e-01,8.631964921951293945e-01,8.631583452224731445e-01,8.631202578544616699e-01,8.630821704864501953e-01,8.630440831184387207e-01,8.630059957504272461e-01,8.629679083824157715e-01,8.629298210144042969e-01,8.628917336463928223e-01,8.628536462783813477e-01,8.628155589103698730e-01,8.627775311470031738e-01,8.627394437789916992e-01,8.627013564109802246e-01,8.626633286476135254e-01,8.626252412796020508e-01,8.625872135162353516e-01,8.625491857528686523e-01,8.625112175941467285e-01,8.624731302261352539e-01,8.624351024627685547e-01,8.623970746994018555e-01,8.623590469360351562e-01,8.623210191726684570e-01,8.622829914093017578e-01,8.622449636459350586e-01,8.622069358825683594e-01,8.621689081192016602e-01,8.621309399604797363e-01,8.620929121971130371e-01,8.620548844337463379e-01,8.620169162750244141e-01,8.619788885116577148e-01,8.619409203529357910e-01,8.619028925895690918e-01,8.618649244308471680e-01,8.618269562721252441e-01,8.617889285087585449e-01,8.617509603500366211e-01,8.617129921913146973e-01,8.616750240325927734e-01,8.616370558738708496e-01,8.615990877151489258e-01,8.615611195564270020e-01,8.615231513977050781e-01,8.614853024482727051e-01,8.614473342895507812e-01,8.614093661308288574e-01,8.613714575767517090e-01,8.613334894180297852e-01,8.612955808639526367e-01,8.612576127052307129e-01,8.612197041511535645e-01,8.611817359924316406e-01,8.611438274383544922e-01,8.611059188842773438e-01,8.610680103302001953e-01,8.610301017761230469e-01,8.609921932220458984e-01,8.609542846679687500e-01,8.609163761138916016e-01,8.608784675598144531e-01,8.608405590057373047e-01,8.608026504516601562e-01,8.607647418975830078e-01,8.607268929481506348e-01,8.606889843940734863e-01,8.606510758399963379e-01,8.606132268905639648e-01,8.605753183364868164e-01,8.605374693870544434e-01
8.213028311729431152e-01,8.212683200836181641e-01,8.212338089942932129e-01,8.211993575096130371e-01,8.211648464202880859e-01,8.211303949356079102e-01,8.210958838462829590e-01,8.210614323616027832e-01,8.210269212722778320e-01,8.209924697875976562e-01,8.209580183029174805e-01,8.209235668182373047e-01,8.208890557289123535e-01,8.208546042442321777e-01,8.208201527595520020e-01,8.207857012748718262e-01,8.207512497901916504e-01,8.207167983055114746e-01,8.206823468208312988e-01,8.206478953361511230e-01,8.206135034561157227e-01,8.205790519714355469e-01,8.205446004867553711e-01,8.205102682113647461e-01,8.204758167266845703e-01,8.204414248466491699e-01,8.204069733619689941e-01,8.203725814819335938e-01,8.203381299972534180e-01,8.203037381172180176e-01,8.202693462371826172e-01,8.202348947525024414e-01,8.202005028724670410e-01,8.201661109924316406e-01,8.201317191123962402e-01,8.200973272323608398e-01,8.200629353523254395e-01,8.200285434722900391e-01,8.199941515922546387e-01,8.199597597122192383e-01,8.199253678321838379e-01,8.198909759521484375e-01,8.198566436767578125e-01,8.198222517967224121e-01,8.197878599166870117e-01,8.197535276412963867e-01,8.197191357612609863e-01,8.196848034858703613e-01,8.196504116058349609e-01,8.196160793304443359e-01,8.195818066596984863e-01,8.195474147796630859e-01,8.195130825042724609e-01,8.194787502288818359e-01,8.194444179534912109e-01,8.194100856781005859e-01,8.193757534027099609e-01,8.193414211273193359e-01,8.193070888519287109e-01,8.192727565765380859e-01,8.192384243011474609e-01,8.192040920257568359e-01,8.191697597503662109e-01,8.191354870796203613e-01,8.191011548042297363e-01,8.190668225288391113e-01,8.190325498580932617e-01,8.189982175827026367e-01,8.189639449119567871e-01,8.189296126365661621e-01,8.188953399658203125e-01,8.188610076904296875e-01,8.188267350196838379e-01,8.187924623489379883e-01,8.187581896781921387e-01,8.187238574028015137e-01,8.186897039413452148e-01,8.186554312705993652e-01,8.186211585998535156e-01,8.185868859291076660e-01
7.830051183700561523e-01,7.829737663269042969e-01,7.829424142837524414e-01,7.829110622406005859e-01,7.828797698020935059e-01,7.828484177589416504e-01,7.828170657157897949e-01,7.827857136726379395e-01,7.827543616294860840e-01,7.827230691909790039e-01,7.826917171478271484e-01,7.826603651046752930e-01,7.826290726661682129e-01,7.825977206230163574e-01,7.825664281845092773e-01,7.825351357460021973e-01,7.825037837028503418e-01,7.824724912643432617e-01,7.824411392211914062e-01,7.824099063873291016e-01,7.823786139488220215e-01,7.823473215103149414e-01,7.823160290718078613e-01,7.822847366333007812e-01,7.822534441947937012e-01,7.822221517562866211e-01,7.821908593177795410e-01,7.821595668792724609e-01,7.821282744407653809e-01,7.820969820022583008e-01,7.820656895637512207e-01,7.820343971252441406e-01,7.820031642913818359e-01,7.819718718528747559e-01,7.819405794143676758e-01,7.819093465805053711e-01,7.818780541419982910e-01,7.818468213081359863e-01,7.818155288696289062e-01,7.817842960357666016e-01,7.817530632019042969e-01,7.817217707633972168e-01,7.816905379295349121e-01,7.816593050956726074e-01,7.816280126571655273e-01,7.815968394279479980e-01,7.815656065940856934e-01,7.815343737602233887e-01,7.815031409263610840e-01,7.814719080924987793e-01,7.814406752586364746e-01,7.814094424247741699e-01,7.813782095909118652e-01,7.813470363616943359e-01,7.813158035278320312e-01,7.812845706939697266e-01,7.812533378601074219e-01,7.812221646308898926e-01,7.811909317970275879e-01,7.811596989631652832e-01,7.811285257339477539e-01,7.810972929000854492e-01,7.810661196708679199e-01,7.810348868370056152e-01,7.810037136077880859e-01,7.809725403785705566e-01,7.809413075447082520e-01,7.809101343154907227e-01,7.808789610862731934e-01,7.808477878570556641e-01,7.808166146278381348e-01,7.807854413986206055e-01,7.807543277740478516e-01,7.807231545448303223e-01,7.806919813156127930e-01,7.806608080863952637e-01,7.806296348571777344e-01,7.805984616279602051e-01,7.805672883987426758e-01,7.805361747741699219e-01
