5.000000000000000000e+00,5.000000000000000000e+00,5.000000000000000000e+00,5.000000000000000000e+00,5.000000000000000000e+00,5.000000000000000000e+00,5.000000000000000000e+00,5.000000000000000000e+00,5.000000000000000000e+00,5.000000000000000000e+00,5.000000000000000000e+00,5.000000000000000000e+00,5.000000000000000000e+00,5.000000000000000000e+00,5.000000000000000000e+00,5.000000000000000000e+00,5.000000000000000000e+00,5.000000000000000000e+00,5.000000000000000000e+00,5.000000000000000000e+00,5.000000000000000000e+00,5.000000000000000000e+00,5.000000000000000000e+00,5.000000000000000000e+00,5.000000000000000000e+00,5.000000000000000000e+00,5.000000000000000000e+00,5.000000000000000000e+00,5.000000000000000000e+00,5.000000000000000000e+00,5.000000000000000000e+00,5.000000000000000000e+00,5.000000000000000000e+00,5.000000000000000000e+00,5.000000000000000000e+00,5.000000000000000000e+00,5.000000000000000000e+00,5.000000000000000000e+00,5.000000000000000000e+00,5.000000000000000000e+00,4.872229099273681641e+00,4.679088115692138672e+00,4.500676155090332031e+00,4.335369586944580078e+00,4.181776046752929688e+00,4.038693428039550781e+00,3.905078411102294922e+00,3.780020713806152344e+00,3.662724494934082031e+00,3.552489042282104492e+00,3.448694944381713867e+00,3.350793600082397461e+00,3.258297443389892578e+00,3.170770406723022461e+00,3.087823152542114258e+00,3.009104967117309570e+00,2.934300422668457031e+00,2.863125085830688477e+00,2.795320749282836914e+00,2.730653524398803711e+00,2.668910741806030273e+00,2.609898328781127930e+00,2.553439140319824219e+00,2.499370813369750977e+00,2.447545051574707031e+00,2.397824764251708984e+00,2.350084304809570312e+00,2.304207801818847656e+00,2.260088205337524414e+00,2.217626333236694336e+00,2.176730394363403320e+00,2.137315750122070312e+00,2.099302768707275391e+00,2.062618732452392578e+00,2.027194499969482422e+00,1.992966651916503906e+00,1.959875226020812988e+00,1.927864909172058105e+00,1.896883368492126465e+00,1.866881966590881348e+00
5.000000000000000000e+00,5.000000000000000000e+00,5.000000000000000000e+00,5.000000000000000000e+00,5.000000000000000000e+00,5.000000000000000000e+00,5.000000000000000000e+00,5.000000000000000000e+00,5.000000000000000000e+00,5.000000000000000000e+00,5.000000000000000000e+00,5.000000000000000000e+00,5.000000000000000000e+00,5.000000000000000000e+00,5.000000000000000000e+00,5.000000000000000000e+00,5.000000000000000000e+00,5.000000000000000000e+00,5.000000000000000000e+00,5.000000000000000000e+00,5.000000000000000000e+00,5.000000000000000000e+00,5.000000000000000000e+00,5.000000000000000000e+00,5.000000000000000000e+00,5.000000000000000000e+00,5.000000000000000000e+00,5.000000000000000000e+00,5.000000000000000000e+00,5.000000000000000000e+00,5.000000000000000000e+00,5.000000000000000000e+00,5.000000000000000000e+00,5.000000000000000000e+00,5.000000000000000000e+00,5.000000000000000000e+00,5.000000000000000000e+00,5.000000000000000000e+00,5.000000000000000000e+00,5.000000000000000000e+00,4.872372627258300781e+00,4.679220199584960938e+00,4.500798225402832031e+00,4.335483074188232422e+00,4.181881904602050781e+00,4.038792133331298828e+00,3.905170440673828125e+00,3.780107259750366211e+00,3.662805795669555664e+00,3.552565097808837891e+00,3.448766469955444336e+00,3.350861072540283203e+00,3.258361577987670898e+00,3.170831441879272461e+00,3.087880849838256836e+00,3.009159564971923828e+00,2.934352636337280273e+00,2.863174438476562500e+00,2.795367717742919922e+00,2.730698347091674805e+00,2.668953895568847656e+00,2.609939575195312500e+00,2.553478717803955078e+00,2.499408721923828125e+00,2.447581291198730469e+00,2.397859334945678711e+00,2.350117683410644531e+00,2.304239749908447266e+00,2.260118961334228516e+00,2.217655897140502930e+00,2.176759004592895508e+00,2.137343406677246094e+00,2.099329471588134766e+00,2.062644243240356445e+00,2.027219295501708984e+00,1.992990612983703613e+00,1.959898591041564941e+00,1.927887320518493652e+00,1.896905183792114258e+00,1.866902947425842285e+00
5.000000000000000000e+00,5.000000000000000000e+00,5.000000000000000000e+00,5.000000000000000000e+00,5.000000000000000000e+00,5.000000000000000000e+00,5.000000000000000000e+00,5.000000000000000000e+00,5.000000000000000000e+00,5.000000000000000000e+00,5.000000000000000000e+00,5.000000000000000000e+00,5.000000000000000000e+00,5.000000000000000000e+00,5.000000000000000000e+00,5.000000000000000000e+00,5.000000000000000000e+00,5.000000000000000000e+00,5.000000000000000000e+00,5.000000000000000000e+00,5.000000000000000000e+00,5.000000000000000000e+00,5.000000000000000000e+00,5.000000000000000000e+00,5.000000000000000000e+00,5.000000000000000000e+00,5.000000000000000000e+00,5.000000000000000000e+00,5.000000000000000000e+00,5.000000000000000000e+00,5.000000000000000000e+00,5.000000000000000000e+00,5.000000000000000000e+00,5.000000000000000000e+00,5.000000000000000000e+00,5.000000000000000000e+00,5.000000000000000000e+00,5.000000000000000000e+00,5.000000000000000000e+00,5.000000000000000000e+00,4.872516155242919922e+00,4.679352283477783203e+00,4.500920772552490234e+00,4.335597038269042969e+00,4.181987762451171875e+00,4.038890361785888672e+00,3.905262470245361328e+00,3.780193805694580078e+00,3.662886857986450195e+00,3.552641391754150391e+00,3.448838472366333008e+00,3.350929021835327148e+00,3.258425474166870117e+00,3.170892000198364258e+00,3.087938070297241211e+00,3.009214401245117188e+00,2.934404611587524414e+00,2.863224029541015625e+00,2.795414924621582031e+00,2.730743646621704102e+00,2.668996810913085938e+00,2.609980583190917969e+00,2.553517818450927734e+00,2.499446392059326172e+00,2.447617530822753906e+00,2.397894144058227539e+00,2.350151062011718750e+00,2.304271936416625977e+00,2.260149717330932617e+00,2.217685699462890625e+00,2.176787614822387695e+00,2.137371063232421875e+00,2.099356174468994141e+00,2.062669992446899414e+00,2.027244091033935547e+00,1.993014454841613770e+00,1.959921717643737793e+00,1.927909731864929199e+00,1.896926879882812500e+00,1.866924047470092773e+00
5.000000000000000000e+00,5.000000000000000000e+00,5.000000000000000000e+00,5.000000000000000000e+00,5.000000000000000000e+00,5.000000000000000000e+00,5.000000000000000000e+00,5.000000000000000000e+00,5.000000000000000000e+00,5.000000000000000000e+00,5.000000000000000000e+00,5.000000000000000000e+00,5.000000000000000000e+00,5.000000000000000000e+00,5.000000000000000000e+00,5.000000000000000000e+00,5.000000000000000000e+00,5.000000000000000000e+00,5.000000000000000000e+00,5.000000000000000000e+00,5.000000000000000000e+00,5.000000000000000000e+00,5.000000000000000000e+00,5.000000000000000000e+00,5.000000000000000000e+00,5.000000000000000000e+00,5.000000000000000000e+00,5.000000000000000000e+00,5.000000000000000000e+00,5.000000000000000000e+00,5.000000000000000000e+00,5.000000000000000000e+00,5.000000000000000000e+00,5.000000000000000000e+00,5.000000000000000000e+00,5.000000000000000000e+00,5.000000000000000000e+00,5.000000000000000000e+00,5.000000000000000000e+00,5.000000000000000000e+00,4.872659206390380859e+00,4.679484844207763672e+00,4.501043319702148438e+00,4.335710525512695312e+00,4.182093143463134766e+00,4.038989067077636719e+00,3.905354738235473633e+00,3.780279636383056641e+00,3.662967681884765625e+00,3.552717447280883789e+00,3.448910474777221680e+00,3.350996971130371094e+00,3.258489847183227539e+00,3.170952796936035156e+00,3.087995767593383789e+00,3.009268999099731445e+00,2.934456348419189453e+00,2.863273382186889648e+00,2.795462369918823242e+00,2.730788707733154297e+00,2.669039964675903320e+00,2.610021829605102539e+00,2.553557395935058594e+00,2.499484062194824219e+00,2.447653532028198242e+00,2.397928953170776367e+00,2.350184440612792969e+00,2.304304122924804688e+00,2.260180711746215820e+00,2.217715263366699219e+00,2.176816225051879883e+00,2.137398481369018555e+00,2.099382638931274414e+00,2.062695741653442383e+00,2.027269124984741211e+00,1.993038654327392578e+00,1.959944844245910645e+00,1.927932262420654297e+00,1.896948575973510742e+00,1.866945028305053711e+00
5.000000000000000000e+00,5.000000000000000000e+00,5.000000000000000000e+00,5.000000000000000000e+00,5.000000000000000000e+00,5.000000000000000000e+00,5.000000000000000000e+00,5.000000000000000000e+00,5.000000000000000000e+00,5.000000000000000000e+00,5.000000000000000000e+00,5.000000000000000000e+00,5.000000000000000000e+00,5.000000000000000000e+00,5.000000000000000000e+00,5.000000000000000000e+00,5.000000000000000000e+00,5.000000000000000000e+00,5.000000000000000000e+00,5.000000000000000000e+00,5.000000000000000000e+00,5.000000000000000000e+00,5.000000000000000000e+00,5.000000000000000000e+00,5.000000000000000000e+00,5.000000000000000000e+00,5.000000000000000000e+00,5.000000000000000000e+00,5.000000000000000000e+00,5.000000000000000000e+00,5.000000000000000000e+00,5.000000000000000000e+00,5.000000000000000000e+00,5.000000000000000000e+00,5.000000000000000000e+00,5.000000000000000000e+00,5.000000000000000000e+00,5.000000000000000000e+00,5.000000000000000000e+00,5.000000000000000000e+00,4.872802734375000000e+00,4.679616928100585938e+00,4.501165390014648438e+00,4.335823535919189453e+00,4.182198524475097656e+00,4.039087772369384766e+00,3.905447006225585938e+00,3.780366182327270508e+00,3.663048744201660156e+00,3.552793741226196289e+00,3.448982000350952148e+00,3.351064682006835938e+00,3.258553743362426758e+00,3.171013593673706055e+00,3.088053464889526367e+00,3.009323835372924805e+00,2.934508562088012695e+00,2.863322973251342773e+00,2.795509338378906250e+00,2.730833530426025391e+00,2.669082641601562500e+00,2.610063076019287109e+00,2.553596735000610352e+00,2.499521970748901367e+00,2.447689771652221680e+00,2.397963523864746094e+00,2.350217819213867188e+00,2.304336071014404297e+00,2.260211467742919922e+00,2.217745065689086914e+00,2.176844835281372070e+00,2.137426137924194336e+00,2.099409341812133789e+00,2.062721490859985352e+00,2.027293682098388672e+00,1.993062496185302734e+00,1.959967970848083496e+00,1.927954673767089844e+00,1.896970391273498535e+00,1.866966009140014648e+00
5.000000000000000000e+00,5.000000000000000000e+00,5.000000000000000000e+00,5.000000000000000000e+00,5.000000000000000000e+00,5.000000000000000000e+00,5.000000000000000000e+00,5.000000000000000000e+00,5.000000000000000000e+00,5.000000000000000000e+00,5.000000000000000000e+00,5.000000000000000000e+00,5.000000000000000000e+00,5.000000000000000000e+00,5.000000000000000000e+00,5.000000000000000000e+00,5.000000000000000000e+00,5.000000000000000000e+00,5.000000000000000000e+00,5.000000000000000000e+00,5.000000000000000000e+00,5.000000000000000000e+00,5.000000000000000000e+00,5.000000000000000000e+00,5.000000000000000000e+00,5.000000000000000000e+00,5.000000000000000000e+00,5.000000000000000000e+00,5.000000000000000000e+00,5.000000000000000000e+00,5.000000000000000000e+00,5.000000000000000000e+00,5.000000000000000000e+00,5.000000000000000000e+00,5.000000000000000000e+00,5.000000000000000000e+00,5.000000000000000000e+00,5.000000000000000000e+00,5.000000000000000000e+00,5.000000000000000000e+00,4.872946262359619141e+00,4.679749488830566406e+00,4.501287937164306641e+00,4.335937023162841797e+00,4.182304382324218750e+00,4.039186000823974609e+00,3.905538797378540039e+00,3.780452251434326172e+00,3.663130044937133789e+00,3.552870273590087891e+00,3.449054002761840820e+00,3.351132631301879883e+00,3.258617877960205078e+00,3.171074151992797852e+00,3.088110923767089844e+00,3.009378194808959961e+00,2.934560537338256836e+00,2.863372564315795898e+00,2.795556545257568359e+00,2.730878591537475586e+00,2.669125795364379883e+00,2.610104084014892578e+00,2.553636074066162109e+00,2.499559402465820312e+00,2.447726011276245117e+00,2.397998332977294922e+00,2.350251197814941406e+00,2.304368019104003906e+00,2.260242462158203125e+00,2.217774629592895508e+00,2.176873445510864258e+00,2.137453556060791016e+00,2.099436044692993164e+00,2.062747240066528320e+00,2.027318716049194336e+00,1.993086457252502441e+00,1.959991335868835449e+00,1.927977085113525391e+00,1.896992087364196777e+00,1.866986989974975586e+00
5.000000000000000000e+00,5.000000000000000000e+00,5.000000000000000000e+00,5.000000000000000000e+00,5.000000000000000000e+00,5.000000000000000000e+00,5.000000000000000000e+00,5.000000000000000000e+00,5.000000000000000000e+00,5.000000000000000000e+00,5.000000000000000000e+00,5.000000000000000000e+00,5.000000000000000000e+00,5.000000000000000000e+00,5.000000000000000000e+00,5.000000000000000000e+00,5.000000000000000000e+00,5.000000000000000000e+00,5.000000000000000000e+00,5.000000000000000000e+00,5.000000000000000000e+00,5.000000000000000000e+00,5.000000000000000000e+00,5.000000000000000000e+00,5.000000000000000000e+00,5.000000000000000000e+00,5.000000000000000000e+00,5.000000000000000000e+00,5.000000000000000000e+00,5.000000000000000000e+00,5.000000000000000000e+00,5.000000000000000000e+00,5.000000000000000000e+00,5.000000000000000000e+00,5.000000000000000000e+00,5.000000000000000000e+00,5.000000000000000000e+00,5.000000000000000000e+00,5.000000000000000000e+00,5.000000000000000000e+00,4.873089313507080078e+00,4.679881572723388672e+00,4.501410007476806641e+00,4.336050987243652344e+00,4.182410240173339844e+00,4.039284706115722656e+00,3.905631065368652344e+00,3.780538797378540039e+00,3.663210868835449219e+00,3.552946090698242188e+00,3.449125528335571289e+00,3.351200580596923828e+00,3.258682250976562500e+00,3.171134948730468750e+00,3.088168621063232422e+00,3.009433031082153320e+00,2.934612512588500977e+00,2.863421916961669922e+00,2.795603752136230469e+00,2.730923891067504883e+00,2.669168949127197266e+00,2.610145330429077148e+00,2.553675413131713867e+00,2.499597311019897461e+00,2.447762250900268555e+00,2.398033142089843750e+00,2.350284337997436523e+00,2.304400205612182617e+00,2.260273218154907227e+00,2.217804431915283203e+00,2.176902055740356445e+00,2.137481212615966797e+00,2.099462509155273438e+00,2.062772750854492188e+00,2.027343273162841797e+00,1.993110656738281250e+00,1.960014462471008301e+00,1.927999615669250488e+00,1.897013783454895020e+00,1.867008209228515625e+00
5.000000000000000000e+00,5.000000000000000000e+00,5.000000000000000000e+00,5.000000000000000000e+00,5.000000000000000000e+00,5.000000000000000000e+00,5.000000000000000000e+00,5.000000000000000000e+00,5.000000000000000000e+00,5.000000000000000000e+00,5.000000000000000000e+00,5.000000000000000000e+00,5.000000000000000000e+00,5.000000000000000000e+00,5.000000000000000000e+00,5.000000000000000000e+00,5.000000000000000000e+00,5.000000000000000000e+00,5.000000000000000000e+00,5.000000000000000000e+00,5.000000000000000000e+00,5.000000000000000000e+00,5.000000000000000000e+00,5.000000000000000000e+00,5.000000000000000000e+00,4.038929462432861328e+00,4.077431678771972656e+00,5.000000000000000000e+00,5.000000000000000000e+00,5.000000000000000000e+00,5.000000000000000000e+00,5.000000000000000000e+00,5.000000000000000000e+00,5.000000000000000000e+00,5.000000000000000000e+00,5.000000000000000000e+00,5.000000000000000000e+00,5.000000000000000000e+00,5.000000000000000000e+00,5.000000000000000000e+00,4.873232841491699219e+00,4.680013656616210938e+00,4.501532554626464844e+00,4.336164474487304688e+00,4.182515621185302734e+00,4.039382934570312500e+00,3.905723333358764648e+00,3.780625104904174805e+00,3.663291931152343750e+00,3.553022623062133789e+00,3.449197530746459961e+00,3.351268053054809570e+00,3.258746147155761719e+00,3.171195507049560547e+00,3.088226318359375000e+00,3.009487867355346680e+00,2.934664487838745117e+00,2.863471508026123047e+00,2.795650959014892578e+00,2.730968713760375977e+00,2.669211864471435547e+00,2.610186338424682617e+00,2.553714990615844727e+00,2.499634981155395508e+00,2.447798490524291992e+00,2.398067712783813477e+00,2.350317716598510742e+00,2.304432153701782227e+00,2.260303974151611328e+00,2.217833995819091797e+00,2.176930904388427734e+00,2.137508869171142578e+00,2.099489212036132812e+00,2.062798500061035156e+00,2.027368307113647461e+00,1.993134498596191406e+00,1.960037589073181152e+00,1.928022027015686035e+00,1.897035598754882812e+00,1.867029190063476562e+00
5.000000000000000000e+00,5.000000000000000000e+00,5.000000000000000000e+00,5.000000000000000000e+00,5.000000000000000000e+00,5.000000000000000000e+00,5.000000000000000000e+00,5.000000000000000000e+00,5.000000000000000000e+00,5.000000000000000000e+00,5.000000000000000000e+00,5.000000000000000000e+00,5.000000000000000000e+00,5.000000000000000000e+00,5.000000000000000000e+00,5.000000000000000000e+00,5.000000000000000000e+00,5.000000000000000000e+00,5.000000000000000000e+00,5.000000000000000000e+00,5.000000000000000000e+00,5.000000000000000000e+00,5.000000000000000000e+00,5.000000000000000000e+00,5.000000000000000000e+00,4.047233581542968750e+00,4.068233489990234375e+00,5.000000000000000000e+00,5.000000000000000000e+00,5.000000000000000000e+00,5.000000000000000000e+00,5.000000000000000000e+00,5.000000000000000000e+00,5.000000000000000000e+00,5.000000000000000000e+00,5.000000000000000000e+00,5.000000000000000000e+00,5.000000000000000000e+00,5.000000000000000000e+00,5.000000000000000000e+00,4.873375892639160156e+00,4.680146217346191406e+00,4.501655101776123047e+00,4.336277961730957031e+00,4.182621002197265625e+00,4.039481639862060547e+00,3.905815124511718750e+00,3.780711174011230469e+00,3.663372755050659180e+00,3.553098917007446289e+00,3.449269533157348633e+00,3.351336002349853516e+00,3.258810281753540039e+00,3.171256303787231445e+00,3.088283777236938477e+00,3.009542465209960938e+00,2.934716463088989258e+00,2.863521099090576172e+00,2.795698165893554688e+00,2.731013774871826172e+00,2.669255018234252930e+00,2.610227584838867188e+00,2.553754091262817383e+00,2.499672651290893555e+00,2.447834491729736328e+00,2.398102521896362305e+00,2.350351333618164062e+00,2.304464340209960938e+00,2.260334968566894531e+00,2.217863798141479492e+00,2.176959276199340820e+00,2.137536287307739258e+00,2.099515914916992188e+00,2.062824249267578125e+00,2.027393102645874023e+00,1.993158459663391113e+00,1.960060954093933105e+00,1.928044438362121582e+00,1.897057294845581055e+00,1.867050170898437500e+00
5.000000000000000000e+00,5.000000000000000000e+00,5.000000000000000000e+00,5.000000000000000000e+00,5.000000000000000000e+00,5.000000000000000000e+00,5.000000000000000000e+00,5.000000000000000000e+00,5.000000000000000000e+00,5.000000000000000000e+00,5.000000000000000000e+00,5.000000000000000000e+00,5.000000000000000000e+00,5.000000000000000000e+00,5.000000000000000000e+00,5.000000000000000000e+00,5.000000000000000000e+00,5.000000000000000000e+00,5.000000000000000000e+00,5.000000000000000000e+00,5.000000000000000000e+00,5.000000000000000000e+00,5.000000000000000000e+00,5.000000000000000000e+00,5.000000000000000000e+00,4.054459571838378906e+00,4.087437629699707031e+00,5.000000000000000000e+00,5.000000000000000000e+00,5.000000000000000000e+00,5.000000000000000000e+00,5.000000000000000000e+00,5.000000000000000000e+00,5.000000000000000000e+00,5.000000000000000000e+00,5.000000000000000000e+00,5.000000000000000000e+00,5.000000000000000000e+00,5.000000000000000000e+00,5.000000000000000000e+00,4.873519897460937500e+00,4.680278301239013672e+00,4.501777172088623047e+00,4.336391448974609375e+00,4.182726860046386719e+00,4.039580345153808594e+00,3.905907392501831055e+00,3.780797719955444336e+00,3.663454055786132812e+00,3.553174972534179688e+00,3.449341058731079102e+00,3.351403951644897461e+00,3.258874654769897461e+00,3.171317100524902344e+00,3.088341474533081055e+00,3.009597063064575195e+00,2.934768438339233398e+00,2.863570451736450195e+00,2.795745372772216797e+00,2.731058835983276367e+00,2.669297933578491211e+00,2.610268592834472656e+00,2.553793668746948242e+00,2.499710559844970703e+00,2.447870731353759766e+00,2.398137331008911133e+00,2.350384473800659180e+00,2.304496526718139648e+00,2.260365962982177734e+00,2.217893600463867188e+00,2.176987886428833008e+00,2.137563943862915039e+00,2.099542379379272461e+00,2.062849998474121094e+00,2.027417898178100586e+00,1.993182539939880371e+00,1.960084080696105957e+00,1.928066968917846680e+00,1.897078990936279297e+00,1.867071390151977539e+00
5.000000000000000000e+00,5.000000000000000000e+00,5.000000000000000000e+00,5.000000000000000000e+00,5.000000000000000000e+00,5.000000000000000000e+00,5.000000000000000000e+00,5.000000000000000000e+00,5.000000000000000000e+00,5.000000000000000000e+00,5.000000000000000000e+00,5.000000000000000000e+00,5.000000000000000000e+00,5.000000000000000000e+00,5.000000000000000000e+00,5.000000000000000000e+00,5.000000000000000000e+00,5.000000000000000000e+00,5.000000000000000000e+00,5.000000000000000000e+00,5.000000000000000000e+00,5.000000000000000000e+00,5.000000000000000000e+00,5.000000000000000000e+00,5.000000000000000000e+00,4.148226261138916016e+00,4.136144161224365234e+00,4.158431053161621094e+00,5.000000000000000000e+00,5.000000000000000000e+00,5.000000000000000000e+00,5.000000000000000000e+00,5.000000000000000000e+00,5.000000000000000000e+00,5.000000000000000000e+00,5.000000000000000000e+00,5.000000000000000000e+00,5.000000000000000000e+00,5.000000000000000000e+00,5.000000000000000000e+00,4.873662948608398438e+00,4.680410385131835938e+00,4.501899719238281250e+00,4.336504936218261719e+00,4.182832717895507812e+00,4.039678573608398438e+00,3.905999660491943359e+00,3.780884265899658203e+00,3.663535118103027344e+00,3.553251266479492188e+00,3.449413061141967773e+00,3.351471662521362305e+00,3.258938550949096680e+00,3.171377658843994141e+00,3.088399171829223633e+00,3.009651899337768555e+00,2.934820652008056641e+00,2.863620281219482422e+00,2.795792579650878906e+00,2.731103897094726562e+00,2.669340848922729492e+00,2.610309600830078125e+00,2.553833007812500000e+00,2.499748229980468750e+00,2.447906970977783203e+00,2.398172140121459961e+00,2.350417852401733398e+00,2.304528474807739258e+00,2.260396718978881836e+00,2.217923164367675781e+00,2.177016735076904297e+00,2.137591600418090820e+00,2.099569082260131836e+00,2.062875747680664062e+00,2.027442693710327148e+00,1.993206501007080078e+00,1.960107207298278809e+00,1.928089380264282227e+00,1.897100806236267090e+00,1.867092370986938477e+00
5.000000000000000000e+00,5.000000000000000000e+00,5.000000000000000000e+00,5.000000000000000000e+00,5.000000000000000000e+00,5.000000000000000000e+00,5.000000000000000000e+00,5.000000000000000000e+00,5.000000000000000000e+00,5.000000000000000000e+00,5.000000000000000000e+00,5.000000000000000000e+00,5.000000000000000000e+00,5.000000000000000000e+00,5.000000000000000000e+00,5.000000000000000000e+00,5.000000000000000000e+00,5.000000000000000000e+00,5.000000000000000000e+00,5.000000000000000000e+00,5.000000000000000000e+00,5.000000000000000000e+00,4.120409965515136719e+00,4.092187881469726562e+00,4.062925815582275391e+00,4.055312633514404297e+00,4.061041355133056641e+00,4.072071075439453125e+00,4.105669021606445312e+00,4.145392894744873047e+00,5.000000000000000000e+00,5.000000000000000000e+00,5.000000000000000000e+00,5.000000000000000000e+00,5.000000000000000000e+00,5.000000000000000000e+00,5.000000000000000000e+00,5.000000000000000000e+00,5.000000000000000000e+00,5.000000000000000000e+00,4.873806476593017578e+00,4.680542945861816406e+00,4.502022266387939453e+00,4.336618423461914062e+00,4.182938098907470703e+00,4.039777278900146484e+00,3.906091451644897461e+00,3.780970335006713867e+00,3.663615942001342773e+00,3.553327798843383789e+00,3.449485063552856445e+00,3.351539611816406250e+00,3.259002923965454102e+00,3.171438455581665039e+00,3.088456630706787109e+00,3.009706497192382812e+00,2.934872627258300781e+00,2.863669872283935547e+00,2.795839786529541016e+00,2.731148958206176758e+00,2.669384002685546875e+00,2.610350847244262695e+00,2.553872346878051758e+00,2.499785900115966797e+00,2.447942972183227539e+00,2.398206710815429688e+00,2.350451231002807617e+00,2.304560661315917969e+00,2.260427474975585938e+00,2.217952966690063477e+00,2.177045106887817383e+00,2.137619256973266602e+00,2.099595785140991211e+00,2.062901496887207031e+00,2.027467489242553711e+00,1.993230462074279785e+00,1.960130572319030762e+00,1.928111791610717773e+00,1.897122502326965332e+00,1.867113351821899414e+00
5.000000000000000000e+00,5.000000000000000000e+00,5.000000000000000000e+00,5.000000000000000000e+00,5.000000000000000000e+00,5.000000000000000000e+00,5.000000000000000000e+00,5.000000000000000000e+00,5.000000000000000000e+00,5.000000000000000000e+00,5.000000000000000000e+00,5.000000000000000000e+00,5.000000000000000000e+00,5.000000000000000000e+00,5.000000000000000000e+00,5.000000000000000000e+00,5.000000000000000000e+00,5.000000000000000000e+00,5.000000000000000000e+00,5.000000000000000000e+00,5.000000000000000000e+00,5.000000000000000000e+00,4.120779037475585938e+00,4.087038993835449219e+00,4.028990268707275391e+00,4.022403240203857422e+00,4.025742053985595703e+00,4.061287879943847656e+00,4.137186527252197266e+00,4.150946617126464844e+00,5.000000000000000000e+00,5.000000000000000000e+00,5.000000000000000000e+00,5.000000000000000000e+00,5.000000000000000000e+00,5.000000000000000000e+00,5.000000000000000000e+00,5.000000000000000000e+00,5.000000000000000000e+00,5.000000000000000000e+00,4.873950004577636719e+00,4.680675506591796875e+00,4.502144336700439453e+00,4.336731910705566406e+00,4.183043956756591797e+00,4.039875984191894531e+00,3.906183958053588867e+00,3.781056642532348633e+00,3.663697004318237305e+00,3.553403615951538086e+00,3.449556827545166016e+00,3.351607322692871094e+00,3.259067058563232422e+00,3.171499490737915039e+00,3.088514328002929688e+00,3.009761333465576172e+00,2.934924602508544922e+00,2.863719224929809570e+00,2.795886993408203125e+00,2.731193780899047852e+00,2.669427156448364258e+00,2.610392093658447266e+00,2.553911924362182617e+00,2.499823808670043945e+00,2.447979211807250977e+00,2.398241519927978516e+00,2.350484609603881836e+00,2.304592609405517578e+00,2.260458469390869141e+00,2.217982769012451172e+00,2.177073955535888672e+00,2.137646913528442383e+00,2.099622249603271484e+00,2.062927007675170898e+00,2.027492284774780273e+00,1.993254303932189941e+00,1.960153698921203613e+00,1.928134322166442871e+00,1.897144198417663574e+00,1.867134571075439453e+00
5.000000000000000000e+00,5.000000000000000000e+00,5.000000000000000000e+00,5.000000000000000000e+00,5.000000000000000000e+00,5.000000000000000000e+00,5.000000000000000000e+00,5.000000000000000000e+00,5.000000000000000000e+00,5.000000000000000000e+00,5.000000000000000000e+00,5.000000000000000000e+00,5.000000000000000000e+00,5.000000000000000000e+00,5.000000000000000000e+00,5.000000000000000000e+00,5.000000000000000000e+00,5.000000000000000000e+00,5.000000000000000000e+00,5.000000000000000000e+00,5.000000000000000000e+00,5.000000000000000000e+00,5.000000000000000000e+00,4.104952335357666016e+00,4.044627666473388672e+00,4.020732879638671875e+00,4.033206939697265625e+00,4.069634914398193359e+00,4.130766868591308594e+00,4.159526824951171875e+00,5.000000000000000000e+00,5.000000000000000000e+00,5.000000000000000000e+00,5.000000000000000000e+00,5.000000000000000000e+00,5.000000000000000000e+00,5.000000000000000000e+00,5.000000000000000000e+00,5.000000000000000000e+00,5.000000000000000000e+00,4.874093532562255859e+00,4.680807590484619141e+00,4.502266883850097656e+00,4.336845874786376953e+00,4.183149814605712891e+00,4.039974212646484375e+00,3.906275749206542969e+00,3.781143188476562500e+00,3.663778305053710938e+00,3.553480148315429688e+00,3.449628829956054688e+00,3.351675271987915039e+00,3.259130954742431641e+00,3.171560049057006836e+00,3.088571786880493164e+00,3.009816169738769531e+00,2.934976816177368164e+00,2.863768815994262695e+00,2.795934200286865234e+00,2.731239080429077148e+00,2.669470071792602539e+00,2.610433101654052734e+00,2.553951025009155273e+00,2.499861478805541992e+00,2.448015451431274414e+00,2.398276329040527344e+00,2.350517988204956055e+00,2.304624795913696289e+00,2.260489225387573242e+00,2.218012332916259766e+00,2.177102327346801758e+00,2.137674570083618164e+00,2.099648952484130859e+00,2.062952756881713867e+00,2.027517080307006836e+00,1.993278503417968750e+00,1.960176825523376465e+00,1.928156733512878418e+00,1.897165775299072266e+00,1.867155551910400391e+00
5.000000000000000000e+00,5.000000000000000000e+00,5.000000000000000000e+00,5.000000000000000000e+00,5.000000000000000000e+00,5.000000000000000000e+00,5.000000000000000000e+00,5.000000000000000000e+00,5.000000000000000000e+00,5.000000000000000000e+00,5.000000000000000000e+00,5.000000000000000000e+00,5.000000000000000000e+00,5.000000000000000000e+00,5.000000000000000000e+00,5.000000000000000000e+00,5.000000000000000000e+00,5.000000000000000000e+00,5.000000000000000000e+00,5.000000000000000000e+00,5.000000000000000000e+00,5.000000000000000000e+00,5.000000000000000000e+00,4.096130371093750000e+00,4.042300224304199219e+00,4.021233558654785156e+00,4.030560016632080078e+00,4.079434394836425781e+00,4.136288642883300781e+00,4.167674541473388672e+00,5.000000000000000000e+00,5.000000000000000000e+00,5.000000000000000000e+00,5.000000000000000000e+00,5.000000000000000000e+00,5.000000000000000000e+00,5.000000000000000000e+00,5.000000000000000000e+00,5.000000000000000000e+00,5.000000000000000000e+00,4.874237060546875000e+00,4.680939674377441406e+00,4.502389430999755859e+00,4.336959362030029297e+00,4.183255195617675781e+00,4.040072917938232422e+00,3.906368017196655273e+00,3.781229257583618164e+00,3.663859128952026367e+00,3.553556203842163086e+00,3.449700832366943359e+00,3.351743221282958984e+00,3.259195327758789062e+00,3.171620845794677734e+00,3.088629484176635742e+00,3.009870767593383789e+00,2.935028553009033203e+00,2.863818168640136719e+00,2.795981407165527344e+00,2.731284141540527344e+00,2.669513225555419922e+00,2.610474348068237305e+00,2.553990602493286133e+00,2.499899148941040039e+00,2.448051691055297852e+00,2.398310899734497070e+00,2.350551366806030273e+00,2.304656744003295898e+00,2.260520219802856445e+00,2.218042135238647461e+00,2.177131175994873047e+00,2.137701988220214844e+00,2.099675655364990234e+00,2.062978506088256836e+00,2.027542114257812500e+00,1.993302464485168457e+00,1.960200190544128418e+00,1.928179144859313965e+00,1.897187709808349609e+00,1.867176532745361328e+00
5.000000000000000000e+00,5.000000000000000000e+00,5.000000000000000000e+00,5.000000000000000000e+00,5.000000000000000000e+00,5.000000000000000000e+00,5.000000000000000000e+00,5.000000000000000000e+00,5.000000000000000000e+00,5.000000000000000000e+00,5.000000000000000000e+00,5.000000000000000000e+00,5.000000000000000000e+00,5.000000000000000000e+00,5.000000000000000000e+00,5.000000000000000000e+00,5.000000000000000000e+00,5.000000000000000000e+00,5.000000000000000000e+00,5.000000000000000000e+00,5.000000000000000000e+00,5.000000000000000000e+00,5.000000000000000000e+00,4.111097812652587891e+00,4.029273986816406250e+00,4.025130271911621094e+00,4.024092674255371094e+00,4.073041439056396484e+00,4.172474384307861328e+00,4.181041240692138672e+00,5.000000000000000000e+00,5.000000000000000000e+00,5.000000000000000000e+00,5.000000000000000000e+00,5.000000000000000000e+00,5.000000000000000000e+00,5.000000000000000000e+00,5.000000000000000000e+00,5.000000000000000000e+00,5.000000000000000000e+00,4.874380588531494141e+00,4.681072235107421875e+00,4.502511501312255859e+00,4.337072849273681641e+00,4.183361053466796875e+00,4.040171623229980469e+00,3.906460285186767578e+00,3.781315803527832031e+00,3.663940429687500000e+00,3.553632497787475586e+00,3.449772357940673828e+00,3.351810693740844727e+00,3.259259223937988281e+00,3.171681642532348633e+00,3.088687181472778320e+00,3.009925365447998047e+00,2.935080766677856445e+00,2.863867759704589844e+00,2.796028614044189453e+00,2.731328964233398438e+00,2.669556140899658203e+00,2.610515594482421875e+00,2.554029941558837891e+00,2.499937057495117188e+00,2.448087930679321289e+00,2.398345708847045898e+00,2.350584745407104492e+00,2.304688692092895508e+00,2.260550975799560547e+00,2.218071937561035156e+00,2.177159786224365234e+00,2.137729644775390625e+00,2.099702119827270508e+00,2.063004255294799805e+00,2.027566909790039062e+00,1.993326306343078613e+00,1.960223317146301270e+00,1.928201794624328613e+00,1.897209405899047852e+00,1.867197751998901367e+00
5.000000000000000000e+00,5.000000000000000000e+00,5.000000000000000000e+00,5.000000000000000000e+00,5.000000000000000000e+00,5.000000000000000000e+00,5.000000000000000000e+00,5.000000000000000000e+00,5.000000000000000000e+00,5.000000000000000000e+00,5.000000000000000000e+00,5.000000000000000000e+00,5.000000000000000000e+00,5.000000000000000000e+00,5.000000000000000000e+00,5.000000000000000000e+00,5.000000000000000000e+00,5.000000000000000000e+00,5.000000000000000000e+00,5.000000000000000000e+00,5.000000000000000000e+00,5.000000000000000000e+00,4.087495326995849609e+00,4.100785732269287109e+00,4.039631366729736328e+00,4.022126197814941406e+00,4.034180164337158203e+00,4.075861930847167969e+00,4.168107509613037109e+00,4.168907165527343750e+00,5.000000000000000000e+00,5.000000000000000000e+00,5.000000000000000000e+00,5.000000000000000000e+00,5.000000000000000000e+00,5.000000000000000000e+00,5.000000000000000000e+00,5.000000000000000000e+00,5.000000000000000000e+00,5.000000000000000000e+00,4.874524116516113281e+00,4.681204795837402344e+00,4.502634048461914062e+00,4.337186336517333984e+00,4.183466911315917969e+00,4.040270328521728516e+00,3.906552314758300781e+00,3.781401872634887695e+00,3.664021492004394531e+00,3.553708791732788086e+00,3.449844360351562500e+00,3.351878881454467773e+00,3.259323596954345703e+00,3.171742200851440430e+00,3.088744640350341797e+00,3.009979963302612305e+00,2.935132741928100586e+00,2.863917350769042969e+00,2.796075820922851562e+00,2.731374263763427734e+00,2.669599294662475586e+00,2.610556602478027344e+00,2.554069280624389648e+00,2.499974489212036133e+00,2.448124170303344727e+00,2.398380517959594727e+00,2.350618124008178711e+00,2.304720878601074219e+00,2.260581731796264648e+00,2.218101501464843750e+00,2.177188396453857422e+00,2.137757062911987305e+00,2.099728822708129883e+00,2.063029766082763672e+00,2.027591705322265625e+00,1.993350505828857422e+00,1.960246443748474121e+00,1.928224086761474609e+00,1.897230982780456543e+00,1.867218732833862305e+00
5.000000000000000000e+00,5.000000000000000000e+00,5.000000000000000000e+00,5.000000000000000000e+00,5.000000000000000000e+00,5.000000000000000000e+00,5.000000000000000000e+00,5.000000000000000000e+00,5.000000000000000000e+00,5.000000000000000000e+00,5.000000000000000000e+00,5.000000000000000000e+00,5.000000000000000000e+00,5.000000000000000000e+00,5.000000000000000000e+00,5.000000000000000000e+00,5.000000000000000000e+00,5.000000000000000000e+00,5.000000000000000000e+00,5.000000000000000000e+00,5.000000000000000000e+00,5.000000000000000000e+00,4.034259796142578125e+00,4.092254161834716797e+00,4.054979801177978516e+00,4.039022445678710938e+00,4.035491466522216797e+00,4.054695129394531250e+00,4.163791656494140625e+00,4.157776355743408203e+00,5.000000000000000000e+00,5.000000000000000000e+00,5.000000000000000000e+00,5.000000000000000000e+00,5.000000000000000000e+00,5.000000000000000000e+00,5.000000000000000000e+00,5.000000000000000000e+00,5.000000000000000000e+00,5.000000000000000000e+00,4.874667644500732422e+00,4.681336879730224609e+00,4.502756595611572266e+00,4.337300300598144531e+00,4.183572292327880859e+00,4.040368556976318359e+00,3.906644582748413086e+00,3.781488418579101562e+00,3.664102315902709961e+00,3.553784847259521484e+00,3.449916124343872070e+00,3.351946830749511719e+00,3.259387731552124023e+00,3.171802997589111328e+00,3.088802337646484375e+00,3.010034799575805664e+00,2.935184717178344727e+00,2.863966703414916992e+00,2.796123027801513672e+00,2.731419324874877930e+00,2.669642210006713867e+00,2.610597848892211914e+00,2.554108858108520508e+00,2.500012397766113281e+00,2.448160171508789062e+00,2.398415088653564453e+00,2.350651502609252930e+00,2.304753065109252930e+00,2.260612726211547852e+00,2.218131303787231445e+00,2.177217006683349609e+00,2.137784719467163086e+00,2.099755525588989258e+00,2.063055515289306641e+00,2.027616500854492188e+00,1.993374466896057129e+00,1.960269808769226074e+00,1.928246498107910156e+00,1.897252917289733887e+00,1.867239713668823242e+00
5.000000000000000000e+00,5.000000000000000000e+00,5.000000000000000000e+00,5.000000000000000000e+00,5.000000000000000000e+00,5.000000000000000000e+00,5.000000000000000000e+00,5.000000000000000000e+00,5.000000000000000000e+00,5.000000000000000000e+00,5.000000000000000000e+00,5.000000000000000000e+00,5.000000000000000000e+00,5.000000000000000000e+00,5.000000000000000000e+00,5.000000000000000000e+00,5.000000000000000000e+00,5.000000000000000000e+00,5.000000000000000000e+00,5.000000000000000000e+00,5.000000000000000000e+00,5.000000000000000000e+00,4.008126258850097656e+00,5.000000000000000000e+00,4.049732208251953125e+00,4.082645893096923828e+00,3.962316751480102539e+00,3.996851921081542969e+00,5.000000000000000000e+00,4.141270160675048828e+00,5.000000000000000000e+00,5.000000000000000000e+00,5.000000000000000000e+00,5.000000000000000000e+00,5.000000000000000000e+00,5.000000000000000000e+00,5.000000000000000000e+00,5.000000000000000000e+00,5.000000000000000000e+00,5.000000000000000000e+00,4.874810695648193359e+00,4.681468963623046875e+00,4.502879142761230469e+00,4.337413787841796875e+00,4.183678150177001953e+00,4.040467262268066406e+00,3.906736850738525391e+00,3.781574964523315430e+00,3.664183616638183594e+00,3.553861379623413086e+00,3.449988126754760742e+00,3.352014303207397461e+00,3.259451627731323242e+00,3.171863555908203125e+00,3.088860034942626953e+00,3.010089635848999023e+00,2.935236930847167969e+00,2.864016294479370117e+00,2.796170234680175781e+00,2.731464147567749023e+00,2.669685125350952148e+00,2.610638856887817383e+00,2.554148197174072266e+00,2.500050306320190430e+00,2.448196411132812500e+00,2.398449897766113281e+00,2.350684881210327148e+00,2.304785013198852539e+00,2.260643482208251953e+00,2.218160867691040039e+00,2.177245616912841797e+00,2.137812376022338867e+00,2.099782228469848633e+00,2.063081264495849609e+00,2.027641296386718750e+00,1.993398308753967285e+00,1.960292935371398926e+00,1.928268909454345703e+00,1.897274613380432129e+00,1.867260932922363281e+00
5.000000000000000000e+00,5.000000000000000000e+00,5.000000000000000000e+00,5.000000000000000000e+00,5.000000000000000000e+00,5.000000000000000000e+00,5.000000000000000000e+00,5.000000000000000000e+00,5.000000000000000000e+00,5.000000000000000000e+00,5.000000000000000000e+00,5.000000000000000000e+00,5.000000000000000000e+00,5.000000000000000000e+00,5.000000000000000000e+00,5.000000000000000000e+00,5.000000000000000000e+00,5.000000000000000000e+00,5.000000000000000000e+00,5.000000000000000000e+00,5.000000000000000000e+00,5.000000000000000000e+00,3.932783126831054688e+00,5.000000000000000000e+00,4.055946826934814453e+00,4.080879688262939453e+00,3.929301738739013672e+00,3.978822708129882812e+00,4.102104187011718750e+00,4.134392261505126953e+00,5.000000000000000000e+00,5.000000000000000000e+00,5.000000000000000000e+00,5.000000000000000000e+00,5.000000000000000000e+00,5.000000000000000000e+00,5.000000000000000000e+00,5.000000000000000000e+00,5.000000000000000000e+00,5.000000000000000000e+00,4.874954223632812500e+00,4.681601524353027344e+00,4.503001213073730469e+00,4.337527275085449219e+00,4.183783531188964844e+00,4.040565967559814453e+00,3.906828880310058594e+00,3.781661033630371094e+00,3.664264440536499023e+00,3.553937673568725586e+00,3.450060129165649414e+00,3.352082252502441406e+00,3.259516000747680664e+00,3.171924591064453125e+00,3.088917493820190430e+00,3.010144233703613281e+00,2.935288667678833008e+00,2.864066123962402344e+00,2.796217441558837891e+00,2.731509447097778320e+00,2.669728279113769531e+00,2.610680103302001953e+00,2.554187536239624023e+00,2.500087738037109375e+00,2.448232650756835938e+00,2.398484706878662109e+00,2.350718259811401367e+00,2.304817199707031250e+00,2.260674476623535156e+00,2.218190670013427734e+00,2.177274227142333984e+00,2.137840032577514648e+00,2.099808692932128906e+00,2.063107013702392578e+00,2.027666091918945312e+00,1.993422508239746094e+00,1.960316061973571777e+00,1.928291559219360352e+00,1.897296309471130371e+00,1.867281913757324219e+00
5.000000000000000000e+00,5.000000000000000000e+00,5.000000000000000000e+00,5.000000000000000000e+00,5.000000000000000000e+00,5.000000000000000000e+00,5.000000000000000000e+00,5.000000000000000000e+00,5.000000000000000000e+00,5.000000000000000000e+00,5.000000000000000000e+00,5.000000000000000000e+00,5.000000000000000000e+00,5.000000000000000000e+00,5.000000000000000000e+00,5.000000000000000000e+00,5.000000000000000000e+00,5.000000000000000000e+00,5.000000000000000000e+00,5.000000000000000000e+00,5.000000000000000000e+00,3.915132045745849609e+00,5.000000000000000000e+00,5.000000000000000000e+00,4.076563835144042969e+00,3.918767690658569336e+00,3.894209623336791992e+00,3.981393337249755859e+00,4.092043876647949219e+00,4.128360271453857422e+00,5.000000000000000000e+00,5.000000000000000000e+00,5.000000000000000000e+00,5.000000000000000000e+00,5.000000000000000000e+00,5.000000000000000000e+00,5.000000000000000000e+00,5.000000000000000000e+00,5.000000000000000000e+00,5.000000000000000000e+00,4.875098228454589844e+00,4.681734085083007812e+00,4.503123760223388672e+00,4.337640762329101562e+00,4.183889389038085938e+00,4.040664672851562500e+00,3.906921148300170898e+00,3.781747579574584961e+00,3.664345741271972656e+00,3.554013729095458984e+00,3.450131654739379883e+00,3.352149963378906250e+00,3.259580373764038086e+00,3.171985387802124023e+00,3.088975191116333008e+00,3.010199069976806641e+00,2.935340881347656250e+00,2.864115476608276367e+00,2.796264648437500000e+00,2.731554269790649414e+00,2.669771432876586914e+00,2.610721349716186523e+00,2.554226875305175781e+00,2.500125646591186523e+00,2.448268890380859375e+00,2.398519277572631836e+00,2.350751399993896484e+00,2.304849147796630859e+00,2.260705232620239258e+00,2.218220472335815430e+00,2.177302837371826172e+00,2.137867689132690430e+00,2.099835395812988281e+00,2.063132524490356445e+00,2.027690887451171875e+00,1.993446469306945801e+00,1.960339426994323730e+00,1.928313851356506348e+00,1.897318124771118164e+00,1.867302894592285156e+00
5.000000000000000000e+00,5.000000000000000000e+00,5.000000000000000000e+00,5.000000000000000000e+00,5.000000000000000000e+00,5.000000000000000000e+00,5.000000000000000000e+00,5.000000000000000000e+00,5.000000000000000000e+00,5.000000000000000000e+00,5.000000000000000000e+00,5.000000000000000000e+00,5.000000000000000000e+00,5.000000000000000000e+00,5.000000000000000000e+00,5.000000000000000000e+00,5.000000000000000000e+00,5.000000000000000000e+00,5.000000000000000000e+00,5.000000000000000000e+00,5.000000000000000000e+00,5.000000000000000000e+00,5.000000000000000000e+00,5.000000000000000000e+00,4.099792003631591797e+00,3.873256921768188477e+00,3.861033439636230469e+00,4.003522396087646484e+00,5.000000000000000000e+00,5.000000000000000000e+00,5.000000000000000000e+00,5.000000000000000000e+00,5.000000000000000000e+00,5.000000000000000000e+00,5.000000000000000000e+00,5.000000000000000000e+00,5.000000000000000000e+00,5.000000000000000000e+00,5.000000000000000000e+00,5.000000000000000000e+00,4.875241756439208984e+00,4.681866168975830078e+00,4.503246307373046875e+00,4.337754726409912109e+00,4.183995246887207031e+00,4.040762901306152344e+00,3.907012939453125000e+00,3.781834125518798828e+00,3.664427042007446289e+00,3.554090261459350586e+00,3.450203657150268555e+00,3.352217912673950195e+00,3.259644269943237305e+00,3.172045946121215820e+00,3.089032649993896484e+00,3.010253906250000000e+00,2.935392856597900391e+00,2.864165067672729492e+00,2.796311855316162109e+00,2.731599330902099609e+00,2.669814348220825195e+00,2.610762357711791992e+00,2.554266214370727539e+00,2.500163555145263672e+00,2.448305130004882812e+00,2.398554086685180664e+00,2.350785017013549805e+00,2.304881334304809570e+00,2.260735988616943359e+00,2.218250036239624023e+00,2.177331447601318359e+00,2.137895345687866211e+00,2.099862098693847656e+00,2.063158273696899414e+00,2.027715921401977539e+00,1.993470311164855957e+00,1.960362553596496582e+00,1.928336262702941895e+00,1.897339820861816406e+00,1.867324113845825195e+00
5.000000000000000000e+00,5.000000000000000000e+00,5.000000000000000000e+00,5.000000000000000000e+00,5.000000000000000000e+00,5.000000000000000000e+00,5.000000000000000000e+00,5.000000000000000000e+00,5.000000000000000000e+00,5.000000000000000000e+00,5.000000000000000000e+00,5.000000000000000000e+00,5.000000000000000000e+00,5.000000000000000000e+00,5.000000000000000000e+00,5.000000000000000000e+00,5.000000000000000000e+00,5.000000000000000000e+00,5.000000000000000000e+00,5.000000000000000000e+00,5.000000000000000000e+00,5.000000000000000000e+00,5.000000000000000000e+00,5.000000000000000000e+00,4.122931957244873047e+00,3.860476016998291016e+00,3.851008176803588867e+00,5.000000000000000000e+00,5.000000000000000000e+00,5.000000000000000000e+00,5.000000000000000000e+00,5.000000000000000000e+00,5.000000000000000000e+00,5.000000000000000000e+00,5.000000000000000000e+00,5.000000000000000000e+00,5.000000000000000000e+00,5.000000000000000000e+00,5.000000000000000000e+00,5.000000000000000000e+00,4.875384807586669922e+00,4.681998729705810547e+00,4.503368854522705078e+00,4.337868213653564453e+00,4.184100627899169922e+00,4.040862083435058594e+00,3.907105445861816406e+00,3.781920194625854492e+00,3.664507865905761719e+00,3.554166555404663086e+00,3.450275659561157227e+00,3.352285861968994141e+00,3.259708642959594727e+00,3.172106742858886719e+00,3.089090347290039062e+00,3.010308265686035156e+00,2.935444831848144531e+00,2.864214658737182617e+00,2.796359300613403320e+00,2.731644630432128906e+00,2.669857501983642578e+00,2.610803604125976562e+00,2.554305791854858398e+00,2.500201225280761719e+00,2.448341131210327148e+00,2.398588895797729492e+00,2.350818395614624023e+00,2.304913520812988281e+00,2.260766983032226562e+00,2.218279838562011719e+00,2.177360057830810547e+00,2.137922763824462891e+00,2.099888563156127930e+00,2.063184022903442383e+00,2.027740716934204102e+00,1.993494510650634766e+00,1.960385680198669434e+00,1.928358912467956543e+00,1.897361516952514648e+00,1.867345094680786133e+00
5.000000000000000000e+00,5.000000000000000000e+00,5.000000000000000000e+00,5.000000000000000000e+00,5.000000000000000000e+00,5.000000000000000000e+00,5.000000000000000000e+00,5.000000000000000000e+00,5.000000000000000000e+00,5.000000000000000000e+00,5.000000000000000000e+00,5.000000000000000000e+00,5.000000000000000000e+00,5.000000000000000000e+00,5.000000000000000000e+00,5.000000000000000000e+00,5.000000000000000000e+00,5.000000000000000000e+00,5.000000000000000000e+00,5.000000000000000000e+00,5.000000000000000000e+00,5.000000000000000000e+00,5.000000000000000000e+00,5.000000000000000000e+00,5.000000000000000000e+00,4.123850822448730469e+00,3.868916988372802734e+00,5.000000000000000000e+00,5.000000000000000000e+00,5.000000000000000000e+00,5.000000000000000000e+00,5.000000000000000000e+00,5.000000000000000000e+00,5.000000000000000000e+00,5.000000000000000000e+00,5.000000000000000000e+00,5.000000000000000000e+00,5.000000000000000000e+00,5.000000000000000000e+00,5.000000000000000000e+00,4.875526428222656250e+00,4.682131290435791016e+00,4.503491401672363281e+00,4.337981700897216797e+00,4.184206962585449219e+00,4.040960311889648438e+00,3.907197713851928711e+00,3.782006740570068359e+00,3.664588928222656250e+00,3.554242610931396484e+00,3.450347423553466797e+00,3.352353572845458984e+00,3.259772777557373047e+00,3.172167778015136719e+00,3.089148044586181641e+00,3.010363101959228516e+00,2.935497045516967773e+00,2.864264011383056641e+00,2.796406269073486328e+00,2.731689453125000000e+00,2.669900655746459961e+00,2.610844850540161133e+00,2.554345130920410156e+00,2.500238895416259766e+00,2.448377370834350586e+00,2.398623466491699219e+00,2.350851774215698242e+00,2.304945468902587891e+00,2.260797977447509766e+00,2.218309640884399414e+00,2.177388668060302734e+00,2.137950420379638672e+00,2.099915266036987305e+00,2.063209772109985352e+00,2.027765512466430664e+00,1.993518471717834473e+00,1.960409045219421387e+00,1.928381204605102539e+00,1.897383332252502441e+00,1.867366075515747070e+00
5.000000000000000000e+00,5.000000000000000000e+00,5.000000000000000000e+00,5.000000000000000000e+00,5.000000000000000000e+00,5.000000000000000000e+00,5.000000000000000000e+00,5.000000000000000000e+00,5.000000000000000000e+00,5.000000000000000000e+00,5.000000000000000000e+00,5.000000000000000000e+00,5.000000000000000000e+00,5.000000000000000000e+00,5.000000000000000000e+00,5.000000000000000000e+00,5.000000000000000000e+00,5.000000000000000000e+00,5.000000000000000000e+00,5.000000000000000000e+00,5.000000000000000000e+00,5.000000000000000000e+00,5.000000000000000000e+00,5.000000000000000000e+00,5.000000000000000000e+00,4.173929214477539062e+00,3.875795364379882812e+00,5.000000000000000000e+00,5.000000000000000000e+00,5.000000000000000000e+00,5.000000000000000000e+00,5.000000000000000000e+00,5.000000000000000000e+00,5.000000000000000000e+00,5.000000000000000000e+00,5.000000000000000000e+00,5.000000000000000000e+00,5.000000000000000000e+00,5.000000000000000000e+00,5.000000000000000000e+00,4.875666141510009766e+00,4.682262420654296875e+00,4.503613471984863281e+00,4.338095664978027344e+00,4.184312343597412109e+00,4.041059017181396484e+00,3.907289743423461914e+00,3.782093286514282227e+00,3.664670228958129883e+00,3.554319143295288086e+00,3.450419425964355469e+00,3.352421522140502930e+00,3.259836673736572266e+00,3.172228336334228516e+00,3.089205503463745117e+00,3.010417938232421875e+00,2.935549020767211914e+00,2.864313602447509766e+00,2.796453714370727539e+00,2.731734514236450195e+00,2.669943571090698242e+00,2.610885858535766602e+00,2.554384469985961914e+00,2.500276803970336914e+00,2.448413610458374023e+00,2.398658275604248047e+00,2.350885152816772461e+00,2.304977655410766602e+00,2.260828733444213867e+00,2.218339204788208008e+00,2.177417278289794922e+00,2.137978076934814453e+00,2.099941968917846680e+00,2.063235521316528320e+00,2.027790307998657227e+00,1.993542313575744629e+00,1.960432171821594238e+00,1.928403615951538086e+00,1.897405028343200684e+00,1.867387294769287109e+00
5.000000000000000000e+00,5.000000000000000000e+00,5.000000000000000000e+00,5.000000000000000000e+00,5.000000000000000000e+00,5.000000000000000000e+00,5.000000000000000000e+00,5.000000000000000000e+00,5.000000000000000000e+00,5.000000000000000000e+00,5.000000000000000000e+00,5.000000000000000000e+00,5.000000000000000000e+00,5.000000000000000000e+00,5.000000000000000000e+00,5.000000000000000000e+00,5.000000000000000000e+00,5.000000000000000000e+00,5.000000000000000000e+00,5.000000000000000000e+00,5.000000000000000000e+00,5.000000000000000000e+00,5.000000000000000000e+00,5.000000000000000000e+00,5.000000000000000000e+00,4.225595474243164062e+00,3.869652271270751953e+00,5.000000000000000000e+00,5.000000000000000000e+00,5.000000000000000000e+00,5.000000000000000000e+00,5.000000000000000000e+00,5.000000000000000000e+00,5.000000000000000000e+00,5.000000000000000000e+00,5.000000000000000000e+00,5.000000000000000000e+00,5.000000000000000000e+00,5.000000000000000000e+00,5.000000000000000000e+00,4.875806331634521484e+00,4.682391643524169922e+00,4.503736495971679688e+00,4.338209152221679688e+00,4.184418201446533203e+00,4.041157722473144531e+00,3.907382011413574219e+00,3.782179355621337891e+00,3.664751052856445312e+00,3.554395198822021484e+00,3.450491428375244141e+00,3.352489709854125977e+00,3.259901046752929688e+00,3.172289133071899414e+00,3.089263200759887695e+00,3.010472536087036133e+00,2.935600996017456055e+00,2.864362955093383789e+00,2.796500921249389648e+00,2.731779813766479492e+00,2.669986724853515625e+00,2.610927104949951172e+00,2.554424047470092773e+00,2.500314474105834961e+00,2.448449850082397461e+00,2.398693084716796875e+00,2.350918531417846680e+00,2.305009603500366211e+00,2.260859727859497070e+00,2.218369007110595703e+00,2.177445888519287109e+00,2.138005495071411133e+00,2.099968433380126953e+00,2.063261032104492188e+00,2.027815103530883789e+00,1.993566513061523438e+00,1.960455298423767090e+00,1.928426265716552734e+00,1.897426724433898926e+00,1.867408275604248047e+00
5.000000000000000000e+00,5.000000000000000000e+00,5.000000000000000000e+00,5.000000000000000000e+00,5.000000000000000000e+00,5.000000000000000000e+00,5.000000000000000000e+00,5.000000000000000000e+00,5.000000000000000000e+00,5.000000000000000000e+00,5.000000000000000000e+00,5.000000000000000000e+00,5.000000000000000000e+00,5.000000000000000000e+00,5.000000000000000000e+00,5.000000000000000000e+00,5.000000000000000000e+00,5.000000000000000000e+00,5.000000000000000000e+00,5.000000000000000000e+00,5.000000000000000000e+00,5.000000000000000000e+00,5.000000000000000000e+00,5.000000000000000000e+00,5.000000000000000000e+00,4.300362586975097656e+00,3.869536638259887695e+00,5.000000000000000000e+00,5.000000000000000000e+00,5.000000000000000000e+00,5.000000000000000000e+00,5.000000000000000000e+00,5.000000000000000000e+00,5.000000000000000000e+00,5.000000000000000000e+00,5.000000000000000000e+00,5.000000000000000000e+00,5.000000000000000000e+00,5.000000000000000000e+00,5.000000000000000000e+00,4.875946521759033203e+00,4.682520389556884766e+00,4.503855705261230469e+00,4.338322639465332031e+00,4.184523582458496094e+00,4.041256427764892578e+00,3.907474279403686523e+00,3.782265901565551758e+00,3.664832353591918945e+00,3.554471492767333984e+00,3.450563192367553711e+00,3.352557182312011719e+00,3.259964942932128906e+00,3.172350168228149414e+00,3.089321136474609375e+00,3.010527372360229492e+00,2.935653209686279297e+00,2.864412784576416016e+00,2.796547889709472656e+00,2.731824636459350586e+00,2.670029640197753906e+00,2.610968351364135742e+00,2.554463386535644531e+00,2.500352144241333008e+00,2.448486089706420898e+00,2.398727893829345703e+00,2.350951910018920898e+00,2.305041790008544922e+00,2.260890483856201172e+00,2.218398809432983398e+00,2.177474737167358398e+00,2.138033151626586914e+00,2.099995136260986328e+00,2.063286781311035156e+00,2.027839899063110352e+00,1.993590474128723145e+00,1.960478425025939941e+00,1.928448677062988281e+00,1.897448658943176270e+00,1.867429256439208984e+00
5.000000000000000000e+00,5.000000000000000000e+00,5.000000000000000000e+00,5.000000000000000000e+00,5.000000000000000000e+00,5.000000000000000000e+00,5.000000000000000000e+00,5.000000000000000000e+00,5.000000000000000000e+00,5.000000000000000000e+00,5.000000000000000000e+00,5.000000000000000000e+00,5.000000000000000000e+00,5.000000000000000000e+00,5.000000000000000000e+00,5.000000000000000000e+00,5.000000000000000000e+00,5.000000000000000000e+00,5.000000000000000000e+00,5.000000000000000000e+00,5.000000000000000000e+00,5.000000000000000000e+00,5.000000000000000000e+00,5.000000000000000000e+00,5.000000000000000000e+00,5.000000000000000000e+00,3.878936290740966797e+00,5.000000000000000000e+00,5.000000000000000000e+00,5.000000000000000000e+00,5.000000000000000000e+00,5.000000000000000000e+00,5.000000000000000000e+00,5.000000000000000000e+00,5.000000000000000000e+00,5.000000000000000000e+00,5.000000000000000000e+00,5.000000000000000000e+00,5.000000000000000000e+00,5.000000000000000000e+00,4.876086235046386719e+00,4.682650089263916016e+00,4.503975391387939453e+00,4.338434696197509766e+00,4.184629917144775391e+00,4.041354656219482422e+00,3.907566308975219727e+00,3.782351970672607422e+00,3.664913654327392578e+00,3.554548025131225586e+00,3.450635194778442383e+00,3.352625370025634766e+00,3.260029315948486328e+00,3.172410726547241211e+00,3.089378595352172852e+00,3.010581970214843750e+00,2.935705184936523438e+00,2.864462375640869141e+00,2.796595335006713867e+00,2.731869935989379883e+00,2.670072793960571289e+00,2.611009359359741211e+00,2.554502725601196289e+00,2.500389814376831055e+00,2.448522329330444336e+00,2.398762702941894531e+00,2.350985288619995117e+00,2.305073738098144531e+00,2.260921239852905273e+00,2.218428373336791992e+00,2.177503347396850586e+00,2.138060808181762695e+00,2.100021839141845703e+00,2.063312768936157227e+00,2.027864933013916016e+00,1.993614315986633301e+00,1.960501790046691895e+00,1.928471088409423828e+00,1.897470235824584961e+00,1.867450237274169922e+00
5.000000000000000000e+00,5.000000000000000000e+00,5.000000000000000000e+00,5.000000000000000000e+00,5.000000000000000000e+00,5.000000000000000000e+00,5.000000000000000000e+00,5.000000000000000000e+00,5.000000000000000000e+00,5.000000000000000000e+00,5.000000000000000000e+00,5.000000000000000000e+00,5.000000000000000000e+00,5.000000000000000000e+00,5.000000000000000000e+00,5.000000000000000000e+00,5.000000000000000000e+00,5.000000000000000000e+00,5.000000000000000000e+00,5.000000000000000000e+00,5.000000000000000000e+00,5.000000000000000000e+00,5.000000000000000000e+00,5.000000000000000000e+00,5.000000000000000000e+00,5.000000000000000000e+00,3.887668371200561523e+00,5.000000000000000000e+00,5.000000000000000000e+00,5.000000000000000000e+00,5.000000000000000000e+00,5.000000000000000000e+00,5.000000000000000000e+00,5.000000000000000000e+00,5.000000000000000000e+00,5.000000000000000000e+00,5.000000000000000000e+00,5.000000000000000000e+00,5.000000000000000000e+00,5.000000000000000000e+00,4.876226425170898438e+00,4.682778835296630859e+00,4.504095077514648438e+00,4.338545322418212891e+00,4.184734821319580078e+00,4.041453361511230469e+00,3.907658576965332031e+00,3.782438516616821289e+00,3.664994478225708008e+00,3.554624080657958984e+00,3.450706958770751953e+00,3.352693319320678711e+00,3.260093688964843750e+00,3.172471523284912109e+00,3.089436292648315430e+00,3.010636806488037109e+00,2.935757160186767578e+00,2.864511728286743164e+00,2.796642303466796875e+00,2.731914997100830078e+00,2.670115947723388672e+00,2.611050605773925781e+00,2.554542064666748047e+00,2.500427722930908203e+00,2.448558330535888672e+00,2.398797273635864258e+00,2.351018428802490234e+00,2.305105924606323242e+00,2.260952234268188477e+00,2.218458175659179688e+00,2.177531957626342773e+00,2.138088464736938477e+00,2.100048303604125977e+00,2.063338279724121094e+00,2.027889490127563477e+00,1.993638515472412109e+00,1.960524916648864746e+00,1.928493618965148926e+00,1.897491931915283203e+00,1.867471456527709961e+00
4.871630191802978516e+00,4.870410919189453125e+00,4.869192123413085938e+00,4.867973804473876953e+00,4.866756439208984375e+00,4.865539550781250000e+00,4.864323139190673828e+00,4.863107204437255859e+00,4.861892223358154297e+00,4.860678195953369141e+00,4.859464168548583984e+00,4.858250617980957031e+00,4.857038021087646484e+00,4.855825901031494141e+00,4.854614257812500000e+00,4.853404045104980469e+00,4.852193832397460938e+00,4.850984096527099609e+00,4.849774837493896484e+00,4.848566532135009766e+00,4.847358703613281250e+00,4.846151351928710938e+00,4.844944953918457031e+00,4.843738555908203125e+00,4.842533111572265625e+00,4.841328620910644531e+00,3.762769937515258789e+00,4.838920593261718750e+00,4.837717533111572266e+00,4.836514949798583984e+00,4.835312843322753906e+00,4.834112167358398438e+00,4.832911491394042969e+00,4.831711292266845703e+00,4.830511569976806641e+00,4.829312801361083984e+00,4.828114986419677734e+00,4.826917171478271484e+00,4.825719833374023438e+00,4.824523448944091797e+00,4.823327541351318359e+00,4.682908058166503906e+00,4.504214286804199219e+00,4.338656425476074219e+00,4.184837818145751953e+00,4.041552066802978516e+00,3.907751083374023438e+00,3.782525062561035156e+00,3.665075778961181641e+00,3.554700613021850586e+00,3.450778961181640625e+00,3.352761030197143555e+00,3.260157585144042969e+00,3.172532081604003906e+00,3.089493989944458008e+00,3.010691642761230469e+00,2.935809373855590820e+00,2.864561319351196289e+00,2.796689748764038086e+00,2.731959819793701172e+00,2.670158863067626953e+00,2.611091852188110352e+00,2.554581642150878906e+00,2.500465393066406250e+00,2.448594808578491211e+00,2.398832082748413086e+00,2.351052045822143555e+00,2.305137872695922852e+00,2.260982990264892578e+00,2.218487739562988281e+00,2.177560567855834961e+00,2.138116121292114258e+00,2.100075006484985352e+00,2.063364028930664062e+00,2.027914524078369141e+00,1.993662476539611816e+00,1.960548162460327148e+00,1.928516030311584473e+00,1.897513866424560547e+00,1.867492437362670898e+00
3.776098728179931641e+00,3.775366067886352539e+00,3.774633646011352539e+00,3.773901700973510742e+00,3.773169994354248047e+00,3.772438287734985352e+00,3.771707296371459961e+00,3.770976066589355469e+00,3.770245552062988281e+00,3.769515275955200195e+00,3.768784999847412109e+00,3.768055438995361328e+00,3.767325639724731445e+00,3.766596555709838867e+00,3.765867471694946289e+00,3.765138864517211914e+00,3.764410495758056641e+00,3.763682126998901367e+00,3.762954473495483398e+00,3.762226819992065430e+00,3.761499643325805664e+00,3.760772943496704102e+00,3.760046005249023438e+00,3.759319782257080078e+00,3.758593320846557617e+00,3.757867574691772461e+00,3.757142066955566406e+00,3.756416559219360352e+00,3.755691766738891602e+00,3.754966735839843750e+00,3.754242420196533203e+00,3.753518342971801758e+00,3.752794265747070312e+00,3.752070903778076172e+00,3.751347303390502930e+00,3.750624418258666992e+00,3.749901771545410156e+00,3.749178886413574219e+00,3.748456954956054688e+00,3.747734546661376953e+00,3.747013092041015625e+00,3.746291875839233398e+00,3.745570421218872070e+00,3.744849920272827148e+00,3.744128942489624023e+00,3.743408918380737305e+00,3.742688655853271484e+00,3.741969108581542969e+00,3.665156602859497070e+00,3.554776906967163086e+00,3.450850963592529297e+00,3.352828979492187500e+00,3.260221958160400391e+00,3.172593116760253906e+00,3.089551448822021484e+00,3.010746240615844727e+00,2.935861110687255859e+00,2.864610910415649414e+00,2.796736955642700195e+00,2.732005119323730469e+00,2.670201778411865234e+00,2.611133098602294922e+00,2.554620981216430664e+00,2.500503063201904297e+00,2.448630809783935547e+00,2.398866891860961914e+00,2.351085424423217773e+00,2.305170059204101562e+00,2.261013984680175781e+00,2.218517541885375977e+00,2.177589178085327148e+00,2.138143539428710938e+00,2.100101709365844727e+00,2.063389778137207031e+00,2.027939319610595703e+00,1.993686437606811523e+00,1.960571527481079102e+00,1.928538441658020020e+00,1.897535562515258789e+00,1.867513418197631836e+00
3.082832098007202148e+00,3.082343578338623047e+00,3.081855535507202148e+00,3.081367254257202148e+00,3.080879688262939453e+00,3.080391883850097656e+00,3.079904317855834961e+00,3.079416990280151367e+00,3.078929424285888672e+00,3.078442573547363281e+00,3.077955722808837891e+00,3.077468633651733398e+00,3.076982259750366211e+00,3.076495647430419922e+00,3.076009273529052734e+00,3.075523138046264648e+00,3.075037002563476562e+00,3.074551343917846680e+00,3.074065446853637695e+00,3.073580026626586914e+00,3.073094606399536133e+00,3.072609186172485352e+00,3.072124242782592773e+00,3.071639060974121094e+00,3.071154356002807617e+00,3.070669889450073242e+00,3.070185184478759766e+00,3.069700956344604492e+00,3.069216728210449219e+00,3.068732738494873047e+00,3.068248748779296875e+00,3.067764997482299805e+00,3.067281484603881836e+00,3.066797971725463867e+00,3.066314935684204102e+00,3.065831661224365234e+00,3.065348863601684570e+00,3.064866065979003906e+00,3.064383268356323242e+00,3.063900947570800781e+00,3.063418388366699219e+00,3.062936305999755859e+00,3.062454223632812500e+00,3.061972141265869141e+00,3.061490535736083984e+00,3.061008930206298828e+00,3.060527563095092773e+00,3.060046195983886719e+00,3.059565067291259766e+00,3.059084177017211914e+00,3.058603048324584961e+00,3.058122396469116211e+00,3.057641983032226562e+00,3.057161569595336914e+00,3.056681394577026367e+00,3.010801076889038086e+00,2.935913324356079102e+00,2.864660501480102539e+00,2.796784162521362305e+00,2.732049942016601562e+00,2.670244932174682617e+00,2.611174345016479492e+00,2.554660320281982422e+00,2.500540971755981445e+00,2.448667049407958984e+00,2.398901462554931641e+00,2.351118564605712891e+00,2.305202007293701172e+00,2.261044979095458984e+00,2.218547344207763672e+00,2.177617788314819336e+00,2.138171195983886719e+00,2.100128173828125000e+00,2.063415527343750000e+00,2.027964115142822266e+00,1.993710279464721680e+00,1.960594654083251953e+00,1.928561091423034668e+00,1.897557258605957031e+00,1.867534637451171875e+00
2.604637622833251953e+00,2.604289054870605469e+00,2.603940486907958984e+00,2.603592157363891602e+00,2.603243827819824219e+00,2.602895498275756836e+00,2.602547645568847656e+00,2.602199316024780273e+00,2.601851463317871094e+00,2.601503849029541016e+00,2.601155757904052734e+00,2.600808382034301758e+00,2.600460529327392578e+00,2.600113153457641602e+00,2.599765777587890625e+00,2.599418401718139648e+00,2.599071264266967773e+00,2.598724126815795898e+00,2.598377227783203125e+00,2.598030090332031250e+00,2.597683429718017578e+00,2.597336769104003906e+00,2.596989870071411133e+00,2.596643447875976562e+00,2.596296787261962891e+00,2.595950603485107422e+00,2.595604419708251953e+00,2.595257997512817383e+00,2.594912052154541016e+00,2.594565868377685547e+00,2.594220161437988281e+00,2.593874454498291016e+00,2.593528509140014648e+00,2.593183040618896484e+00,2.592837333679199219e+00,2.592491865158081055e+00,2.592146635055541992e+00,2.591801404953002930e+00,2.591456174850463867e+00,2.591110944747924805e+00,2.590766191482543945e+00,2.590421199798583984e+00,2.590076446533203125e+00,2.589731693267822266e+00,2.589386940002441406e+00,2.589042663574218750e+00,2.588697910308837891e+00,2.588353633880615234e+00,2.588009595870971680e+00,2.587665319442749023e+00,2.587321281433105469e+00,2.586977243423461914e+00,2.586633443832397461e+00,2.586289644241333008e+00,2.585945844650268555e+00,2.585602283477783203e+00,2.585258722305297852e+00,2.584915399551391602e+00,2.584572076797485352e+00,2.584228754043579102e+00,2.583885669708251953e+00,2.583542585372924805e+00,2.554699659347534180e+00,2.500578880310058594e+00,2.448703289031982422e+00,2.398936271667480469e+00,2.351152181625366211e+00,2.305234193801879883e+00,2.261075735092163086e+00,2.218576908111572266e+00,2.177646398544311523e+00,2.138198852539062500e+00,2.100154876708984375e+00,2.063441276550292969e+00,2.027988910675048828e+00,1.993734478950500488e+00,1.960617780685424805e+00,1.928583383560180664e+00,1.897578835487365723e+00,1.867555618286132812e+00
2.254873275756835938e+00,2.254611968994140625e+00,2.254350662231445312e+00,2.254089355468750000e+00,2.253828287124633789e+00,2.253567218780517578e+00,2.253306150436401367e+00,2.253045320510864258e+00,2.252784490585327148e+00,2.252523422241210938e+00,2.252262592315673828e+00,2.252002000808715820e+00,2.251741409301757812e+00,2.251480817794799805e+00,2.251220464706420898e+00,2.250960111618041992e+00,2.250699520111083984e+00,2.250439405441284180e+00,2.250179052352905273e+00,2.249918937683105469e+00,2.249658823013305664e+00,2.249398708343505859e+00,2.249138832092285156e+00,2.248878717422485352e+00,2.248618841171264648e+00,2.248359203338623047e+00,2.248099327087402344e+00,2.247839689254760742e+00,2.247579813003540039e+00,2.247320413589477539e+00,2.247060775756835938e+00,2.246801376342773438e+00,2.246541976928710938e+00,2.246282577514648438e+00,2.246023416519165039e+00,2.245764017105102539e+00,2.245504856109619141e+00,2.245245933532714844e+00,2.244986772537231445e+00,2.244727849960327148e+00,2.244468927383422852e+00,2.244210004806518555e+00,2.243951320648193359e+00,2.243692398071289062e+00,2.243433952331542969e+00,2.243175268173217773e+00,2.242916584014892578e+00,2.242658138275146484e+00,2.242399692535400391e+00,2.242141485214233398e+00,2.241883039474487305e+00,2.241624832153320312e+00,2.241366624832153320e+00,2.241108417510986328e+00,2.240850448608398438e+00,2.240592241287231445e+00,2.240334272384643555e+00,2.240076541900634766e+00,2.239818572998046875e+00,2.239560842514038086e+00,2.239302873611450195e+00,2.239045381546020508e+00,2.238787651062011719e+00,2.238530158996582031e+00,2.238272666931152344e+00,2.238015174865722656e+00,2.237757921218872070e+00,2.237500429153442383e+00,2.237243413925170898e+00,2.218606710433959961e+00,2.177675008773803711e+00,2.138226509094238281e+00,2.100181579589843750e+00,2.063466787338256836e+00,2.028013944625854492e+00,1.993758440017700195e+00,1.960641145706176758e+00,1.928605794906616211e+00,1.897600769996643066e+00,1.867576599121093750e+00
1.987928986549377441e+00,1.987725734710693359e+00,1.987522721290588379e+00,1.987319469451904297e+00,1.987116575241088867e+00,1.986913561820983887e+00,1.986710786819458008e+00,1.986508011817932129e+00,1.986304998397827148e+00,1.986102342605590820e+00,1.985899448394775391e+00,1.985696792602539062e+00,1.985494017601013184e+00,1.985291481018066406e+00,1.985088825225830078e+00,1.984886407852172852e+00,1.984683752059936523e+00,1.984481334686279297e+00,1.984278798103332520e+00,1.984076499938964844e+00,1.983874082565307617e+00,1.983671903610229492e+00,1.983469486236572266e+00,1.983267307281494141e+00,1.983065009117126465e+00,1.982863068580627441e+00,1.982660770416259766e+00,1.982458829879760742e+00,1.982256770133972168e+00,1.982054829597473145e+00,1.981852769851684570e+00,1.981651067733764648e+00,1.981449007987976074e+00,1.981247305870056152e+00,1.981045484542846680e+00,1.980843782424926758e+00,1.980641961097717285e+00,1.980440497398376465e+00,1.980238914489746094e+00,1.980037331581115723e+00,1.979835867881774902e+00,1.979634284973144531e+00,1.979432940483093262e+00,1.979231357574462891e+00,1.979030132293701172e+00,1.978828668594360352e+00,1.978627562522888184e+00,1.978426218032836914e+00,1.978225111961364746e+00,1.978023767471313477e+00,1.977822780609130859e+00,1.977621555328369141e+00,1.977420687675476074e+00,1.977219581604003906e+00,1.977018713951110840e+00,1.976817727088928223e+00,1.976616859436035156e+00,1.976415991783142090e+00,1.976215243339538574e+00,1.976014375686645508e+00,1.975813746452331543e+00,1.975612998008728027e+00,1.975412487983703613e+00,1.975211739540100098e+00,1.975011348724365234e+00,1.974810719490051270e+00,1.974610328674316406e+00,1.974410057067871094e+00,1.974209547042846680e+00,1.974009275436401367e+00,1.973808884620666504e+00,1.973608732223510742e+00,1.973408341407775879e+00,1.973208308219909668e+00,1.973008036613464355e+00,1.972808122634887695e+00,1.960664272308349609e+00,1.928628444671630859e+00,1.897622466087341309e+00,1.867597818374633789e+00
1.777498602867126465e+00,1.777336359024047852e+00,1.777173876762390137e+00,1.777011632919311523e+00,1.776849150657653809e+00,1.776687026023864746e+00,1.776524662971496582e+00,1.776362538337707520e+00,1.776200413703918457e+00,1.776038169860839844e+00,1.775876045227050781e+00,1.775713801383972168e+00,1.775551915168762207e+00,1.775389671325683594e+00,1.775227785110473633e+00,1.775065660476684570e+00,1.774903774261474609e+00,1.774741768836975098e+00,1.774580001831054688e+00,1.774417996406555176e+00,1.774256229400634766e+00,1.774094343185424805e+00,1.773932576179504395e+00,1.773770809173583984e+00,1.773609161376953125e+00,1.773447394371032715e+00,1.773285746574401855e+00,1.773123979568481445e+00,1.772962450981140137e+00,1.772800803184509277e+00,1.772639393806457520e+00,1.772477746009826660e+00,1.772316336631774902e+00,1.772154808044433594e+00,1.771993398666381836e+00,1.771831870079040527e+00,1.771670579910278320e+00,1.771509408950805664e+00,1.771347999572753906e+00,1.771186709403991699e+00,1.771025419235229492e+00,1.770864248275756836e+00,1.770702958106994629e+00,1.770541906356811523e+00,1.770380616188049316e+00,1.770219683647155762e+00,1.770058393478393555e+00,1.769897460937500000e+00,1.769736409187316895e+00,1.769575476646423340e+00,1.769414424896240234e+00,1.769253492355346680e+00,1.769092559814453125e+00,1.768931746482849121e+00,1.768770813941955566e+00,1.768610119819641113e+00,1.768449187278747559e+00,1.768288493156433105e+00,1.768127679824829102e+00,1.767967104911804199e+00,1.767806291580200195e+00,1.767645716667175293e+00,1.767485022544860840e+00,1.767324566841125488e+00,1.767163872718811035e+00,1.767003417015075684e+00,1.766842842102050781e+00,1.766682505607604980e+00,1.766522169113159180e+00,1.766361594200134277e+00,1.766201376914978027e+00,1.766040921211242676e+00,1.765880703926086426e+00,1.765720248222351074e+00,1.765560150146484375e+00,1.765399813652038574e+00,1.765239715576171875e+00,1.765079498291015625e+00,1.764919400215148926e+00,1.764759182929992676e+00
1.607353925704956055e+00,1.607221007347106934e+00,1.607088327407836914e+00,1.606955528259277344e+00,1.606822848320007324e+00,1.606690049171447754e+00,1.606557369232177734e+00,1.606424808502197266e+00,1.606292009353637695e+00,1.606159567832946777e+00,1.606026768684387207e+00,1.605894327163696289e+00,1.605761647224426270e+00,1.605629205703735352e+00,1.605496644973754883e+00,1.605364203453063965e+00,1.605231642723083496e+00,1.605099201202392578e+00,1.604966759681701660e+00,1.604834437370300293e+00,1.604701876640319824e+00,1.604569673538208008e+00,1.604437232017517090e+00,1.604304909706115723e+00,1.604172587394714355e+00,1.604040384292602539e+00,1.603908061981201172e+00,1.603775858879089355e+00,1.603643536567687988e+00,1.603511452674865723e+00,1.603379130363464355e+00,1.603247165679931641e+00,1.603114843368530273e+00,1.602982878684997559e+00,1.602850675582885742e+00,1.602718710899353027e+00,1.602586627006530762e+00,1.602454662322998047e+00,1.602322697639465332e+00,1.602190613746643066e+00,1.602058768272399902e+00,1.601926803588867188e+00,1.601794958114624023e+00,1.601662993431091309e+00,1.601531147956848145e+00,1.601399302482604980e+00,1.601267457008361816e+00,1.601135611534118652e+00,1.601003885269165039e+00,1.600872039794921875e+00,1.600740432739257812e+00,1.600608587265014648e+00,1.600476980209350586e+00,1.600345253944396973e+00,1.600213646888732910e+00,1.600082039833068848e+00,1.599950432777404785e+00,1.599818706512451172e+00,1.599687218666076660e+00,1.599555611610412598e+00,1.599424242973327637e+00,1.599292635917663574e+00,1.599161267280578613e+00,1.599029660224914551e+00,1.598898291587829590e+00,1.598766803741455078e+00,1.598635554313659668e+00,1.598504185676574707e+00,1.598372817039489746e+00,1.598241567611694336e+00,1.598110198974609375e+00,1.597978949546813965e+00,1.597847580909729004e+00,1.597716450691223145e+00,1.597585201263427734e+00,1.597454071044921875e+00,1.597322821617126465e+00,1.597191691398620605e+00,1.597060441970825195e+00,1.596929430961608887e+00
1.466936469078063965e+00,1.466825962066650391e+00,1.466715335845947266e+00,1.466604709625244141e+00,1.466494083404541016e+00,1.466383576393127441e+00,1.466273069381713867e+00,1.466162562370300293e+00,1.466052174568176270e+00,1.465941548347473145e+00,1.465831160545349121e+00,1.465720653533935547e+00,1.465610265731811523e+00,1.465499758720397949e+00,1.465389490127563477e+00,1.465278983116149902e+00,1.465168714523315430e+00,1.465058326721191406e+00,1.464948058128356934e+00,1.464837670326232910e+00,1.464727401733398438e+00,1.464617013931274414e+00,1.464506864547729492e+00,1.464396476745605469e+00,1.464286327362060547e+00,1.464176058769226074e+00,1.464065909385681152e+00,1.463955640792846680e+00,1.463845610618591309e+00,1.463735342025756836e+00,1.463625311851501465e+00,1.463515043258666992e+00,1.463405013084411621e+00,1.463294863700866699e+00,1.463184833526611328e+00,1.463074803352355957e+00,1.462964773178100586e+00,1.462854862213134766e+00,1.462744712829589844e+00,1.462634801864624023e+00,1.462524771690368652e+00,1.462414979934692383e+00,1.462304949760437012e+00,1.462195038795471191e+00,1.462085127830505371e+00,1.461975336074829102e+00,1.461865305900573730e+00,1.461755514144897461e+00,1.461645603179931641e+00,1.461535930633544922e+00,1.461426019668579102e+00,1.461316347122192383e+00,1.461206436157226562e+00,1.461096763610839844e+00,1.460986971855163574e+00,1.460877299308776855e+00,1.460767507553100586e+00,1.460657954216003418e+00,1.460548162460327148e+00,1.460438609123229980e+00,1.460328936576843262e+00,1.460219383239746094e+00,1.460109710693359375e+00,1.460000157356262207e+00,1.459890484809875488e+00,1.459781050682067871e+00,1.459671378135681152e+00,1.459561944007873535e+00,1.459452509880065918e+00,1.459342956542968750e+00,1.459233522415161133e+00,1.459123969078063965e+00,1.459014654159545898e+00,1.458905100822448730e+00,1.458795785903930664e+00,1.458686351776123047e+00,1.458577036857604980e+00,1.458467602729797363e+00,1.458358287811279297e+00,1.458248853683471680e+00
1.349081635475158691e+00,1.348988056182861328e+00,1.348894596099853516e+00,1.348801016807556152e+00,1.348707437515258789e+00,1.348613977432250977e+00,1.348520517349243164e+00,1.348427057266235352e+00,1.348333597183227539e+00,1.348240137100219727e+00,1.348146677017211914e+00,1.348053216934204102e+00,1.347959756851196289e+00,1.347866415977478027e+00,1.347772955894470215e+00,1.347679734230041504e+00,1.347586274147033691e+00,1.347492933273315430e+00,1.347399592399597168e+00,1.347306370735168457e+00,1.347213029861450195e+00,1.347119688987731934e+00,1.347026348114013672e+00,1.346933126449584961e+00,1.346839904785156250e+00,1.346746683120727539e+00,1.346653342247009277e+00,1.346560239791870117e+00,1.346466898918151855e+00,1.346373796463012695e+00,1.346280574798583984e+00,1.346187472343444824e+00,1.346094250679016113e+00,1.346001148223876953e+00,1.345907926559448242e+00,1.345814943313598633e+00,1.345721721649169922e+00,1.345628738403320312e+00,1.345535635948181152e+00,1.345442533493041992e+00,1.345349550247192383e+00,1.345256447792053223e+00,1.345163464546203613e+00,1.345070362091064453e+00,1.344977498054504395e+00,1.344884395599365234e+00,1.344791531562805176e+00,1.344698429107666016e+00,1.344605565071105957e+00,1.344512581825256348e+00,1.344419717788696289e+00,1.344326734542846680e+00,1.344233870506286621e+00,1.344140887260437012e+00,1.344048142433166504e+00,1.343955159187316895e+00,1.343862414360046387e+00,1.343769550323486328e+00,1.343676686286926270e+00,1.343583822250366211e+00,1.343491077423095703e+00,1.343398332595825195e+00,1.343305587768554688e+00,1.343212723731994629e+00,1.343120098114013672e+00,1.343027234077453613e+00,1.342934608459472656e+00,1.342841982841491699e+00,1.342749238014221191e+00,1.342656612396240234e+00,1.342563867568969727e+00,1.342471241950988770e+00,1.342378497123718262e+00,1.342285990715026855e+00,1.342193245887756348e+00,1.342100739479064941e+00,1.342008113861083984e+00,1.341915607452392578e+00,1.341822981834411621e+00,1.341730475425720215e+00
1.248755574226379395e+00,1.248675465583801270e+00,1.248595237731933594e+00,1.248515129089355469e+00,1.248435020446777344e+00,1.248354911804199219e+00,1.248274803161621094e+00,1.248194694519042969e+00,1.248114705085754395e+00,1.248034596443176270e+00,1.247954487800598145e+00,1.247874379158020020e+00,1.247794389724731445e+00,1.247714281082153320e+00,1.247634291648864746e+00,1.247554302215576172e+00,1.247474312782287598e+00,1.247394323348999023e+00,1.247314333915710449e+00,1.247234344482421875e+00,1.247154355049133301e+00,1.247074365615844727e+00,1.246994495391845703e+00,1.246914505958557129e+00,1.246834635734558105e+00,1.246754646301269531e+00,1.246674776077270508e+00,1.246594905853271484e+00,1.246515035629272461e+00,1.246435165405273438e+00,1.246355295181274414e+00,1.246275424957275391e+00,1.246195554733276367e+00,1.246115684509277344e+00,1.246035933494567871e+00,1.245956063270568848e+00,1.245876312255859375e+00,1.245796561241149902e+00,1.245716691017150879e+00,1.245637059211730957e+00,1.245557188987731934e+00,1.245477557182312012e+00,1.245397686958312988e+00,1.245318055152893066e+00,1.245238304138183594e+00,1.245158553123474121e+00,1.245078802108764648e+00,1.244999170303344727e+00,1.244919538497924805e+00,1.244839906692504883e+00,1.244760155677795410e+00,1.244680523872375488e+00,1.244600892066955566e+00,1.244521260261535645e+00,1.244441628456115723e+00,1.244361996650695801e+00,1.244282364845275879e+00,1.244202852249145508e+00,1.244123220443725586e+00,1.244043707847595215e+00,1.243964076042175293e+00,1.243884563446044922e+00,1.243805050849914551e+00,1.243725538253784180e+00,1.243646025657653809e+00,1.243566513061523438e+00,1.243487000465393066e+00,1.243407607078552246e+00,1.243328094482421875e+00,1.243248581886291504e+00,1.243169188499450684e+00,1.243089675903320312e+00,1.243010282516479492e+00,1.242930889129638672e+00,1.242851495742797852e+00,1.242771983146667480e+00,1.242692708969116211e+00,1.242613315582275391e+00,1.242533922195434570e+00,1.242454528808593750e+00
1.162318468093872070e+00,1.162248969078063965e+00,1.162179589271545410e+00,1.162110090255737305e+00,1.162040710449218750e+00,1.161971330642700195e+00,1.161901950836181641e+00,1.161832571029663086e+00,1.161763072013854980e+00,1.161693811416625977e+00,1.161624312400817871e+00,1.161555051803588867e+00,1.161485671997070312e+00,1.161416292190551758e+00,1.161346912384033203e+00,1.161277651786804199e+00,1.161208271980285645e+00,1.161139011383056641e+00,1.161069631576538086e+00,1.161000370979309082e+00,1.160931110382080078e+00,1.160861849784851074e+00,1.160792469978332520e+00,1.160723328590393066e+00,1.160653948783874512e+00,1.160584807395935059e+00,1.160515546798706055e+00,1.160446286201477051e+00,1.160377025604248047e+00,1.160307884216308594e+00,1.160238623619079590e+00,1.160169482231140137e+00,1.160100221633911133e+00,1.160031080245971680e+00,1.159961819648742676e+00,1.159892678260803223e+00,1.159823536872863770e+00,1.159754395484924316e+00,1.159685254096984863e+00,1.159616112709045410e+00,1.159547090530395508e+00,1.159477829933166504e+00,1.159408807754516602e+00,1.159339666366577148e+00,1.159270644187927246e+00,1.159201502799987793e+00,1.159132480621337891e+00,1.159063339233398438e+00,1.158994317054748535e+00,1.158925175666809082e+00,1.158856272697448730e+00,1.158787131309509277e+00,1.158718109130859375e+00,1.158649086952209473e+00,1.158580064773559570e+00,1.158511042594909668e+00,1.158442139625549316e+00,1.158373117446899414e+00,1.158304214477539062e+00,1.158235192298889160e+00,1.158166289329528809e+00,1.158097267150878906e+00,1.158028364181518555e+00,1.157959342002868652e+00,1.157890439033508301e+00,1.157821536064147949e+00,1.157752633094787598e+00,1.157683849334716797e+00,1.157614827156066895e+00,1.157546043395996094e+00,1.157477140426635742e+00,1.157408237457275391e+00,1.157339334487915039e+00,1.157270550727844238e+00,1.157201647758483887e+00,1.157132863998413086e+00,1.157063961029052734e+00,1.156995177268981934e+00,1.156926393508911133e+00,1.156857609748840332e+00
1.087072730064392090e+00,1.087012052536010742e+00,1.086951255798339844e+00,1.086890578269958496e+00,1.086829781532287598e+00,1.086769104003906250e+00,1.086708307266235352e+00,1.086647629737854004e+00,1.086586952209472656e+00,1.086526274681091309e+00,1.086465597152709961e+00,1.086404919624328613e+00,1.086344242095947266e+00,1.086283564567565918e+00,1.086222887039184570e+00,1.086162209510803223e+00,1.086101651191711426e+00,1.086040973663330078e+00,1.085980415344238281e+00,1.085919737815856934e+00,1.085859179496765137e+00,1.085798501968383789e+00,1.085737943649291992e+00,1.085677266120910645e+00,1.085616707801818848e+00,1.085556149482727051e+00,1.085495591163635254e+00,1.085434913635253906e+00,1.085374474525451660e+00,1.085313796997070312e+00,1.085253357887268066e+00,1.085192680358886719e+00,1.085132241249084473e+00,1.085071682929992676e+00,1.085011124610900879e+00,1.084950685501098633e+00,1.084890127182006836e+00,1.084829688072204590e+00,1.084769129753112793e+00,1.084708690643310547e+00,1.084648132324218750e+00,1.084587693214416504e+00,1.084527254104614258e+00,1.084466814994812012e+00,1.084406256675720215e+00,1.084345936775207520e+00,1.084285378456115723e+00,1.084225058555603027e+00,1.084164500236511230e+00,1.084104180335998535e+00,1.084043741226196289e+00,1.083983302116394043e+00,1.083922863006591797e+00,1.083862543106079102e+00,1.083802103996276855e+00,1.083741784095764160e+00,1.083681344985961914e+00,1.083621025085449219e+00,1.083560585975646973e+00,1.083500266075134277e+00,1.083439946174621582e+00,1.083379626274108887e+00,1.083319187164306641e+00,1.083258986473083496e+00,1.083198547363281250e+00,1.083138346672058105e+00,1.083077907562255859e+00,1.083017706871032715e+00,1.082957386970520020e+00,1.082897067070007324e+00,1.082836866378784180e+00,1.082776546478271484e+00,1.082716345787048340e+00,1.082656025886535645e+00,1.082595825195312500e+00,1.082535505294799805e+00,1.082475304603576660e+00,1.082414984703063965e+00,1.082354784011840820e+00,1.082294583320617676e+00
1.020977139472961426e+00,1.020923495292663574e+00,1.020869970321655273e+00,1.020816326141357422e+00,1.020762801170349121e+00,1.020709276199340820e+00,1.020655751228332520e+00,1.020602226257324219e+00,1.020548582077026367e+00,1.020495057106018066e+00,1.020441532135009766e+00,1.020388007164001465e+00,1.020334482192993164e+00,1.020280957221984863e+00,1.020227432250976562e+00,1.020174026489257812e+00,1.020120501518249512e+00,1.020066976547241211e+00,1.020013451576232910e+00,1.019960045814514160e+00,1.019906520843505859e+00,1.019853115081787109e+00,1.019799590110778809e+00,1.019746184349060059e+00,1.019692659378051758e+00,1.019639253616333008e+00,1.019585728645324707e+00,1.019532322883605957e+00,1.019478917121887207e+00,1.019425511360168457e+00,1.019371986389160156e+00,1.019318580627441406e+00,1.019265174865722656e+00,1.019211769104003906e+00,1.019158363342285156e+00,1.019105076789855957e+00,1.019051551818847656e+00,1.018998265266418457e+00,1.018944859504699707e+00,1.018891453742980957e+00,1.018838167190551758e+00,1.018784761428833008e+00,1.018731474876403809e+00,1.018678069114685059e+00,1.018624782562255859e+00,1.018571376800537109e+00,1.018518090248107910e+00,1.018464684486389160e+00,1.018411397933959961e+00,1.018358111381530762e+00,1.018304824829101562e+00,1.018251419067382812e+00,1.018198251724243164e+00,1.018144845962524414e+00,1.018091678619384766e+00,1.018038272857666016e+00,1.017985105514526367e+00,1.017931699752807617e+00,1.017878532409667969e+00,1.017825245857238770e+00,1.017771959304809570e+00,1.017718672752380371e+00,1.017665505409240723e+00,1.017612218856811523e+00,1.017559051513671875e+00,1.017505764961242676e+00,1.017452597618103027e+00,1.017399430274963379e+00,1.017346143722534180e+00,1.017292976379394531e+00,1.017239809036254883e+00,1.017186641693115234e+00,1.017133355140686035e+00,1.017080187797546387e+00,1.017027020454406738e+00,1.016973853111267090e+00,1.016920685768127441e+00,1.016867518424987793e+00,1.016814351081848145e+00,1.016761302947998047e+00
9.624582529067993164e-01,9.624106884002685547e-01,9.623630642890930176e-01,9.623154997825622559e-01,9.622678160667419434e-01,9.622202515602111816e-01,9.621726870536804199e-01,9.621251225471496582e-01,9.620775580406188965e-01,9.620298743247985840e-01,9.619823098182678223e-01,9.619348049163818359e-01,9.618872404098510742e-01,9.618396162986755371e-01,9.617920517921447754e-01,9.617445468902587891e-01,9.616970419883728027e-01,9.616494178771972656e-01,9.616019129753112793e-01,9.615544080734252930e-01,9.615069031715393066e-01,9.614592790603637695e-01,9.614117741584777832e-01,9.613642692565917969e-01,9.613168239593505859e-01,9.612691998481750488e-01,9.612217545509338379e-01,9.611743092536926270e-01,9.611268043518066406e-01,9.610792398452758789e-01,9.610317945480346680e-01,9.609843492507934570e-01,9.609369039535522461e-01,9.608893394470214844e-01,9.608418941497802734e-01,9.607944488525390625e-01,9.607470631599426270e-01,9.606996178627014160e-01,9.606521129608154297e-01,9.606046676635742188e-01,9.605572819709777832e-01,9.605098962783813477e-01,9.604623913764953613e-01,9.604149460792541504e-01,9.603675603866577148e-01,9.603201746940612793e-01,9.602727293968200684e-01,9.602253437042236328e-01,9.601779580116271973e-01,9.601305723190307617e-01,9.600831270217895508e-01,9.600357413291931152e-01,9.599884152412414551e-01,9.599410891532897949e-01,9.598935842514038086e-01,9.598462581634521484e-01,9.597989320755004883e-01,9.597516059875488281e-01,9.597041606903076172e-01,9.596568346023559570e-01,9.596095681190490723e-01,9.595622420310974121e-01,9.595147967338562012e-01,9.594675302505493164e-01,9.594202041625976562e-01,9.593729376792907715e-01,9.593255519866943359e-01,9.592782258987426758e-01,9.592309594154357910e-01,9.591836929321289062e-01,9.591364264488220215e-01,9.590890407562255859e-01,9.590417742729187012e-01,9.589945077896118164e-01,9.589473009109497070e-01,9.588999152183532715e-01,9.588527083396911621e-01,9.588054418563842773e-01,9.587582349777221680e-01,9.587109088897705078e-01
9.102839827537536621e-01,9.102413654327392578e-01,9.101988077163696289e-01,9.101561307907104492e-01,9.101135730743408203e-01,9.100710153579711914e-01,9.100284576416015625e-01,9.099859595298767090e-01,9.099432826042175293e-01,9.099007844924926758e-01,9.098582267761230469e-01,9.098156690597534180e-01,9.097730517387390137e-01,9.097305536270141602e-01,9.096879959106445312e-01,9.096454977989196777e-01,9.096028804779052734e-01,9.095603823661804199e-01,9.095178842544555664e-01,9.094753861427307129e-01,9.094327688217163086e-01,9.093902707099914551e-01,9.093478322029113770e-01,9.093053340911865234e-01,9.092627167701721191e-01,9.092202782630920410e-01,9.091777801513671875e-01,9.091353416442871094e-01,9.090927839279174805e-01,9.090502858161926270e-01,9.090078473091125488e-01,9.089654088020324707e-01,9.089228510856628418e-01,9.088804125785827637e-01,9.088379740715026855e-01,9.087955355644226074e-01,9.087529778480529785e-01,9.087105393409729004e-01,9.086681604385375977e-01,9.086257219314575195e-01,9.085832834243774414e-01,9.085407853126525879e-01,9.084984064102172852e-01,9.084559679031372070e-01,9.084135890007019043e-01,9.083710908889770508e-01,9.083287119865417480e-01,9.082862734794616699e-01,9.082438945770263672e-01,9.082014560699462891e-01,9.081590771675109863e-01,9.081166982650756836e-01,9.080743193626403809e-01,9.080318808555603027e-01,9.079895019531250000e-01,9.079471230506896973e-01,9.079048037528991699e-01,9.078623652458190918e-01,9.078199863433837891e-01,9.077776670455932617e-01,9.077352881431579590e-01,9.076929092407226562e-01,9.076505303382873535e-01,9.076082110404968262e-01,9.075658917427062988e-01,9.075235128402709961e-01,9.074811935424804688e-01,9.074388742446899414e-01,9.073965549468994141e-01,9.073542356491088867e-01,9.073118567466735840e-01,9.072695970535278320e-01,9.072272777557373047e-01,9.071850180625915527e-01,9.071426391601562500e-01,9.071003198623657227e-01,9.070580601692199707e-01,9.070158004760742188e-01,9.069734215736389160e-01,9.069311618804931641e-01
8.634754419326782227e-01,8.634371757507324219e-01,8.633987903594970703e-01,8.633604645729064941e-01,8.633221983909606934e-01,8.632838726043701172e-01,8.632454872131347656e-01,8.632072210311889648e-01,8.631689548492431641e-01,8.631306290626525879e-01,8.630923628807067871e-01,8.630540370941162109e-01,8.630157709121704102e-01,8.629775047302246094e-01,8.629392385482788086e-01,8.629008531570434570e-01,8.628625869750976562e-01,8.628243803977966309e-01,8.627861142158508301e-01,8.627477884292602539e-01,8.627095222473144531e-01,8.626713156700134277e-01,8.626330494880676270e-01,8.625947237014770508e-01,8.625565171241760254e-01,8.625183105468750000e-01,8.624800443649291992e-01,8.624417781829833984e-01,8.624035716056823730e-01,8.623653650283813477e-01,8.623271584510803223e-01,8.622888326644897461e-01,8.622506260871887207e-01,8.622124195098876953e-01,8.621742725372314453e-01,8.621359467506408691e-01,8.620977997779846191e-01,8.620595932006835938e-01,8.620213866233825684e-01,8.619832396507263184e-01,8.619449734687805176e-01,8.619068264961242676e-01,8.618686199188232422e-01,8.618304729461669922e-01,8.617922067642211914e-01,8.617540597915649414e-01,8.617159128189086914e-01,8.616777658462524414e-01,8.616394996643066406e-01,8.616014122962951660e-01,8.615632653236389160e-01,8.615251183509826660e-01,8.614869117736816406e-01,8.614487648010253906e-01,8.614106178283691406e-01,8.613725304603576660e-01,8.613343238830566406e-01,8.612961769104003906e-01,8.612580895423889160e-01,8.612199425697326660e-01,8.611817359924316406e-01,8.611436486244201660e-01,8.611055612564086914e-01,8.610674738883972168e-01,8.610292673110961914e-01,8.609911799430847168e-01,8.609530925750732422e-01,8.609150052070617676e-01,8.608769178390502930e-01,8.608387708663940430e-01,8.608006834983825684e-01,8.607626557350158691e-01,8.607245683670043945e-01,8.606864213943481445e-01,8.606483340263366699e-01,8.606103062629699707e-01,8.605722784996032715e-01,8.605341315269470215e-01,8.604961037635803223e-01,8.604580163955688477e-01
8.212454915046691895e-01,8.212107419967651367e-01,8.211761116981506348e-01,8.211414813995361328e-01,8.211068511009216309e-01,8.210721015930175781e-01,8.210374712944030762e-01,8.210028409957885742e-01,8.209682106971740723e-01,8.209335803985595703e-01,8.208988904953002930e-01,8.208642601966857910e-01,8.208296298980712891e-01,8.207949995994567871e-01,8.207603096961975098e-01,8.207257390022277832e-01,8.206911087036132812e-01,8.206565380096435547e-01,8.206218481063842773e-01,8.205872178077697754e-01,8.205526471138000488e-01,8.205180168151855469e-01,8.204833865165710449e-01,8.204488158226013184e-01,8.204141855239868164e-01,8.203796148300170898e-01,8.203449845314025879e-01,8.203104138374328613e-01,8.202758431434631348e-01,8.202412724494934082e-01,8.202065825462341309e-01,8.201720714569091797e-01,8.201375007629394531e-01,8.201029300689697266e-01,8.200682997703552246e-01,8.200337290763854980e-01,8.199992179870605469e-01,8.199646472930908203e-01,8.199301362037658691e-01,8.198955059051513672e-01,8.198609352111816406e-01,8.198264241218566895e-01,8.197919130325317383e-01,8.197572827339172363e-01,8.197227716445922852e-01,8.196882009506225586e-01,8.196536898612976074e-01,8.196191191673278809e-01,8.195846080780029297e-01,8.195500969886779785e-01,8.195155858993530273e-01,8.194810152053833008e-01,8.194465041160583496e-01,8.194119930267333984e-01,8.193774819374084473e-01,8.193429112434387207e-01,8.193084001541137695e-01,8.192739486694335938e-01,8.192394375801086426e-01,8.192048668861389160e-01,8.191704154014587402e-01,8.191359639167785645e-01,8.191014528274536133e-01,8.190669417381286621e-01,8.190324306488037109e-01,8.189979791641235352e-01,8.189635276794433594e-01,8.189290761947631836e-01,8.188945055007934570e-01,8.188600540161132812e-01,8.188256025314331055e-01,8.187911510467529297e-01,8.187566399574279785e-01,8.187221884727478027e-01,8.186877965927124023e-01,8.186533451080322266e-01,8.186188340187072754e-01,8.185843825340270996e-01,8.185499906539916992e-01,8.185155391693115234e-01
