5.000000000000000000e+00,5.000000000000000000e+00,5.000000000000000000e+00,5.000000000000000000e+00,5.000000000000000000e+00,5.000000000000000000e+00,5.000000000000000000e+00,5.000000000000000000e+00,5.000000000000000000e+00,5.000000000000000000e+00,5.000000000000000000e+00,5.000000000000000000e+00,5.000000000000000000e+00,5.000000000000000000e+00,5.000000000000000000e+00,5.000000000000000000e+00,5.000000000000000000e+00,5.000000000000000000e+00,5.000000000000000000e+00,5.000000000000000000e+00,5.000000000000000000e+00,5.000000000000000000e+00,5.000000000000000000e+00,5.000000000000000000e+00,5.000000000000000000e+00,5.000000000000000000e+00,5.000000000000000000e+00,5.000000000000000000e+00,5.000000000000000000e+00,5.000000000000000000e+00,5.000000000000000000e+00,5.000000000000000000e+00,5.000000000000000000e+00,5.000000000000000000e+00,5.000000000000000000e+00,5.000000000000000000e+00,5.000000000000000000e+00,5.000000000000000000e+00,5.000000000000000000e+00,5.000000000000000000e+00,5.000000000000000000e+00,5.000000000000000000e+00,5.000000000000000000e+00,4.181103229522705078e+00,4.039080142974853516e+00,3.906388998031616211e+00,3.782138824462890625e+00,3.665548563003540039e+00,3.555932044982910156e+00,3.452681064605712891e+00,3.355256557464599609e+00,3.263179779052734375e+00,3.176021099090576172e+00,3.093397855758666992e+00,3.014964103698730469e+00,2.940409421920776367e+00,2.869453191757202148e+00,2.801840782165527344e+00,2.737340927124023438e+00,2.675744295120239258e+00,2.616858482360839844e+00,2.560508966445922852e+00,2.506535053253173828e+00,2.454789400100708008e+00,2.405137062072753906e+00,2.357453823089599609e+00,2.311624288558959961e+00,2.267542600631713867e+00,2.225110769271850586e+00,2.184237957000732422e+00,2.144839525222778320e+00,2.106837034225463867e+00,2.070157766342163086e+00,2.034734249114990234e+00,2.000502109527587891e+00,1.967402935028076172e+00,1.935381174087524414e+00,1.904385209083557129e+00,1.874366283416748047e+00,1.845279097557067871e+00
5.000000000000000000e+00,5.000000000000000000e+00,5.000000000000000000e+00,5.000000000000000000e+00,5.000000000000000000e+00,5.000000000000000000e+00,5.000000000000000000e+00,5.000000000000000000e+00,5.000000000000000000e+00,5.000000000000000000e+00,5.000000000000000000e+00,5.000000000000000000e+00,5.000000000000000000e+00,5.000000000000000000e+00,5.000000000000000000e+00,5.000000000000000000e+00,5.000000000000000000e+00,5.000000000000000000e+00,5.000000000000000000e+00,5.000000000000000000e+00,5.000000000000000000e+00,5.000000000000000000e+00,5.000000000000000000e+00,5.000000000000000000e+00,5.000000000000000000e+00,5.000000000000000000e+00,5.000000000000000000e+00,5.000000000000000000e+00,5.000000000000000000e+00,5.000000000000000000e+00,5.000000000000000000e+00,5.000000000000000000e+00,5.000000000000000000e+00,5.000000000000000000e+00,5.000000000000000000e+00,5.000000000000000000e+00,5.000000000000000000e+00,5.000000000000000000e+00,5.000000000000000000e+00,5.000000000000000000e+00,5.000000000000000000e+00,5.000000000000000000e+00,4.333587646484375000e+00,4.181205749511718750e+00,4.039175987243652344e+00,3.906478643417358398e+00,3.782222747802734375e+00,3.665627956390380859e+00,3.556006193161010742e+00,3.452750921249389648e+00,3.355322837829589844e+00,3.263242244720458984e+00,3.176080703735351562e+00,3.093453884124755859e+00,3.015017509460449219e+00,2.940460443496704102e+00,2.869501352310180664e+00,2.801886796951293945e+00,2.737384796142578125e+00,2.675786256790161133e+00,2.616899013519287109e+00,2.560547351837158203e+00,2.506571769714355469e+00,2.454824924468994141e+00,2.405171155929565430e+00,2.357486486434936523e+00,2.311655521392822266e+00,2.267572879791259766e+00,2.225139856338500977e+00,2.184265851974487305e+00,2.144866466522216797e+00,2.106863260269165039e+00,2.070183038711547852e+00,2.034758567810058594e+00,2.000525712966918945e+00,1.967425823211669922e+00,1.935403227806091309e+00,1.904406428337097168e+00,1.874387025833129883e+00,1.845299124717712402e+00
5.000000000000000000e+00,5.000000000000000000e+00,5.000000000000000000e+00,5.000000000000000000e+00,5.000000000000000000e+00,5.000000000000000000e+00,5.000000000000000000e+00,5.000000000000000000e+00,5.000000000000000000e+00,5.000000000000000000e+00,5.000000000000000000e+00,5.000000000000000000e+00,5.000000000000000000e+00,5.000000000000000000e+00,5.000000000000000000e+00,5.000000000000000000e+00,5.000000000000000000e+00,5.000000000000000000e+00,5.000000000000000000e+00,5.000000000000000000e+00,5.000000000000000000e+00,5.000000000000000000e+00,5.000000000000000000e+00,5.000000000000000000e+00,5.000000000000000000e+00,5.000000000000000000e+00,5.000000000000000000e+00,5.000000000000000000e+00,5.000000000000000000e+00,5.000000000000000000e+00,5.000000000000000000e+00,5.000000000000000000e+00,5.000000000000000000e+00,5.000000000000000000e+00,5.000000000000000000e+00,5.000000000000000000e+00,5.000000000000000000e+00,5.000000000000000000e+00,5.000000000000000000e+00,5.000000000000000000e+00,5.000000000000000000e+00,4.497615814208984375e+00,4.333698272705078125e+00,4.181308746337890625e+00,4.039272308349609375e+00,3.906568527221679688e+00,3.782306671142578125e+00,3.665706872940063477e+00,3.556080818176269531e+00,3.452821016311645508e+00,3.355389118194580078e+00,3.263304710388183594e+00,3.176140069961547852e+00,3.093510389328002930e+00,3.015070915222167969e+00,2.940511226654052734e+00,2.869549989700317383e+00,2.801932811737060547e+00,2.737429141998291016e+00,2.675828456878662109e+00,2.616939067840576172e+00,2.560585975646972656e+00,2.506608724594116211e+00,2.454860210418701172e+00,2.405205249786376953e+00,2.357519149780273438e+00,2.311687231063842773e+00,2.267603158950805664e+00,2.225168943405151367e+00,2.184293985366821289e+00,2.144893407821655273e+00,2.106889247894287109e+00,2.070208311080932617e+00,2.034782648086547852e+00,2.000549077987670898e+00,1.967448353767395020e+00,1.935425281524658203e+00,1.904427886009216309e+00,1.874407529830932617e+00,1.845319271087646484e+00
5.000000000000000000e+00,5.000000000000000000e+00,5.000000000000000000e+00,5.000000000000000000e+00,5.000000000000000000e+00,5.000000000000000000e+00,5.000000000000000000e+00,5.000000000000000000e+00,5.000000000000000000e+00,5.000000000000000000e+00,5.000000000000000000e+00,5.000000000000000000e+00,5.000000000000000000e+00,5.000000000000000000e+00,5.000000000000000000e+00,5.000000000000000000e+00,5.000000000000000000e+00,5.000000000000000000e+00,5.000000000000000000e+00,5.000000000000000000e+00,5.000000000000000000e+00,5.000000000000000000e+00,5.000000000000000000e+00,5.000000000000000000e+00,5.000000000000000000e+00,5.000000000000000000e+00,5.000000000000000000e+00,5.000000000000000000e+00,5.000000000000000000e+00,5.000000000000000000e+00,5.000000000000000000e+00,5.000000000000000000e+00,5.000000000000000000e+00,5.000000000000000000e+00,5.000000000000000000e+00,5.000000000000000000e+00,5.000000000000000000e+00,5.000000000000000000e+00,5.000000000000000000e+00,5.000000000000000000e+00,4.674549579620361328e+00,4.497735023498535156e+00,4.333808898925781250e+00,4.181411266326904297e+00,4.039368152618408203e+00,3.906658172607421875e+00,3.782391309738159180e+00,3.665785551071166992e+00,3.556155204772949219e+00,3.452891111373901367e+00,3.355455160140991211e+00,3.263367652893066406e+00,3.176199197769165039e+00,3.093566656112670898e+00,3.015124559402465820e+00,2.940562009811401367e+00,2.869598388671875000e+00,2.801979064941406250e+00,2.737473011016845703e+00,2.675870656967163086e+00,2.616979360580444336e+00,2.560624599456787109e+00,2.506645917892456055e+00,2.454895734786987305e+00,2.405239343643188477e+00,2.357551813125610352e+00,2.311718463897705078e+00,2.267633438110351562e+00,2.225198030471801758e+00,2.184322118759155273e+00,2.144920587539672852e+00,2.106915473937988281e+00,2.070233345031738281e+00,2.034806728363037109e+00,2.000572443008422852e+00,1.967471241950988770e+00,1.935447216033935547e+00,1.904449224472045898e+00,1.874428272247314453e+00,1.845339179039001465e+00
5.000000000000000000e+00,5.000000000000000000e+00,5.000000000000000000e+00,5.000000000000000000e+00,5.000000000000000000e+00,5.000000000000000000e+00,5.000000000000000000e+00,5.000000000000000000e+00,5.000000000000000000e+00,5.000000000000000000e+00,5.000000000000000000e+00,5.000000000000000000e+00,5.000000000000000000e+00,5.000000000000000000e+00,5.000000000000000000e+00,5.000000000000000000e+00,5.000000000000000000e+00,5.000000000000000000e+00,5.000000000000000000e+00,5.000000000000000000e+00,5.000000000000000000e+00,5.000000000000000000e+00,5.000000000000000000e+00,5.000000000000000000e+00,5.000000000000000000e+00,5.000000000000000000e+00,5.000000000000000000e+00,5.000000000000000000e+00,5.000000000000000000e+00,5.000000000000000000e+00,5.000000000000000000e+00,5.000000000000000000e+00,5.000000000000000000e+00,5.000000000000000000e+00,5.000000000000000000e+00,5.000000000000000000e+00,5.000000000000000000e+00,5.000000000000000000e+00,5.000000000000000000e+00,4.865973949432373047e+00,4.674677848815917969e+00,4.497853755950927734e+00,4.333919048309326172e+00,4.181514263153076172e+00,4.039463996887207031e+00,3.906747817993164062e+00,3.782475233078002930e+00,3.665864467620849609e+00,3.556229352951049805e+00,3.452961444854736328e+00,3.355521440505981445e+00,3.263430118560791016e+00,3.176258802413940430e+00,3.093622684478759766e+00,3.015177965164184570e+00,2.940612792968750000e+00,2.869646787643432617e+00,2.802025318145751953e+00,2.737517118453979492e+00,2.675912618637084961e+00,2.617019653320312500e+00,2.560662984848022461e+00,2.506682634353637695e+00,2.454931020736694336e+00,2.405273199081420898e+00,2.357584476470947266e+00,2.311749935150146484e+00,2.267663478851318359e+00,2.225227355957031250e+00,2.184350013732910156e+00,2.144947528839111328e+00,2.106941461563110352e+00,2.070258378982543945e+00,2.034831285476684570e+00,2.000596046447753906e+00,1.967494010925292969e+00,1.935469269752502441e+00,1.904470443725585938e+00,1.874449014663696289e+00,1.845359206199645996e+00
5.000000000000000000e+00,5.000000000000000000e+00,5.000000000000000000e+00,5.000000000000000000e+00,5.000000000000000000e+00,5.000000000000000000e+00,5.000000000000000000e+00,5.000000000000000000e+00,5.000000000000000000e+00,5.000000000000000000e+00,5.000000000000000000e+00,5.000000000000000000e+00,5.000000000000000000e+00,5.000000000000000000e+00,5.000000000000000000e+00,5.000000000000000000e+00,5.000000000000000000e+00,5.000000000000000000e+00,5.000000000000000000e+00,5.000000000000000000e+00,5.000000000000000000e+00,5.000000000000000000e+00,5.000000000000000000e+00,5.000000000000000000e+00,5.000000000000000000e+00,5.000000000000000000e+00,5.000000000000000000e+00,5.000000000000000000e+00,5.000000000000000000e+00,5.000000000000000000e+00,5.000000000000000000e+00,5.000000000000000000e+00,5.000000000000000000e+00,5.000000000000000000e+00,5.000000000000000000e+00,5.000000000000000000e+00,5.000000000000000000e+00,5.000000000000000000e+00,5.000000000000000000e+00,4.866113185882568359e+00,4.674806594848632812e+00,4.497972965240478516e+00,4.334029674530029297e+00,4.181617259979248047e+00,4.039559841156005859e+00,3.906837940216064453e+00,3.782559156417846680e+00,3.665943861007690430e+00,3.556303501129150391e+00,3.453031301498413086e+00,3.355587720870971680e+00,3.263492584228515625e+00,3.176317930221557617e+00,3.093679189682006836e+00,3.015231370925903320e+00,2.940663814544677734e+00,2.869695186614990234e+00,2.802071332931518555e+00,2.737561225891113281e+00,2.675954580307006836e+00,2.617059946060180664e+00,2.560701847076416016e+00,2.506719589233398438e+00,2.454966545104980469e+00,2.405307292938232422e+00,2.357617139816284180e+00,2.311781406402587891e+00,2.267693758010864258e+00,2.225256443023681641e+00,2.184378147125244141e+00,2.144974708557128906e+00,2.106967449188232422e+00,2.070283651351928711e+00,2.034855604171752930e+00,2.000619649887084961e+00,1.967516660690307617e+00,1.935491442680358887e+00,1.904491782188415527e+00,1.874469518661499023e+00,1.845379352569580078e+00
5.000000000000000000e+00,5.000000000000000000e+00,5.000000000000000000e+00,5.000000000000000000e+00,5.000000000000000000e+00,5.000000000000000000e+00,5.000000000000000000e+00,5.000000000000000000e+00,5.000000000000000000e+00,5.000000000000000000e+00,5.000000000000000000e+00,5.000000000000000000e+00,5.000000000000000000e+00,5.000000000000000000e+00,5.000000000000000000e+00,5.000000000000000000e+00,5.000000000000000000e+00,5.000000000000000000e+00,5.000000000000000000e+00,5.000000000000000000e+00,5.000000000000000000e+00,5.000000000000000000e+00,5.000000000000000000e+00,5.000000000000000000e+00,5.000000000000000000e+00,5.000000000000000000e+00,5.000000000000000000e+00,5.000000000000000000e+00,5.000000000000000000e+00,5.000000000000000000e+00,5.000000000000000000e+00,5.000000000000000000e+00,5.000000000000000000e+00,5.000000000000000000e+00,5.000000000000000000e+00,5.000000000000000000e+00,5.000000000000000000e+00,5.000000000000000000e+00,5.000000000000000000e+00,4.866252422332763672e+00,4.674934864044189453e+00,4.498091697692871094e+00,4.334139823913574219e+00,4.181719779968261719e+00,4.039655685424804688e+00,3.906927585601806641e+00,3.782643318176269531e+00,3.666022777557373047e+00,3.556378126144409180e+00,3.453101396560668945e+00,3.355654001235961914e+00,3.263555526733398438e+00,3.176377296447753906e+00,3.093735456466674805e+00,3.015284776687622070e+00,2.940714597702026367e+00,2.869743585586547852e+00,2.802117586135864258e+00,2.737605333328247070e+00,2.675997018814086914e+00,2.617100238800048828e+00,2.560740232467651367e+00,2.506756544113159180e+00,2.455002069473266602e+00,2.405341386795043945e+00,2.357649803161621094e+00,2.311812877655029297e+00,2.267724037170410156e+00,2.225285530090332031e+00,2.184406280517578125e+00,2.145001411437988281e+00,2.106993436813354492e+00,2.070308923721313477e+00,2.034879922866821289e+00,2.000643253326416016e+00,1.967539548873901367e+00,1.935513257980346680e+00,1.904513239860534668e+00,1.874490261077880859e+00,1.845399260520935059e+00
5.000000000000000000e+00,5.000000000000000000e+00,5.000000000000000000e+00,5.000000000000000000e+00,5.000000000000000000e+00,5.000000000000000000e+00,5.000000000000000000e+00,5.000000000000000000e+00,5.000000000000000000e+00,5.000000000000000000e+00,5.000000000000000000e+00,5.000000000000000000e+00,5.000000000000000000e+00,5.000000000000000000e+00,5.000000000000000000e+00,5.000000000000000000e+00,5.000000000000000000e+00,5.000000000000000000e+00,5.000000000000000000e+00,5.000000000000000000e+00,5.000000000000000000e+00,5.000000000000000000e+00,5.000000000000000000e+00,5.000000000000000000e+00,5.000000000000000000e+00,5.000000000000000000e+00,5.000000000000000000e+00,5.000000000000000000e+00,5.000000000000000000e+00,5.000000000000000000e+00,5.000000000000000000e+00,5.000000000000000000e+00,5.000000000000000000e+00,5.000000000000000000e+00,5.000000000000000000e+00,5.000000000000000000e+00,5.000000000000000000e+00,5.000000000000000000e+00,5.000000000000000000e+00,4.866391658782958984e+00,4.675063133239746094e+00,4.498210906982421875e+00,4.334250450134277344e+00,4.181822776794433594e+00,4.039751529693603516e+00,3.907016992568969727e+00,3.782727718353271484e+00,3.666101694107055664e+00,3.556452512741088867e+00,3.453171730041503906e+00,3.355720043182373047e+00,3.263617992401123047e+00,3.176436424255371094e+00,3.093791723251342773e+00,3.015338420867919922e+00,2.940765380859375000e+00,2.869791984558105469e+00,2.802163839340209961e+00,2.737649202346801758e+00,2.676038980484008789e+00,2.617140293121337891e+00,2.560778856277465820e+00,2.506793498992919922e+00,2.455037355422973633e+00,2.405375242233276367e+00,2.357682704925537109e+00,2.311844110488891602e+00,2.267754316329956055e+00,2.225314617156982422e+00,2.184433937072753906e+00,2.145028591156005859e+00,2.107019424438476562e+00,2.070333957672119141e+00,2.034904241561889648e+00,2.000666618347167969e+00,1.967562317848205566e+00,1.935535430908203125e+00,1.904534459114074707e+00,1.874511003494262695e+00,1.845419287681579590e+00
5.000000000000000000e+00,5.000000000000000000e+00,5.000000000000000000e+00,5.000000000000000000e+00,5.000000000000000000e+00,5.000000000000000000e+00,5.000000000000000000e+00,5.000000000000000000e+00,5.000000000000000000e+00,5.000000000000000000e+00,5.000000000000000000e+00,5.000000000000000000e+00,5.000000000000000000e+00,5.000000000000000000e+00,5.000000000000000000e+00,5.000000000000000000e+00,5.000000000000000000e+00,5.000000000000000000e+00,5.000000000000000000e+00,5.000000000000000000e+00,5.000000000000000000e+00,5.000000000000000000e+00,5.000000000000000000e+00,5.000000000000000000e+00,5.000000000000000000e+00,5.000000000000000000e+00,5.000000000000000000e+00,5.000000000000000000e+00,5.000000000000000000e+00,5.000000000000000000e+00,5.000000000000000000e+00,5.000000000000000000e+00,5.000000000000000000e+00,5.000000000000000000e+00,5.000000000000000000e+00,5.000000000000000000e+00,5.000000000000000000e+00,5.000000000000000000e+00,5.000000000000000000e+00,4.866530895233154297e+00,4.675191879272460938e+00,4.498329639434814453e+00,4.334361076354980469e+00,4.181925773620605469e+00,4.039847850799560547e+00,3.907106637954711914e+00,3.782811641693115234e+00,3.666181087493896484e+00,3.556526660919189453e+00,3.453241825103759766e+00,3.355786561965942383e+00,3.263680696487426758e+00,3.176496028900146484e+00,3.093847751617431641e+00,3.015391826629638672e+00,2.940816402435302734e+00,2.869840383529663086e+00,2.802209854125976562e+00,2.737693548202514648e+00,2.676080942153930664e+00,2.617180824279785156e+00,2.560817241668701172e+00,2.506830453872680664e+00,2.455072879791259766e+00,2.405409336090087891e+00,2.357715368270874023e+00,2.311875581741333008e+00,2.267784595489501953e+00,2.225343465805053711e+00,2.184462070465087891e+00,2.145055532455444336e+00,2.107045650482177734e+00,2.070359230041503906e+00,2.034928560256958008e+00,2.000690221786499023e+00,1.967584967613220215e+00,1.935557484626770020e+00,1.904555797576904297e+00,1.874531507492065430e+00,1.845439434051513672e+00
5.000000000000000000e+00,5.000000000000000000e+00,5.000000000000000000e+00,5.000000000000000000e+00,5.000000000000000000e+00,5.000000000000000000e+00,5.000000000000000000e+00,5.000000000000000000e+00,5.000000000000000000e+00,5.000000000000000000e+00,5.000000000000000000e+00,5.000000000000000000e+00,5.000000000000000000e+00,5.000000000000000000e+00,5.000000000000000000e+00,5.000000000000000000e+00,5.000000000000000000e+00,5.000000000000000000e+00,5.000000000000000000e+00,5.000000000000000000e+00,5.000000000000000000e+00,5.000000000000000000e+00,5.000000000000000000e+00,5.000000000000000000e+00,5.000000000000000000e+00,5.000000000000000000e+00,5.000000000000000000e+00,5.000000000000000000e+00,5.000000000000000000e+00,5.000000000000000000e+00,5.000000000000000000e+00,5.000000000000000000e+00,5.000000000000000000e+00,5.000000000000000000e+00,5.000000000000000000e+00,5.000000000000000000e+00,5.000000000000000000e+00,5.000000000000000000e+00,5.000000000000000000e+00,4.866670131683349609e+00,4.675320625305175781e+00,4.498448848724365234e+00,4.334471225738525391e+00,4.182028293609619141e+00,4.039943695068359375e+00,3.907196760177612305e+00,3.782895565032958984e+00,3.666260004043579102e+00,3.556601285934448242e+00,3.453311681747436523e+00,3.355852603912353516e+00,3.263743162155151367e+00,3.176555156707763672e+00,3.093904256820678711e+00,3.015444993972778320e+00,2.940867185592651367e+00,2.869889020919799805e+00,2.802256107330322266e+00,2.737737655639648438e+00,2.676123142242431641e+00,2.617221117019653320e+00,2.560855865478515625e+00,2.506867408752441406e+00,2.455108404159545898e+00,2.405443429946899414e+00,2.357748031616210938e+00,2.311907052993774414e+00,2.267814397811889648e+00,2.225372552871704102e+00,2.184490203857421875e+00,2.145082473754882812e+00,2.107071638107299805e+00,2.070384502410888672e+00,2.034952878952026367e+00,2.000713825225830078e+00,1.967607855796813965e+00,1.935579419136047363e+00,1.904577255249023438e+00,1.874552249908447266e+00,1.845459342002868652e+00
5.000000000000000000e+00,5.000000000000000000e+00,5.000000000000000000e+00,5.000000000000000000e+00,5.000000000000000000e+00,5.000000000000000000e+00,5.000000000000000000e+00,5.000000000000000000e+00,5.000000000000000000e+00,5.000000000000000000e+00,5.000000000000000000e+00,5.000000000000000000e+00,5.000000000000000000e+00,5.000000000000000000e+00,5.000000000000000000e+00,5.000000000000000000e+00,5.000000000000000000e+00,5.000000000000000000e+00,5.000000000000000000e+00,5.000000000000000000e+00,5.000000000000000000e+00,5.000000000000000000e+00,5.000000000000000000e+00,5.000000000000000000e+00,5.000000000000000000e+00,5.000000000000000000e+00,5.000000000000000000e+00,5.000000000000000000e+00,5.000000000000000000e+00,5.000000000000000000e+00,5.000000000000000000e+00,5.000000000000000000e+00,5.000000000000000000e+00,5.000000000000000000e+00,5.000000000000000000e+00,5.000000000000000000e+00,5.000000000000000000e+00,5.000000000000000000e+00,5.000000000000000000e+00,4.866809368133544922e+00,4.675448894500732422e+00,4.498567581176757812e+00,4.334581851959228516e+00,4.182131290435791016e+00,4.040039539337158203e+00,3.907286405563354492e+00,3.782980203628540039e+00,3.666338920593261719e+00,3.556675672531127930e+00,3.453381776809692383e+00,3.355918645858764648e+00,3.263805866241455078e+00,3.176614522933959961e+00,3.093960523605346680e+00,3.015498876571655273e+00,2.940917968750000000e+00,2.869937419891357422e+00,2.802302122116088867e+00,2.737781524658203125e+00,2.676165342330932617e+00,2.617261171340942383e+00,2.560894489288330078e+00,2.506904363632202148e+00,2.455143690109252930e+00,2.405477285385131836e+00,2.357780456542968750e+00,2.311938285827636719e+00,2.267844915390014648e+00,2.225401639938354492e+00,2.184518337249755859e+00,2.145109653472900391e+00,2.107097864151000977e+00,2.070409536361694336e+00,2.034977197647094727e+00,2.000737190246582031e+00,1.967630624771118164e+00,1.935601472854614258e+00,1.904598474502563477e+00,1.874572992324829102e+00,1.845479369163513184e+00
5.000000000000000000e+00,5.000000000000000000e+00,5.000000000000000000e+00,5.000000000000000000e+00,5.000000000000000000e+00,5.000000000000000000e+00,5.000000000000000000e+00,5.000000000000000000e+00,5.000000000000000000e+00,5.000000000000000000e+00,5.000000000000000000e+00,5.000000000000000000e+00,5.000000000000000000e+00,5.000000000000000000e+00,5.000000000000000000e+00,5.000000000000000000e+00,5.000000000000000000e+00,5.000000000000000000e+00,5.000000000000000000e+00,5.000000000000000000e+00,5.000000000000000000e+00,5.000000000000000000e+00,5.000000000000000000e+00,5.000000000000000000e+00,5.000000000000000000e+00,5.000000000000000000e+00,5.000000000000000000e+00,5.000000000000000000e+00,5.000000000000000000e+00,5.000000000000000000e+00,5.000000000000000000e+00,5.000000000000000000e+00,5.000000000000000000e+00,5.000000000000000000e+00,5.000000000000000000e+00,5.000000000000000000e+00,5.000000000000000000e+00,5.000000000000000000e+00,5.000000000000000000e+00,4.866948604583740234e+00,4.675577640533447266e+00,4.498686790466308594e+00,4.334692478179931641e+00,4.182233810424804688e+00,4.040135860443115234e+00,3.907376050949096680e+00,3.783064126968383789e+00,3.666417837142944336e+00,3.556749820709228516e+00,3.453452110290527344e+00,3.355984926223754883e+00,3.263868570327758789e+00,3.176673889160156250e+00,3.094016790390014648e+00,3.015552043914794922e+00,2.940968751907348633e+00,2.869985818862915039e+00,2.802348375320434570e+00,2.737825632095336914e+00,2.676207304000854492e+00,2.617301702499389648e+00,2.560932874679565430e+00,2.506941318511962891e+00,2.455179214477539062e+00,2.405511379241943359e+00,2.357813119888305664e+00,2.311969518661499023e+00,2.267874956130981445e+00,2.225430965423583984e+00,2.184546232223510742e+00,2.145136833190917969e+00,2.107123851776123047e+00,2.070434808731079102e+00,2.035001754760742188e+00,2.000760793685913086e+00,1.967653274536132812e+00,1.935623645782470703e+00,1.904619812965393066e+00,1.874593496322631836e+00,1.845499277114868164e+00
5.000000000000000000e+00,5.000000000000000000e+00,5.000000000000000000e+00,5.000000000000000000e+00,5.000000000000000000e+00,5.000000000000000000e+00,5.000000000000000000e+00,5.000000000000000000e+00,5.000000000000000000e+00,5.000000000000000000e+00,5.000000000000000000e+00,5.000000000000000000e+00,5.000000000000000000e+00,5.000000000000000000e+00,5.000000000000000000e+00,5.000000000000000000e+00,5.000000000000000000e+00,5.000000000000000000e+00,5.000000000000000000e+00,5.000000000000000000e+00,5.000000000000000000e+00,5.000000000000000000e+00,5.000000000000000000e+00,5.000000000000000000e+00,5.000000000000000000e+00,5.000000000000000000e+00,5.000000000000000000e+00,5.000000000000000000e+00,5.000000000000000000e+00,5.000000000000000000e+00,5.000000000000000000e+00,5.000000000000000000e+00,5.000000000000000000e+00,5.000000000000000000e+00,5.000000000000000000e+00,5.000000000000000000e+00,5.000000000000000000e+00,5.000000000000000000e+00,5.000000000000000000e+00,4.867087841033935547e+00,4.675705909729003906e+00,4.498805999755859375e+00,4.334803104400634766e+00,4.182336807250976562e+00,4.040231704711914062e+00,3.907466173171997070e+00,3.783148288726806641e+00,3.666496992111206055e+00,3.556824207305908203e+00,3.453522205352783203e+00,3.356051206588745117e+00,3.263931035995483398e+00,3.176733255386352539e+00,3.094073295593261719e+00,3.015605449676513672e+00,2.941019773483276367e+00,2.870033979415893555e+00,2.802394628524780273e+00,2.737869739532470703e+00,2.676249504089355469e+00,2.617341756820678711e+00,2.560971736907958984e+00,2.506978273391723633e+00,2.455214738845825195e+00,2.405544996261596680e+00,2.357845783233642578e+00,2.312001228332519531e+00,2.267905235290527344e+00,2.225460052490234375e+00,2.184574365615844727e+00,2.145163774490356445e+00,2.107150077819824219e+00,2.070459842681884766e+00,2.035026073455810547e+00,2.000784397125244141e+00,1.967676162719726562e+00,1.935645461082458496e+00,1.904641270637512207e+00,1.874614238739013672e+00,1.845519423484802246e+00
5.000000000000000000e+00,5.000000000000000000e+00,5.000000000000000000e+00,5.000000000000000000e+00,5.000000000000000000e+00,5.000000000000000000e+00,5.000000000000000000e+00,5.000000000000000000e+00,5.000000000000000000e+00,5.000000000000000000e+00,5.000000000000000000e+00,5.000000000000000000e+00,5.000000000000000000e+00,5.000000000000000000e+00,5.000000000000000000e+00,5.000000000000000000e+00,5.000000000000000000e+00,5.000000000000000000e+00,5.000000000000000000e+00,5.000000000000000000e+00,5.000000000000000000e+00,5.000000000000000000e+00,5.000000000000000000e+00,5.000000000000000000e+00,5.000000000000000000e+00,5.000000000000000000e+00,5.000000000000000000e+00,5.000000000000000000e+00,5.000000000000000000e+00,5.000000000000000000e+00,5.000000000000000000e+00,5.000000000000000000e+00,5.000000000000000000e+00,5.000000000000000000e+00,5.000000000000000000e+00,5.000000000000000000e+00,5.000000000000000000e+00,5.000000000000000000e+00,5.000000000000000000e+00,4.867227554321289062e+00,4.675834655761718750e+00,4.498924732208251953e+00,4.334913253784179688e+00,4.182439804077148438e+00,4.040327548980712891e+00,3.907555818557739258e+00,3.783232212066650391e+00,3.666575908660888672e+00,3.556898832321166992e+00,3.453592300415039062e+00,3.356117486953735352e+00,3.263993978500366211e+00,3.176792383193969727e+00,3.094129323959350586e+00,3.015658855438232422e+00,2.941070556640625000e+00,2.870082616806030273e+00,2.802440643310546875e+00,2.737913846969604492e+00,2.676291704177856445e+00,2.617382049560546875e+00,2.561010122299194336e+00,2.507015228271484375e+00,2.455249786376953125e+00,2.405579328536987305e+00,2.357878446578979492e+00,2.312032461166381836e+00,2.267935514450073242e+00,2.225489139556884766e+00,2.184602499008178711e+00,2.145190715789794922e+00,2.107176065444946289e+00,2.070485353469848633e+00,2.035050392150878906e+00,2.000807762145996094e+00,1.967698931694030762e+00,1.935667634010314941e+00,1.904662370681762695e+00,1.874634742736816406e+00,1.845539450645446777e+00
5.000000000000000000e+00,5.000000000000000000e+00,5.000000000000000000e+00,5.000000000000000000e+00,5.000000000000000000e+00,5.000000000000000000e+00,5.000000000000000000e+00,5.000000000000000000e+00,5.000000000000000000e+00,5.000000000000000000e+00,5.000000000000000000e+00,5.000000000000000000e+00,5.000000000000000000e+00,5.000000000000000000e+00,5.000000000000000000e+00,5.000000000000000000e+00,5.000000000000000000e+00,5.000000000000000000e+00,5.000000000000000000e+00,5.000000000000000000e+00,5.000000000000000000e+00,5.000000000000000000e+00,5.000000000000000000e+00,5.000000000000000000e+00,5.000000000000000000e+00,5.000000000000000000e+00,5.000000000000000000e+00,5.000000000000000000e+00,5.000000000000000000e+00,5.000000000000000000e+00,5.000000000000000000e+00,5.000000000000000000e+00,5.000000000000000000e+00,5.000000000000000000e+00,5.000000000000000000e+00,5.000000000000000000e+00,5.000000000000000000e+00,5.000000000000000000e+00,5.000000000000000000e+00,4.867366313934326172e+00,4.675962924957275391e+00,4.499043941497802734e+00,4.335023880004882812e+00,4.182542324066162109e+00,4.040423393249511719e+00,3.907645463943481445e+00,3.783316612243652344e+00,3.666654825210571289e+00,3.556973218917846680e+00,3.453662633895874023e+00,3.356183528900146484e+00,3.264056444168090820e+00,3.176851749420166016e+00,3.094185590744018555e+00,3.015712499618530273e+00,2.941121339797973633e+00,2.870131015777587891e+00,2.802487134933471680e+00,2.737957715988159180e+00,2.676333665847778320e+00,2.617422342300415039e+00,2.561048746109008789e+00,2.507051944732666016e+00,2.455285310745239258e+00,2.405613183975219727e+00,2.357911109924316406e+00,2.312063932418823242e+00,2.267965793609619141e+00,2.225518226623535156e+00,2.184630393981933594e+00,2.145217895507812500e+00,2.107202291488647461e+00,2.070510387420654297e+00,2.035074710845947266e+00,2.000831365585327148e+00,1.967721581459045410e+00,1.935689449310302734e+00,1.904683828353881836e+00,1.874655485153198242e+00,1.845559358596801758e+00
4.117858409881591797e+00,4.146507263183593750e+00,5.000000000000000000e+00,5.000000000000000000e+00,5.000000000000000000e+00,5.000000000000000000e+00,5.000000000000000000e+00,5.000000000000000000e+00,5.000000000000000000e+00,5.000000000000000000e+00,5.000000000000000000e+00,5.000000000000000000e+00,5.000000000000000000e+00,5.000000000000000000e+00,5.000000000000000000e+00,5.000000000000000000e+00,5.000000000000000000e+00,5.000000000000000000e+00,5.000000000000000000e+00,5.000000000000000000e+00,5.000000000000000000e+00,5.000000000000000000e+00,5.000000000000000000e+00,5.000000000000000000e+00,5.000000000000000000e+00,5.000000000000000000e+00,5.000000000000000000e+00,5.000000000000000000e+00,5.000000000000000000e+00,5.000000000000000000e+00,5.000000000000000000e+00,5.000000000000000000e+00,5.000000000000000000e+00,5.000000000000000000e+00,5.000000000000000000e+00,5.000000000000000000e+00,5.000000000000000000e+00,5.000000000000000000e+00,5.000000000000000000e+00,4.867506027221679688e+00,4.676091670989990234e+00,4.499162673950195312e+00,4.335134506225585938e+00,4.182645320892333984e+00,4.040519714355468750e+00,3.907735109329223633e+00,3.783400774002075195e+00,3.666734218597412109e+00,3.557047367095947266e+00,3.453732728958129883e+00,3.356250047683715820e+00,3.264118909835815430e+00,3.176911354064941406e+00,3.094241857528686523e+00,3.015765905380249023e+00,2.941172361373901367e+00,2.870179414749145508e+00,2.802533149719238281e+00,2.738002061843872070e+00,2.676375865936279297e+00,2.617462635040283203e+00,2.561087131500244141e+00,2.507088899612426758e+00,2.455320835113525391e+00,2.405647277832031250e+00,2.357943773269653320e+00,2.312095403671264648e+00,2.267995834350585938e+00,2.225547313690185547e+00,2.184658527374267578e+00,2.145244836807250977e+00,2.107228517532348633e+00,2.070535659790039062e+00,2.035099029541015625e+00,2.000854969024658203e+00,1.967744469642639160e+00,1.935711622238159180e+00,1.904705047607421875e+00,1.874676227569580078e+00,1.845579504966735840e+00
4.114756107330322266e+00,4.158655643463134766e+00,5.000000000000000000e+00,5.000000000000000000e+00,5.000000000000000000e+00,5.000000000000000000e+00,5.000000000000000000e+00,5.000000000000000000e+00,5.000000000000000000e+00,5.000000000000000000e+00,5.000000000000000000e+00,5.000000000000000000e+00,5.000000000000000000e+00,5.000000000000000000e+00,5.000000000000000000e+00,5.000000000000000000e+00,5.000000000000000000e+00,5.000000000000000000e+00,5.000000000000000000e+00,5.000000000000000000e+00,5.000000000000000000e+00,5.000000000000000000e+00,5.000000000000000000e+00,5.000000000000000000e+00,5.000000000000000000e+00,5.000000000000000000e+00,5.000000000000000000e+00,5.000000000000000000e+00,5.000000000000000000e+00,5.000000000000000000e+00,5.000000000000000000e+00,5.000000000000000000e+00,5.000000000000000000e+00,5.000000000000000000e+00,5.000000000000000000e+00,5.000000000000000000e+00,5.000000000000000000e+00,5.000000000000000000e+00,5.000000000000000000e+00,4.867645263671875000e+00,4.676220417022705078e+00,4.499281883239746094e+00,4.335244655609130859e+00,4.182748317718505859e+00,4.040615558624267578e+00,3.907825231552124023e+00,3.783484697341918945e+00,3.666813135147094727e+00,3.557121992111206055e+00,3.453802585601806641e+00,3.356316089630126953e+00,3.264181613922119141e+00,3.176970481872558594e+00,3.094298362731933594e+00,3.015819311141967773e+00,2.941223144531250000e+00,2.870228052139282227e+00,2.802579164505004883e+00,2.738046169281005859e+00,2.676417827606201172e+00,2.617502689361572266e+00,2.561125755310058594e+00,2.507125854492187500e+00,2.455356121063232422e+00,2.405681371688842773e+00,2.357976436614990234e+00,2.312126874923706055e+00,2.268026113510131836e+00,2.225576400756835938e+00,2.184686660766601562e+00,2.145272016525268555e+00,2.107254505157470703e+00,2.070560932159423828e+00,2.035123348236083984e+00,2.000878572463989258e+00,1.967767000198364258e+00,1.935733675956726074e+00,1.904726386070251465e+00,1.874696850776672363e+00,1.845599651336669922e+00
4.137768745422363281e+00,4.170973777770996094e+00,5.000000000000000000e+00,5.000000000000000000e+00,5.000000000000000000e+00,5.000000000000000000e+00,5.000000000000000000e+00,5.000000000000000000e+00,5.000000000000000000e+00,5.000000000000000000e+00,5.000000000000000000e+00,5.000000000000000000e+00,5.000000000000000000e+00,5.000000000000000000e+00,5.000000000000000000e+00,5.000000000000000000e+00,5.000000000000000000e+00,5.000000000000000000e+00,5.000000000000000000e+00,5.000000000000000000e+00,5.000000000000000000e+00,5.000000000000000000e+00,5.000000000000000000e+00,5.000000000000000000e+00,5.000000000000000000e+00,5.000000000000000000e+00,5.000000000000000000e+00,5.000000000000000000e+00,5.000000000000000000e+00,5.000000000000000000e+00,5.000000000000000000e+00,5.000000000000000000e+00,5.000000000000000000e+00,5.000000000000000000e+00,5.000000000000000000e+00,5.000000000000000000e+00,5.000000000000000000e+00,5.000000000000000000e+00,5.000000000000000000e+00,4.867784500122070312e+00,4.676348686218261719e+00,4.499400615692138672e+00,4.335355281829833984e+00,4.182851314544677734e+00,4.040711402893066406e+00,3.907914876937866211e+00,3.783569335937500000e+00,3.666892051696777344e+00,3.557196378707885742e+00,3.453872680664062500e+00,3.356382369995117188e+00,3.264244556427001953e+00,3.177029848098754883e+00,3.094354629516601562e+00,3.015872955322265625e+00,2.941273927688598633e+00,2.870276451110839844e+00,2.802625417709350586e+00,2.738090276718139648e+00,2.676460027694702148e+00,2.617542982101440430e+00,2.561164140701293945e+00,2.507162809371948242e+00,2.455391645431518555e+00,2.405715227127075195e+00,2.358009099960327148e+00,2.312158346176147461e+00,2.268056392669677734e+00,2.225605487823486328e+00,2.184714555740356445e+00,2.145299196243286133e+00,2.107280492782592773e+00,2.070585966110229492e+00,2.035147666931152344e+00,2.000901937484741211e+00,1.967789888381958008e+00,1.935755610466003418e+00,1.904747843742370605e+00,1.874717593193054199e+00,1.845619440078735352e+00
4.158193111419677734e+00,4.177687168121337891e+00,5.000000000000000000e+00,5.000000000000000000e+00,5.000000000000000000e+00,5.000000000000000000e+00,5.000000000000000000e+00,5.000000000000000000e+00,5.000000000000000000e+00,5.000000000000000000e+00,5.000000000000000000e+00,5.000000000000000000e+00,5.000000000000000000e+00,5.000000000000000000e+00,5.000000000000000000e+00,5.000000000000000000e+00,5.000000000000000000e+00,5.000000000000000000e+00,5.000000000000000000e+00,5.000000000000000000e+00,5.000000000000000000e+00,5.000000000000000000e+00,5.000000000000000000e+00,5.000000000000000000e+00,5.000000000000000000e+00,5.000000000000000000e+00,5.000000000000000000e+00,5.000000000000000000e+00,5.000000000000000000e+00,5.000000000000000000e+00,5.000000000000000000e+00,5.000000000000000000e+00,5.000000000000000000e+00,5.000000000000000000e+00,5.000000000000000000e+00,5.000000000000000000e+00,5.000000000000000000e+00,5.000000000000000000e+00,5.000000000000000000e+00,4.867924213409423828e+00,4.676477432250976562e+00,4.499519824981689453e+00,4.335465908050537109e+00,4.182954311370849609e+00,4.040807723999023438e+00,3.908004522323608398e+00,3.783653259277343750e+00,3.666971445083618164e+00,3.557270526885986328e+00,3.453943014144897461e+00,3.356448411941528320e+00,3.264307022094726562e+00,3.177089452743530273e+00,3.094410896301269531e+00,3.015926361083984375e+00,2.941324949264526367e+00,2.870324850082397461e+00,2.802671670913696289e+00,2.738133907318115234e+00,2.676501989364624023e+00,2.617583274841308594e+00,2.561202764511108398e+00,2.507199764251708984e+00,2.455427169799804688e+00,2.405749320983886719e+00,2.358042001724243164e+00,2.312189579010009766e+00,2.268086671829223633e+00,2.225634813308715820e+00,2.184742689132690430e+00,2.145326137542724609e+00,2.107306718826293945e+00,2.070611238479614258e+00,2.035172224044799805e+00,2.000925540924072266e+00,1.967812776565551758e+00,1.935777664184570312e+00,1.904769062995910645e+00,1.874738335609436035e+00,1.845639586448669434e+00
5.000000000000000000e+00,4.189558982849121094e+00,5.000000000000000000e+00,5.000000000000000000e+00,5.000000000000000000e+00,5.000000000000000000e+00,5.000000000000000000e+00,5.000000000000000000e+00,5.000000000000000000e+00,5.000000000000000000e+00,5.000000000000000000e+00,5.000000000000000000e+00,5.000000000000000000e+00,5.000000000000000000e+00,5.000000000000000000e+00,5.000000000000000000e+00,5.000000000000000000e+00,5.000000000000000000e+00,5.000000000000000000e+00,5.000000000000000000e+00,5.000000000000000000e+00,5.000000000000000000e+00,5.000000000000000000e+00,5.000000000000000000e+00,5.000000000000000000e+00,5.000000000000000000e+00,5.000000000000000000e+00,5.000000000000000000e+00,5.000000000000000000e+00,5.000000000000000000e+00,5.000000000000000000e+00,5.000000000000000000e+00,5.000000000000000000e+00,5.000000000000000000e+00,5.000000000000000000e+00,5.000000000000000000e+00,5.000000000000000000e+00,5.000000000000000000e+00,5.000000000000000000e+00,4.868062973022460938e+00,4.676605701446533203e+00,4.499639034271240234e+00,4.335576534271240234e+00,4.183056831359863281e+00,4.040903568267822266e+00,3.908094644546508789e+00,3.783737421035766602e+00,3.667050361633300781e+00,3.557344913482666016e+00,3.454013109207153320e+00,3.356514930725097656e+00,3.264369487762451172e+00,3.177148580551147461e+00,3.094467401504516602e+00,3.015979766845703125e+00,2.941375732421875000e+00,2.870373010635375977e+00,2.802717924118041992e+00,2.738178253173828125e+00,2.676543951034545898e+00,2.617623567581176758e+00,2.561241388320922852e+00,2.507236719131469727e+00,2.455462455749511719e+00,2.405783176422119141e+00,2.358074665069580078e+00,2.312221050262451172e+00,2.268116950988769531e+00,2.225663900375366211e+00,2.184770822525024414e+00,2.145353078842163086e+00,2.107332706451416016e+00,2.070636510848999023e+00,2.035196542739868164e+00,2.000949144363403320e+00,1.967835307121276855e+00,1.935799837112426758e+00,1.904790401458740234e+00,1.874758839607238770e+00,1.845659732818603516e+00
4.144389629364013672e+00,4.194125175476074219e+00,5.000000000000000000e+00,5.000000000000000000e+00,5.000000000000000000e+00,5.000000000000000000e+00,5.000000000000000000e+00,5.000000000000000000e+00,5.000000000000000000e+00,5.000000000000000000e+00,5.000000000000000000e+00,5.000000000000000000e+00,5.000000000000000000e+00,5.000000000000000000e+00,5.000000000000000000e+00,5.000000000000000000e+00,5.000000000000000000e+00,5.000000000000000000e+00,5.000000000000000000e+00,5.000000000000000000e+00,5.000000000000000000e+00,5.000000000000000000e+00,5.000000000000000000e+00,5.000000000000000000e+00,5.000000000000000000e+00,5.000000000000000000e+00,5.000000000000000000e+00,5.000000000000000000e+00,5.000000000000000000e+00,5.000000000000000000e+00,5.000000000000000000e+00,5.000000000000000000e+00,5.000000000000000000e+00,5.000000000000000000e+00,5.000000000000000000e+00,5.000000000000000000e+00,5.000000000000000000e+00,5.000000000000000000e+00,5.000000000000000000e+00,4.868202686309814453e+00,4.676734447479248047e+00,4.499757766723632812e+00,4.335686683654785156e+00,4.183159828186035156e+00,4.040999412536621094e+00,3.908184289932250977e+00,3.783821344375610352e+00,3.667129278182983398e+00,3.557419538497924805e+00,3.454083204269409180e+00,3.356580972671508789e+00,3.264432430267333984e+00,3.177207946777343750e+00,3.094523429870605469e+00,3.016033172607421875e+00,2.941426515579223633e+00,2.870421648025512695e+00,2.802763700485229492e+00,2.738222122192382812e+00,2.676586389541625977e+00,2.617663860321044922e+00,2.561279773712158203e+00,2.507273674011230469e+00,2.455497980117797852e+00,2.405817508697509766e+00,2.358107328414916992e+00,2.312252521514892578e+00,2.268147230148315430e+00,2.225692987442016602e+00,2.184798955917358398e+00,2.145380258560180664e+00,2.107358932495117188e+00,2.070661783218383789e+00,2.035220861434936523e+00,2.000972747802734375e+00,1.967858195304870605e+00,1.935821652412414551e+00,1.904811859130859375e+00,1.874779582023620605e+00,1.845679640769958496e+00
4.175807952880859375e+00,4.183552742004394531e+00,5.000000000000000000e+00,5.000000000000000000e+00,5.000000000000000000e+00,5.000000000000000000e+00,5.000000000000000000e+00,5.000000000000000000e+00,5.000000000000000000e+00,5.000000000000000000e+00,5.000000000000000000e+00,5.000000000000000000e+00,5.000000000000000000e+00,5.000000000000000000e+00,5.000000000000000000e+00,5.000000000000000000e+00,5.000000000000000000e+00,5.000000000000000000e+00,5.000000000000000000e+00,5.000000000000000000e+00,5.000000000000000000e+00,5.000000000000000000e+00,5.000000000000000000e+00,5.000000000000000000e+00,5.000000000000000000e+00,5.000000000000000000e+00,5.000000000000000000e+00,5.000000000000000000e+00,5.000000000000000000e+00,5.000000000000000000e+00,5.000000000000000000e+00,5.000000000000000000e+00,5.000000000000000000e+00,5.000000000000000000e+00,5.000000000000000000e+00,5.000000000000000000e+00,5.000000000000000000e+00,5.000000000000000000e+00,5.000000000000000000e+00,4.868341922760009766e+00,4.676863193511962891e+00,4.499876976013183594e+00,4.335797309875488281e+00,4.183262825012207031e+00,4.041095256805419922e+00,3.908273935317993164e+00,3.783905744552612305e+00,3.667208433151245117e+00,3.557493925094604492e+00,3.454153537750244141e+00,3.356647253036499023e+00,3.264494895935058594e+00,3.177267074584960938e+00,3.094579696655273438e+00,3.016087055206298828e+00,2.941477298736572266e+00,2.870469808578491211e+00,2.802809953689575195e+00,2.738266229629516602e+00,2.676628351211547852e+00,2.617704153060913086e+00,2.561318397521972656e+00,2.507310628890991211e+00,2.455533266067504883e+00,2.405851364135742188e+00,2.358139991760253906e+00,2.312283992767333984e+00,2.268177509307861328e+00,2.225722074508666992e+00,2.184826850891113281e+00,2.145407438278198242e+00,2.107384920120239258e+00,2.070686817169189453e+00,2.035245180130004883e+00,2.000996112823486328e+00,1.967881083488464355e+00,1.935843825340270996e+00,1.904833078384399414e+00,1.874800324440002441e+00,1.845699667930603027e+00
4.147283077239990234e+00,4.168885707855224609e+00,5.000000000000000000e+00,5.000000000000000000e+00,5.000000000000000000e+00,5.000000000000000000e+00,5.000000000000000000e+00,5.000000000000000000e+00,5.000000000000000000e+00,5.000000000000000000e+00,5.000000000000000000e+00,5.000000000000000000e+00,5.000000000000000000e+00,5.000000000000000000e+00,5.000000000000000000e+00,5.000000000000000000e+00,5.000000000000000000e+00,5.000000000000000000e+00,5.000000000000000000e+00,5.000000000000000000e+00,5.000000000000000000e+00,5.000000000000000000e+00,5.000000000000000000e+00,5.000000000000000000e+00,5.000000000000000000e+00,5.000000000000000000e+00,5.000000000000000000e+00,5.000000000000000000e+00,5.000000000000000000e+00,5.000000000000000000e+00,5.000000000000000000e+00,5.000000000000000000e+00,5.000000000000000000e+00,5.000000000000000000e+00,5.000000000000000000e+00,5.000000000000000000e+00,5.000000000000000000e+00,5.000000000000000000e+00,5.000000000000000000e+00,4.868481159210205078e+00,4.676991939544677734e+00,4.499995708465576172e+00,4.335907936096191406e+00,4.183365821838378906e+00,4.041191577911376953e+00,3.908363580703735352e+00,3.783989906311035156e+00,3.667287588119506836e+00,3.557568311691284180e+00,3.454223632812500000e+00,3.356713771820068359e+00,3.264557600021362305e+00,3.177326679229736328e+00,3.094635963439941406e+00,3.016140460968017578e+00,2.941528081893920898e+00,2.870518207550048828e+00,2.802856206893920898e+00,2.738310575485229492e+00,2.676670312881469727e+00,2.617744445800781250e+00,2.561357021331787109e+00,2.507347583770751953e+00,2.455569028854370117e+00,2.405885457992553711e+00,2.358172655105590820e+00,2.312315464019775391e+00,2.268207788467407227e+00,2.225751161575317383e+00,2.184854984283447266e+00,2.145434379577636719e+00,2.107411146163940430e+00,2.070712089538574219e+00,2.035269498825073242e+00,2.001019716262817383e+00,1.967903733253479004e+00,1.935865879058837891e+00,1.904854416847229004e+00,1.874820828437805176e+00,1.845719814300537109e+00
5.000000000000000000e+00,4.164937496185302734e+00,5.000000000000000000e+00,5.000000000000000000e+00,5.000000000000000000e+00,5.000000000000000000e+00,5.000000000000000000e+00,5.000000000000000000e+00,5.000000000000000000e+00,5.000000000000000000e+00,5.000000000000000000e+00,5.000000000000000000e+00,5.000000000000000000e+00,5.000000000000000000e+00,5.000000000000000000e+00,5.000000000000000000e+00,5.000000000000000000e+00,5.000000000000000000e+00,5.000000000000000000e+00,5.000000000000000000e+00,5.000000000000000000e+00,5.000000000000000000e+00,5.000000000000000000e+00,5.000000000000000000e+00,5.000000000000000000e+00,5.000000000000000000e+00,5.000000000000000000e+00,5.000000000000000000e+00,5.000000000000000000e+00,5.000000000000000000e+00,5.000000000000000000e+00,5.000000000000000000e+00,5.000000000000000000e+00,5.000000000000000000e+00,5.000000000000000000e+00,5.000000000000000000e+00,5.000000000000000000e+00,5.000000000000000000e+00,5.000000000000000000e+00,4.868620395660400391e+00,4.677120685577392578e+00,4.500114917755126953e+00,4.336018562316894531e+00,4.183468341827392578e+00,4.041287899017333984e+00,3.908453941345214844e+00,3.784074068069458008e+00,3.667366743087768555e+00,3.557642936706542969e+00,3.454293727874755859e+00,3.356779813766479492e+00,3.264620065689086914e+00,3.177386045455932617e+00,3.094692468643188477e+00,3.016193628311157227e+00,2.941578865051269531e+00,2.870566844940185547e+00,2.802902221679687500e+00,2.738354444503784180e+00,2.676712512969970703e+00,2.617784738540649414e+00,2.561395645141601562e+00,2.507384538650512695e+00,2.455604314804077148e+00,2.405919551849365234e+00,2.358205318450927734e+00,2.312346935272216797e+00,2.268237829208374023e+00,2.225780248641967773e+00,2.184883117675781250e+00,2.145461320877075195e+00,2.107437133789062500e+00,2.070737361907958984e+00,2.035293817520141602e+00,2.001043319702148438e+00,1.967926502227783203e+00,1.935887813568115234e+00,1.904875874519348145e+00,1.874841570854187012e+00,1.845739722251892090e+00
5.000000000000000000e+00,4.143922805786132812e+00,5.000000000000000000e+00,5.000000000000000000e+00,5.000000000000000000e+00,5.000000000000000000e+00,5.000000000000000000e+00,5.000000000000000000e+00,5.000000000000000000e+00,5.000000000000000000e+00,5.000000000000000000e+00,5.000000000000000000e+00,5.000000000000000000e+00,5.000000000000000000e+00,5.000000000000000000e+00,5.000000000000000000e+00,5.000000000000000000e+00,5.000000000000000000e+00,5.000000000000000000e+00,5.000000000000000000e+00,5.000000000000000000e+00,5.000000000000000000e+00,5.000000000000000000e+00,5.000000000000000000e+00,5.000000000000000000e+00,5.000000000000000000e+00,5.000000000000000000e+00,5.000000000000000000e+00,5.000000000000000000e+00,5.000000000000000000e+00,5.000000000000000000e+00,5.000000000000000000e+00,5.000000000000000000e+00,5.000000000000000000e+00,5.000000000000000000e+00,5.000000000000000000e+00,5.000000000000000000e+00,5.000000000000000000e+00,5.000000000000000000e+00,4.868760108947753906e+00,4.677248954772949219e+00,4.500234127044677734e+00,4.336129188537597656e+00,4.183571338653564453e+00,4.041383743286132812e+00,3.908543586730957031e+00,3.784158468246459961e+00,3.667445659637451172e+00,3.557717084884643555e+00,3.454363822937011719e+00,3.356846094131469727e+00,3.264683008193969727e+00,3.177445173263549805e+00,3.094748497009277344e+00,3.016247272491455078e+00,2.941629886627197266e+00,2.870615243911743164e+00,2.802948474884033203e+00,2.738398551940917969e+00,2.676754713058471680e+00,2.617825031280517578e+00,2.561434268951416016e+00,2.507421731948852539e+00,2.455639839172363281e+00,2.405953407287597656e+00,2.358237981796264648e+00,2.312378168106079102e+00,2.268268346786499023e+00,2.225809335708618164e+00,2.184911012649536133e+00,2.145488500595092773e+00,2.107463359832763672e+00,2.070762634277343750e+00,2.035318136215209961e+00,2.001066684722900391e+00,1.967949390411376953e+00,1.935909986495971680e+00,1.904897093772888184e+00,1.874862313270568848e+00,1.845759749412536621e+00
5.000000000000000000e+00,5.000000000000000000e+00,5.000000000000000000e+00,5.000000000000000000e+00,5.000000000000000000e+00,5.000000000000000000e+00,5.000000000000000000e+00,5.000000000000000000e+00,5.000000000000000000e+00,5.000000000000000000e+00,5.000000000000000000e+00,5.000000000000000000e+00,5.000000000000000000e+00,5.000000000000000000e+00,5.000000000000000000e+00,5.000000000000000000e+00,5.000000000000000000e+00,5.000000000000000000e+00,5.000000000000000000e+00,5.000000000000000000e+00,5.000000000000000000e+00,5.000000000000000000e+00,5.000000000000000000e+00,5.000000000000000000e+00,5.000000000000000000e+00,5.000000000000000000e+00,5.000000000000000000e+00,5.000000000000000000e+00,5.000000000000000000e+00,5.000000000000000000e+00,5.000000000000000000e+00,5.000000000000000000e+00,5.000000000000000000e+00,5.000000000000000000e+00,5.000000000000000000e+00,5.000000000000000000e+00,5.000000000000000000e+00,5.000000000000000000e+00,5.000000000000000000e+00,4.868899345397949219e+00,4.677377700805664062e+00,4.500353336334228516e+00,4.336239337921142578e+00,4.183674335479736328e+00,4.041479587554931641e+00,3.908633232116699219e+00,3.784242630004882812e+00,3.667525053024291992e+00,3.557791471481323242e+00,3.454434156417846680e+00,3.356912136077880859e+00,3.264745712280273438e+00,3.177504539489746094e+00,3.094804763793945312e+00,3.016300678253173828e+00,2.941680908203125000e+00,2.870663642883300781e+00,2.802994728088378906e+00,2.738442659378051758e+00,2.676796913146972656e+00,2.617865324020385742e+00,2.561472654342651367e+00,2.507458448410034180e+00,2.455675363540649414e+00,2.405987501144409180e+00,2.358270883560180664e+00,2.312409639358520508e+00,2.268298387527465820e+00,2.225838661193847656e+00,2.184939146041870117e+00,2.145515680313110352e+00,2.107489585876464844e+00,2.070787668228149414e+00,2.035342693328857422e+00,2.001090288162231445e+00,1.967972040176391602e+00,1.935932040214538574e+00,1.904918432235717773e+00,1.874882817268371582e+00,1.845779895782470703e+00
5.000000000000000000e+00,5.000000000000000000e+00,5.000000000000000000e+00,5.000000000000000000e+00,5.000000000000000000e+00,5.000000000000000000e+00,5.000000000000000000e+00,5.000000000000000000e+00,5.000000000000000000e+00,5.000000000000000000e+00,5.000000000000000000e+00,5.000000000000000000e+00,5.000000000000000000e+00,5.000000000000000000e+00,5.000000000000000000e+00,5.000000000000000000e+00,5.000000000000000000e+00,5.000000000000000000e+00,5.000000000000000000e+00,5.000000000000000000e+00,5.000000000000000000e+00,5.000000000000000000e+00,5.000000000000000000e+00,5.000000000000000000e+00,5.000000000000000000e+00,5.000000000000000000e+00,5.000000000000000000e+00,5.000000000000000000e+00,5.000000000000000000e+00,5.000000000000000000e+00,5.000000000000000000e+00,5.000000000000000000e+00,5.000000000000000000e+00,5.000000000000000000e+00,5.000000000000000000e+00,5.000000000000000000e+00,5.000000000000000000e+00,5.000000000000000000e+00,5.000000000000000000e+00,4.869038581848144531e+00,4.677505970001220703e+00,4.500472545623779297e+00,4.336349964141845703e+00,4.183777332305908203e+00,4.041575431823730469e+00,3.908723354339599609e+00,3.784326553344726562e+00,3.667603969573974609e+00,3.557865858078002930e+00,3.454504251480102539e+00,3.356978654861450195e+00,3.264807939529418945e+00,3.177563905715942383e+00,3.094861268997192383e+00,3.016354084014892578e+00,2.941731691360473633e+00,2.870712041854858398e+00,2.803040981292724609e+00,2.738486766815185547e+00,2.676838874816894531e+00,2.617905616760253906e+00,2.561511278152465820e+00,2.507495403289794922e+00,2.455710649490356445e+00,2.406021595001220703e+00,2.358303546905517578e+00,2.312441349029541016e+00,2.268328666687011719e+00,2.225867748260498047e+00,2.184967279434204102e+00,2.145542621612548828e+00,2.107515573501586914e+00,2.070812940597534180e+00,2.035367012023925781e+00,2.001113891601562500e+00,1.967994809150695801e+00,1.935953974723815918e+00,1.904939889907836914e+00,1.874903559684753418e+00,1.845799803733825684e+00
5.000000000000000000e+00,5.000000000000000000e+00,5.000000000000000000e+00,5.000000000000000000e+00,5.000000000000000000e+00,5.000000000000000000e+00,5.000000000000000000e+00,5.000000000000000000e+00,5.000000000000000000e+00,5.000000000000000000e+00,5.000000000000000000e+00,5.000000000000000000e+00,5.000000000000000000e+00,5.000000000000000000e+00,5.000000000000000000e+00,5.000000000000000000e+00,5.000000000000000000e+00,5.000000000000000000e+00,5.000000000000000000e+00,5.000000000000000000e+00,5.000000000000000000e+00,5.000000000000000000e+00,5.000000000000000000e+00,5.000000000000000000e+00,5.000000000000000000e+00,5.000000000000000000e+00,5.000000000000000000e+00,5.000000000000000000e+00,5.000000000000000000e+00,5.000000000000000000e+00,5.000000000000000000e+00,5.000000000000000000e+00,5.000000000000000000e+00,5.000000000000000000e+00,5.000000000000000000e+00,5.000000000000000000e+00,5.000000000000000000e+00,5.000000000000000000e+00,5.000000000000000000e+00,4.869176864624023438e+00,4.677634716033935547e+00,4.500591278076171875e+00,4.336460590362548828e+00,4.183880329132080078e+00,4.041671752929687500e+00,3.908812999725341797e+00,3.784410715103149414e+00,3.667682886123657227e+00,3.557940483093261719e+00,3.454574346542358398e+00,3.357044696807861328e+00,3.264870882034301758e+00,3.177623271942138672e+00,3.094917535781860352e+00,3.016407489776611328e+00,2.941782474517822266e+00,2.870760679244995117e+00,2.803086996078491211e+00,2.738530874252319336e+00,2.676881074905395508e+00,2.617945909500122070e+00,2.561549901962280273e+00,2.507532358169555664e+00,2.455746173858642578e+00,2.406055688858032227e+00,2.358336210250854492e+00,2.312472581863403320e+00,2.268358945846557617e+00,2.225896835327148438e+00,2.184995412826538086e+00,2.145569562911987305e+00,2.107541799545288086e+00,2.070838212966918945e+00,2.035391330718994141e+00,2.001137495040893555e+00,1.968017697334289551e+00,1.935976028442382812e+00,1.904961109161376953e+00,1.874924063682556152e+00,1.845819950103759766e+00
5.000000000000000000e+00,5.000000000000000000e+00,5.000000000000000000e+00,5.000000000000000000e+00,5.000000000000000000e+00,5.000000000000000000e+00,5.000000000000000000e+00,5.000000000000000000e+00,5.000000000000000000e+00,5.000000000000000000e+00,5.000000000000000000e+00,5.000000000000000000e+00,5.000000000000000000e+00,5.000000000000000000e+00,5.000000000000000000e+00,5.000000000000000000e+00,5.000000000000000000e+00,5.000000000000000000e+00,5.000000000000000000e+00,5.000000000000000000e+00,5.000000000000000000e+00,5.000000000000000000e+00,5.000000000000000000e+00,5.000000000000000000e+00,5.000000000000000000e+00,5.000000000000000000e+00,5.000000000000000000e+00,5.000000000000000000e+00,5.000000000000000000e+00,5.000000000000000000e+00,5.000000000000000000e+00,5.000000000000000000e+00,5.000000000000000000e+00,5.000000000000000000e+00,5.000000000000000000e+00,5.000000000000000000e+00,5.000000000000000000e+00,5.000000000000000000e+00,5.000000000000000000e+00,4.869315624237060547e+00,4.677762508392333984e+00,4.500710487365722656e+00,4.336571216583251953e+00,4.183982849121093750e+00,4.041767597198486328e+00,3.908902883529663086e+00,3.784495353698730469e+00,3.667761802673339844e+00,3.558014869689941406e+00,3.454644441604614258e+00,3.357110738754272461e+00,3.264933347702026367e+00,3.177682399749755859e+00,3.094973564147949219e+00,3.016461133956909180e+00,2.941833257675170898e+00,2.870809078216552734e+00,2.803133487701416016e+00,2.738574981689453125e+00,2.676923274993896484e+00,2.617986202239990234e+00,2.561588525772094727e+00,2.507569551467895508e+00,2.455781459808349609e+00,2.406089544296264648e+00,2.358368873596191406e+00,2.312504053115844727e+00,2.268389225006103516e+00,2.225925922393798828e+00,2.185023307800292969e+00,2.145596742630004883e+00,2.107567787170410156e+00,2.070863246917724609e+00,2.035415649414062500e+00,2.001160860061645508e+00,1.968040347099304199e+00,1.935997962951660156e+00,1.904982447624206543e+00,1.874944806098937988e+00,1.845839858055114746e+00
5.000000000000000000e+00,5.000000000000000000e+00,5.000000000000000000e+00,5.000000000000000000e+00,5.000000000000000000e+00,5.000000000000000000e+00,5.000000000000000000e+00,5.000000000000000000e+00,5.000000000000000000e+00,5.000000000000000000e+00,5.000000000000000000e+00,5.000000000000000000e+00,5.000000000000000000e+00,5.000000000000000000e+00,5.000000000000000000e+00,5.000000000000000000e+00,5.000000000000000000e+00,5.000000000000000000e+00,5.000000000000000000e+00,5.000000000000000000e+00,5.000000000000000000e+00,5.000000000000000000e+00,5.000000000000000000e+00,5.000000000000000000e+00,5.000000000000000000e+00,5.000000000000000000e+00,5.000000000000000000e+00,5.000000000000000000e+00,5.000000000000000000e+00,5.000000000000000000e+00,5.000000000000000000e+00,5.000000000000000000e+00,5.000000000000000000e+00,5.000000000000000000e+00,5.000000000000000000e+00,5.000000000000000000e+00,5.000000000000000000e+00,5.000000000000000000e+00,5.000000000000000000e+00,4.869454383850097656e+00,4.677890777587890625e+00,4.500829219818115234e+00,4.336681842803955078e+00,4.184085845947265625e+00,4.041863918304443359e+00,3.908992528915405273e+00,3.784579277038574219e+00,3.667841196060180664e+00,3.558089017868041992e+00,3.454714536666870117e+00,3.357177257537841797e+00,3.264996051788330078e+00,3.177742004394531250e+00,3.095029830932617188e+00,3.016514539718627930e+00,2.941884279251098633e+00,2.870857477188110352e+00,2.803179502487182617e+00,2.738619089126586914e+00,2.676965236663818359e+00,2.618026494979858398e+00,2.561626911163330078e+00,2.507606506347656250e+00,2.455817222595214844e+00,2.406123638153076172e+00,2.358401536941528320e+00,2.312535524368286133e+00,2.268419504165649414e+00,2.225955009460449219e+00,2.185051441192626953e+00,2.145623922348022461e+00,2.107594013214111328e+00,2.070888519287109375e+00,2.035439968109130859e+00,2.001184463500976562e+00,1.968063235282897949e+00,1.936020016670227051e+00,1.905003666877746582e+00,1.874965548515319824e+00,1.845859885215759277e+00
5.000000000000000000e+00,5.000000000000000000e+00,5.000000000000000000e+00,5.000000000000000000e+00,5.000000000000000000e+00,5.000000000000000000e+00,5.000000000000000000e+00,5.000000000000000000e+00,5.000000000000000000e+00,5.000000000000000000e+00,5.000000000000000000e+00,5.000000000000000000e+00,5.000000000000000000e+00,5.000000000000000000e+00,5.000000000000000000e+00,5.000000000000000000e+00,5.000000000000000000e+00,5.000000000000000000e+00,5.000000000000000000e+00,5.000000000000000000e+00,5.000000000000000000e+00,5.000000000000000000e+00,5.000000000000000000e+00,5.000000000000000000e+00,5.000000000000000000e+00,5.000000000000000000e+00,5.000000000000000000e+00,5.000000000000000000e+00,5.000000000000000000e+00,5.000000000000000000e+00,5.000000000000000000e+00,5.000000000000000000e+00,5.000000000000000000e+00,5.000000000000000000e+00,5.000000000000000000e+00,5.000000000000000000e+00,5.000000000000000000e+00,5.000000000000000000e+00,5.000000000000000000e+00,4.869593143463134766e+00,4.678019046783447266e+00,4.500947475433349609e+00,4.336792469024658203e+00,4.184188842773437500e+00,4.041959762573242188e+00,3.909082651138305664e+00,3.784663438796997070e+00,3.667920112609863281e+00,3.558163642883300781e+00,3.454784631729125977e+00,3.357243537902832031e+00,3.265058517456054688e+00,3.177801370620727539e+00,3.095086574554443359e+00,3.016567945480346680e+00,2.941935062408447266e+00,2.870906114578247070e+00,2.803225755691528320e+00,2.738663196563720703e+00,2.677007436752319336e+00,2.618066787719726562e+00,2.561665773391723633e+00,2.507643222808837891e+00,2.455852508544921875e+00,2.406157732009887695e+00,2.358434200286865234e+00,2.312566995620727539e+00,2.268449544906616211e+00,2.225984096527099609e+00,2.185079574584960938e+00,2.145650863647460938e+00,2.107620000839233398e+00,2.070913791656494141e+00,2.035464286804199219e+00,2.001208066940307617e+00,1.968085765838623047e+00,1.936042189598083496e+00,1.905025124549865723e+00,1.874986171722412109e+00,1.845880031585693359e+00
5.000000000000000000e+00,5.000000000000000000e+00,5.000000000000000000e+00,5.000000000000000000e+00,5.000000000000000000e+00,5.000000000000000000e+00,5.000000000000000000e+00,5.000000000000000000e+00,5.000000000000000000e+00,5.000000000000000000e+00,5.000000000000000000e+00,5.000000000000000000e+00,5.000000000000000000e+00,5.000000000000000000e+00,5.000000000000000000e+00,5.000000000000000000e+00,5.000000000000000000e+00,5.000000000000000000e+00,5.000000000000000000e+00,5.000000000000000000e+00,5.000000000000000000e+00,5.000000000000000000e+00,5.000000000000000000e+00,5.000000000000000000e+00,5.000000000000000000e+00,5.000000000000000000e+00,5.000000000000000000e+00,5.000000000000000000e+00,5.000000000000000000e+00,5.000000000000000000e+00,5.000000000000000000e+00,5.000000000000000000e+00,5.000000000000000000e+00,5.000000000000000000e+00,5.000000000000000000e+00,5.000000000000000000e+00,5.000000000000000000e+00,5.000000000000000000e+00,5.000000000000000000e+00,4.869731903076171875e+00,4.678146839141845703e+00,4.501065731048583984e+00,4.336901664733886719e+00,4.184291839599609375e+00,4.042056083679199219e+00,3.909172296524047852e+00,3.784747600555419922e+00,3.667999029159545898e+00,3.558238029479980469e+00,3.454854726791381836e+00,3.357309579849243164e+00,3.265121459960937500e+00,3.177860736846923828e+00,3.095142602920532227e+00,3.016621589660644531e+00,2.941985845565795898e+00,2.870954513549804688e+00,2.803271770477294922e+00,2.738707304000854492e+00,2.677049636840820312e+00,2.618107080459594727e+00,2.561704158782958984e+00,2.507680416107177734e+00,2.455888032913208008e+00,2.406191825866699219e+00,2.358466863632202148e+00,2.312598466873168945e+00,2.268480062484741211e+00,2.226013183593750000e+00,2.185107707977294922e+00,2.145678043365478516e+00,2.107646226882934570e+00,2.070939064025878906e+00,2.035488605499267578e+00,2.001231670379638672e+00,1.968108654022216797e+00,1.936064124107360840e+00,1.905046582221984863e+00,1.875006914138793945e+00,1.845899939537048340e+00
5.000000000000000000e+00,5.000000000000000000e+00,5.000000000000000000e+00,5.000000000000000000e+00,5.000000000000000000e+00,5.000000000000000000e+00,5.000000000000000000e+00,5.000000000000000000e+00,5.000000000000000000e+00,5.000000000000000000e+00,5.000000000000000000e+00,5.000000000000000000e+00,5.000000000000000000e+00,5.000000000000000000e+00,5.000000000000000000e+00,5.000000000000000000e+00,5.000000000000000000e+00,5.000000000000000000e+00,5.000000000000000000e+00,5.000000000000000000e+00,5.000000000000000000e+00,5.000000000000000000e+00,5.000000000000000000e+00,5.000000000000000000e+00,5.000000000000000000e+00,5.000000000000000000e+00,5.000000000000000000e+00,5.000000000000000000e+00,5.000000000000000000e+00,5.000000000000000000e+00,5.000000000000000000e+00,5.000000000000000000e+00,5.000000000000000000e+00,5.000000000000000000e+00,5.000000000000000000e+00,5.000000000000000000e+00,5.000000000000000000e+00,5.000000000000000000e+00,5.000000000000000000e+00,4.869871139526367188e+00,4.678275108337402344e+00,4.501184463500976562e+00,4.337011814117431641e+00,4.184393882751464844e+00,4.042151927947998047e+00,3.909261941909790039e+00,3.784831762313842773e+00,3.668078422546386719e+00,3.558312177658081055e+00,3.454925060272216797e+00,3.357375860214233398e+00,3.265184164047241211e+00,3.177920341491699219e+00,3.095198869705200195e+00,3.016675233840942383e+00,2.942037105560302734e+00,2.871002912521362305e+00,2.803318262100219727e+00,2.738751173019409180e+00,2.677091836929321289e+00,2.618147373199462891e+00,2.561742782592773438e+00,2.507717370986938477e+00,2.455923557281494141e+00,2.406225681304931641e+00,2.358499765396118164e+00,2.312629699707031250e+00,2.268510341644287109e+00,2.226042509078979492e+00,2.185135602951049805e+00,2.145704984664916992e+00,2.107672452926635742e+00,2.070964097976684570e+00,2.035513162612915039e+00,2.001255035400390625e+00,1.968131542205810547e+00,1.936086177825927734e+00,1.905067682266235352e+00,1.875027656555175781e+00,1.845920085906982422e+00
4.875654697418212891e+00,4.874443054199218750e+00,4.873232364654541016e+00,4.872022151947021484e+00,4.870812416076660156e+00,4.869603633880615234e+00,4.868395328521728516e+00,4.867187500000000000e+00,4.865980148315429688e+00,4.864773273468017578e+00,4.863567829132080078e+00,4.862362384796142578e+00,4.861157417297363281e+00,4.859953403472900391e+00,4.858749866485595703e+00,4.857546806335449219e+00,4.856344223022460938e+00,4.855142593383789062e+00,4.853941440582275391e+00,4.852740764617919922e+00,4.851541042327880859e+00,4.850341320037841797e+00,4.849142551422119141e+00,4.847944259643554688e+00,4.846746921539306641e+00,4.845549583435058594e+00,4.844353199005126953e+00,4.843157291412353516e+00,4.841961860656738281e+00,4.840767383575439453e+00,4.839573383331298828e+00,4.838379859924316406e+00,4.837186813354492188e+00,4.835994243621826172e+00,4.834802627563476562e+00,4.833611488342285156e+00,4.832420825958251953e+00,4.831230640411376953e+00,4.830041408538818359e+00,4.828852653503417969e+00,4.678402900695800781e+00,4.501303195953369141e+00,4.337121963500976562e+00,4.184496402740478516e+00,4.042248249053955078e+00,3.909352064132690430e+00,3.784915924072265625e+00,3.668157339096069336e+00,3.558386564254760742e+00,3.454995155334472656e+00,3.357442378997802734e+00,3.265246629714965820e+00,3.177979469299316406e+00,3.095255374908447266e+00,3.016728639602661133e+00,2.942087888717651367e+00,2.871051311492919922e+00,2.803364276885986328e+00,2.738795518875122070e+00,2.677133798599243164e+00,2.618187665939331055e+00,2.561781406402587891e+00,2.507754325866699219e+00,2.455959081649780273e+00,2.406259775161743164e+00,2.358532428741455078e+00,2.312661409378051758e+00,2.268540382385253906e+00,2.226071596145629883e+00,2.185163736343383789e+00,2.145732164382934570e+00,2.107698440551757812e+00,2.070989370346069336e+00,2.035537481307983398e+00,2.001278638839721680e+00,1.968154191970825195e+00,1.936108350753784180e+00,1.905089139938354492e+00,1.875048160552978516e+00,1.845940113067626953e+00
3.778450489044189453e+00,3.777723073959350586e+00,3.776995420455932617e+00,3.776268720626831055e+00,3.775542020797729492e+00,3.774815320968627930e+00,3.774089336395263672e+00,3.773363590240478516e+00,3.772638082504272461e+00,3.771912336349487305e+00,3.771187543869018555e+00,3.770462989807128906e+00,3.769738197326660156e+00,3.769014120101928711e+00,3.768290281295776367e+00,3.767566204071044922e+00,3.766843080520629883e+00,3.766120195388793945e+00,3.765397548675537109e+00,3.764674425125122070e+00,3.763952493667602539e+00,3.763230562210083008e+00,3.762508630752563477e+00,3.761787414550781250e+00,3.761066198348999023e+00,3.760345458984375000e+00,3.759624719619750977e+00,3.758904457092285156e+00,3.758184432983398438e+00,3.757464408874511719e+00,3.756745100021362305e+00,3.756026029586791992e+00,3.755306720733642578e+00,3.754588127136230469e+00,3.753870010375976562e+00,3.753151893615722656e+00,3.752433776855468750e+00,3.751716375350952148e+00,3.750999212265014648e+00,3.750281810760498047e+00,3.749565124511718750e+00,3.748848915100097656e+00,3.748132705688476562e+00,3.747416496276855469e+00,3.746701002120971680e+00,3.745985746383666992e+00,3.745270252227783203e+00,3.668236494064331055e+00,3.558461427688598633e+00,3.455065250396728516e+00,3.357508420944213867e+00,3.265309572219848633e+00,3.178038835525512695e+00,3.095311641693115234e+00,3.016782045364379883e+00,2.942138671875000000e+00,2.871099948883056641e+00,2.803410530090332031e+00,2.738839626312255859e+00,2.677175998687744141e+00,2.618227958679199219e+00,2.561820030212402344e+00,2.507791280746459961e+00,2.455994367599487305e+00,2.406293869018554688e+00,2.358565092086791992e+00,2.312692642211914062e+00,2.268570899963378906e+00,2.226100921630859375e+00,2.185191869735717773e+00,2.145759105682373047e+00,2.107724428176879883e+00,2.071014642715454102e+00,2.035561800003051758e+00,2.001302242279052734e+00,1.968176960945129395e+00,1.936130166053771973e+00,1.905110597610473633e+00,1.875068902969360352e+00,1.845960021018981934e+00
3.084355592727661133e+00,3.083870887756347656e+00,3.083386182785034180e+00,3.082901477813720703e+00,3.082417249679565430e+00,3.081933021545410156e+00,3.081448793411254883e+00,3.080965042114257812e+00,3.080481290817260742e+00,3.079997539520263672e+00,3.079514265060424805e+00,3.079030990600585938e+00,3.078547954559326172e+00,3.078064680099487305e+00,3.077581882476806641e+00,3.077099323272705078e+00,3.076616525650024414e+00,3.076134204864501953e+00,3.075652122497558594e+00,3.075170040130615234e+00,3.074687957763671875e+00,3.074206113815307617e+00,3.073724746704101562e+00,3.073242902755737305e+00,3.072761774063110352e+00,3.072280645370483398e+00,3.071799278259277344e+00,3.071318626403808594e+00,3.070837974548339844e+00,3.070357322692871094e+00,3.069876909255981445e+00,3.069396495819091797e+00,3.068916559219360352e+00,3.068436384201049805e+00,3.067956686019897461e+00,3.067476987838745117e+00,3.066997528076171875e+00,3.066518068313598633e+00,3.066038846969604492e+00,3.065559864044189453e+00,3.065080881118774414e+00,3.064602136611938477e+00,3.064123630523681641e+00,3.063645124435424805e+00,3.063166618347167969e+00,3.062688589096069336e+00,3.062210559844970703e+00,3.061732530593872070e+00,3.061254978179931641e+00,3.060777425765991211e+00,3.060299634933471680e+00,3.059822559356689453e+00,3.059345483779907227e+00,3.058868408203125000e+00,3.016835689544677734e+00,2.942189455032348633e+00,2.871148347854614258e+00,2.803456783294677734e+00,2.738883495330810547e+00,2.677218198776245117e+00,2.618268489837646484e+00,2.561858415603637695e+00,2.507828235626220703e+00,2.456029891967773438e+00,2.406327962875366211e+00,2.358597755432128906e+00,2.312724113464355469e+00,2.268600940704345703e+00,2.226130008697509766e+00,2.185219764709472656e+00,2.145786285400390625e+00,2.107750654220581055e+00,2.071039915084838867e+00,2.035586357116699219e+00,2.001325845718383789e+00,1.968199849128723145e+00,1.936152338981628418e+00,1.905131816864013672e+00,1.875089645385742188e+00,1.845980167388916016e+00
2.605693817138671875e+00,2.605347871780395508e+00,2.605002164840698242e+00,2.604655981063842773e+00,2.604310274124145508e+00,2.603964805603027344e+00,2.603619337081909180e+00,2.603273630142211914e+00,2.602928400039672852e+00,2.602583169937133789e+00,2.602237701416015625e+00,2.601892709732055664e+00,2.601547718048095703e+00,2.601202726364135742e+00,2.600857973098754883e+00,2.600513219833374023e+00,2.600168704986572266e+00,2.599823951721191406e+00,2.599479436874389648e+00,2.599135160446166992e+00,2.598790645599365234e+00,2.598446607589721680e+00,2.598102569580078125e+00,2.597758531570434570e+00,2.597414493560791016e+00,2.597070693969726562e+00,2.596727132797241211e+00,2.596383333206176758e+00,2.596039772033691406e+00,2.595696449279785156e+00,2.595353126525878906e+00,2.595009565353393555e+00,2.594666481018066406e+00,2.594323396682739258e+00,2.593980312347412109e+00,2.593637466430664062e+00,2.593294620513916016e+00,2.592952013015747070e+00,2.592609167098999023e+00,2.592266559600830078e+00,2.591924190521240234e+00,2.591581821441650391e+00,2.591239452362060547e+00,2.590897321701049805e+00,2.590555191040039062e+00,2.590213060379028320e+00,2.589871168136596680e+00,2.589529514312744141e+00,2.589187622070312500e+00,2.588845968246459961e+00,2.588504552841186523e+00,2.588162899017333984e+00,2.587821483612060547e+00,2.587480306625366211e+00,2.587139129638671875e+00,2.586797952651977539e+00,2.586457014083862305e+00,2.586116075515747070e+00,2.585775136947631836e+00,2.585434436798095703e+00,2.585093736648559570e+00,2.561897039413452148e+00,2.507865190505981445e+00,2.456065416336059570e+00,2.406362056732177734e+00,2.358630418777465820e+00,2.312755584716796875e+00,2.268631219863891602e+00,2.226159095764160156e+00,2.185247898101806641e+00,2.145813226699829102e+00,2.107776880264282227e+00,2.071064949035644531e+00,2.035610675811767578e+00,2.001349449157714844e+00,1.968222498893737793e+00,1.936174511909484863e+00,1.905153155326843262e+00,1.875110149383544922e+00,1.846000313758850098e+00
2.255648612976074219e+00,2.255389213562011719e+00,2.255129337310791016e+00,2.254869937896728516e+00,2.254610538482666016e+00,2.254350900650024414e+00,2.254091501235961914e+00,2.253832340240478516e+00,2.253573179244995117e+00,2.253314018249511719e+00,2.253054857254028320e+00,2.252795696258544922e+00,2.252536773681640625e+00,2.252277851104736328e+00,2.252018928527832031e+00,2.251760244369506836e+00,2.251501321792602539e+00,2.251242637634277344e+00,2.250983953475952148e+00,2.250725269317626953e+00,2.250466823577880859e+00,2.250208377838134766e+00,2.249949932098388672e+00,2.249691963195800781e+00,2.249433994293212891e+00,2.249176025390625000e+00,2.248918294906616211e+00,2.248660564422607422e+00,2.248402595520019531e+00,2.248145103454589844e+00,2.247887611389160156e+00,2.247630119323730469e+00,2.247372388839721680e+00,2.247115135192871094e+00,2.246857881546020508e+00,2.246600389480590820e+00,2.246343135833740234e+00,2.246086120605468750e+00,2.245828866958618164e+00,2.245571851730346680e+00,2.245314836502075195e+00,2.245058059692382812e+00,2.244801044464111328e+00,2.244544267654418945e+00,2.244287490844726562e+00,2.244030714035034180e+00,2.243774175643920898e+00,2.243517637252807617e+00,2.243261098861694336e+00,2.243004560470581055e+00,2.242748260498046875e+00,2.242491960525512695e+00,2.242235422134399414e+00,2.241979360580444336e+00,2.241723060607910156e+00,2.241466999053955078e+00,2.241210937500000000e+00,2.240954875946044922e+00,2.240699052810668945e+00,2.240442991256713867e+00,2.240187406539916992e+00,2.239931583404541016e+00,2.239675760269165039e+00,2.239420175552368164e+00,2.239164590835571289e+00,2.238909006118774414e+00,2.238653659820556641e+00,2.238398075103759766e+00,2.226188182830810547e+00,2.185276031494140625e+00,2.145840406417846680e+00,2.107802867889404297e+00,2.071090459823608398e+00,2.035634994506835938e+00,2.001372814178466797e+00,1.968245387077331543e+00,1.936196327209472656e+00,1.905174612998962402e+00,1.875130891799926758e+00,1.846020221710205078e+00
1.988530278205871582e+00,1.988328456878662109e+00,1.988126635551452637e+00,1.987924933433532715e+00,1.987723350524902344e+00,1.987521529197692871e+00,1.987319946289062500e+00,1.987118482589721680e+00,1.986916780471801758e+00,1.986715435981750488e+00,1.986514091491699219e+00,1.986312747001647949e+00,1.986111283302307129e+00,1.985910058021545410e+00,1.985708832740783691e+00,1.985507369041442871e+00,1.985306262969970703e+00,1.985105276107788086e+00,1.984903931617736816e+00,1.984702944755554199e+00,1.984502077102661133e+00,1.984300851821899414e+00,1.984099984169006348e+00,1.983899116516113281e+00,1.983698129653930664e+00,1.983497381210327148e+00,1.983296632766723633e+00,1.983095765113830566e+00,1.982895135879516602e+00,1.982694506645202637e+00,1.982493758201599121e+00,1.982293248176574707e+00,1.982092738151550293e+00,1.981892108917236328e+00,1.981691718101501465e+00,1.981491446495056152e+00,1.981291055679321289e+00,1.981090545654296875e+00,1.980890393257141113e+00,1.980690121650695801e+00,1.980489850044250488e+00,1.980289697647094727e+00,1.980089664459228516e+00,1.979889392852783203e+00,1.979689359664916992e+00,1.979489445686340332e+00,1.979289293289184570e+00,1.979089498519897461e+00,1.978889584541320801e+00,1.978689551353454590e+00,1.978489875793457031e+00,1.978290200233459473e+00,1.978090286254882812e+00,1.977890610694885254e+00,1.977691054344177246e+00,1.977491259574890137e+00,1.977291822433471680e+00,1.977092266082763672e+00,1.976892709732055664e+00,1.976693272590637207e+00,1.976493954658508301e+00,1.976294636726379395e+00,1.976095199584960938e+00,1.975895881652832031e+00,1.975696802139282227e+00,1.975497364997863770e+00,1.975298285484313965e+00,1.975099205970764160e+00,1.974900007247924805e+00,1.974701046943664551e+00,1.974502086639404297e+00,1.974302887916564941e+00,1.974104046821594238e+00,1.973905205726623535e+00,1.973706245422363281e+00,1.968268275260925293e+00,1.936218500137329102e+00,1.905195832252502441e+00,1.875151634216308594e+00,1.846040248870849609e+00
1.777978420257568359e+00,1.777817130088806152e+00,1.777655839920043945e+00,1.777494549751281738e+00,1.777333259582519531e+00,1.777172207832336426e+00,1.777010798454284668e+00,1.776849746704101562e+00,1.776688694953918457e+00,1.776527404785156250e+00,1.776366472244262695e+00,1.776205420494079590e+00,1.776044368743896484e+00,1.775883436203002930e+00,1.775722503662109375e+00,1.775561451911926270e+00,1.775400638580322266e+00,1.775239825248718262e+00,1.775078892707824707e+00,1.774918079376220703e+00,1.774757385253906250e+00,1.774596452713012695e+00,1.774435877799987793e+00,1.774275183677673340e+00,1.774114370346069336e+00,1.773953795433044434e+00,1.773793220520019531e+00,1.773632764816284180e+00,1.773472070693969727e+00,1.773311614990234375e+00,1.773151159286499023e+00,1.772990584373474121e+00,1.772830247879028320e+00,1.772669911384582520e+00,1.772509336471557617e+00,1.772349119186401367e+00,1.772188901901245117e+00,1.772028446197509766e+00,1.771868228912353516e+00,1.771708011627197266e+00,1.771547675132751465e+00,1.771387577056884766e+00,1.771227478981018066e+00,1.771067261695861816e+00,1.770907282829284668e+00,1.770747303962707520e+00,1.770587086677551270e+00,1.770427227020263672e+00,1.770267248153686523e+00,1.770107150077819824e+00,1.769947290420532227e+00,1.769787549972534180e+00,1.769627690315246582e+00,1.769467711448669434e+00,1.769308090209960938e+00,1.769148349761962891e+00,1.768988490104675293e+00,1.768828868865966797e+00,1.768669128417968750e+00,1.768509387969970703e+00,1.768349885940551758e+00,1.768190264701843262e+00,1.768030643463134766e+00,1.767871141433715820e+00,1.767711639404296875e+00,1.767552137374877930e+00,1.767392754554748535e+00,1.767233371734619141e+00,1.767073869705200195e+00,1.766914486885070801e+00,1.766755223274230957e+00,1.766595840454101562e+00,1.766436576843261719e+00,1.766277432441711426e+00,1.766118049621582031e+00,1.765958905220031738e+00,1.765799880027770996e+00,1.765640735626220703e+00,1.765481591224670410e+00,1.765322566032409668e+00
1.607745289802551270e+00,1.607613444328308105e+00,1.607481598854064941e+00,1.607349634170532227e+00,1.607217788696289062e+00,1.607086062431335449e+00,1.606954097747802734e+00,1.606822371482849121e+00,1.606690645217895508e+00,1.606558799743652344e+00,1.606427073478698730e+00,1.606295466423034668e+00,1.606163620948791504e+00,1.606032013893127441e+00,1.605900406837463379e+00,1.605768680572509766e+00,1.605637192726135254e+00,1.605505704879760742e+00,1.605374097824096680e+00,1.605242490768432617e+00,1.605111002922058105e+00,1.604979634284973145e+00,1.604848027229309082e+00,1.604716658592224121e+00,1.604585289955139160e+00,1.604453802108764648e+00,1.604322433471679688e+00,1.604191064834594727e+00,1.604059696197509766e+00,1.603928446769714355e+00,1.603797197341918945e+00,1.603665828704833984e+00,1.603534579277038574e+00,1.603403449058532715e+00,1.603272080421447754e+00,1.603140950202941895e+00,1.603009819984436035e+00,1.602878570556640625e+00,1.602747440338134766e+00,1.602616429328918457e+00,1.602485299110412598e+00,1.602354288101196289e+00,1.602223277091979980e+00,1.602092266082763672e+00,1.601961135864257812e+00,1.601830244064331055e+00,1.601699352264404297e+00,1.601568341255187988e+00,1.601437449455261230e+00,1.601306676864624023e+00,1.601175665855407715e+00,1.601044893264770508e+00,1.600914120674133301e+00,1.600783228874206543e+00,1.600652456283569336e+00,1.600521802902221680e+00,1.600390911102294922e+00,1.600260257720947266e+00,1.600129604339599609e+00,1.599998831748962402e+00,1.599868178367614746e+00,1.599737644195556641e+00,1.599606871604919434e+00,1.599476337432861328e+00,1.599345803260803223e+00,1.599215149879455566e+00,1.599084734916687012e+00,1.598954200744628906e+00,1.598823785781860352e+00,1.598693251609802246e+00,1.598562836647033691e+00,1.598432540893554688e+00,1.598302006721496582e+00,1.598171710968017578e+00,1.598041415214538574e+00,1.597910881042480469e+00,1.597780704498291016e+00,1.597650408744812012e+00,1.597519993782043457e+00,1.597389817237854004e+00
1.467261791229248047e+00,1.467151999473571777e+00,1.467042207717895508e+00,1.466932296752929688e+00,1.466822504997253418e+00,1.466712713241577148e+00,1.466602802276611328e+00,1.466493129730224609e+00,1.466383337974548340e+00,1.466273665428161621e+00,1.466163873672485352e+00,1.466054201126098633e+00,1.465944528579711914e+00,1.465834736824035645e+00,1.465725183486938477e+00,1.465615510940551758e+00,1.465505838394165039e+00,1.465396285057067871e+00,1.465286731719970703e+00,1.465177059173583984e+00,1.465067505836486816e+00,1.464957952499389648e+00,1.464848399162292480e+00,1.464738845825195312e+00,1.464629411697387695e+00,1.464519858360290527e+00,1.464410424232482910e+00,1.464300990104675293e+00,1.464191555976867676e+00,1.464082121849060059e+00,1.463972806930541992e+00,1.463863253593444824e+00,1.463753938674926758e+00,1.463644623756408691e+00,1.463535428047180176e+00,1.463425993919372559e+00,1.463316679000854492e+00,1.463207483291625977e+00,1.463098168373107910e+00,1.462988853454589844e+00,1.462879657745361328e+00,1.462770462036132812e+00,1.462661266326904297e+00,1.462552070617675781e+00,1.462442874908447266e+00,1.462333679199218750e+00,1.462224602699279785e+00,1.462115406990051270e+00,1.462006330490112305e+00,1.461897373199462891e+00,1.461788177490234375e+00,1.461679100990295410e+00,1.461570143699645996e+00,1.461461067199707031e+00,1.461352109909057617e+00,1.461243152618408203e+00,1.461134076118469238e+00,1.461025118827819824e+00,1.460916280746459961e+00,1.460807323455810547e+00,1.460698366165161133e+00,1.460589528083801270e+00,1.460480690002441406e+00,1.460371732711791992e+00,1.460262894630432129e+00,1.460154175758361816e+00,1.460045218467712402e+00,1.459936499595642090e+00,1.459827780723571777e+00,1.459718942642211914e+00,1.459610223770141602e+00,1.459501504898071289e+00,1.459392666816711426e+00,1.459284067153930664e+00,1.459175348281860352e+00,1.459066629409790039e+00,1.458958029747009277e+00,1.458849430084228516e+00,1.458740711212158203e+00,1.458632111549377441e+00
1.349356293678283691e+00,1.349263310432434082e+00,1.349170446395874023e+00,1.349077582359313965e+00,1.348984599113464355e+00,1.348891735076904297e+00,1.348798871040344238e+00,1.348706007003784180e+00,1.348613142967224121e+00,1.348520398139953613e+00,1.348427534103393555e+00,1.348334789276123047e+00,1.348242044448852539e+00,1.348149180412292480e+00,1.348056435585021973e+00,1.347963690757751465e+00,1.347870945930480957e+00,1.347778201103210449e+00,1.347685575485229492e+00,1.347592711448669434e+00,1.347500085830688477e+00,1.347407460212707520e+00,1.347314834594726562e+00,1.347222208976745605e+00,1.347129583358764648e+00,1.347036957740783691e+00,1.346944332122802734e+00,1.346851706504821777e+00,1.346759200096130371e+00,1.346666574478149414e+00,1.346574068069458008e+00,1.346481561660766602e+00,1.346388936042785645e+00,1.346296429634094238e+00,1.346204042434692383e+00,1.346111416816711426e+00,1.346019029617309570e+00,1.345926523208618164e+00,1.345834016799926758e+00,1.345741629600524902e+00,1.345649242401123047e+00,1.345556735992431641e+00,1.345464348793029785e+00,1.345371961593627930e+00,1.345279574394226074e+00,1.345187187194824219e+00,1.345094919204711914e+00,1.345002532005310059e+00,1.344910144805908203e+00,1.344817876815795898e+00,1.344725608825683594e+00,1.344633221626281738e+00,1.344541072845458984e+00,1.344448804855346680e+00,1.344356417655944824e+00,1.344264268875122070e+00,1.344172120094299316e+00,1.344079732894897461e+00,1.343987584114074707e+00,1.343895435333251953e+00,1.343803167343139648e+00,1.343711018562316895e+00,1.343618988990783691e+00,1.343526721000671387e+00,1.343434691429138184e+00,1.343342542648315430e+00,1.343250393867492676e+00,1.343158364295959473e+00,1.343066334724426270e+00,1.342974185943603516e+00,1.342882156372070312e+00,1.342790126800537109e+00,1.342698097229003906e+00,1.342606067657470703e+00,1.342514157295227051e+00,1.342422127723693848e+00,1.342330098152160645e+00,1.342238187789916992e+00,1.342146277427673340e+00,1.342054247856140137e+00
1.248990416526794434e+00,1.248910665512084961e+00,1.248831152915954590e+00,1.248751640319824219e+00,1.248671889305114746e+00,1.248592376708984375e+00,1.248512864112854004e+00,1.248433232307434082e+00,1.248353719711303711e+00,1.248274207115173340e+00,1.248194575309753418e+00,1.248115181922912598e+00,1.248035669326782227e+00,1.247956156730651855e+00,1.247876644134521484e+00,1.247797250747680664e+00,1.247717738151550293e+00,1.247638225555419922e+00,1.247558832168579102e+00,1.247479438781738281e+00,1.247399926185607910e+00,1.247320532798767090e+00,1.247241139411926270e+00,1.247161746025085449e+00,1.247082352638244629e+00,1.247003078460693359e+00,1.246923565864562988e+00,1.246844291687011719e+00,1.246764898300170898e+00,1.246685504913330078e+00,1.246606230735778809e+00,1.246526956558227539e+00,1.246447563171386719e+00,1.246368288993835449e+00,1.246289134025573730e+00,1.246209740638732910e+00,1.246130466461181641e+00,1.246051311492919922e+00,1.245972037315368652e+00,1.245892763137817383e+00,1.245813608169555664e+00,1.245734453201293945e+00,1.245655179023742676e+00,1.245576024055480957e+00,1.245496869087219238e+00,1.245417594909667969e+00,1.245338439941406250e+00,1.245259284973144531e+00,1.245180130004882812e+00,1.245100975036621094e+00,1.245021939277648926e+00,1.244942784309387207e+00,1.244863748550415039e+00,1.244784593582153320e+00,1.244705438613891602e+00,1.244626402854919434e+00,1.244547367095947266e+00,1.244468331336975098e+00,1.244389295578002930e+00,1.244310259819030762e+00,1.244231224060058594e+00,1.244152188301086426e+00,1.244073271751403809e+00,1.243994235992431641e+00,1.243915200233459473e+00,1.243836283683776855e+00,1.243757367134094238e+00,1.243678331375122070e+00,1.243599414825439453e+00,1.243520498275756836e+00,1.243441581726074219e+00,1.243362665176391602e+00,1.243283748626708984e+00,1.243204832077026367e+00,1.243126034736633301e+00,1.243047118186950684e+00,1.242968201637268066e+00,1.242889404296875000e+00,1.242810606956481934e+00,1.242731690406799316e+00
1.162521481513977051e+00,1.162452459335327148e+00,1.162383437156677246e+00,1.162314534187316895e+00,1.162245512008666992e+00,1.162176609039306641e+00,1.162107706069946289e+00,1.162038803100585938e+00,1.161969780921936035e+00,1.161900997161865234e+00,1.161832094192504883e+00,1.161763072013854980e+00,1.161694288253784180e+00,1.161625385284423828e+00,1.161556482315063477e+00,1.161487698554992676e+00,1.161418795585632324e+00,1.161349892616271973e+00,1.161281108856201172e+00,1.161212325096130371e+00,1.161143422126770020e+00,1.161074638366699219e+00,1.161005854606628418e+00,1.160937070846557617e+00,1.160868287086486816e+00,1.160799503326416016e+00,1.160730719566345215e+00,1.160661935806274414e+00,1.160593152046203613e+00,1.160524487495422363e+00,1.160455703735351562e+00,1.160387039184570312e+00,1.160318255424499512e+00,1.160249471664428711e+00,1.160180807113647461e+00,1.160112142562866211e+00,1.160043358802795410e+00,1.159974813461303711e+00,1.159906148910522461e+00,1.159837365150451660e+00,1.159768700599670410e+00,1.159700155258178711e+00,1.159631490707397461e+00,1.159562826156616211e+00,1.159494280815124512e+00,1.159425497055053711e+00,1.159356951713562012e+00,1.159288406372070312e+00,1.159219741821289062e+00,1.159151196479797363e+00,1.159082651138305664e+00,1.159013986587524414e+00,1.158945441246032715e+00,1.158876895904541016e+00,1.158808350563049316e+00,1.158739805221557617e+00,1.158671379089355469e+00,1.158602833747863770e+00,1.158534288406372070e+00,1.158465743064880371e+00,1.158397316932678223e+00,1.158328771591186523e+00,1.158260345458984375e+00,1.158191919326782227e+00,1.158123373985290527e+00,1.158054947853088379e+00,1.157986521720886230e+00,1.157918095588684082e+00,1.157849669456481934e+00,1.157781243324279785e+00,1.157712817192077637e+00,1.157644391059875488e+00,1.157576084136962891e+00,1.157507658004760742e+00,1.157439231872558594e+00,1.157370924949645996e+00,1.157302498817443848e+00,1.157234191894531250e+00,1.157165765762329102e+00,1.157097458839416504e+00
1.087249875068664551e+00,1.087189555168151855e+00,1.087129235267639160e+00,1.087068915367126465e+00,1.087008595466613770e+00,1.086948275566101074e+00,1.086887955665588379e+00,1.086827754974365234e+00,1.086767435073852539e+00,1.086707115173339844e+00,1.086646914482116699e+00,1.086586594581604004e+00,1.086526274681091309e+00,1.086466073989868164e+00,1.086405754089355469e+00,1.086345553398132324e+00,1.086285352706909180e+00,1.086225152015686035e+00,1.086164951324462891e+00,1.086104750633239746e+00,1.086044430732727051e+00,1.085984349250793457e+00,1.085924148559570312e+00,1.085863947868347168e+00,1.085803747177124023e+00,1.085743546485900879e+00,1.085683465003967285e+00,1.085623264312744141e+00,1.085563063621520996e+00,1.085502982139587402e+00,1.085442781448364258e+00,1.085382699966430664e+00,1.085322618484497070e+00,1.085262417793273926e+00,1.085202336311340332e+00,1.085142254829406738e+00,1.085082173347473145e+00,1.085022091865539551e+00,1.084962010383605957e+00,1.084901809692382812e+00,1.084841847419738770e+00,1.084781765937805176e+00,1.084721684455871582e+00,1.084661602973937988e+00,1.084601640701293945e+00,1.084541559219360352e+00,1.084481477737426758e+00,1.084421515464782715e+00,1.084361553192138672e+00,1.084301471710205078e+00,1.084241509437561035e+00,1.084181547164916992e+00,1.084121465682983398e+00,1.084061503410339355e+00,1.084001541137695312e+00,1.083941459655761719e+00,1.083881616592407227e+00,1.083821654319763184e+00,1.083761692047119141e+00,1.083701729774475098e+00,1.083641767501831055e+00,1.083581805229187012e+00,1.083521962165832520e+00,1.083461999893188477e+00,1.083402037620544434e+00,1.083342194557189941e+00,1.083282351493835449e+00,1.083222389221191406e+00,1.083162546157836914e+00,1.083102583885192871e+00,1.083042740821838379e+00,1.082982897758483887e+00,1.082923054695129395e+00,1.082863211631774902e+00,1.082803249359130859e+00,1.082743525505065918e+00,1.082683682441711426e+00,1.082623839378356934e+00,1.082563996315002441e+00,1.082504153251647949e+00
1.021133065223693848e+00,1.021079897880554199e+00,1.021026611328125000e+00,1.020973443984985352e+00,1.020920276641845703e+00,1.020866990089416504e+00,1.020813822746276855e+00,1.020760655403137207e+00,1.020707488059997559e+00,1.020654320716857910e+00,1.020601153373718262e+00,1.020547986030578613e+00,1.020494818687438965e+00,1.020441651344299316e+00,1.020388484001159668e+00,1.020335316658020020e+00,1.020282268524169922e+00,1.020229101181030273e+00,1.020175933837890625e+00,1.020122885704040527e+00,1.020069718360900879e+00,1.020016670227050781e+00,1.019963502883911133e+00,1.019910454750061035e+00,1.019857287406921387e+00,1.019804239273071289e+00,1.019751191139221191e+00,1.019698143005371094e+00,1.019645094871520996e+00,1.019592046737670898e+00,1.019538879394531250e+00,1.019485831260681152e+00,1.019432902336120605e+00,1.019379734992980957e+00,1.019326806068420410e+00,1.019273757934570312e+00,1.019220709800720215e+00,1.019167661666870117e+00,1.019114732742309570e+00,1.019061684608459473e+00,1.019008636474609375e+00,1.018955707550048828e+00,1.018902659416198730e+00,1.018849730491638184e+00,1.018796682357788086e+00,1.018743753433227539e+00,1.018690705299377441e+00,1.018637776374816895e+00,1.018584847450256348e+00,1.018531918525695801e+00,1.018478989601135254e+00,1.018426060676574707e+00,1.018373012542724609e+00,1.018320083618164062e+00,1.018267273902893066e+00,1.018214225769042969e+00,1.018161416053771973e+00,1.018108487129211426e+00,1.018055558204650879e+00,1.018002629280090332e+00,1.017949819564819336e+00,1.017896890640258789e+00,1.017843961715698242e+00,1.017791152000427246e+00,1.017738342285156250e+00,1.017685413360595703e+00,1.017632603645324707e+00,1.017579674720764160e+00,1.017526865005493164e+00,1.017474055290222168e+00,1.017421245574951172e+00,1.017368316650390625e+00,1.017315506935119629e+00,1.017262697219848633e+00,1.017209887504577637e+00,1.017157077789306641e+00,1.017104268074035645e+00,1.017051458358764648e+00,1.016998648643493652e+00,1.016945838928222656e+00
