5.000000000000000000e+00,5.000000000000000000e+00,5.000000000000000000e+00,5.000000000000000000e+00,5.000000000000000000e+00,5.000000000000000000e+00,5.000000000000000000e+00,5.000000000000000000e+00,5.000000000000000000e+00,5.000000000000000000e+00,5.000000000000000000e+00,5.000000000000000000e+00,5.000000000000000000e+00,5.000000000000000000e+00,5.000000000000000000e+00,5.000000000000000000e+00,5.000000000000000000e+00,5.000000000000000000e+00,5.000000000000000000e+00,5.000000000000000000e+00,5.000000000000000000e+00,5.000000000000000000e+00,5.000000000000000000e+00,5.000000000000000000e+00,5.000000000000000000e+00,5.000000000000000000e+00,5.000000000000000000e+00,5.000000000000000000e+00,5.000000000000000000e+00,5.000000000000000000e+00,5.000000000000000000e+00,5.000000000000000000e+00,5.000000000000000000e+00,5.000000000000000000e+00,5.000000000000000000e+00,5.000000000000000000e+00,5.000000000000000000e+00,5.000000000000000000e+00,5.000000000000000000e+00,5.000000000000000000e+00,4.872490406036376953e+00,4.679328918457031250e+00,4.500898361206054688e+00,4.335575103759765625e+00,4.181967258453369141e+00,4.038871288299560547e+00,3.905244112014770508e+00,3.780175924301147461e+00,3.662870168685913086e+00,3.552625417709350586e+00,3.448823213577270508e+00,3.350914478302001953e+00,3.258411407470703125e+00,3.170878410339355469e+00,3.087925195693969727e+00,3.009201526641845703e+00,2.934392213821411133e+00,2.863212108612060547e+00,2.795403718948364258e+00,2.730732440948486328e+00,2.668985843658447266e+00,2.609970331192016602e+00,2.553507804870605469e+00,2.499436378479003906e+00,2.447607994079589844e+00,2.397884845733642578e+00,2.350142002105712891e+00,2.304263114929199219e+00,2.260141134262084961e+00,2.217677354812622070e+00,2.176779270172119141e+00,2.137362480163574219e+00,2.099348068237304688e+00,2.062662124633789062e+00,2.027236461639404297e+00,1.993007063865661621e+00,1.959914207458496094e+00,1.927902698516845703e+00,1.896919846534729004e+00,1.866917133331298828e+00
5.000000000000000000e+00,5.000000000000000000e+00,5.000000000000000000e+00,5.000000000000000000e+00,5.000000000000000000e+00,5.000000000000000000e+00,5.000000000000000000e+00,5.000000000000000000e+00,5.000000000000000000e+00,5.000000000000000000e+00,5.000000000000000000e+00,5.000000000000000000e+00,5.000000000000000000e+00,5.000000000000000000e+00,5.000000000000000000e+00,5.000000000000000000e+00,5.000000000000000000e+00,5.000000000000000000e+00,5.000000000000000000e+00,5.000000000000000000e+00,5.000000000000000000e+00,5.000000000000000000e+00,5.000000000000000000e+00,5.000000000000000000e+00,5.000000000000000000e+00,5.000000000000000000e+00,5.000000000000000000e+00,5.000000000000000000e+00,5.000000000000000000e+00,5.000000000000000000e+00,5.000000000000000000e+00,5.000000000000000000e+00,5.000000000000000000e+00,5.000000000000000000e+00,5.000000000000000000e+00,5.000000000000000000e+00,5.000000000000000000e+00,5.000000000000000000e+00,5.000000000000000000e+00,5.000000000000000000e+00,4.872632503509521484e+00,4.679459571838378906e+00,4.501019477844238281e+00,4.335688114166259766e+00,4.182071685791015625e+00,4.038968563079833984e+00,3.905335664749145508e+00,3.780261516571044922e+00,3.662950038909912109e+00,3.552700996398925781e+00,3.448894023895263672e+00,3.350981712341308594e+00,3.258475065231323242e+00,3.170938253402709961e+00,3.087982177734375000e+00,3.009255647659301758e+00,2.934443712234497070e+00,2.863261222839355469e+00,2.795450210571289062e+00,2.730777025222778320e+00,2.669028520584106445e+00,2.610010862350463867e+00,2.553546905517578125e+00,2.499473810195922852e+00,2.447643518447875977e+00,2.397919178009033203e+00,2.350174903869628906e+00,2.304294824600219727e+00,2.260171651840209961e+00,2.217706441879272461e+00,2.176807641983032227e+00,2.137389898300170898e+00,2.099374294281005859e+00,2.062687635421752930e+00,2.027261018753051758e+00,1.993030905723571777e+00,1.959937334060668945e+00,1.927924871444702148e+00,1.896941304206848145e+00,1.866937875747680664e+00
5.000000000000000000e+00,5.000000000000000000e+00,5.000000000000000000e+00,5.000000000000000000e+00,5.000000000000000000e+00,5.000000000000000000e+00,5.000000000000000000e+00,5.000000000000000000e+00,5.000000000000000000e+00,5.000000000000000000e+00,5.000000000000000000e+00,5.000000000000000000e+00,5.000000000000000000e+00,5.000000000000000000e+00,5.000000000000000000e+00,5.000000000000000000e+00,5.000000000000000000e+00,5.000000000000000000e+00,5.000000000000000000e+00,5.000000000000000000e+00,5.000000000000000000e+00,5.000000000000000000e+00,5.000000000000000000e+00,5.000000000000000000e+00,5.000000000000000000e+00,5.000000000000000000e+00,5.000000000000000000e+00,5.000000000000000000e+00,5.000000000000000000e+00,5.000000000000000000e+00,5.000000000000000000e+00,5.000000000000000000e+00,5.000000000000000000e+00,5.000000000000000000e+00,5.000000000000000000e+00,5.000000000000000000e+00,5.000000000000000000e+00,5.000000000000000000e+00,5.000000000000000000e+00,5.000000000000000000e+00,4.872774600982666016e+00,4.679590702056884766e+00,4.501140594482421875e+00,4.335800170898437500e+00,4.182176589965820312e+00,4.039066314697265625e+00,3.905426502227783203e+00,3.780347108840942383e+00,3.663030385971069336e+00,3.552776575088500977e+00,3.448965311050415039e+00,3.351048469543457031e+00,3.258538484573364258e+00,3.170998573303222656e+00,3.088039159774780273e+00,3.009310007095336914e+00,2.934495210647583008e+00,2.863310337066650391e+00,2.795496940612792969e+00,2.730821609497070312e+00,2.669071197509765625e+00,2.610051631927490234e+00,2.553585767745971680e+00,2.499511241912841797e+00,2.447679519653320312e+00,2.397953748703002930e+00,2.350208044052124023e+00,2.304326534271240234e+00,2.260202169418334961e+00,2.217735767364501953e+00,2.176835775375366211e+00,2.137417316436767578e+00,2.099400758743286133e+00,2.062713146209716797e+00,2.027285575866699219e+00,1.993054628372192383e+00,1.959960222244262695e+00,1.927947044372558594e+00,1.896962761878967285e+00,1.866958856582641602e+00
5.000000000000000000e+00,5.000000000000000000e+00,5.000000000000000000e+00,5.000000000000000000e+00,5.000000000000000000e+00,5.000000000000000000e+00,5.000000000000000000e+00,5.000000000000000000e+00,5.000000000000000000e+00,5.000000000000000000e+00,5.000000000000000000e+00,5.000000000000000000e+00,5.000000000000000000e+00,5.000000000000000000e+00,5.000000000000000000e+00,5.000000000000000000e+00,5.000000000000000000e+00,5.000000000000000000e+00,5.000000000000000000e+00,5.000000000000000000e+00,5.000000000000000000e+00,5.000000000000000000e+00,5.000000000000000000e+00,5.000000000000000000e+00,5.000000000000000000e+00,5.000000000000000000e+00,5.000000000000000000e+00,5.000000000000000000e+00,5.000000000000000000e+00,5.000000000000000000e+00,5.000000000000000000e+00,5.000000000000000000e+00,5.000000000000000000e+00,5.000000000000000000e+00,5.000000000000000000e+00,5.000000000000000000e+00,5.000000000000000000e+00,5.000000000000000000e+00,5.000000000000000000e+00,5.000000000000000000e+00,4.872916221618652344e+00,4.679721355438232422e+00,4.501261711120605469e+00,4.335912704467773438e+00,4.182281017303466797e+00,4.039164066314697266e+00,3.905517816543579102e+00,3.780432701110839844e+00,3.663110733032226562e+00,3.552851676940917969e+00,3.449036598205566406e+00,3.351115942001342773e+00,3.258601903915405273e+00,3.171058893203735352e+00,3.088096141815185547e+00,3.009364128112792969e+00,2.934546709060668945e+00,2.863359212875366211e+00,2.795543909072875977e+00,2.730866193771362305e+00,2.669113636016845703e+00,2.610092401504516602e+00,2.553624629974365234e+00,2.499548673629760742e+00,2.447715282440185547e+00,2.397987842559814453e+00,2.350241184234619141e+00,2.304358005523681641e+00,2.260232448577880859e+00,2.217765331268310547e+00,2.176864147186279297e+00,2.137444734573364258e+00,2.099427223205566406e+00,2.062738418579101562e+00,2.027310132980346680e+00,1.993078231811523438e+00,1.959983229637145996e+00,1.927969455718994141e+00,1.896984457969665527e+00,1.866979598999023438e+00
5.000000000000000000e+00,5.000000000000000000e+00,5.000000000000000000e+00,5.000000000000000000e+00,5.000000000000000000e+00,5.000000000000000000e+00,5.000000000000000000e+00,5.000000000000000000e+00,5.000000000000000000e+00,5.000000000000000000e+00,5.000000000000000000e+00,5.000000000000000000e+00,5.000000000000000000e+00,5.000000000000000000e+00,5.000000000000000000e+00,5.000000000000000000e+00,5.000000000000000000e+00,5.000000000000000000e+00,5.000000000000000000e+00,5.000000000000000000e+00,5.000000000000000000e+00,5.000000000000000000e+00,5.000000000000000000e+00,5.000000000000000000e+00,5.000000000000000000e+00,5.000000000000000000e+00,5.000000000000000000e+00,5.000000000000000000e+00,5.000000000000000000e+00,5.000000000000000000e+00,5.000000000000000000e+00,5.000000000000000000e+00,5.000000000000000000e+00,5.000000000000000000e+00,5.000000000000000000e+00,5.000000000000000000e+00,5.000000000000000000e+00,5.000000000000000000e+00,5.000000000000000000e+00,5.000000000000000000e+00,4.873058795928955078e+00,4.679852485656738281e+00,4.501382827758789062e+00,4.336025238037109375e+00,4.182385921478271484e+00,4.039261341094970703e+00,3.905609130859375000e+00,3.780517816543579102e+00,3.663191080093383789e+00,3.552927255630493164e+00,3.449107408523559570e+00,3.351183176040649414e+00,3.258665561676025391e+00,3.171118736267089844e+00,3.088153362274169922e+00,3.009418249130249023e+00,2.934598445892333984e+00,2.863408327102661133e+00,2.795590400695800781e+00,2.730910778045654297e+00,2.669156312942504883e+00,2.610133171081542969e+00,2.553663730621337891e+00,2.499585866928100586e+00,2.447751283645629883e+00,2.398022413253784180e+00,2.350273847579956055e+00,2.304389953613281250e+00,2.260263204574584961e+00,2.217794656753540039e+00,2.176892518997192383e+00,2.137471914291381836e+00,2.099453449249267578e+00,2.062763929367065430e+00,2.027334690093994141e+00,1.993102192878723145e+00,1.960006356239318848e+00,1.927991509437561035e+00,1.897005915641784668e+00,1.867000460624694824e+00
5.000000000000000000e+00,5.000000000000000000e+00,5.000000000000000000e+00,5.000000000000000000e+00,5.000000000000000000e+00,5.000000000000000000e+00,5.000000000000000000e+00,5.000000000000000000e+00,5.000000000000000000e+00,5.000000000000000000e+00,5.000000000000000000e+00,5.000000000000000000e+00,5.000000000000000000e+00,5.000000000000000000e+00,5.000000000000000000e+00,5.000000000000000000e+00,5.000000000000000000e+00,5.000000000000000000e+00,5.000000000000000000e+00,5.000000000000000000e+00,5.000000000000000000e+00,5.000000000000000000e+00,5.000000000000000000e+00,5.000000000000000000e+00,5.000000000000000000e+00,5.000000000000000000e+00,5.000000000000000000e+00,5.000000000000000000e+00,5.000000000000000000e+00,5.000000000000000000e+00,5.000000000000000000e+00,5.000000000000000000e+00,5.000000000000000000e+00,5.000000000000000000e+00,5.000000000000000000e+00,5.000000000000000000e+00,5.000000000000000000e+00,5.000000000000000000e+00,5.000000000000000000e+00,5.000000000000000000e+00,4.873200416564941406e+00,4.679983615875244141e+00,4.501504421234130859e+00,4.336137294769287109e+00,4.182490348815917969e+00,4.039359092712402344e+00,3.905700683593750000e+00,3.780603408813476562e+00,3.663271188735961914e+00,3.553003072738647461e+00,3.449178695678710938e+00,3.351250171661376953e+00,3.258728981018066406e+00,3.171179056167602539e+00,3.088210344314575195e+00,3.009472370147705078e+00,2.934649705886840820e+00,2.863457441329956055e+00,2.795637130737304688e+00,2.730955362319946289e+00,2.669198989868164062e+00,2.610173940658569336e+00,2.553702831268310547e+00,2.499623298645019531e+00,2.447787046432495117e+00,2.398056507110595703e+00,2.350306749343872070e+00,2.304421424865722656e+00,2.260293722152709961e+00,2.217823982238769531e+00,2.176920890808105469e+00,2.137499332427978516e+00,2.099479913711547852e+00,2.062789440155029297e+00,2.027359247207641602e+00,1.993125915527343750e+00,1.960029244422912598e+00,1.928013682365417480e+00,1.897027611732482910e+00,1.867021441459655762e+00
5.000000000000000000e+00,5.000000000000000000e+00,5.000000000000000000e+00,5.000000000000000000e+00,5.000000000000000000e+00,5.000000000000000000e+00,5.000000000000000000e+00,5.000000000000000000e+00,5.000000000000000000e+00,5.000000000000000000e+00,5.000000000000000000e+00,5.000000000000000000e+00,5.000000000000000000e+00,5.000000000000000000e+00,5.000000000000000000e+00,5.000000000000000000e+00,5.000000000000000000e+00,5.000000000000000000e+00,5.000000000000000000e+00,5.000000000000000000e+00,5.000000000000000000e+00,5.000000000000000000e+00,5.000000000000000000e+00,5.000000000000000000e+00,5.000000000000000000e+00,5.000000000000000000e+00,5.000000000000000000e+00,5.000000000000000000e+00,5.000000000000000000e+00,5.000000000000000000e+00,5.000000000000000000e+00,5.000000000000000000e+00,5.000000000000000000e+00,5.000000000000000000e+00,5.000000000000000000e+00,5.000000000000000000e+00,5.000000000000000000e+00,5.000000000000000000e+00,5.000000000000000000e+00,5.000000000000000000e+00,4.873342990875244141e+00,4.680114269256591797e+00,4.501625061035156250e+00,4.336250305175781250e+00,4.182595252990722656e+00,4.039456844329833984e+00,3.905791521072387695e+00,3.780689001083374023e+00,3.663351535797119141e+00,3.553078174591064453e+00,3.449249982833862305e+00,3.351317405700683594e+00,3.258792638778686523e+00,3.171239137649536133e+00,3.088267326354980469e+00,3.009526729583740234e+00,2.934701204299926758e+00,2.863506317138671875e+00,2.795684099197387695e+00,2.730999946594238281e+00,2.669241666793823242e+00,2.610214710235595703e+00,2.553741693496704102e+00,2.499660730361938477e+00,2.447822570800781250e+00,2.398090839385986328e+00,2.350339889526367188e+00,2.304453372955322266e+00,2.260324478149414062e+00,2.217853546142578125e+00,2.176949262619018555e+00,2.137526512145996094e+00,2.099506139755249023e+00,2.062814712524414062e+00,2.027383804321289062e+00,1.993149518966674805e+00,1.960052371025085449e+00,1.928036093711853027e+00,1.897049069404602051e+00,1.867042183876037598e+00
5.000000000000000000e+00,5.000000000000000000e+00,5.000000000000000000e+00,5.000000000000000000e+00,5.000000000000000000e+00,5.000000000000000000e+00,5.000000000000000000e+00,5.000000000000000000e+00,5.000000000000000000e+00,5.000000000000000000e+00,5.000000000000000000e+00,5.000000000000000000e+00,5.000000000000000000e+00,5.000000000000000000e+00,5.000000000000000000e+00,5.000000000000000000e+00,5.000000000000000000e+00,5.000000000000000000e+00,5.000000000000000000e+00,5.000000000000000000e+00,5.000000000000000000e+00,5.000000000000000000e+00,5.000000000000000000e+00,5.000000000000000000e+00,5.000000000000000000e+00,5.000000000000000000e+00,5.000000000000000000e+00,4.581584930419921875e+00,5.000000000000000000e+00,5.000000000000000000e+00,5.000000000000000000e+00,5.000000000000000000e+00,5.000000000000000000e+00,5.000000000000000000e+00,5.000000000000000000e+00,5.000000000000000000e+00,5.000000000000000000e+00,5.000000000000000000e+00,5.000000000000000000e+00,5.000000000000000000e+00,4.873484611511230469e+00,4.680245876312255859e+00,4.501746177673339844e+00,4.336362361907958984e+00,4.182699680328369141e+00,4.039554595947265625e+00,3.905882835388183594e+00,3.780774354934692383e+00,3.663431882858276367e+00,3.553153753280639648e+00,3.449321031570434570e+00,3.351384639739990234e+00,3.258856058120727539e+00,3.171299457550048828e+00,3.088324308395385742e+00,3.009580612182617188e+00,2.934752941131591797e+00,2.863555431365966797e+00,2.795730590820312500e+00,2.731044769287109375e+00,2.669284343719482422e+00,2.610255479812622070e+00,2.553780794143676758e+00,2.499697923660278320e+00,2.447858572006225586e+00,2.398125410079956055e+00,2.350372791290283203e+00,2.304485082626342773e+00,2.260354757308959961e+00,2.217882871627807617e+00,2.176977634429931641e+00,2.137553930282592773e+00,2.099532604217529297e+00,2.062840223312377930e+00,2.027408361434936523e+00,1.993173480033874512e+00,1.960075259208679199e+00,1.928058266639709473e+00,1.897070407867431641e+00,1.867062926292419434e+00
5.000000000000000000e+00,5.000000000000000000e+00,5.000000000000000000e+00,5.000000000000000000e+00,5.000000000000000000e+00,5.000000000000000000e+00,5.000000000000000000e+00,5.000000000000000000e+00,5.000000000000000000e+00,5.000000000000000000e+00,5.000000000000000000e+00,5.000000000000000000e+00,5.000000000000000000e+00,5.000000000000000000e+00,5.000000000000000000e+00,5.000000000000000000e+00,5.000000000000000000e+00,5.000000000000000000e+00,5.000000000000000000e+00,5.000000000000000000e+00,5.000000000000000000e+00,5.000000000000000000e+00,5.000000000000000000e+00,5.000000000000000000e+00,5.000000000000000000e+00,5.000000000000000000e+00,5.000000000000000000e+00,4.568429946899414062e+00,4.590655803680419922e+00,5.000000000000000000e+00,5.000000000000000000e+00,5.000000000000000000e+00,5.000000000000000000e+00,5.000000000000000000e+00,5.000000000000000000e+00,5.000000000000000000e+00,5.000000000000000000e+00,5.000000000000000000e+00,5.000000000000000000e+00,5.000000000000000000e+00,4.873626708984375000e+00,4.680376529693603516e+00,4.501867771148681641e+00,4.336475372314453125e+00,4.182804107666015625e+00,4.039651870727539062e+00,3.905974149703979492e+00,3.780859947204589844e+00,3.663511991500854492e+00,3.553229570388793945e+00,3.449392318725585938e+00,3.351451873779296875e+00,3.258919477462768555e+00,3.171359300613403320e+00,3.088381528854370117e+00,3.009634971618652344e+00,2.934804201126098633e+00,2.863604545593261719e+00,2.795777320861816406e+00,2.731089353561401367e+00,2.669327020645141602e+00,2.610296010971069336e+00,2.553819656372070312e+00,2.499735116958618164e+00,2.447894334793090820e+00,2.398159742355346680e+00,2.350405931472778320e+00,2.304517030715942383e+00,2.260385513305664062e+00,2.217912197113037109e+00,2.177006006240844727e+00,2.137581348419189453e+00,2.099558830261230469e+00,2.062865734100341797e+00,2.027432918548583984e+00,1.993197083473205566e+00,1.960098147392272949e+00,1.928080439567565918e+00,1.897092103958129883e+00,1.867083907127380371e+00
5.000000000000000000e+00,5.000000000000000000e+00,5.000000000000000000e+00,5.000000000000000000e+00,5.000000000000000000e+00,5.000000000000000000e+00,5.000000000000000000e+00,5.000000000000000000e+00,5.000000000000000000e+00,5.000000000000000000e+00,5.000000000000000000e+00,5.000000000000000000e+00,5.000000000000000000e+00,5.000000000000000000e+00,5.000000000000000000e+00,5.000000000000000000e+00,5.000000000000000000e+00,5.000000000000000000e+00,5.000000000000000000e+00,5.000000000000000000e+00,5.000000000000000000e+00,5.000000000000000000e+00,5.000000000000000000e+00,5.000000000000000000e+00,5.000000000000000000e+00,5.000000000000000000e+00,5.000000000000000000e+00,4.598509311676025391e+00,4.613394260406494141e+00,5.000000000000000000e+00,5.000000000000000000e+00,5.000000000000000000e+00,5.000000000000000000e+00,5.000000000000000000e+00,5.000000000000000000e+00,5.000000000000000000e+00,5.000000000000000000e+00,5.000000000000000000e+00,5.000000000000000000e+00,5.000000000000000000e+00,4.873768806457519531e+00,4.680507659912109375e+00,4.501988887786865234e+00,4.336587429046630859e+00,4.182909011840820312e+00,4.039749622344970703e+00,3.906065225601196289e+00,3.780945539474487305e+00,3.663592338562011719e+00,3.553304672241210938e+00,3.449463367462158203e+00,3.351518869400024414e+00,3.258983135223388672e+00,3.171419620513916016e+00,3.088438510894775391e+00,3.009689331054687500e+00,2.934855937957763672e+00,2.863653421401977539e+00,2.795824289321899414e+00,2.731133937835693359e+00,2.669369697570800781e+00,2.610337018966674805e+00,2.553858518600463867e+00,2.499772548675537109e+00,2.447930097579956055e+00,2.398194074630737305e+00,2.350439071655273438e+00,2.304548501968383789e+00,2.260416030883789062e+00,2.217941761016845703e+00,2.177034139633178711e+00,2.137608528137207031e+00,2.099585294723510742e+00,2.062891244888305664e+00,2.027457714080810547e+00,1.993220806121826172e+00,1.960121273994445801e+00,1.928102731704711914e+00,1.897113561630249023e+00,1.867104768753051758e+00
5.000000000000000000e+00,5.000000000000000000e+00,5.000000000000000000e+00,5.000000000000000000e+00,5.000000000000000000e+00,5.000000000000000000e+00,5.000000000000000000e+00,5.000000000000000000e+00,5.000000000000000000e+00,5.000000000000000000e+00,5.000000000000000000e+00,5.000000000000000000e+00,5.000000000000000000e+00,5.000000000000000000e+00,5.000000000000000000e+00,5.000000000000000000e+00,5.000000000000000000e+00,5.000000000000000000e+00,5.000000000000000000e+00,5.000000000000000000e+00,5.000000000000000000e+00,5.000000000000000000e+00,5.000000000000000000e+00,5.000000000000000000e+00,5.000000000000000000e+00,5.000000000000000000e+00,4.655778884887695312e+00,4.674582481384277344e+00,4.614369392395019531e+00,4.683482170104980469e+00,4.712138175964355469e+00,5.000000000000000000e+00,5.000000000000000000e+00,5.000000000000000000e+00,5.000000000000000000e+00,5.000000000000000000e+00,5.000000000000000000e+00,5.000000000000000000e+00,5.000000000000000000e+00,5.000000000000000000e+00,4.873910903930664062e+00,4.680638790130615234e+00,4.502110481262207031e+00,4.336699962615966797e+00,4.183013439178466797e+00,4.039847373962402344e+00,3.906156539916992188e+00,3.781030654907226562e+00,3.663672685623168945e+00,3.553380489349365234e+00,3.449534654617309570e+00,3.351586103439331055e+00,3.259046554565429688e+00,3.171479940414428711e+00,3.088495492935180664e+00,3.009743213653564453e+00,2.934907436370849609e+00,2.863702535629272461e+00,2.795871019363403320e+00,2.731178522109985352e+00,2.669411897659301758e+00,2.610377550125122070e+00,2.553897619247436523e+00,2.499809980392456055e+00,2.447966098785400391e+00,2.398228406906127930e+00,2.350472211837768555e+00,2.304580450057983398e+00,2.260446548461914062e+00,2.217971324920654297e+00,2.177062511444091797e+00,2.137635946273803711e+00,2.099611759185791016e+00,2.062916755676269531e+00,2.027482271194458008e+00,1.993244767189025879e+00,1.960144162178039551e+00,1.928124904632568359e+00,1.897135019302368164e+00,1.867125511169433594e+00
5.000000000000000000e+00,5.000000000000000000e+00,5.000000000000000000e+00,5.000000000000000000e+00,5.000000000000000000e+00,5.000000000000000000e+00,5.000000000000000000e+00,5.000000000000000000e+00,5.000000000000000000e+00,5.000000000000000000e+00,5.000000000000000000e+00,5.000000000000000000e+00,5.000000000000000000e+00,5.000000000000000000e+00,5.000000000000000000e+00,5.000000000000000000e+00,5.000000000000000000e+00,5.000000000000000000e+00,5.000000000000000000e+00,5.000000000000000000e+00,5.000000000000000000e+00,5.000000000000000000e+00,5.000000000000000000e+00,5.000000000000000000e+00,5.000000000000000000e+00,4.593188285827636719e+00,4.578088283538818359e+00,4.575756072998046875e+00,4.588300704956054688e+00,4.613636970520019531e+00,4.686067104339599609e+00,5.000000000000000000e+00,5.000000000000000000e+00,5.000000000000000000e+00,5.000000000000000000e+00,5.000000000000000000e+00,5.000000000000000000e+00,5.000000000000000000e+00,5.000000000000000000e+00,5.000000000000000000e+00,4.874053001403808594e+00,4.680769443511962891e+00,4.502231597900390625e+00,4.336812496185302734e+00,4.183118343353271484e+00,4.039944648742675781e+00,3.906248092651367188e+00,3.781116485595703125e+00,3.663753032684326172e+00,3.553456068038940430e+00,3.449605703353881836e+00,3.351653337478637695e+00,3.259110212326049805e+00,3.171539783477783203e+00,3.088552713394165039e+00,3.009797573089599609e+00,2.934958934783935547e+00,2.863751649856567383e+00,2.795917749404907227e+00,2.731223106384277344e+00,2.669454574584960938e+00,2.610418081283569336e+00,2.553936719894409180e+00,2.499847412109375000e+00,2.448001861572265625e+00,2.398262977600097656e+00,2.350505113601684570e+00,2.304612159729003906e+00,2.260477066040039062e+00,2.218000650405883789e+00,2.177091121673583984e+00,2.137663125991821289e+00,2.099638223648071289e+00,2.062942028045654297e+00,2.027506828308105469e+00,1.993268489837646484e+00,1.960167050361633301e+00,1.928147077560424805e+00,1.897156715393066406e+00,1.867146492004394531e+00
5.000000000000000000e+00,5.000000000000000000e+00,5.000000000000000000e+00,5.000000000000000000e+00,5.000000000000000000e+00,5.000000000000000000e+00,5.000000000000000000e+00,5.000000000000000000e+00,5.000000000000000000e+00,5.000000000000000000e+00,5.000000000000000000e+00,5.000000000000000000e+00,5.000000000000000000e+00,5.000000000000000000e+00,5.000000000000000000e+00,5.000000000000000000e+00,5.000000000000000000e+00,5.000000000000000000e+00,5.000000000000000000e+00,5.000000000000000000e+00,5.000000000000000000e+00,5.000000000000000000e+00,5.000000000000000000e+00,5.000000000000000000e+00,5.000000000000000000e+00,4.618558883666992188e+00,4.557349205017089844e+00,4.547742366790771484e+00,4.567606449127197266e+00,4.607468605041503906e+00,4.682662963867187500e+00,5.000000000000000000e+00,5.000000000000000000e+00,5.000000000000000000e+00,5.000000000000000000e+00,5.000000000000000000e+00,5.000000000000000000e+00,5.000000000000000000e+00,5.000000000000000000e+00,5.000000000000000000e+00,4.874195098876953125e+00,4.680901050567626953e+00,4.502352714538574219e+00,4.336925029754638672e+00,4.183222770690917969e+00,4.040042400360107422e+00,3.906338930130004883e+00,3.781202077865600586e+00,3.663833141326904297e+00,3.553531646728515625e+00,3.449676990509033203e+00,3.351720333099365234e+00,3.259173870086669922e+00,3.171600103378295898e+00,3.088609457015991211e+00,3.009851694107055664e+00,2.935010433197021484e+00,2.863800764083862305e+00,2.795964479446411133e+00,2.731267452239990234e+00,2.669497251510620117e+00,2.610458850860595703e+00,2.553975582122802734e+00,2.499884843826293945e+00,2.448037624359130859e+00,2.398297548294067383e+00,2.350538253784179688e+00,2.304643869400024414e+00,2.260507822036743164e+00,2.218029975891113281e+00,2.177119255065917969e+00,2.137690544128417969e+00,2.099664449691772461e+00,2.062967538833618164e+00,2.027531385421752930e+00,1.993292093276977539e+00,1.960190176963806152e+00,1.928169488906860352e+00,1.897178173065185547e+00,1.867167234420776367e+00
5.000000000000000000e+00,5.000000000000000000e+00,5.000000000000000000e+00,5.000000000000000000e+00,5.000000000000000000e+00,5.000000000000000000e+00,5.000000000000000000e+00,5.000000000000000000e+00,5.000000000000000000e+00,5.000000000000000000e+00,5.000000000000000000e+00,5.000000000000000000e+00,5.000000000000000000e+00,5.000000000000000000e+00,5.000000000000000000e+00,5.000000000000000000e+00,5.000000000000000000e+00,5.000000000000000000e+00,5.000000000000000000e+00,5.000000000000000000e+00,5.000000000000000000e+00,5.000000000000000000e+00,5.000000000000000000e+00,5.000000000000000000e+00,5.000000000000000000e+00,4.646304130554199219e+00,4.572801589965820312e+00,4.547247409820556641e+00,4.560808181762695312e+00,4.624397277832031250e+00,4.669734954833984375e+00,4.730957508087158203e+00,5.000000000000000000e+00,5.000000000000000000e+00,5.000000000000000000e+00,5.000000000000000000e+00,5.000000000000000000e+00,5.000000000000000000e+00,5.000000000000000000e+00,5.000000000000000000e+00,4.874337196350097656e+00,4.681031703948974609e+00,4.502473831176757812e+00,4.337037563323974609e+00,4.183327674865722656e+00,4.040140151977539062e+00,3.906430482864379883e+00,3.781287670135498047e+00,3.663913488388061523e+00,3.553606986999511719e+00,3.449748277664184570e+00,3.351787805557250977e+00,3.259237051010131836e+00,3.171660423278808594e+00,3.088666677474975586e+00,3.009906053543090820e+00,2.935061931610107422e+00,2.863849639892578125e+00,2.796010971069335938e+00,2.731312036514282227e+00,2.669539690017700195e+00,2.610499858856201172e+00,2.554014682769775391e+00,2.499922275543212891e+00,2.448073625564575195e+00,2.398331642150878906e+00,2.350571393966674805e+00,2.304675817489624023e+00,2.260538101196289062e+00,2.218059539794921875e+00,2.177147626876831055e+00,2.137717962265014648e+00,2.099690914154052734e+00,2.062993049621582031e+00,2.027555942535400391e+00,1.993316054344177246e+00,1.960213065147399902e+00,1.928191661834716797e+00,1.897199630737304688e+00,1.867188215255737305e+00
5.000000000000000000e+00,5.000000000000000000e+00,5.000000000000000000e+00,5.000000000000000000e+00,5.000000000000000000e+00,5.000000000000000000e+00,5.000000000000000000e+00,5.000000000000000000e+00,5.000000000000000000e+00,5.000000000000000000e+00,5.000000000000000000e+00,5.000000000000000000e+00,5.000000000000000000e+00,5.000000000000000000e+00,5.000000000000000000e+00,5.000000000000000000e+00,5.000000000000000000e+00,5.000000000000000000e+00,5.000000000000000000e+00,5.000000000000000000e+00,5.000000000000000000e+00,5.000000000000000000e+00,5.000000000000000000e+00,5.000000000000000000e+00,5.000000000000000000e+00,4.671486854553222656e+00,4.571984767913818359e+00,4.543102264404296875e+00,4.566338539123535156e+00,4.634851455688476562e+00,4.704940319061279297e+00,4.714565753936767578e+00,5.000000000000000000e+00,5.000000000000000000e+00,5.000000000000000000e+00,5.000000000000000000e+00,5.000000000000000000e+00,5.000000000000000000e+00,5.000000000000000000e+00,5.000000000000000000e+00,4.874479293823242188e+00,4.681163311004638672e+00,4.502594947814941406e+00,4.337150096893310547e+00,4.183432579040527344e+00,4.040237903594970703e+00,3.906521797180175781e+00,3.781372785568237305e+00,3.663994073867797852e+00,3.553682565689086914e+00,3.449819087982177734e+00,3.351855039596557617e+00,3.259300708770751953e+00,3.171720743179321289e+00,3.088723897933959961e+00,3.009959936141967773e+00,2.935113668441772461e+00,2.863898515701293945e+00,2.796057701110839844e+00,2.731356859207153320e+00,2.669582366943359375e+00,2.610540628433227539e+00,2.554053783416748047e+00,2.499959468841552734e+00,2.448109388351440430e+00,2.398366212844848633e+00,2.350604295730590820e+00,2.304707527160644531e+00,2.260568857192993164e+00,2.218088865280151367e+00,2.177175998687744141e+00,2.137745141983032227e+00,2.099717140197753906e+00,2.063018560409545898e+00,2.027580499649047852e+00,1.993339657783508301e+00,1.960235953330993652e+00,1.928214073181152344e+00,1.897221326828002930e+00,1.867209076881408691e+00
5.000000000000000000e+00,5.000000000000000000e+00,5.000000000000000000e+00,5.000000000000000000e+00,5.000000000000000000e+00,5.000000000000000000e+00,5.000000000000000000e+00,5.000000000000000000e+00,5.000000000000000000e+00,5.000000000000000000e+00,5.000000000000000000e+00,5.000000000000000000e+00,5.000000000000000000e+00,5.000000000000000000e+00,5.000000000000000000e+00,5.000000000000000000e+00,5.000000000000000000e+00,5.000000000000000000e+00,5.000000000000000000e+00,5.000000000000000000e+00,5.000000000000000000e+00,5.000000000000000000e+00,5.000000000000000000e+00,5.000000000000000000e+00,5.000000000000000000e+00,4.709064483642578125e+00,4.567775249481201172e+00,4.548840999603271484e+00,4.565765857696533203e+00,4.631047725677490234e+00,5.000000000000000000e+00,4.648109912872314453e+00,5.000000000000000000e+00,5.000000000000000000e+00,5.000000000000000000e+00,5.000000000000000000e+00,5.000000000000000000e+00,5.000000000000000000e+00,5.000000000000000000e+00,5.000000000000000000e+00,4.874621391296386719e+00,4.681293964385986328e+00,4.502716541290283203e+00,4.337262630462646484e+00,4.183537006378173828e+00,4.040335178375244141e+00,3.906613111495971680e+00,3.781458616256713867e+00,3.664073944091796875e+00,3.553758144378662109e+00,3.449890375137329102e+00,3.351922035217285156e+00,3.259364366531372070e+00,3.171780586242675781e+00,3.088780879974365234e+00,3.010014295578002930e+00,2.935164690017700195e+00,2.863947629928588867e+00,2.796104431152343750e+00,2.731401205062866211e+00,2.669625043869018555e+00,2.610581159591674805e+00,2.554092645645141602e+00,2.499996900558471680e+00,2.448145151138305664e+00,2.398400545120239258e+00,2.350637435913085938e+00,2.304739236831665039e+00,2.260599374771118164e+00,2.218118190765380859e+00,2.177204370498657227e+00,2.137772560119628906e+00,2.099743604660034180e+00,2.063044071197509766e+00,2.027605056762695312e+00,1.993363380432128906e+00,1.960259079933166504e+00,1.928236246109008789e+00,1.897242784500122070e+00,1.867229819297790527e+00
5.000000000000000000e+00,5.000000000000000000e+00,5.000000000000000000e+00,5.000000000000000000e+00,5.000000000000000000e+00,5.000000000000000000e+00,5.000000000000000000e+00,5.000000000000000000e+00,5.000000000000000000e+00,5.000000000000000000e+00,5.000000000000000000e+00,5.000000000000000000e+00,5.000000000000000000e+00,5.000000000000000000e+00,5.000000000000000000e+00,5.000000000000000000e+00,5.000000000000000000e+00,5.000000000000000000e+00,5.000000000000000000e+00,5.000000000000000000e+00,5.000000000000000000e+00,5.000000000000000000e+00,5.000000000000000000e+00,5.000000000000000000e+00,5.000000000000000000e+00,4.669812202453613281e+00,4.553420543670654297e+00,4.571564674377441406e+00,4.584390640258789062e+00,4.625344276428222656e+00,5.000000000000000000e+00,4.586139202117919922e+00,5.000000000000000000e+00,5.000000000000000000e+00,5.000000000000000000e+00,5.000000000000000000e+00,5.000000000000000000e+00,5.000000000000000000e+00,5.000000000000000000e+00,5.000000000000000000e+00,4.874763965606689453e+00,4.681425094604492188e+00,4.502837657928466797e+00,4.337375164031982422e+00,4.183641910552978516e+00,4.040432929992675781e+00,3.906704187393188477e+00,3.781544208526611328e+00,3.664154291152954102e+00,3.553833484649658203e+00,3.449961900711059570e+00,3.351989269256591797e+00,3.259428024291992188e+00,3.171840906143188477e+00,3.088837862014770508e+00,3.010068416595458984e+00,2.935216188430786133e+00,2.863996505737304688e+00,2.796151399612426758e+00,2.731446027755737305e+00,2.669667720794677734e+00,2.610621929168701172e+00,2.554131746292114258e+00,2.500034332275390625e+00,2.448181152343750000e+00,2.398434877395629883e+00,2.350670337677001953e+00,2.304770946502685547e+00,2.260629892349243164e+00,2.218147754669189453e+00,2.177232742309570312e+00,2.137799978256225586e+00,2.099769830703735352e+00,2.063069343566894531e+00,2.027629852294921875e+00,1.993387341499328613e+00,1.960281968116760254e+00,1.928258419036865234e+00,1.897264122962951660e+00,1.867250800132751465e+00
5.000000000000000000e+00,5.000000000000000000e+00,5.000000000000000000e+00,5.000000000000000000e+00,5.000000000000000000e+00,5.000000000000000000e+00,5.000000000000000000e+00,5.000000000000000000e+00,5.000000000000000000e+00,5.000000000000000000e+00,5.000000000000000000e+00,5.000000000000000000e+00,5.000000000000000000e+00,5.000000000000000000e+00,5.000000000000000000e+00,5.000000000000000000e+00,5.000000000000000000e+00,5.000000000000000000e+00,5.000000000000000000e+00,5.000000000000000000e+00,5.000000000000000000e+00,5.000000000000000000e+00,5.000000000000000000e+00,5.000000000000000000e+00,5.000000000000000000e+00,4.647296428680419922e+00,4.491536140441894531e+00,4.495307922363281250e+00,4.619664192199707031e+00,4.634896755218505859e+00,5.000000000000000000e+00,4.541992187500000000e+00,5.000000000000000000e+00,5.000000000000000000e+00,5.000000000000000000e+00,5.000000000000000000e+00,5.000000000000000000e+00,5.000000000000000000e+00,5.000000000000000000e+00,5.000000000000000000e+00,4.874905586242675781e+00,4.681556224822998047e+00,4.502959251403808594e+00,4.337487697601318359e+00,4.183746337890625000e+00,4.040530681610107422e+00,3.906795501708984375e+00,3.781629562377929688e+00,3.664234876632690430e+00,3.553909063339233398e+00,3.450033187866210938e+00,3.352056503295898438e+00,3.259491205215454102e+00,3.171901226043701172e+00,3.088894844055175781e+00,3.010122299194335938e+00,2.935267925262451172e+00,2.864045619964599609e+00,2.796198129653930664e+00,2.731490612030029297e+00,2.669710159301757812e+00,2.610662937164306641e+00,2.554170608520507812e+00,2.500071525573730469e+00,2.448216915130615234e+00,2.398469448089599609e+00,2.350703477859497070e+00,2.304802894592285156e+00,2.260660409927368164e+00,2.218177318572998047e+00,2.177261114120483398e+00,2.137827157974243164e+00,2.099796295166015625e+00,2.063094854354858398e+00,2.027654409408569336e+00,1.993411064147949219e+00,1.960304975509643555e+00,1.928280711174011230e+00,1.897285819053649902e+00,1.867271661758422852e+00
5.000000000000000000e+00,5.000000000000000000e+00,5.000000000000000000e+00,5.000000000000000000e+00,5.000000000000000000e+00,5.000000000000000000e+00,5.000000000000000000e+00,5.000000000000000000e+00,5.000000000000000000e+00,5.000000000000000000e+00,5.000000000000000000e+00,5.000000000000000000e+00,5.000000000000000000e+00,5.000000000000000000e+00,5.000000000000000000e+00,5.000000000000000000e+00,5.000000000000000000e+00,5.000000000000000000e+00,5.000000000000000000e+00,5.000000000000000000e+00,5.000000000000000000e+00,5.000000000000000000e+00,5.000000000000000000e+00,5.000000000000000000e+00,5.000000000000000000e+00,4.646850109100341797e+00,4.463687419891357422e+00,4.464802265167236328e+00,4.629330635070800781e+00,4.647978782653808594e+00,5.000000000000000000e+00,5.000000000000000000e+00,5.000000000000000000e+00,5.000000000000000000e+00,5.000000000000000000e+00,5.000000000000000000e+00,5.000000000000000000e+00,5.000000000000000000e+00,5.000000000000000000e+00,5.000000000000000000e+00,4.875047683715820312e+00,4.681687355041503906e+00,4.503080368041992188e+00,4.337600231170654297e+00,4.183850765228271484e+00,4.040628433227539062e+00,3.906887054443359375e+00,3.781715154647827148e+00,3.664314985275268555e+00,3.553984880447387695e+00,3.450103998184204102e+00,3.352123975753784180e+00,3.259554862976074219e+00,3.171960830688476562e+00,3.088951826095581055e+00,3.010176658630371094e+00,2.935319185256958008e+00,2.864094972610473633e+00,2.796244859695434570e+00,2.731535434722900391e+00,2.669752836227416992e+00,2.610703468322753906e+00,2.554209709167480469e+00,2.500108957290649414e+00,2.448252677917480469e+00,2.398503780364990234e+00,2.350736379623413086e+00,2.304834604263305664e+00,2.260691165924072266e+00,2.218206644058227539e+00,2.177289485931396484e+00,2.137854576110839844e+00,2.099822521209716797e+00,2.063120365142822266e+00,2.027678966522216797e+00,1.993434906005859375e+00,1.960328102111816406e+00,1.928302884101867676e+00,1.897307276725769043e+00,1.867292404174804688e+00
5.000000000000000000e+00,5.000000000000000000e+00,5.000000000000000000e+00,5.000000000000000000e+00,5.000000000000000000e+00,5.000000000000000000e+00,5.000000000000000000e+00,5.000000000000000000e+00,5.000000000000000000e+00,5.000000000000000000e+00,5.000000000000000000e+00,5.000000000000000000e+00,5.000000000000000000e+00,5.000000000000000000e+00,5.000000000000000000e+00,5.000000000000000000e+00,5.000000000000000000e+00,5.000000000000000000e+00,5.000000000000000000e+00,5.000000000000000000e+00,5.000000000000000000e+00,5.000000000000000000e+00,5.000000000000000000e+00,5.000000000000000000e+00,5.000000000000000000e+00,4.611955642700195312e+00,4.437013626098632812e+00,4.430906295776367188e+00,4.655728816986083984e+00,4.678271770477294922e+00,5.000000000000000000e+00,5.000000000000000000e+00,5.000000000000000000e+00,5.000000000000000000e+00,5.000000000000000000e+00,5.000000000000000000e+00,5.000000000000000000e+00,5.000000000000000000e+00,5.000000000000000000e+00,5.000000000000000000e+00,4.875190258026123047e+00,4.681818485260009766e+00,4.503201484680175781e+00,4.337712764739990234e+00,4.183955669403076172e+00,4.040726184844970703e+00,3.906977891921997070e+00,3.781800746917724609e+00,3.664395332336425781e+00,3.554060459136962891e+00,3.450175285339355469e+00,3.352190971374511719e+00,3.259618282318115234e+00,3.172021150588989258e+00,3.089008808135986328e+00,3.010230779647827148e+00,2.935370922088623047e+00,2.864144086837768555e+00,2.796291589736938477e+00,2.731579780578613281e+00,2.669795751571655273e+00,2.610744237899780273e+00,2.554248571395874023e+00,2.500146389007568359e+00,2.448288679122924805e+00,2.398538351058959961e+00,2.350769519805908203e+00,2.304866313934326172e+00,2.260721683502197266e+00,2.218235969543457031e+00,2.177317857742309570e+00,2.137881994247436523e+00,2.099848985671997070e+00,2.063145875930786133e+00,2.027703523635864258e+00,1.993458628654479980e+00,1.960350990295410156e+00,1.928325057029724121e+00,1.897328734397888184e+00,1.867313385009765625e+00
5.000000000000000000e+00,5.000000000000000000e+00,5.000000000000000000e+00,5.000000000000000000e+00,5.000000000000000000e+00,5.000000000000000000e+00,5.000000000000000000e+00,5.000000000000000000e+00,5.000000000000000000e+00,5.000000000000000000e+00,5.000000000000000000e+00,5.000000000000000000e+00,5.000000000000000000e+00,5.000000000000000000e+00,5.000000000000000000e+00,5.000000000000000000e+00,5.000000000000000000e+00,5.000000000000000000e+00,5.000000000000000000e+00,5.000000000000000000e+00,5.000000000000000000e+00,5.000000000000000000e+00,5.000000000000000000e+00,5.000000000000000000e+00,5.000000000000000000e+00,5.000000000000000000e+00,5.000000000000000000e+00,4.394852638244628906e+00,4.681001663208007812e+00,4.709018707275390625e+00,5.000000000000000000e+00,5.000000000000000000e+00,5.000000000000000000e+00,5.000000000000000000e+00,5.000000000000000000e+00,5.000000000000000000e+00,5.000000000000000000e+00,5.000000000000000000e+00,5.000000000000000000e+00,5.000000000000000000e+00,4.875332355499267578e+00,4.681949615478515625e+00,4.503323078155517578e+00,4.337825298309326172e+00,4.184060573577880859e+00,4.040823459625244141e+00,3.907069444656372070e+00,3.781886100769042969e+00,3.664475679397583008e+00,3.554135799407958984e+00,3.450246572494506836e+00,3.352257966995239258e+00,3.259681701660156250e+00,3.172081470489501953e+00,3.089066028594970703e+00,3.010284900665283203e+00,2.935422420501708984e+00,2.864192962646484375e+00,2.796338558197021484e+00,2.731624603271484375e+00,2.669838190078735352e+00,2.610785245895385742e+00,2.554287672042846680e+00,2.500183820724487305e+00,2.448324441909790039e+00,2.398572683334350586e+00,2.350802659988403320e+00,2.304898262023925781e+00,2.260752201080322266e+00,2.218265533447265625e+00,2.177346229553222656e+00,2.137909173965454102e+00,2.099875450134277344e+00,2.063171148300170898e+00,2.027728080749511719e+00,1.993482351303100586e+00,1.960373878479003906e+00,1.928347468376159668e+00,1.897350430488586426e+00,1.867334127426147461e+00
5.000000000000000000e+00,5.000000000000000000e+00,5.000000000000000000e+00,5.000000000000000000e+00,5.000000000000000000e+00,5.000000000000000000e+00,5.000000000000000000e+00,5.000000000000000000e+00,5.000000000000000000e+00,5.000000000000000000e+00,5.000000000000000000e+00,5.000000000000000000e+00,5.000000000000000000e+00,5.000000000000000000e+00,5.000000000000000000e+00,5.000000000000000000e+00,5.000000000000000000e+00,5.000000000000000000e+00,5.000000000000000000e+00,5.000000000000000000e+00,5.000000000000000000e+00,5.000000000000000000e+00,5.000000000000000000e+00,5.000000000000000000e+00,5.000000000000000000e+00,5.000000000000000000e+00,5.000000000000000000e+00,4.394351959228515625e+00,4.702830314636230469e+00,5.000000000000000000e+00,5.000000000000000000e+00,5.000000000000000000e+00,5.000000000000000000e+00,5.000000000000000000e+00,5.000000000000000000e+00,5.000000000000000000e+00,5.000000000000000000e+00,5.000000000000000000e+00,5.000000000000000000e+00,5.000000000000000000e+00,4.875472068786621094e+00,4.682080745697021484e+00,4.503444194793701172e+00,4.337937831878662109e+00,4.184165477752685547e+00,4.040921211242675781e+00,3.907160758972167969e+00,3.781971693038940430e+00,3.664556264877319336e+00,3.554211378097534180e+00,3.450317382812500000e+00,3.352325201034545898e+00,3.259745359420776367e+00,3.172141313552856445e+00,3.089123010635375977e+00,3.010339260101318359e+00,2.935474157333374023e+00,2.864242076873779297e+00,2.796385049819946289e+00,2.731669187545776367e+00,2.669880867004394531e+00,2.610825777053833008e+00,2.554326772689819336e+00,2.500221252441406250e+00,2.448360443115234375e+00,2.398607015609741211e+00,2.350835561752319336e+00,2.304929971694946289e+00,2.260782718658447266e+00,2.218294858932495117e+00,2.177374601364135742e+00,2.137936592102050781e+00,2.099901914596557617e+00,2.063196659088134766e+00,2.027752637863159180e+00,1.993506193161010742e+00,1.960397005081176758e+00,1.928369641304016113e+00,1.897371888160705566e+00,1.867354989051818848e+00
5.000000000000000000e+00,5.000000000000000000e+00,5.000000000000000000e+00,5.000000000000000000e+00,5.000000000000000000e+00,5.000000000000000000e+00,5.000000000000000000e+00,5.000000000000000000e+00,5.000000000000000000e+00,5.000000000000000000e+00,5.000000000000000000e+00,5.000000000000000000e+00,5.000000000000000000e+00,5.000000000000000000e+00,5.000000000000000000e+00,5.000000000000000000e+00,5.000000000000000000e+00,5.000000000000000000e+00,5.000000000000000000e+00,5.000000000000000000e+00,5.000000000000000000e+00,5.000000000000000000e+00,5.000000000000000000e+00,5.000000000000000000e+00,5.000000000000000000e+00,5.000000000000000000e+00,5.000000000000000000e+00,4.413868427276611328e+00,4.759125709533691406e+00,5.000000000000000000e+00,5.000000000000000000e+00,5.000000000000000000e+00,5.000000000000000000e+00,5.000000000000000000e+00,5.000000000000000000e+00,5.000000000000000000e+00,5.000000000000000000e+00,5.000000000000000000e+00,5.000000000000000000e+00,5.000000000000000000e+00,4.875612258911132812e+00,4.682209968566894531e+00,4.503565788269042969e+00,4.338050365447998047e+00,4.184269905090332031e+00,4.041018962860107422e+00,3.907252311706542969e+00,3.782057523727416992e+00,3.664636135101318359e+00,3.554286956787109375e+00,3.450388669967651367e+00,3.352392196655273438e+00,3.259809017181396484e+00,3.172201633453369141e+00,3.089180231094360352e+00,3.010393381118774414e+00,2.935525417327880859e+00,2.864291191101074219e+00,2.796432018280029297e+00,2.731713771820068359e+00,2.669923543930053711e+00,2.610866546630859375e+00,2.554365873336791992e+00,2.500258684158325195e+00,2.448396205902099609e+00,2.398641586303710938e+00,2.350868701934814453e+00,2.304961681365966797e+00,2.260813474655151367e+00,2.218324422836303711e+00,2.177402973175048828e+00,2.137964010238647461e+00,2.099928140640258789e+00,2.063222169876098633e+00,2.027777433395385742e+00,1.993529915809631348e+00,1.960419893264770508e+00,1.928391814231872559e+00,1.897393584251403809e+00,1.867375969886779785e+00
5.000000000000000000e+00,5.000000000000000000e+00,5.000000000000000000e+00,5.000000000000000000e+00,5.000000000000000000e+00,5.000000000000000000e+00,5.000000000000000000e+00,5.000000000000000000e+00,5.000000000000000000e+00,5.000000000000000000e+00,5.000000000000000000e+00,5.000000000000000000e+00,5.000000000000000000e+00,5.000000000000000000e+00,5.000000000000000000e+00,5.000000000000000000e+00,5.000000000000000000e+00,5.000000000000000000e+00,5.000000000000000000e+00,5.000000000000000000e+00,5.000000000000000000e+00,5.000000000000000000e+00,5.000000000000000000e+00,5.000000000000000000e+00,5.000000000000000000e+00,5.000000000000000000e+00,5.000000000000000000e+00,4.406250953674316406e+00,4.847942829132080078e+00,5.000000000000000000e+00,5.000000000000000000e+00,5.000000000000000000e+00,5.000000000000000000e+00,5.000000000000000000e+00,5.000000000000000000e+00,5.000000000000000000e+00,5.000000000000000000e+00,5.000000000000000000e+00,5.000000000000000000e+00,5.000000000000000000e+00,4.875752449035644531e+00,4.682339668273925781e+00,4.503686904907226562e+00,4.338162899017333984e+00,4.184374332427978516e+00,4.041116714477539062e+00,3.907343387603759766e+00,3.782143115997314453e+00,3.664716720581054688e+00,3.554362058639526367e+00,3.450459957122802734e+00,3.352459669113159180e+00,3.259872436523437500e+00,3.172261953353881836e+00,3.089237213134765625e+00,3.010447740554809570e+00,2.935577154159545898e+00,2.864340066909790039e+00,2.796478748321533203e+00,2.731758356094360352e+00,2.669965982437133789e+00,2.610907316207885742e+00,2.554404735565185547e+00,2.500296115875244141e+00,2.448431968688964844e+00,2.398675918579101562e+00,2.350901842117309570e+00,2.304993391036987305e+00,2.260843753814697266e+00,2.218353748321533203e+00,2.177431106567382812e+00,2.137991428375244141e+00,2.099954605102539062e+00,2.063247680664062500e+00,2.027801990509033203e+00,1.993553638458251953e+00,1.960442781448364258e+00,1.928414225578308105e+00,1.897415041923522949e+00,1.867396712303161621e+00
5.000000000000000000e+00,5.000000000000000000e+00,5.000000000000000000e+00,5.000000000000000000e+00,5.000000000000000000e+00,5.000000000000000000e+00,5.000000000000000000e+00,5.000000000000000000e+00,5.000000000000000000e+00,5.000000000000000000e+00,5.000000000000000000e+00,5.000000000000000000e+00,5.000000000000000000e+00,5.000000000000000000e+00,5.000000000000000000e+00,5.000000000000000000e+00,5.000000000000000000e+00,5.000000000000000000e+00,5.000000000000000000e+00,5.000000000000000000e+00,5.000000000000000000e+00,5.000000000000000000e+00,5.000000000000000000e+00,5.000000000000000000e+00,5.000000000000000000e+00,5.000000000000000000e+00,5.000000000000000000e+00,4.394884109497070312e+00,4.897021770477294922e+00,5.000000000000000000e+00,5.000000000000000000e+00,5.000000000000000000e+00,5.000000000000000000e+00,5.000000000000000000e+00,5.000000000000000000e+00,5.000000000000000000e+00,5.000000000000000000e+00,5.000000000000000000e+00,5.000000000000000000e+00,5.000000000000000000e+00,4.875892639160156250e+00,4.682468891143798828e+00,4.503805637359619141e+00,4.338275432586669922e+00,4.184479236602783203e+00,4.041214466094970703e+00,3.907434701919555664e+00,3.782228231430053711e+00,3.664796829223632812e+00,3.554437875747680664e+00,3.450531005859375000e+00,3.352526903152465820e+00,3.259936094284057617e+00,3.172322273254394531e+00,3.089294433593750000e+00,3.010501861572265625e+00,2.935628652572631836e+00,2.864389181137084961e+00,2.796525478363037109e+00,2.731803178787231445e+00,2.670008659362792969e+00,2.610948324203491211e+00,2.554443836212158203e+00,2.500333309173583984e+00,2.448467969894409180e+00,2.398710250854492188e+00,2.350934743881225586e+00,2.305025339126586914e+00,2.260874509811401367e+00,2.218383312225341797e+00,2.177459716796875000e+00,2.138018608093261719e+00,2.099981069564819336e+00,2.063273191452026367e+00,2.027826547622680664e+00,1.993577480316162109e+00,1.960466027259826660e+00,1.928436398506164551e+00,1.897436499595642090e+00,1.867417454719543457e+00
5.000000000000000000e+00,5.000000000000000000e+00,5.000000000000000000e+00,5.000000000000000000e+00,5.000000000000000000e+00,5.000000000000000000e+00,5.000000000000000000e+00,5.000000000000000000e+00,5.000000000000000000e+00,5.000000000000000000e+00,5.000000000000000000e+00,5.000000000000000000e+00,5.000000000000000000e+00,5.000000000000000000e+00,5.000000000000000000e+00,5.000000000000000000e+00,5.000000000000000000e+00,5.000000000000000000e+00,5.000000000000000000e+00,5.000000000000000000e+00,5.000000000000000000e+00,5.000000000000000000e+00,5.000000000000000000e+00,5.000000000000000000e+00,5.000000000000000000e+00,5.000000000000000000e+00,5.000000000000000000e+00,4.398208141326904297e+00,4.970006465911865234e+00,5.000000000000000000e+00,5.000000000000000000e+00,5.000000000000000000e+00,5.000000000000000000e+00,5.000000000000000000e+00,5.000000000000000000e+00,5.000000000000000000e+00,5.000000000000000000e+00,5.000000000000000000e+00,5.000000000000000000e+00,5.000000000000000000e+00,4.876033306121826172e+00,4.682598114013671875e+00,4.503925323486328125e+00,4.338386058807373047e+00,4.184584140777587891e+00,4.041312217712402344e+00,3.907526254653930664e+00,3.782313823699951172e+00,3.664876937866210938e+00,3.554513454437255859e+00,3.450602293014526367e+00,3.352594137191772461e+00,3.259999752044677734e+00,3.172382116317749023e+00,3.089351415634155273e+00,3.010555982589721680e+00,2.935680150985717773e+00,2.864438295364379883e+00,2.796572208404541016e+00,2.731847763061523438e+00,2.670051336288452148e+00,2.610988855361938477e+00,2.554482936859130859e+00,2.500370740890502930e+00,2.448503732681274414e+00,2.398744821548461914e+00,2.350967884063720703e+00,2.305057048797607422e+00,2.260905027389526367e+00,2.218412637710571289e+00,2.177488088607788086e+00,2.138046026229858398e+00,2.100007295608520508e+00,2.063298702239990234e+00,2.027851104736328125e+00,1.993601202964782715e+00,1.960488915443420410e+00,1.928458452224731445e+00,1.897458195686340332e+00,1.867438554763793945e+00
5.000000000000000000e+00,5.000000000000000000e+00,5.000000000000000000e+00,5.000000000000000000e+00,5.000000000000000000e+00,5.000000000000000000e+00,5.000000000000000000e+00,5.000000000000000000e+00,5.000000000000000000e+00,5.000000000000000000e+00,5.000000000000000000e+00,5.000000000000000000e+00,5.000000000000000000e+00,5.000000000000000000e+00,5.000000000000000000e+00,5.000000000000000000e+00,5.000000000000000000e+00,5.000000000000000000e+00,5.000000000000000000e+00,5.000000000000000000e+00,5.000000000000000000e+00,5.000000000000000000e+00,5.000000000000000000e+00,5.000000000000000000e+00,5.000000000000000000e+00,5.000000000000000000e+00,5.000000000000000000e+00,4.406989574432373047e+00,4.993049144744873047e+00,5.000000000000000000e+00,5.000000000000000000e+00,5.000000000000000000e+00,5.000000000000000000e+00,5.000000000000000000e+00,5.000000000000000000e+00,5.000000000000000000e+00,5.000000000000000000e+00,5.000000000000000000e+00,5.000000000000000000e+00,5.000000000000000000e+00,4.876173496246337891e+00,4.682727813720703125e+00,4.504045009613037109e+00,4.338497161865234375e+00,4.184687614440917969e+00,4.041409015655517578e+00,3.907617092132568359e+00,3.782399415969848633e+00,3.664957523345947266e+00,3.554588794708251953e+00,3.450673580169677734e+00,3.352661132812500000e+00,3.260063409805297852e+00,3.172442436218261719e+00,3.089408397674560547e+00,3.010610342025756836e+00,2.935731649398803711e+00,2.864487171173095703e+00,2.796619176864624023e+00,2.731892347335815430e+00,2.670094013214111328e+00,2.611029624938964844e+00,2.554521799087524414e+00,2.500408172607421875e+00,2.448539733886718750e+00,2.398779153823852539e+00,2.351001024246215820e+00,2.305088758468627930e+00,2.260935783386230469e+00,2.218442201614379883e+00,2.177516222000122070e+00,2.138073444366455078e+00,2.100033760070800781e+00,2.063323974609375000e+00,2.027875661849975586e+00,1.993624925613403320e+00,1.960512042045593262e+00,1.928480863571166992e+00,1.897479653358459473e+00,1.867459297180175781e+00
4.871082782745361328e+00,4.869877338409423828e+00,4.868671894073486328e+00,4.867467403411865234e+00,4.866263389587402344e+00,4.865060329437255859e+00,4.863857746124267578e+00,4.862655639648437500e+00,4.861454010009765625e+00,4.860253334045410156e+00,4.859052658081054688e+00,4.857852935791015625e+00,4.856653690338134766e+00,4.855455398559570312e+00,4.854257106781005859e+00,4.853059768676757812e+00,4.851863384246826172e+00,4.850667476654052734e+00,4.849471569061279297e+00,4.848276615142822266e+00,4.847082138061523438e+00,4.845888137817382812e+00,4.844695091247558594e+00,4.843502521514892578e+00,4.842310428619384766e+00,4.841118812561035156e+00,4.839927673339843750e+00,4.279719352722167969e+00,4.837547779083251953e+00,4.836359024047851562e+00,4.835170269012451172e+00,4.833981990814208984e+00,4.832794666290283203e+00,4.831607818603515625e+00,4.830421447753906250e+00,4.829236030578613281e+00,4.828051090240478516e+00,4.826866626739501953e+00,4.825682640075683594e+00,4.824499607086181641e+00,4.823316574096679688e+00,4.682857036590576172e+00,4.504164695739746094e+00,4.338608264923095703e+00,4.184790611267089844e+00,4.041506767272949219e+00,3.907708406448364258e+00,3.782484769821166992e+00,3.665037870407104492e+00,3.554664611816406250e+00,3.450744867324829102e+00,3.352728605270385742e+00,3.260126590728759766e+00,3.172502756118774414e+00,3.089465618133544922e+00,3.010664463043212891e+00,2.935783386230468750e+00,2.864536523818969727e+00,2.796665906906127930e+00,2.731936931610107422e+00,2.670136690139770508e+00,2.611070632934570312e+00,2.554560899734497070e+00,2.500445604324340820e+00,2.448575496673583984e+00,2.398813486099243164e+00,2.351034164428710938e+00,2.305120706558227539e+00,2.260966300964355469e+00,2.218471527099609375e+00,2.177544593811035156e+00,2.138100624084472656e+00,2.100059986114501953e+00,2.063349485397338867e+00,2.027900457382202148e+00,1.993648886680603027e+00,1.960534930229187012e+00,1.928503036499023438e+00,1.897501111030578613e+00,1.867480039596557617e+00
3.775777339935302734e+00,3.775053262710571289e+00,3.774329185485839844e+00,3.773604869842529297e+00,3.772881507873535156e+00,3.772157907485961914e+00,3.771435022354125977e+00,3.770712137222290039e+00,3.769989728927612305e+00,3.769267320632934570e+00,3.768545389175415039e+00,3.767823457717895508e+00,3.767102241516113281e+00,3.766381263732910156e+00,3.765660285949707031e+00,3.764939785003662109e+00,3.764219284057617188e+00,3.763499498367309570e+00,3.762779474258422852e+00,3.762060165405273438e+00,3.761340618133544922e+00,3.760622024536132812e+00,3.759903192520141602e+00,3.759184837341308594e+00,3.758466482162475586e+00,3.757748842239379883e+00,3.757031440734863281e+00,3.756314039230346680e+00,3.755597114562988281e+00,3.754880189895629883e+00,3.754163980484008789e+00,3.753447532653808594e+00,3.752731800079345703e+00,3.752015829086303711e+00,3.751300573348999023e+00,3.750585317611694336e+00,3.749870777130126953e+00,3.749156236648559570e+00,3.748441696166992188e+00,3.747727870941162109e+00,3.747014045715332031e+00,3.746300697326660156e+00,3.745587348937988281e+00,3.744874477386474609e+00,3.744161605834960938e+00,3.743449449539184570e+00,3.742737054824829102e+00,3.742025375366210938e+00,3.665118455886840820e+00,3.554740190505981445e+00,3.450815916061401367e+00,3.352795839309692383e+00,3.260190248489379883e+00,3.172562837600708008e+00,3.089522838592529297e+00,3.010718584060668945e+00,2.935834884643554688e+00,2.864585638046264648e+00,2.796712636947631836e+00,2.731981754302978516e+00,2.670179367065429688e+00,2.611111164093017578e+00,2.554600000381469727e+00,2.500483036041259766e+00,2.448611497879028320e+00,2.398848056793212891e+00,2.351067066192626953e+00,2.305152416229248047e+00,2.260996818542480469e+00,2.218500852584838867e+00,2.177573204040527344e+00,2.138128042221069336e+00,2.100086450576782227e+00,2.063374996185302734e+00,2.027924776077270508e+00,1.993672490119934082e+00,1.960557818412780762e+00,1.928525209426879883e+00,1.897522687911987305e+00,1.867501020431518555e+00
3.082623004913330078e+00,3.082140207290649414e+00,3.081657409667968750e+00,3.081174850463867188e+00,3.080692291259765625e+00,3.080210208892822266e+00,3.079727888107299805e+00,3.079246044158935547e+00,3.078763961791992188e+00,3.078282356262207031e+00,3.077800750732421875e+00,3.077319383621215820e+00,3.076838254928588867e+00,3.076357126235961914e+00,3.075876235961914062e+00,3.075395345687866211e+00,3.074914693832397461e+00,3.074434041976928711e+00,3.073953866958618164e+00,3.073473453521728516e+00,3.072993516921997070e+00,3.072513580322265625e+00,3.072033882141113281e+00,3.071554422378540039e+00,3.071074962615966797e+00,3.070595741271972656e+00,3.070116281509399414e+00,3.069637537002563477e+00,3.069158554077148438e+00,3.068680047988891602e+00,3.068201303482055664e+00,3.067723035812377930e+00,3.067244529724121094e+00,3.066766500473022461e+00,3.066288709640502930e+00,3.065810918807983398e+00,3.065333366394042969e+00,3.064855813980102539e+00,3.064378499984741211e+00,3.063901185989379883e+00,3.063424110412597656e+00,3.062947273254394531e+00,3.062470436096191406e+00,3.061993837356567383e+00,3.061517477035522461e+00,3.061041116714477539e+00,3.060564994812011719e+00,3.060089111328125000e+00,3.059612989425659180e+00,3.059137344360351562e+00,3.058661699295043945e+00,3.058186292648315430e+00,3.057710886001586914e+00,3.057235956192016602e+00,3.056760787963867188e+00,3.010772943496704102e+00,2.935886383056640625e+00,2.864634752273559570e+00,2.796759366989135742e+00,2.732026100158691406e+00,2.670222043991088867e+00,2.611152172088623047e+00,2.554639101028442383e+00,2.500520467758178711e+00,2.448647260665893555e+00,2.398882389068603516e+00,2.351100206375122070e+00,2.305184125900268555e+00,2.261027336120605469e+00,2.218530416488647461e+00,2.177601337432861328e+00,2.138155460357666016e+00,2.100112915039062500e+00,2.063400506973266602e+00,2.027949571609497070e+00,1.993696212768554688e+00,1.960580945014953613e+00,1.928547620773315430e+00,1.897544264793395996e+00,1.867521882057189941e+00
2.604492187500000000e+00,2.604147434234619141e+00,2.603802919387817383e+00,2.603458166122436523e+00,2.603113889694213867e+00,2.602769374847412109e+00,2.602425336837768555e+00,2.602081060409545898e+00,2.601737022399902344e+00,2.601392984390258789e+00,2.601048946380615234e+00,2.600705385208129883e+00,2.600361347198486328e+00,2.600017786026000977e+00,2.599674224853515625e+00,2.599330902099609375e+00,2.598987340927124023e+00,2.598644256591796875e+00,2.598300933837890625e+00,2.597957849502563477e+00,2.597615003585815430e+00,2.597271919250488281e+00,2.596929311752319336e+00,2.596586465835571289e+00,2.596243858337402344e+00,2.595901250839233398e+00,2.595558881759643555e+00,2.595216274261474609e+00,2.594874143600463867e+00,2.594531774520874023e+00,2.594189882278442383e+00,2.593847990036010742e+00,2.593505859375000000e+00,2.593164205551147461e+00,2.592822313308715820e+00,2.592480659484863281e+00,2.592139005661010742e+00,2.591797590255737305e+00,2.591456174850463867e+00,2.591114997863769531e+00,2.590773820877075195e+00,2.590432643890380859e+00,2.590091466903686523e+00,2.589750766754150391e+00,2.589410066604614258e+00,2.589069128036499023e+00,2.588728666305541992e+00,2.588387966156005859e+00,2.588047504425048828e+00,2.587707042694091797e+00,2.587366819381713867e+00,2.587026357650756836e+00,2.586686372756958008e+00,2.586346387863159180e+00,2.586006402969360352e+00,2.585666656494140625e+00,2.585326910018920898e+00,2.584987163543701172e+00,2.584647655487060547e+00,2.584308147430419922e+00,2.583968639373779297e+00,2.583629369735717773e+00,2.554677963256835938e+00,2.500557899475097656e+00,2.448683023452758789e+00,2.398916721343994141e+00,2.351133346557617188e+00,2.305216073989868164e+00,2.261057853698730469e+00,2.218559980392456055e+00,2.177629709243774414e+00,2.138182640075683594e+00,2.100139141082763672e+00,2.063425779342651367e+00,2.027974128723144531e+00,1.993720173835754395e+00,1.960603952407836914e+00,1.928569793701171875e+00,1.897565722465515137e+00,1.867542862892150879e+00
2.254766464233398438e+00,2.254508018493652344e+00,2.254249572753906250e+00,2.253991603851318359e+00,2.253733158111572266e+00,2.253474950790405273e+00,2.253216981887817383e+00,2.252959012985229492e+00,2.252700805664062500e+00,2.252443075180053711e+00,2.252185344696044922e+00,2.251927375793457031e+00,2.251669883728027344e+00,2.251412153244018555e+00,2.251154422760009766e+00,2.250896930694580078e+00,2.250639438629150391e+00,2.250382184982299805e+00,2.250124692916870117e+00,2.249867439270019531e+00,2.249610185623168945e+00,2.249352931976318359e+00,2.249095678329467773e+00,2.248838663101196289e+00,2.248581647872924805e+00,2.248324871063232422e+00,2.248067855834960938e+00,2.247811079025268555e+00,2.247554302215576172e+00,2.247297525405883789e+00,2.247040987014770508e+00,2.246784210205078125e+00,2.246527671813964844e+00,2.246271133422851562e+00,2.246014833450317383e+00,2.245758295059204102e+00,2.245501995086669922e+00,2.245245695114135742e+00,2.244989633560180664e+00,2.244733572006225586e+00,2.244477510452270508e+00,2.244221448898315430e+00,2.243965387344360352e+00,2.243709564208984375e+00,2.243453741073608398e+00,2.243197917938232422e+00,2.242942094802856445e+00,2.242686510086059570e+00,2.242430925369262695e+00,2.242175340652465820e+00,2.241919755935668945e+00,2.241664409637451172e+00,2.241409063339233398e+00,2.241153717041015625e+00,2.240898609161376953e+00,2.240643262863159180e+00,2.240388154983520508e+00,2.240133047103881836e+00,2.239877939224243164e+00,2.239623069763183594e+00,2.239368200302124023e+00,2.239113092422485352e+00,2.238858461380004883e+00,2.238603830337524414e+00,2.238348960876464844e+00,2.238094568252563477e+00,2.237839937210083008e+00,2.237585306167602539e+00,2.237330913543701172e+00,2.218589305877685547e+00,2.177658081054687500e+00,2.138210058212280273e+00,2.100165605545043945e+00,2.063451290130615234e+00,2.027998685836791992e+00,1.993743896484375000e+00,1.960626840591430664e+00,1.928592205047607422e+00,1.897587299346923828e+00,1.867563605308532715e+00
1.987844824790954590e+00,1.987643957138061523e+00,1.987443089485168457e+00,1.987242341041564941e+00,1.987041592597961426e+00,1.986840844154357910e+00,1.986640334129333496e+00,1.986439704895019531e+00,1.986239194869995117e+00,1.986038565635681152e+00,1.985838055610656738e+00,1.985637664794921875e+00,1.985437393188476562e+00,1.985237002372741699e+00,1.985036611557006836e+00,1.984836339950561523e+00,1.984636068344116211e+00,1.984435796737670898e+00,1.984235882759094238e+00,1.984035730361938477e+00,1.983835577964782715e+00,1.983635544776916504e+00,1.983435511589050293e+00,1.983235478401184082e+00,1.983035802841186523e+00,1.982835888862609863e+00,1.982635974884033203e+00,1.982436180114746094e+00,1.982236385345458984e+00,1.982036590576171875e+00,1.981837153434753418e+00,1.981637477874755859e+00,1.981437802314758301e+00,1.981238245964050293e+00,1.981038689613342285e+00,1.980839371681213379e+00,1.980639934539794922e+00,1.980440497398376465e+00,1.980241060256958008e+00,1.980041742324829102e+00,1.979842424392700195e+00,1.979643344879150391e+00,1.979444146156311035e+00,1.979244947433471680e+00,1.979045748710632324e+00,1.978846669197082520e+00,1.978647589683532715e+00,1.978448748588562012e+00,1.978249788284301758e+00,1.978050827980041504e+00,1.977851986885070801e+00,1.977653026580810547e+00,1.977454185485839844e+00,1.977255702018737793e+00,1.977056860923767090e+00,1.976858139038085938e+00,1.976659536361694336e+00,1.976460933685302734e+00,1.976262331008911133e+00,1.976063966751098633e+00,1.975865483283996582e+00,1.975666999816894531e+00,1.975468516349792480e+00,1.975270152091979980e+00,1.975071787834167480e+00,1.974873661994934082e+00,1.974675416946411133e+00,1.974477171897888184e+00,1.974279046058654785e+00,1.974080801010131836e+00,1.973882675170898438e+00,1.973684906959533691e+00,1.973486900329589844e+00,1.973288893699645996e+00,1.973090887069702148e+00,1.972892999649047852e+00,1.960649967193603516e+00,1.928614377975463867e+00,1.897608757019042969e+00,1.867584466934204102e+00
1.777430653572082520e+00,1.777270078659057617e+00,1.777109503746032715e+00,1.776948928833007812e+00,1.776788353919982910e+00,1.776628136634826660e+00,1.776467680931091309e+00,1.776307225227355957e+00,1.776146769523620605e+00,1.775986433029174805e+00,1.775826096534729004e+00,1.775665879249572754e+00,1.775505661964416504e+00,1.775345325469970703e+00,1.775185108184814453e+00,1.775024890899658203e+00,1.774864792823791504e+00,1.774704813957214355e+00,1.774544715881347656e+00,1.774384617805480957e+00,1.774224519729614258e+00,1.774064540863037109e+00,1.773904442787170410e+00,1.773744702339172363e+00,1.773584723472595215e+00,1.773424863815307617e+00,1.773265004158020020e+00,1.773105144500732422e+00,1.772945284843444824e+00,1.772785663604736328e+00,1.772625923156738281e+00,1.772466182708740234e+00,1.772306442260742188e+00,1.772146701812744141e+00,1.771987080574035645e+00,1.771827578544616699e+00,1.771667957305908203e+00,1.771508455276489258e+00,1.771348953247070312e+00,1.771189332008361816e+00,1.771029949188232422e+00,1.770870566368103027e+00,1.770711183547973633e+00,1.770551800727844238e+00,1.770392417907714844e+00,1.770233035087585449e+00,1.770073771476745605e+00,1.769914627075195312e+00,1.769755363464355469e+00,1.769596219062805176e+00,1.769436955451965332e+00,1.769277811050415039e+00,1.769118666648864746e+00,1.768959760665893555e+00,1.768800616264343262e+00,1.768641591072082520e+00,1.768482565879821777e+00,1.768323540687561035e+00,1.768164634704589844e+00,1.768005847930908203e+00,1.767846941947937012e+00,1.767688035964965820e+00,1.767529129981994629e+00,1.767370343208312988e+00,1.767211556434631348e+00,1.767053008079528809e+00,1.766894221305847168e+00,1.766735553741455078e+00,1.766576886177062988e+00,1.766418218612670898e+00,1.766259551048278809e+00,1.766101121902465820e+00,1.765942573547363281e+00,1.765784025192260742e+00,1.765625476837158203e+00,1.765467047691345215e+00,1.765308618545532227e+00,1.765150427818298340e+00,1.764991998672485352e+00,1.764833569526672363e+00
1.607297539710998535e+00,1.607166171073913574e+00,1.607034921646118164e+00,1.606903672218322754e+00,1.606772541999816895e+00,1.606641292572021484e+00,1.606510043144226074e+00,1.606378793716430664e+00,1.606247663497924805e+00,1.606116414070129395e+00,1.605985522270202637e+00,1.605854392051696777e+00,1.605723261833190918e+00,1.605592131614685059e+00,1.605461120605468750e+00,1.605330109596252441e+00,1.605199217796325684e+00,1.605068206787109375e+00,1.604937195777893066e+00,1.604806303977966309e+00,1.604675412178039551e+00,1.604544401168823242e+00,1.604413747787475586e+00,1.604282855987548828e+00,1.604151964187622070e+00,1.604021191596984863e+00,1.603890419006347656e+00,1.603759646415710449e+00,1.603628993034362793e+00,1.603498220443725586e+00,1.603367567062377930e+00,1.603236794471740723e+00,1.603106141090393066e+00,1.602975487709045410e+00,1.602845072746276855e+00,1.602714419364929199e+00,1.602583885192871094e+00,1.602453231811523438e+00,1.602322697639465332e+00,1.602192163467407227e+00,1.602061867713928223e+00,1.601931333541870117e+00,1.601800918579101562e+00,1.601670503616333008e+00,1.601540088653564453e+00,1.601409673690795898e+00,1.601279377937316895e+00,1.601149082183837891e+00,1.601018786430358887e+00,1.600888490676879883e+00,1.600758194923400879e+00,1.600627899169921875e+00,1.600497841835021973e+00,1.600367546081542969e+00,1.600237369537353516e+00,1.600107192993164062e+00,1.599977016448974609e+00,1.599846839904785156e+00,1.599716901779174805e+00,1.599586725234985352e+00,1.599456667900085449e+00,1.599326610565185547e+00,1.599196553230285645e+00,1.599066615104675293e+00,1.598936676979064941e+00,1.598806738853454590e+00,1.598676800727844238e+00,1.598546862602233887e+00,1.598416924476623535e+00,1.598287105560302734e+00,1.598157405853271484e+00,1.598027467727661133e+00,1.597897648811340332e+00,1.597767829895019531e+00,1.597638130187988281e+00,1.597508311271667480e+00,1.597378730773925781e+00,1.597249031066894531e+00,1.597119331359863281e+00,1.596989631652832031e+00
1.466889023780822754e+00,1.466779708862304688e+00,1.466670274734497070e+00,1.466561079025268555e+00,1.466451644897460938e+00,1.466342329978942871e+00,1.466233015060424805e+00,1.466123700141906738e+00,1.466014504432678223e+00,1.465905308723449707e+00,1.465796113014221191e+00,1.465686798095703125e+00,1.465577602386474609e+00,1.465468406677246094e+00,1.465359210968017578e+00,1.465250253677368164e+00,1.465141057968139648e+00,1.465031981468200684e+00,1.464922785758972168e+00,1.464813709259033203e+00,1.464704632759094238e+00,1.464595675468444824e+00,1.464486598968505859e+00,1.464377641677856445e+00,1.464268565177917480e+00,1.464159607887268066e+00,1.464050531387329102e+00,1.463941693305969238e+00,1.463832736015319824e+00,1.463723897933959961e+00,1.463614940643310547e+00,1.463505983352661133e+00,1.463397145271301270e+00,1.463288426399230957e+00,1.463179469108581543e+00,1.463070631027221680e+00,1.462961912155151367e+00,1.462853074073791504e+00,1.462744235992431641e+00,1.462635636329650879e+00,1.462526917457580566e+00,1.462418079376220703e+00,1.462309360504150391e+00,1.462200641632080078e+00,1.462092041969299316e+00,1.461983442306518555e+00,1.461874723434448242e+00,1.461766123771667480e+00,1.461657524108886719e+00,1.461548924446105957e+00,1.461440324783325195e+00,1.461331844329833984e+00,1.461223244667053223e+00,1.461114764213562012e+00,1.461006164550781250e+00,1.460897684097290039e+00,1.460789203643798828e+00,1.460680842399597168e+00,1.460572361946105957e+00,1.460463881492614746e+00,1.460355401039123535e+00,1.460247039794921875e+00,1.460138678550720215e+00,1.460030317306518555e+00,1.459921956062316895e+00,1.459813594818115234e+00,1.459705352783203125e+00,1.459596991539001465e+00,1.459488630294799805e+00,1.459380507469177246e+00,1.459272265434265137e+00,1.459164023399353027e+00,1.459055781364440918e+00,1.458947539329528809e+00,1.458839297294616699e+00,1.458731174468994141e+00,1.458623051643371582e+00,1.458514809608459473e+00,1.458406686782836914e+00,1.458298563957214355e+00
1.349040985107421875e+00,1.348948478698730469e+00,1.348855972290039062e+00,1.348763585090637207e+00,1.348671078681945801e+00,1.348578572273254395e+00,1.348486185073852539e+00,1.348393678665161133e+00,1.348301291465759277e+00,1.348208904266357422e+00,1.348116517066955566e+00,1.348024129867553711e+00,1.347931742668151855e+00,1.347839355468750000e+00,1.347747087478637695e+00,1.347654819488525391e+00,1.347562432289123535e+00,1.347470164299011230e+00,1.347377777099609375e+00,1.347285628318786621e+00,1.347193241119384766e+00,1.347101092338562012e+00,1.347008824348449707e+00,1.346916675567626953e+00,1.346824407577514648e+00,1.346732139587402344e+00,1.346639990806579590e+00,1.346547842025756836e+00,1.346455693244934082e+00,1.346363544464111328e+00,1.346271395683288574e+00,1.346179246902465820e+00,1.346087098121643066e+00,1.345995068550109863e+00,1.345903038978576660e+00,1.345810890197753906e+00,1.345718860626220703e+00,1.345626711845397949e+00,1.345534682273864746e+00,1.345442771911621094e+00,1.345350742340087891e+00,1.345258712768554688e+00,1.345166683197021484e+00,1.345074772834777832e+00,1.344982862472534180e+00,1.344890832901000977e+00,1.344798922538757324e+00,1.344707012176513672e+00,1.344615101814270020e+00,1.344523191452026367e+00,1.344431281089782715e+00,1.344339489936828613e+00,1.344247579574584961e+00,1.344155669212341309e+00,1.344063878059387207e+00,1.343971967697143555e+00,1.343880295753479004e+00,1.343788504600524902e+00,1.343696594238281250e+00,1.343604803085327148e+00,1.343513131141662598e+00,1.343421339988708496e+00,1.343329668045043945e+00,1.343237876892089844e+00,1.343146204948425293e+00,1.343054533004760742e+00,1.342962741851806641e+00,1.342871069908142090e+00,1.342779517173767090e+00,1.342687845230102539e+00,1.342596173286437988e+00,1.342504501342773438e+00,1.342412948608398438e+00,1.342321276664733887e+00,1.342229843139648438e+00,1.342138171195983887e+00,1.342046618461608887e+00,1.341955065727233887e+00,1.341863512992858887e+00,1.341771960258483887e+00
1.248720407485961914e+00,1.248641133308410645e+00,1.248561859130859375e+00,1.248482704162597656e+00,1.248403429985046387e+00,1.248324155807495117e+00,1.248245000839233398e+00,1.248165726661682129e+00,1.248086690902709961e+00,1.248007416725158691e+00,1.247928261756896973e+00,1.247849106788635254e+00,1.247769951820373535e+00,1.247690796852111816e+00,1.247611761093139648e+00,1.247532606124877930e+00,1.247453451156616211e+00,1.247374296188354492e+00,1.247295260429382324e+00,1.247216105461120605e+00,1.247137188911437988e+00,1.247058033943176270e+00,1.246978998184204102e+00,1.246899962425231934e+00,1.246820926666259766e+00,1.246741890907287598e+00,1.246662974357604980e+00,1.246583938598632812e+00,1.246504902839660645e+00,1.246425986289978027e+00,1.246346950531005859e+00,1.246268033981323242e+00,1.246189117431640625e+00,1.246110200881958008e+00,1.246031165122985840e+00,1.245952248573303223e+00,1.245873332023620605e+00,1.245794415473937988e+00,1.245715618133544922e+00,1.245636701583862305e+00,1.245557904243469238e+00,1.245478987693786621e+00,1.245400071144104004e+00,1.245321273803710938e+00,1.245242476463317871e+00,1.245163679122924805e+00,1.245084881782531738e+00,1.245006084442138672e+00,1.244927287101745605e+00,1.244848489761352539e+00,1.244769811630249023e+00,1.244691014289855957e+00,1.244612216949462891e+00,1.244533419609069824e+00,1.244454741477966309e+00,1.244375944137573242e+00,1.244297385215759277e+00,1.244218707084655762e+00,1.244139909744262695e+00,1.244061231613159180e+00,1.243982553482055664e+00,1.243903875350952148e+00,1.243825316429138184e+00,1.243746638298034668e+00,1.243668079376220703e+00,1.243589401245117188e+00,1.243510723114013672e+00,1.243432164192199707e+00,1.243353605270385742e+00,1.243275046348571777e+00,1.243196487426757812e+00,1.243117928504943848e+00,1.243039369583129883e+00,1.242960810661315918e+00,1.242882370948791504e+00,1.242803812026977539e+00,1.242725253105163574e+00,1.242646813392639160e+00,1.242568254470825195e+00,1.242489814758300781e+00
1.162287592887878418e+00,1.162218928337097168e+00,1.162150263786315918e+00,1.162081599235534668e+00,1.162012934684753418e+00,1.161944270133972168e+00,1.161875724792480469e+00,1.161807179450988770e+00,1.161738514900207520e+00,1.161669850349426270e+00,1.161601305007934570e+00,1.161532640457153320e+00,1.161464095115661621e+00,1.161395549774169922e+00,1.161327004432678223e+00,1.161258459091186523e+00,1.161189913749694824e+00,1.161121368408203125e+00,1.161052823066711426e+00,1.160984396934509277e+00,1.160915851593017578e+00,1.160847306251525879e+00,1.160778760910034180e+00,1.160710334777832031e+00,1.160641789436340332e+00,1.160573363304138184e+00,1.160504937171936035e+00,1.160436391830444336e+00,1.160367965698242188e+00,1.160299539566040039e+00,1.160231113433837891e+00,1.160162687301635742e+00,1.160094261169433594e+00,1.160025835037231445e+00,1.159957408905029297e+00,1.159888982772827148e+00,1.159820675849914551e+00,1.159752368927001953e+00,1.159683942794799805e+00,1.159615516662597656e+00,1.159547209739685059e+00,1.159478783607482910e+00,1.159410476684570312e+00,1.159342288970947266e+00,1.159273862838745117e+00,1.159205555915832520e+00,1.159137248992919922e+00,1.159068942070007324e+00,1.159000635147094727e+00,1.158932447433471680e+00,1.158864140510559082e+00,1.158795833587646484e+00,1.158727645874023438e+00,1.158659338951110840e+00,1.158591032028198242e+00,1.158522963523864746e+00,1.158454656600952148e+00,1.158386468887329102e+00,1.158318281173706055e+00,1.158250093460083008e+00,1.158181786537170410e+00,1.158113718032836914e+00,1.158045530319213867e+00,1.157977342605590820e+00,1.157909154891967773e+00,1.157841086387634277e+00,1.157772898674011230e+00,1.157704830169677734e+00,1.157636642456054688e+00,1.157568573951721191e+00,1.157500386238098145e+00,1.157432317733764648e+00,1.157364249229431152e+00,1.157296180725097656e+00,1.157228112220764160e+00,1.157160043716430664e+00,1.157091975212097168e+00,1.157023906707763672e+00,1.156955838203430176e+00,1.156887769699096680e+00
1.087045431137084961e+00,1.086985349655151367e+00,1.086925268173217773e+00,1.086865305900573730e+00,1.086805224418640137e+00,1.086745142936706543e+00,1.086685180664062500e+00,1.086625099182128906e+00,1.086565136909484863e+00,1.086505055427551270e+00,1.086445093154907227e+00,1.086385011672973633e+00,1.086325168609619141e+00,1.086265087127685547e+00,1.086205124855041504e+00,1.086145162582397461e+00,1.086085200309753418e+00,1.086025238037109375e+00,1.085965275764465332e+00,1.085905313491821289e+00,1.085845470428466797e+00,1.085785508155822754e+00,1.085725545883178711e+00,1.085665583610534668e+00,1.085605740547180176e+00,1.085545897483825684e+00,1.085485935211181641e+00,1.085425972938537598e+00,1.085366129875183105e+00,1.085306286811828613e+00,1.085246443748474121e+00,1.085186600685119629e+00,1.085126638412475586e+00,1.085066795349121094e+00,1.085006952285766602e+00,1.084947109222412109e+00,1.084887385368347168e+00,1.084827542304992676e+00,1.084767699241638184e+00,1.084707856178283691e+00,1.084648013114929199e+00,1.084588170051574707e+00,1.084528446197509766e+00,1.084468722343444824e+00,1.084408879280090332e+00,1.084349155426025391e+00,1.084289312362670898e+00,1.084229588508605957e+00,1.084169864654541016e+00,1.084110140800476074e+00,1.084050297737121582e+00,1.083990573883056641e+00,1.083930850028991699e+00,1.083871126174926758e+00,1.083811521530151367e+00,1.083751797676086426e+00,1.083692073822021484e+00,1.083632349967956543e+00,1.083572626113891602e+00,1.083512902259826660e+00,1.083453297615051270e+00,1.083393692970275879e+00,1.083333969116210938e+00,1.083274364471435547e+00,1.083214640617370605e+00,1.083155035972595215e+00,1.083095431327819824e+00,1.083035826683044434e+00,1.082976102828979492e+00,1.082916498184204102e+00,1.082856893539428711e+00,1.082797288894653320e+00,1.082737803459167480e+00,1.082678198814392090e+00,1.082618594169616699e+00,1.082558989524841309e+00,1.082499384880065918e+00,1.082439780235290527e+00,1.082380294799804688e+00,1.082320809364318848e+00
1.020952820777893066e+00,1.020899772644042969e+00,1.020846843719482422e+00,1.020793795585632324e+00,1.020740866661071777e+00,1.020687818527221680e+00,1.020635008811950684e+00,1.020581960678100586e+00,1.020529031753540039e+00,1.020476102828979492e+00,1.020423173904418945e+00,1.020370244979858398e+00,1.020317316055297852e+00,1.020264387130737305e+00,1.020211458206176758e+00,1.020158648490905762e+00,1.020105719566345215e+00,1.020052790641784668e+00,1.019999980926513672e+00,1.019947052001953125e+00,1.019894123077392578e+00,1.019841313362121582e+00,1.019788384437561035e+00,1.019735574722290039e+00,1.019682765007019043e+00,1.019629836082458496e+00,1.019577026367187500e+00,1.019524216651916504e+00,1.019471287727355957e+00,1.019418478012084961e+00,1.019365668296813965e+00,1.019312858581542969e+00,1.019260048866271973e+00,1.019207239151000977e+00,1.019154429435729980e+00,1.019101738929748535e+00,1.019048929214477539e+00,1.018996119499206543e+00,1.018943309783935547e+00,1.018890500068664551e+00,1.018837690353393555e+00,1.018784999847412109e+00,1.018732309341430664e+00,1.018679499626159668e+00,1.018626689910888672e+00,1.018573999404907227e+00,1.018521189689636230e+00,1.018468618392944336e+00,1.018415808677673340e+00,1.018363118171691895e+00,1.018310427665710449e+00,1.018257617950439453e+00,1.018204927444458008e+00,1.018152236938476562e+00,1.018099546432495117e+00,1.018046855926513672e+00,1.017994165420532227e+00,1.017941474914550781e+00,1.017888784408569336e+00,1.017836213111877441e+00,1.017783522605895996e+00,1.017730832099914551e+00,1.017678260803222656e+00,1.017625570297241211e+00,1.017572879791259766e+00,1.017520308494567871e+00,1.017467737197875977e+00,1.017415046691894531e+00,1.017362475395202637e+00,1.017309784889221191e+00,1.017257213592529297e+00,1.017204642295837402e+00,1.017152070999145508e+00,1.017099499702453613e+00,1.017046928405761719e+00,1.016994237899780273e+00,1.016941666603088379e+00,1.016889214515686035e+00,1.016836643218994141e+00,1.016784071922302246e+00
9.624363780021667480e-01,9.623893499374389648e-01,9.623422026634216309e-01,9.622951745986938477e-01,9.622480273246765137e-01,9.622009992599487305e-01,9.621540307998657227e-01,9.621068835258483887e-01,9.620599150657653809e-01,9.620127677917480469e-01,9.619657993316650391e-01,9.619187712669372559e-01,9.618716835975646973e-01,9.618247151374816895e-01,9.617776274681091309e-01,9.617306590080261230e-01,9.616835713386535645e-01,9.616366028785705566e-01,9.615896344184875488e-01,9.615426063537597656e-01,9.614956378936767578e-01,9.614486098289489746e-01,9.614016413688659668e-01,9.613547325134277344e-01,9.613076448440551758e-01,9.612607359886169434e-01,9.612137079238891602e-01,9.611667990684509277e-01,9.611197710037231445e-01,9.610728621482849121e-01,9.610259532928466797e-01,9.609789252281188965e-01,9.609320759773254395e-01,9.608850479125976562e-01,9.608381390571594238e-01,9.607912898063659668e-01,9.607443213462829590e-01,9.606974124908447266e-01,9.606504440307617188e-01,9.606035947799682617e-01,9.605566263198852539e-01,9.605097770690917969e-01,9.604629278182983398e-01,9.604159593582153320e-01,9.603691101074218750e-01,9.603222012519836426e-01,9.602753520011901855e-01,9.602285027503967285e-01,9.601815938949584961e-01,9.601347446441650391e-01,9.600878357887268066e-01,9.600410461425781250e-01,9.599941372871398926e-01,9.599473476409912109e-01,9.599005579948425293e-01,9.598536491394042969e-01,9.598068594932556152e-01,9.597599506378173828e-01,9.597131609916687012e-01,9.596664309501647949e-01,9.596195220947265625e-01,9.595727920532226562e-01,9.595258831977844238e-01,9.594791531562805176e-01,9.594323039054870605e-01,9.593855142593383789e-01,9.593387842178344727e-01,9.592919349670410156e-01,9.592452049255371094e-01,9.591984152793884277e-01,9.591516852378845215e-01,9.591049551963806152e-01,9.590581059455871582e-01,9.590114355087280273e-01,9.589645862579345703e-01,9.589179158210754395e-01,9.588711261749267578e-01,9.588243961334228516e-01,9.587777256965637207e-01,9.587309360504150391e-01
9.102641940116882324e-01,9.102220535278320312e-01,9.101799726486206055e-01,9.101377725601196289e-01,9.100957512855529785e-01,9.100536704063415527e-01,9.100115299224853516e-01,9.099694490432739258e-01,9.099273085594177246e-01,9.098852872848510742e-01,9.098432064056396484e-01,9.098010659217834473e-01,9.097590446472167969e-01,9.097169041633605957e-01,9.096748828887939453e-01,9.096328020095825195e-01,9.095907807350158691e-01,9.095487594604492188e-01,9.095066189765930176e-01,9.094645977020263672e-01,9.094225168228149414e-01,9.093805551528930664e-01,9.093385338783264160e-01,9.092964529991149902e-01,9.092544317245483398e-01,9.092123508453369141e-01,9.091703891754150391e-01,9.091283082962036133e-01,9.090863466262817383e-01,9.090443849563598633e-01,9.090023040771484375e-01,9.089603424072265625e-01,9.089183211326599121e-01,9.088763594627380371e-01,9.088343977928161621e-01,9.087923765182495117e-01,9.087504148483276367e-01,9.087083935737609863e-01,9.086664915084838867e-01,9.086244106292724609e-01,9.085825085639953613e-01,9.085406064987182617e-01,9.084985852241516113e-01,9.084566831588745117e-01,9.084146618843078613e-01,9.083727598190307617e-01,9.083308577537536621e-01,9.082888364791870117e-01,9.082469940185546875e-01,9.082049727439880371e-01,9.081630706787109375e-01,9.081211090087890625e-01,9.080792665481567383e-01,9.080373644828796387e-01,9.079954028129577637e-01,9.079535603523254395e-01,9.079115390777587891e-01,9.078696966171264648e-01,9.078278541564941406e-01,9.077858924865722656e-01,9.077440500259399414e-01,9.077020883560180664e-01,9.076602458953857422e-01,9.076183438301086426e-01,9.075765013694763184e-01,9.075346589088439941e-01,9.074927568435668945e-01,9.074509143829345703e-01,9.074090123176574707e-01,9.073672294616699219e-01,9.073253870010375977e-01,9.072834849357604980e-01,9.072417020797729492e-01,9.071998000144958496e-01,9.071580171585083008e-01,9.071161150932312012e-01,9.070743322372436523e-01,9.070325493812561035e-01,9.069907069206237793e-01,9.069489240646362305e-01
8.634574413299560547e-01,8.634195327758789062e-01,8.633816242218017578e-01,8.633437752723693848e-01,8.633059263229370117e-01,8.632679581642150879e-01,8.632301092147827148e-01,8.631922006607055664e-01,8.631543517112731934e-01,8.631165027618408203e-01,8.630785942077636719e-01,8.630408048629760742e-01,8.630028963088989258e-01,8.629650473594665527e-01,8.629271388053894043e-01,8.628893494606018066e-01,8.628515005111694336e-01,8.628136515617370605e-01,8.627758026123046875e-01,8.627379536628723145e-01,8.627001643180847168e-01,8.626623153686523438e-01,8.626244664192199707e-01,8.625866770744323730e-01,8.625488281250000000e-01,8.625110387802124023e-01,8.624731302261352539e-01,8.624354004859924316e-01,8.623976111412048340e-01,8.623597621917724609e-01,8.623219728469848633e-01,8.622841238975524902e-01,8.622463941574096680e-01,8.622086048126220703e-01,8.621708154678344727e-01,8.621330261230468750e-01,8.620952367782592773e-01,8.620574474334716797e-01,8.620196580886840820e-01,8.619819283485412598e-01,8.619441986083984375e-01,8.619063496589660645e-01,8.618686199188232422e-01,8.618308305740356445e-01,8.617931008338928223e-01,8.617553710937500000e-01,8.617175817489624023e-01,8.616799116134643555e-01,8.616421222686767578e-01,8.616043925285339355e-01,8.615666031837463379e-01,8.615289330482482910e-01,8.614912033081054688e-01,8.614534735679626465e-01,8.614157438278198242e-01,8.613780140876770020e-01,8.613402843475341797e-01,8.613026142120361328e-01,8.612648844718933105e-01,8.612272143363952637e-01,8.611894845962524414e-01,8.611518144607543945e-01,8.611140251159667969e-01,8.610764145851135254e-01,8.610387444496154785e-01,8.610010147094726562e-01,8.609633445739746094e-01,8.609256148338317871e-01,8.608880043029785156e-01,8.608503341674804688e-01,8.608126640319824219e-01,8.607749938964843750e-01,8.607372641563415527e-01,8.606996536254882812e-01,8.606619834899902344e-01,8.606243729591369629e-01,8.605867624282836914e-01,8.605490326881408691e-01,8.605114221572875977e-01,8.604737520217895508e-01
8.212289810180664062e-01,8.211946487426757812e-01,8.211604356765747070e-01,8.211262226104736328e-01,8.210918903350830078e-01,8.210576176643371582e-01,8.210233449935913086e-01,8.209890723228454590e-01,8.209547996520996094e-01,8.209205865859985352e-01,8.208863735198974609e-01,8.208520412445068359e-01,8.208178281784057617e-01,8.207835555076599121e-01,8.207493424415588379e-01,8.207151293754577637e-01,8.206808567047119141e-01,8.206466436386108398e-01,8.206123709678649902e-01,8.205781579017639160e-01,8.205438852310180664e-01,8.205097317695617676e-01,8.204755187034606934e-01,8.204412460327148438e-01,8.204070925712585449e-01,8.203728199005126953e-01,8.203386068344116211e-01,8.203044533729553223e-01,8.202701807022094727e-01,8.202360272407531738e-01,8.202018141746520996e-01,8.201676607131958008e-01,8.201333880424499512e-01,8.200992345809936523e-01,8.200650811195373535e-01,8.200308680534362793e-01,8.199967145919799805e-01,8.199625015258789062e-01,8.199283480644226074e-01,8.198941946029663086e-01,8.198599815368652344e-01,8.198258280754089355e-01,8.197916150093078613e-01,8.197575211524963379e-01,8.197233676910400391e-01,8.196892142295837402e-01,8.196550607681274414e-01,8.196208477020263672e-01,8.195867538452148438e-01,8.195525407791137695e-01,8.195184469223022461e-01,8.194843530654907227e-01,8.194501996040344238e-01,8.194160461425781250e-01,8.193818926811218262e-01,8.193477988243103027e-01,8.193137049674987793e-01,8.192795515060424805e-01,8.192454576492309570e-01,8.192113041877746582e-01,8.191772103309631348e-01,8.191430568695068359e-01,8.191089630126953125e-01,8.190749287605285645e-01,8.190407752990722656e-01,8.190066814422607422e-01,8.189725279808044434e-01,8.189384937286376953e-01,8.189044594764709473e-01,8.188703060150146484e-01,8.188362717628479004e-01,8.188021183013916016e-01,8.187680840492248535e-01,8.187339305877685547e-01,8.186998963356018066e-01,8.186658620834350586e-01,8.186317682266235352e-01,8.185977339744567871e-01,8.185636401176452637e-01,8.185296058654785156e-01
7.829384207725524902e-01,7.829073071479797363e-01,7.828761339187622070e-01,7.828449606895446777e-01,7.828138470649719238e-01,7.827826738357543945e-01,7.827515602111816406e-01,7.827203273773193359e-01,7.826892137527465820e-01,7.826581597328186035e-01,7.826269268989562988e-01,7.825958728790283203e-01,7.825646996498107910e-01,7.825335860252380371e-01,7.825024724006652832e-01,7.824712991714477539e-01,7.824402451515197754e-01,7.824090719223022461e-01,7.823779582977294922e-01,7.823467850685119629e-01,7.823157310485839844e-01,7.822846770286560059e-01,7.822535037994384766e-01,7.822224497795104980e-01,7.821912765502929688e-01,7.821602225303649902e-01,7.821291685104370117e-01,7.820979952812194824e-01,7.820669412612915039e-01,7.820358276367187500e-01,7.820047736167907715e-01,7.819736003875732422e-01,7.819425463676452637e-01,7.819115519523620605e-01,7.818803787231445312e-01,7.818493843078613281e-01,7.818182706832885742e-01,7.817872166633605957e-01,7.817561626434326172e-01,7.817250490188598633e-01,7.816940546035766602e-01,7.816629409790039062e-01,7.816318869590759277e-01,7.816007733345031738e-01,7.815697789192199707e-01,7.815387845039367676e-01,7.815076708793640137e-01,7.814766764640808105e-01,7.814455628395080566e-01,7.814145684242248535e-01,7.813835740089416504e-01,7.813524603843688965e-01,7.813214659690856934e-01,7.812904119491577148e-01,7.812594175338745117e-01,7.812283039093017578e-01,7.811973094940185547e-01,7.811663150787353516e-01,7.811352610588073730e-01,7.811042666435241699e-01,7.810732722282409668e-01,7.810422778129577637e-01,7.810112833976745605e-01,7.809802293777465820e-01,7.809492349624633789e-01,7.809182405471801758e-01,7.808872461318969727e-01,7.808561921119689941e-01,7.808252573013305664e-01,7.807942628860473633e-01,7.807632684707641602e-01,7.807322740554809570e-01,7.807012796401977539e-01,7.806703448295593262e-01,7.806393504142761230e-01,7.806083559989929199e-01,7.805774211883544922e-01,7.805464267730712891e-01,7.805154323577880859e-01,7.804844379425048828e-01
7.480595111846923828e-01,7.480310797691345215e-01,7.480025887489318848e-01,7.479741573333740234e-01,7.479456663131713867e-01,7.479172945022583008e-01,7.478888034820556641e-01,7.478604316711425781e-01,7.478320002555847168e-01,7.478035688400268555e-01,7.477751374244689941e-01,7.477467060089111328e-01,7.477182745933532715e-01,7.476899027824401855e-01,7.476614713668823242e-01,7.476330399513244629e-01,7.476046085357666016e-01,7.475762367248535156e-01,7.475477457046508789e-01,7.475193738937377930e-01,7.474910020828247070e-01,7.474625706672668457e-01,7.474341988563537598e-01,7.474057674407958984e-01,7.473773956298828125e-01,7.473490238189697266e-01,7.473205924034118652e-01,7.472922801971435547e-01,7.472638487815856934e-01,7.472354769706726074e-01,7.472070455551147461e-01,7.471786737442016602e-01,7.471503615379333496e-01,7.471219301223754883e-01,7.470935583114624023e-01,7.470651865005493164e-01,7.470368146896362305e-01,7.470085024833679199e-01,7.469800710678100586e-01,7.469517588615417480e-01,7.469233274459838867e-01,7.468950152397155762e-01,7.468666434288024902e-01,7.468383312225341797e-01,7.468099594116210938e-01,7.467815876007080078e-01,7.467532753944396973e-01,7.467249035835266113e-01,7.466965913772583008e-01,7.466682791709899902e-01,7.466398477554321289e-01,7.466115951538085938e-01,7.465831637382507324e-01,7.465549111366271973e-01,7.465265393257141113e-01,7.464982271194458008e-01,7.464699149131774902e-01,7.464415431022644043e-01,7.464132905006408691e-01,7.463849186897277832e-01,7.463566064834594727e-01,7.463283538818359375e-01,7.462999820709228516e-01,7.462716698646545410e-01,7.462433576583862305e-01,7.462150454521179199e-01,7.461867332458496094e-01,7.461584210395812988e-01,7.461301684379577637e-01,7.461018562316894531e-01,7.460735440254211426e-01,7.460452318191528320e-01,7.460169792175292969e-01,7.459887266159057617e-01,7.459603548049926758e-01,7.459321022033691406e-01,7.459037899971008301e-01,7.458755373954772949e-01,7.458472251892089844e-01,7.458189725875854492e-01
