5.000000000000000000e+00,5.000000000000000000e+00,5.000000000000000000e+00,5.000000000000000000e+00,5.000000000000000000e+00,5.000000000000000000e+00,5.000000000000000000e+00,5.000000000000000000e+00,5.000000000000000000e+00,5.000000000000000000e+00,5.000000000000000000e+00,5.000000000000000000e+00,5.000000000000000000e+00,5.000000000000000000e+00,5.000000000000000000e+00,5.000000000000000000e+00,5.000000000000000000e+00,5.000000000000000000e+00,5.000000000000000000e+00,5.000000000000000000e+00,5.000000000000000000e+00,5.000000000000000000e+00,5.000000000000000000e+00,5.000000000000000000e+00,5.000000000000000000e+00,5.000000000000000000e+00,5.000000000000000000e+00,5.000000000000000000e+00,5.000000000000000000e+00,5.000000000000000000e+00,5.000000000000000000e+00,5.000000000000000000e+00,5.000000000000000000e+00,2.355352163314819336e+00,2.287582159042358398e+00,2.270613670349121094e+00,2.293324708938598633e+00,5.000000000000000000e+00,5.000000000000000000e+00,5.000000000000000000e+00,5.000000000000000000e+00,5.000000000000000000e+00,5.000000000000000000e+00,4.168655395507812500e+00,4.027550220489501953e+00,3.895685195922851562e+00,3.772180318832397461e+00,3.656266450881958008e+00,3.547264099121093750e+00,3.444572448730468750e+00,3.347659111022949219e+00,3.256050348281860352e+00,3.169321537017822266e+00,3.087092876434326172e+00,3.009023666381835938e+00,2.934805631637573242e+00,2.864160299301147461e+00,2.796836137771606445e+00,2.732604503631591797e+00,2.671256780624389648e+00,2.612603425979614258e+00,2.556469917297363281e+00,2.502698183059692383e+00,2.451141834259033203e+00,2.401666402816772461e+00,2.354149341583251953e+00,2.308475494384765625e+00,2.264540672302246094e+00,2.222246646881103516e+00,2.181503534317016602e+00,2.142227649688720703e+00,2.104340791702270508e+00,2.067770719528198242e+00,2.032450199127197266e+00,1.998316049575805664e+00,1.965309381484985352e+00,1.933375358581542969e+00,1.902462601661682129e+00,1.872522592544555664e+00,1.843510627746582031e+00
5.000000000000000000e+00,5.000000000000000000e+00,5.000000000000000000e+00,5.000000000000000000e+00,5.000000000000000000e+00,5.000000000000000000e+00,5.000000000000000000e+00,5.000000000000000000e+00,5.000000000000000000e+00,5.000000000000000000e+00,5.000000000000000000e+00,5.000000000000000000e+00,5.000000000000000000e+00,5.000000000000000000e+00,5.000000000000000000e+00,5.000000000000000000e+00,5.000000000000000000e+00,5.000000000000000000e+00,5.000000000000000000e+00,5.000000000000000000e+00,5.000000000000000000e+00,5.000000000000000000e+00,5.000000000000000000e+00,5.000000000000000000e+00,5.000000000000000000e+00,5.000000000000000000e+00,5.000000000000000000e+00,5.000000000000000000e+00,5.000000000000000000e+00,5.000000000000000000e+00,5.000000000000000000e+00,5.000000000000000000e+00,5.000000000000000000e+00,5.000000000000000000e+00,2.331235170364379883e+00,2.313472747802734375e+00,5.000000000000000000e+00,5.000000000000000000e+00,5.000000000000000000e+00,5.000000000000000000e+00,5.000000000000000000e+00,5.000000000000000000e+00,4.320116519927978516e+00,4.168757438659667969e+00,4.027645587921142578e+00,3.895774126052856445e+00,3.772264480590820312e+00,3.656345367431640625e+00,3.547338008880615234e+00,3.444642066955566406e+00,3.347725391387939453e+00,3.256112575531005859e+00,3.169380664825439453e+00,3.087149143218994141e+00,3.009077072143554688e+00,2.934856176376342773e+00,2.864208459854125977e+00,2.796882152557373047e+00,2.732648372650146484e+00,2.671298742294311523e+00,2.612643480300903320e+00,2.556508541107177734e+00,2.502734899520874023e+00,2.451177120208740234e+00,2.401700496673583984e+00,2.354181766510009766e+00,2.308506965637207031e+00,2.264570713043212891e+00,2.222275733947753906e+00,2.181531429290771484e+00,2.142254590988159180e+00,2.104366779327392578e+00,2.067795753479003906e+00,2.032474517822265625e+00,1.998339533805847168e+00,1.965332150459289551e+00,1.933397293090820312e+00,1.902483820915222168e+00,1.872543334960937500e+00,1.843530654907226562e+00
5.000000000000000000e+00,5.000000000000000000e+00,5.000000000000000000e+00,5.000000000000000000e+00,5.000000000000000000e+00,5.000000000000000000e+00,5.000000000000000000e+00,5.000000000000000000e+00,5.000000000000000000e+00,5.000000000000000000e+00,5.000000000000000000e+00,5.000000000000000000e+00,5.000000000000000000e+00,5.000000000000000000e+00,5.000000000000000000e+00,5.000000000000000000e+00,5.000000000000000000e+00,5.000000000000000000e+00,5.000000000000000000e+00,5.000000000000000000e+00,5.000000000000000000e+00,5.000000000000000000e+00,5.000000000000000000e+00,5.000000000000000000e+00,5.000000000000000000e+00,5.000000000000000000e+00,5.000000000000000000e+00,5.000000000000000000e+00,5.000000000000000000e+00,5.000000000000000000e+00,2.245671749114990234e+00,2.268982410430908203e+00,2.264430999755859375e+00,2.255878210067749023e+00,2.253077030181884766e+00,2.343976497650146484e+00,2.289388656616210938e+00,5.000000000000000000e+00,5.000000000000000000e+00,5.000000000000000000e+00,5.000000000000000000e+00,4.482998847961425781e+00,4.320226192474365234e+00,4.168859481811523438e+00,4.027740955352783203e+00,3.895863294601440430e+00,3.772347927093505859e+00,3.656423807144165039e+00,3.547412157058715820e+00,3.444711923599243164e+00,3.347791194915771484e+00,3.256175279617309570e+00,3.169439554214477539e+00,3.087205171585083008e+00,3.009130239486694336e+00,2.934906959533691406e+00,2.864256620407104492e+00,2.796928167343139648e+00,2.732692480087280273e+00,2.671340703964233398e+00,2.612683534622192383e+00,2.556546926498413086e+00,2.502771854400634766e+00,2.451212406158447266e+00,2.401734352111816406e+00,2.354214429855346680e+00,2.308538436889648438e+00,2.264600992202758789e+00,2.222304821014404297e+00,2.181559562683105469e+00,2.142281532287597656e+00,2.104392766952514648e+00,2.067821025848388672e+00,2.032498598098754883e+00,1.998362779617309570e+00,1.965354800224304199e+00,1.933419346809387207e+00,1.902505159378051758e+00,1.872563958168029785e+00,1.843550682067871094e+00
5.000000000000000000e+00,5.000000000000000000e+00,5.000000000000000000e+00,5.000000000000000000e+00,5.000000000000000000e+00,5.000000000000000000e+00,5.000000000000000000e+00,5.000000000000000000e+00,5.000000000000000000e+00,5.000000000000000000e+00,5.000000000000000000e+00,5.000000000000000000e+00,5.000000000000000000e+00,5.000000000000000000e+00,5.000000000000000000e+00,5.000000000000000000e+00,5.000000000000000000e+00,5.000000000000000000e+00,5.000000000000000000e+00,5.000000000000000000e+00,5.000000000000000000e+00,5.000000000000000000e+00,5.000000000000000000e+00,5.000000000000000000e+00,5.000000000000000000e+00,5.000000000000000000e+00,5.000000000000000000e+00,5.000000000000000000e+00,5.000000000000000000e+00,2.226576328277587891e+00,2.221995115280151367e+00,2.239551305770874023e+00,2.236474990844726562e+00,2.242187023162841797e+00,2.258129596710205078e+00,2.285547494888305664e+00,2.295305013656616211e+00,2.323757886886596680e+00,2.378490209579467773e+00,2.401242017745971680e+00,4.658644676208496094e+00,4.483116626739501953e+00,4.320335865020751953e+00,4.168962001800537109e+00,4.027836322784423828e+00,3.895952939987182617e+00,3.772431612014770508e+00,3.656502485275268555e+00,3.547486066818237305e+00,3.444781780242919922e+00,3.347856998443603516e+00,3.256237506866455078e+00,3.169498920440673828e+00,3.087261438369750977e+00,3.009183406829833984e+00,2.934957504272460938e+00,2.864305019378662109e+00,2.796974182128906250e+00,2.732736110687255859e+00,2.671382904052734375e+00,2.612723827362060547e+00,2.556585311889648438e+00,2.502808570861816406e+00,2.451247692108154297e+00,2.401768207550048828e+00,2.354247093200683594e+00,2.308569669723510742e+00,2.264631271362304688e+00,2.222333669662475586e+00,2.181587457656860352e+00,2.142308473587036133e+00,2.104418754577636719e+00,2.067846059799194336e+00,2.032522916793823242e+00,1.998386383056640625e+00,1.965377569198608398e+00,1.933441400527954102e+00,1.902526497840881348e+00,1.872584462165832520e+00,1.843570590019226074e+00
5.000000000000000000e+00,5.000000000000000000e+00,5.000000000000000000e+00,5.000000000000000000e+00,5.000000000000000000e+00,5.000000000000000000e+00,5.000000000000000000e+00,5.000000000000000000e+00,5.000000000000000000e+00,5.000000000000000000e+00,5.000000000000000000e+00,5.000000000000000000e+00,5.000000000000000000e+00,5.000000000000000000e+00,5.000000000000000000e+00,5.000000000000000000e+00,5.000000000000000000e+00,5.000000000000000000e+00,5.000000000000000000e+00,5.000000000000000000e+00,5.000000000000000000e+00,5.000000000000000000e+00,5.000000000000000000e+00,5.000000000000000000e+00,5.000000000000000000e+00,5.000000000000000000e+00,5.000000000000000000e+00,5.000000000000000000e+00,5.000000000000000000e+00,2.230556011199951172e+00,2.237334251403808594e+00,2.236274957656860352e+00,2.224216699600219727e+00,2.218164682388305664e+00,2.217017650604248047e+00,2.244786024093627930e+00,2.264099359512329102e+00,2.289353132247924805e+00,2.324555158615112305e+00,2.387741327285766602e+00,2.409246921539306641e+00,4.483235359191894531e+00,4.320445537567138672e+00,4.169064044952392578e+00,4.027931690216064453e+00,3.896042108535766602e+00,3.772515535354614258e+00,3.656581401824951172e+00,3.547559976577758789e+00,3.444851636886596680e+00,3.347923040390014648e+00,3.256299734115600586e+00,3.169557809829711914e+00,3.087317466735839844e+00,3.009236812591552734e+00,2.935008049011230469e+00,2.864353179931640625e+00,2.797020196914672852e+00,2.732779979705810547e+00,2.671424627304077148e+00,2.612763881683349609e+00,2.556623935699462891e+00,2.502845287322998047e+00,2.451282978057861328e+00,2.401802301406860352e+00,2.354279518127441406e+00,2.308600902557373047e+00,2.264661312103271484e+00,2.222362756729125977e+00,2.181615591049194336e+00,2.142335653305053711e+00,2.104444980621337891e+00,2.067871093750000000e+00,2.032547235488891602e+00,1.998409867286682129e+00,1.965400338172912598e+00,1.933463215827941895e+00,1.902547597885131836e+00,1.872605204582214355e+00,1.843590617179870605e+00
5.000000000000000000e+00,5.000000000000000000e+00,5.000000000000000000e+00,5.000000000000000000e+00,5.000000000000000000e+00,5.000000000000000000e+00,5.000000000000000000e+00,5.000000000000000000e+00,5.000000000000000000e+00,5.000000000000000000e+00,5.000000000000000000e+00,5.000000000000000000e+00,5.000000000000000000e+00,5.000000000000000000e+00,5.000000000000000000e+00,5.000000000000000000e+00,5.000000000000000000e+00,5.000000000000000000e+00,5.000000000000000000e+00,5.000000000000000000e+00,5.000000000000000000e+00,5.000000000000000000e+00,5.000000000000000000e+00,5.000000000000000000e+00,5.000000000000000000e+00,5.000000000000000000e+00,5.000000000000000000e+00,5.000000000000000000e+00,5.000000000000000000e+00,2.245054960250854492e+00,2.245356559753417969e+00,2.241980075836181641e+00,2.227988004684448242e+00,2.213860273361206055e+00,2.215785503387451172e+00,2.232061624526977539e+00,2.244557619094848633e+00,2.267587900161743164e+00,2.307627916336059570e+00,2.402119874954223633e+00,2.416157960891723633e+00,4.483353614807128906e+00,4.320555686950683594e+00,4.169166564941406250e+00,4.028027057647705078e+00,3.896131038665771484e+00,3.772598981857299805e+00,3.656659841537475586e+00,3.547634124755859375e+00,3.444921255111694336e+00,3.347988843917846680e+00,3.256362199783325195e+00,3.169616699218750000e+00,3.087373256683349609e+00,3.009289979934692383e+00,2.935058832168579102e+00,2.864401340484619141e+00,2.797066211700439453e+00,2.732824087142944336e+00,2.671466827392578125e+00,2.612803936004638672e+00,2.556662321090698242e+00,2.502882480621337891e+00,2.451318264007568359e+00,2.401836156845092773e+00,2.354312181472778320e+00,2.308632373809814453e+00,2.264691352844238281e+00,2.222391843795776367e+00,2.181643486022949219e+00,2.142362594604492188e+00,2.104470729827880859e+00,2.067896366119384766e+00,2.032571554183959961e+00,1.998433232307434082e+00,1.965422868728637695e+00,1.933485269546508789e+00,1.902569055557250977e+00,1.872625827789306641e+00,1.843610644340515137e+00
5.000000000000000000e+00,5.000000000000000000e+00,5.000000000000000000e+00,5.000000000000000000e+00,5.000000000000000000e+00,5.000000000000000000e+00,5.000000000000000000e+00,5.000000000000000000e+00,5.000000000000000000e+00,5.000000000000000000e+00,5.000000000000000000e+00,5.000000000000000000e+00,5.000000000000000000e+00,5.000000000000000000e+00,5.000000000000000000e+00,5.000000000000000000e+00,5.000000000000000000e+00,5.000000000000000000e+00,5.000000000000000000e+00,5.000000000000000000e+00,5.000000000000000000e+00,5.000000000000000000e+00,5.000000000000000000e+00,5.000000000000000000e+00,5.000000000000000000e+00,5.000000000000000000e+00,5.000000000000000000e+00,5.000000000000000000e+00,5.000000000000000000e+00,2.271718978881835938e+00,2.259229183197021484e+00,2.269357442855834961e+00,2.232362508773803711e+00,2.224481582641601562e+00,2.222463130950927734e+00,2.223727464675903320e+00,2.247781038284301758e+00,2.264462709426879883e+00,2.307847023010253906e+00,2.412277221679687500e+00,2.422723293304443359e+00,4.483471393585205078e+00,4.320665359497070312e+00,4.169268608093261719e+00,4.028122901916503906e+00,3.896220684051513672e+00,3.772683143615722656e+00,3.656738281250000000e+00,3.547708034515380859e+00,3.444991350173950195e+00,3.348054647445678711e+00,3.256424427032470703e+00,3.169676065444946289e+00,3.087429523468017578e+00,3.009343147277832031e+00,2.935109376907348633e+00,2.864449977874755859e+00,2.797112226486206055e+00,2.732867956161499023e+00,2.671508789062500000e+00,2.612844228744506836e+00,2.556700706481933594e+00,2.502919197082519531e+00,2.451353788375854492e+00,2.401870012283325195e+00,2.354344844818115234e+00,2.308663606643676758e+00,2.264721632003784180e+00,2.222420930862426758e+00,2.181671619415283203e+00,2.142389297485351562e+00,2.104496717453002930e+00,2.067921400070190430e+00,2.032595872879028320e+00,1.998456835746765137e+00,1.965445637702941895e+00,1.933507323265075684e+00,1.902590394020080566e+00,1.872646570205688477e+00,1.843630552291870117e+00
5.000000000000000000e+00,5.000000000000000000e+00,5.000000000000000000e+00,5.000000000000000000e+00,5.000000000000000000e+00,5.000000000000000000e+00,5.000000000000000000e+00,5.000000000000000000e+00,5.000000000000000000e+00,5.000000000000000000e+00,5.000000000000000000e+00,5.000000000000000000e+00,5.000000000000000000e+00,5.000000000000000000e+00,5.000000000000000000e+00,5.000000000000000000e+00,5.000000000000000000e+00,5.000000000000000000e+00,5.000000000000000000e+00,5.000000000000000000e+00,5.000000000000000000e+00,5.000000000000000000e+00,5.000000000000000000e+00,5.000000000000000000e+00,5.000000000000000000e+00,5.000000000000000000e+00,5.000000000000000000e+00,5.000000000000000000e+00,5.000000000000000000e+00,2.288373708724975586e+00,2.268529415130615234e+00,2.276329755783081055e+00,2.236006259918212891e+00,2.225353479385375977e+00,2.219575405120849609e+00,2.222583770751953125e+00,2.239997148513793945e+00,2.267885684967041016e+00,2.324716567993164062e+00,2.406622171401977539e+00,2.424201965332031250e+00,4.483589649200439453e+00,4.320774555206298828e+00,4.169370651245117188e+00,4.028217792510986328e+00,3.896309852600097656e+00,3.772766590118408203e+00,3.656817197799682617e+00,3.547781944274902344e+00,3.445060968399047852e+00,3.348120927810668945e+00,3.256486892700195312e+00,3.169734954833984375e+00,3.087485551834106445e+00,3.009396553039550781e+00,2.935160160064697266e+00,2.864498138427734375e+00,2.797158241271972656e+00,2.732911825180053711e+00,2.671550512313842773e+00,2.612884283065795898e+00,2.556739091873168945e+00,2.502955913543701172e+00,2.451389074325561523e+00,2.401904106140136719e+00,2.354377508163452148e+00,2.308694839477539062e+00,2.264751672744750977e+00,2.222450017929077148e+00,2.181699275970458984e+00,2.142416238784790039e+00,2.104522943496704102e+00,2.067946672439575195e+00,2.032619953155517578e+00,1.998480439186096191e+00,1.965468525886535645e+00,1.933529138565063477e+00,1.902611494064331055e+00,1.872667074203491211e+00,1.843650579452514648e+00
5.000000000000000000e+00,5.000000000000000000e+00,5.000000000000000000e+00,5.000000000000000000e+00,5.000000000000000000e+00,5.000000000000000000e+00,5.000000000000000000e+00,5.000000000000000000e+00,5.000000000000000000e+00,5.000000000000000000e+00,5.000000000000000000e+00,5.000000000000000000e+00,5.000000000000000000e+00,5.000000000000000000e+00,5.000000000000000000e+00,5.000000000000000000e+00,5.000000000000000000e+00,5.000000000000000000e+00,5.000000000000000000e+00,5.000000000000000000e+00,5.000000000000000000e+00,5.000000000000000000e+00,5.000000000000000000e+00,5.000000000000000000e+00,5.000000000000000000e+00,5.000000000000000000e+00,5.000000000000000000e+00,5.000000000000000000e+00,5.000000000000000000e+00,2.297064304351806641e+00,2.275951623916625977e+00,2.276128768920898438e+00,2.244662284851074219e+00,2.223449707031250000e+00,2.217405557632446289e+00,2.222933053970336914e+00,2.238774538040161133e+00,2.266653776168823242e+00,2.329734325408935547e+00,2.405522823333740234e+00,2.425109148025512695e+00,4.483707904815673828e+00,4.320884704589843750e+00,4.169473171234130859e+00,4.028313636779785156e+00,3.896399021148681641e+00,3.772850275039672852e+00,3.656895637512207031e+00,3.547856330871582031e+00,3.445130586624145508e+00,3.348186731338500977e+00,3.256549358367919922e+00,3.169794321060180664e+00,3.087541580200195312e+00,3.009449720382690430e+00,2.935210943222045898e+00,2.864546298980712891e+00,2.797204256057739258e+00,2.732955932617187500e+00,2.671592712402343750e+00,2.612924337387084961e+00,2.556777477264404297e+00,2.502992868423461914e+00,2.451424360275268555e+00,2.401937961578369141e+00,2.354410171508789062e+00,2.308726310729980469e+00,2.264781951904296875e+00,2.222478866577148438e+00,2.181727409362792969e+00,2.142443180084228516e+00,2.104548931121826172e+00,2.067971706390380859e+00,2.032644510269165039e+00,1.998503684997558594e+00,1.965491056442260742e+00,1.933551192283630371e+00,1.902632832527160645e+00,1.872687697410583496e+00,1.843670606613159180e+00
5.000000000000000000e+00,5.000000000000000000e+00,5.000000000000000000e+00,5.000000000000000000e+00,5.000000000000000000e+00,5.000000000000000000e+00,5.000000000000000000e+00,5.000000000000000000e+00,5.000000000000000000e+00,5.000000000000000000e+00,5.000000000000000000e+00,5.000000000000000000e+00,5.000000000000000000e+00,5.000000000000000000e+00,5.000000000000000000e+00,5.000000000000000000e+00,5.000000000000000000e+00,5.000000000000000000e+00,5.000000000000000000e+00,5.000000000000000000e+00,5.000000000000000000e+00,5.000000000000000000e+00,5.000000000000000000e+00,5.000000000000000000e+00,5.000000000000000000e+00,5.000000000000000000e+00,5.000000000000000000e+00,5.000000000000000000e+00,5.000000000000000000e+00,5.000000000000000000e+00,2.279081106185913086e+00,2.278889656066894531e+00,2.249967813491821289e+00,2.219626903533935547e+00,2.214828014373779297e+00,2.225313425064086914e+00,2.240994930267333984e+00,2.268816471099853516e+00,2.321784257888793945e+00,2.410012245178222656e+00,2.423965930938720703e+00,4.483826160430908203e+00,4.320994377136230469e+00,4.169575214385986328e+00,4.028409004211425781e+00,3.896488666534423828e+00,3.772934198379516602e+00,3.656974315643310547e+00,3.547930240631103516e+00,3.445200681686401367e+00,3.348252534866333008e+00,3.256611585617065430e+00,3.169853448867797852e+00,3.087597846984863281e+00,3.009502887725830078e+00,2.935261487960815430e+00,2.864594697952270508e+00,2.797250270843505859e+00,2.732999801635742188e+00,2.671634674072265625e+00,2.612964630126953125e+00,2.556815862655639648e+00,2.503029584884643555e+00,2.451459884643554688e+00,2.401971817016601562e+00,2.354442596435546875e+00,2.308757781982421875e+00,2.264811992645263672e+00,2.222507715225219727e+00,2.181755304336547852e+00,2.142470359802246094e+00,2.104575157165527344e+00,2.067996740341186523e+00,2.032668590545654297e+00,1.998527288436889648e+00,1.965513825416564941e+00,1.933573246002197266e+00,1.902654290199279785e+00,1.872708439826965332e+00,1.843690514564514160e+00
5.000000000000000000e+00,5.000000000000000000e+00,5.000000000000000000e+00,5.000000000000000000e+00,5.000000000000000000e+00,5.000000000000000000e+00,5.000000000000000000e+00,5.000000000000000000e+00,5.000000000000000000e+00,5.000000000000000000e+00,5.000000000000000000e+00,5.000000000000000000e+00,5.000000000000000000e+00,5.000000000000000000e+00,5.000000000000000000e+00,5.000000000000000000e+00,5.000000000000000000e+00,5.000000000000000000e+00,5.000000000000000000e+00,5.000000000000000000e+00,5.000000000000000000e+00,5.000000000000000000e+00,5.000000000000000000e+00,5.000000000000000000e+00,5.000000000000000000e+00,5.000000000000000000e+00,5.000000000000000000e+00,5.000000000000000000e+00,5.000000000000000000e+00,5.000000000000000000e+00,2.288216114044189453e+00,2.292330265045166016e+00,2.232876062393188477e+00,2.209845066070556641e+00,2.204633712768554688e+00,2.214781045913696289e+00,2.244948148727416992e+00,2.264801740646362305e+00,2.381416797637939453e+00,2.423382997512817383e+00,2.427430629730224609e+00,4.483944416046142578e+00,4.321104526519775391e+00,4.169677734375000000e+00,4.028504371643066406e+00,3.896577596664428711e+00,3.773017644882202148e+00,3.657053232192993164e+00,3.548004150390625000e+00,3.445270299911499023e+00,3.348318576812744141e+00,3.256673812866210938e+00,3.169912338256835938e+00,3.087653636932373047e+00,3.009556531906127930e+00,2.935312032699584961e+00,2.864642858505249023e+00,2.797296285629272461e+00,2.733043909072875977e+00,2.671676635742187500e+00,2.613004684448242188e+00,2.556854486465454102e+00,2.503066539764404297e+00,2.451495170593261719e+00,2.402005910873413086e+00,2.354475259780883789e+00,2.308788776397705078e+00,2.264842033386230469e+00,2.222536802291870117e+00,2.181783199310302734e+00,2.142497301101684570e+00,2.104601144790649414e+00,2.068022012710571289e+00,2.032692909240722656e+00,1.998550891876220703e+00,1.965536594390869141e+00,1.933595061302185059e+00,1.902675390243530273e+00,1.872728943824768066e+00,1.843710541725158691e+00
5.000000000000000000e+00,5.000000000000000000e+00,5.000000000000000000e+00,5.000000000000000000e+00,5.000000000000000000e+00,5.000000000000000000e+00,5.000000000000000000e+00,5.000000000000000000e+00,5.000000000000000000e+00,5.000000000000000000e+00,5.000000000000000000e+00,5.000000000000000000e+00,5.000000000000000000e+00,5.000000000000000000e+00,5.000000000000000000e+00,5.000000000000000000e+00,5.000000000000000000e+00,5.000000000000000000e+00,5.000000000000000000e+00,5.000000000000000000e+00,5.000000000000000000e+00,5.000000000000000000e+00,5.000000000000000000e+00,5.000000000000000000e+00,5.000000000000000000e+00,5.000000000000000000e+00,5.000000000000000000e+00,5.000000000000000000e+00,5.000000000000000000e+00,5.000000000000000000e+00,2.297665119171142578e+00,2.269603967666625977e+00,2.231495857238769531e+00,2.206445217132568359e+00,2.201429843902587891e+00,2.211161851882934570e+00,2.233806371688842773e+00,2.256701231002807617e+00,2.310703277587890625e+00,2.436012268066406250e+00,2.437651395797729492e+00,4.484062671661376953e+00,4.321214199066162109e+00,4.169779777526855469e+00,4.028599739074707031e+00,3.896667242050170898e+00,3.773101329803466797e+00,3.657131671905517578e+00,3.548078298568725586e+00,3.445339918136596680e+00,3.348384380340576172e+00,3.256736516952514648e+00,3.169971704483032227e+00,3.087709665298461914e+00,3.009609699249267578e+00,2.935362815856933594e+00,2.864691019058227539e+00,2.797342300415039062e+00,2.733087778091430664e+00,2.671718597412109375e+00,2.613044738769531250e+00,2.556892871856689453e+00,2.503103494644165039e+00,2.451530456542968750e+00,2.402039766311645508e+00,2.354507684707641602e+00,2.308820247650146484e+00,2.264872074127197266e+00,2.222565889358520508e+00,2.181811332702636719e+00,2.142524242401123047e+00,2.104627132415771484e+00,2.068047046661376953e+00,2.032717227935791016e+00,1.998574137687683105e+00,1.965559244155883789e+00,1.933617234230041504e+00,1.902696728706359863e+00,1.872749567031860352e+00,1.843730568885803223e+00
5.000000000000000000e+00,5.000000000000000000e+00,5.000000000000000000e+00,5.000000000000000000e+00,5.000000000000000000e+00,5.000000000000000000e+00,5.000000000000000000e+00,5.000000000000000000e+00,5.000000000000000000e+00,5.000000000000000000e+00,5.000000000000000000e+00,5.000000000000000000e+00,5.000000000000000000e+00,5.000000000000000000e+00,5.000000000000000000e+00,5.000000000000000000e+00,5.000000000000000000e+00,5.000000000000000000e+00,5.000000000000000000e+00,5.000000000000000000e+00,5.000000000000000000e+00,5.000000000000000000e+00,5.000000000000000000e+00,5.000000000000000000e+00,5.000000000000000000e+00,5.000000000000000000e+00,5.000000000000000000e+00,5.000000000000000000e+00,5.000000000000000000e+00,5.000000000000000000e+00,2.304675817489624023e+00,2.266621589660644531e+00,2.231826543807983398e+00,2.218251466751098633e+00,2.214107036590576172e+00,2.223019361495971680e+00,2.235364913940429688e+00,2.268953800201416016e+00,2.329067707061767578e+00,2.432765722274780273e+00,2.416982412338256836e+00,4.484180927276611328e+00,4.321323871612548828e+00,4.169881820678710938e+00,4.028695106506347656e+00,3.896756410598754883e+00,3.773185253143310547e+00,3.657210350036621094e+00,3.548152208328247070e+00,3.445410013198852539e+00,3.348450183868408203e+00,3.256798744201660156e+00,3.170030593872070312e+00,3.087765932083129883e+00,3.009662866592407227e+00,2.935413599014282227e+00,2.864739418029785156e+00,2.797388315200805664e+00,2.733131647109985352e+00,2.671760559082031250e+00,2.613085031509399414e+00,2.556931257247924805e+00,2.503140211105346680e+00,2.451565742492675781e+00,2.402073621749877930e+00,2.354540109634399414e+00,2.308851480484008789e+00,2.264902353286743164e+00,2.222594976425170898e+00,2.181839227676391602e+00,2.142551183700561523e+00,2.104653120040893555e+00,2.068072319030761719e+00,2.032741546630859375e+00,1.998597741127014160e+00,1.965582013130187988e+00,1.933639287948608398e+00,1.902718067169189453e+00,1.872770309448242188e+00,1.843750476837158203e+00
5.000000000000000000e+00,5.000000000000000000e+00,5.000000000000000000e+00,5.000000000000000000e+00,5.000000000000000000e+00,5.000000000000000000e+00,5.000000000000000000e+00,5.000000000000000000e+00,5.000000000000000000e+00,5.000000000000000000e+00,5.000000000000000000e+00,5.000000000000000000e+00,5.000000000000000000e+00,5.000000000000000000e+00,5.000000000000000000e+00,5.000000000000000000e+00,5.000000000000000000e+00,5.000000000000000000e+00,5.000000000000000000e+00,5.000000000000000000e+00,5.000000000000000000e+00,5.000000000000000000e+00,5.000000000000000000e+00,5.000000000000000000e+00,5.000000000000000000e+00,5.000000000000000000e+00,5.000000000000000000e+00,5.000000000000000000e+00,5.000000000000000000e+00,5.000000000000000000e+00,2.293471574783325195e+00,2.282004117965698242e+00,2.221365928649902344e+00,2.216261863708496094e+00,2.218650102615356445e+00,2.229728698730468750e+00,2.236696004867553711e+00,2.273534774780273438e+00,2.328518152236938477e+00,2.430438041687011719e+00,2.400289535522460938e+00,2.404850244522094727e+00,4.321434020996093750e+00,4.169984340667724609e+00,4.028790473937988281e+00,3.896845579147338867e+00,3.773268938064575195e+00,3.657289266586303711e+00,3.548226118087768555e+00,3.445479869842529297e+00,3.348516464233398438e+00,3.256861448287963867e+00,3.170089721679687500e+00,3.087821960449218750e+00,3.009716272354125977e+00,2.935464143753051758e+00,2.864787578582763672e+00,2.797434329986572266e+00,2.733175516128540039e+00,2.671802520751953125e+00,2.613125324249267578e+00,2.556969881057739258e+00,2.503176927566528320e+00,2.451600790023803711e+00,2.402107477188110352e+00,2.354572772979736328e+00,2.308882713317871094e+00,2.264932632446289062e+00,2.222624063491821289e+00,2.181867122650146484e+00,2.142578125000000000e+00,2.104679107666015625e+00,2.068097591400146484e+00,2.032765865325927734e+00,1.998621344566345215e+00,1.965604782104492188e+00,1.933661103248596191e+00,1.902739286422729492e+00,1.872790813446044922e+00,1.843770503997802734e+00
5.000000000000000000e+00,5.000000000000000000e+00,5.000000000000000000e+00,5.000000000000000000e+00,5.000000000000000000e+00,5.000000000000000000e+00,5.000000000000000000e+00,5.000000000000000000e+00,5.000000000000000000e+00,5.000000000000000000e+00,5.000000000000000000e+00,5.000000000000000000e+00,5.000000000000000000e+00,5.000000000000000000e+00,5.000000000000000000e+00,5.000000000000000000e+00,5.000000000000000000e+00,5.000000000000000000e+00,5.000000000000000000e+00,5.000000000000000000e+00,5.000000000000000000e+00,5.000000000000000000e+00,5.000000000000000000e+00,5.000000000000000000e+00,5.000000000000000000e+00,5.000000000000000000e+00,5.000000000000000000e+00,5.000000000000000000e+00,5.000000000000000000e+00,5.000000000000000000e+00,2.287054538726806641e+00,2.269649028778076172e+00,2.205979824066162109e+00,2.191886663436889648e+00,2.199067115783691406e+00,2.251493930816650391e+00,2.266410350799560547e+00,2.285906076431274414e+00,2.328323602676391602e+00,4.849998474121093750e+00,2.396014928817749023e+00,2.375949382781982422e+00,4.321543693542480469e+00,4.170086860656738281e+00,4.028886318206787109e+00,3.896935224533081055e+00,3.773352622985839844e+00,3.657367706298828125e+00,3.548300504684448242e+00,3.445549488067626953e+00,3.348582267761230469e+00,3.256923675537109375e+00,3.170148849487304688e+00,3.087877988815307617e+00,3.009769439697265625e+00,2.935514926910400391e+00,2.864835739135742188e+00,2.797480344772338867e+00,2.733219385147094727e+00,2.671844482421875000e+00,2.613165378570556641e+00,2.557008266448974609e+00,2.503213644027709961e+00,2.451636075973510742e+00,2.402141332626342773e+00,2.354605436325073242e+00,2.308914184570312500e+00,2.264962673187255859e+00,2.222653150558471680e+00,2.181895256042480469e+00,2.142605304718017578e+00,2.104705095291137695e+00,2.068122625350952148e+00,2.032790184020996094e+00,1.998644590377807617e+00,1.965627431869506836e+00,1.933683156967163086e+00,1.902760624885559082e+00,1.872811436653137207e+00,1.843790531158447266e+00
5.000000000000000000e+00,5.000000000000000000e+00,5.000000000000000000e+00,5.000000000000000000e+00,5.000000000000000000e+00,5.000000000000000000e+00,5.000000000000000000e+00,5.000000000000000000e+00,5.000000000000000000e+00,5.000000000000000000e+00,5.000000000000000000e+00,5.000000000000000000e+00,5.000000000000000000e+00,5.000000000000000000e+00,5.000000000000000000e+00,5.000000000000000000e+00,5.000000000000000000e+00,5.000000000000000000e+00,5.000000000000000000e+00,5.000000000000000000e+00,5.000000000000000000e+00,5.000000000000000000e+00,5.000000000000000000e+00,5.000000000000000000e+00,5.000000000000000000e+00,5.000000000000000000e+00,5.000000000000000000e+00,5.000000000000000000e+00,5.000000000000000000e+00,5.000000000000000000e+00,2.281090021133422852e+00,2.269349336624145508e+00,2.189766168594360352e+00,2.169117450714111328e+00,2.168655872344970703e+00,2.199901819229125977e+00,2.291871309280395508e+00,2.297223567962646484e+00,2.325152635574340820e+00,4.850136756896972656e+00,2.414086580276489258e+00,2.364117622375488281e+00,2.391277551651000977e+00,4.170188903808593750e+00,4.028981685638427734e+00,3.897024393081665039e+00,3.773436546325683594e+00,3.657446384429931641e+00,3.548374414443969727e+00,3.445619583129882812e+00,3.348648071289062500e+00,3.256985902786254883e+00,3.170207977294921875e+00,3.087934255599975586e+00,3.009822607040405273e+00,2.935565471649169922e+00,2.864884138107299805e+00,2.797526597976684570e+00,2.733263254165649414e+00,2.671886444091796875e+00,2.613205671310424805e+00,2.557046651840209961e+00,2.503250598907470703e+00,2.451671600341796875e+00,2.402175426483154297e+00,2.354638099670410156e+00,2.308945655822753906e+00,2.264992952346801758e+00,2.222681999206542969e+00,2.181923151016235352e+00,2.142632246017456055e+00,2.104731321334838867e+00,2.068147659301757812e+00,2.032814502716064453e+00,1.998668193817138672e+00,1.965650200843811035e+00,1.933705210685729980e+00,1.902781963348388672e+00,1.872832179069519043e+00,1.843810439109802246e+00
5.000000000000000000e+00,5.000000000000000000e+00,5.000000000000000000e+00,5.000000000000000000e+00,5.000000000000000000e+00,5.000000000000000000e+00,5.000000000000000000e+00,5.000000000000000000e+00,5.000000000000000000e+00,5.000000000000000000e+00,5.000000000000000000e+00,5.000000000000000000e+00,5.000000000000000000e+00,5.000000000000000000e+00,5.000000000000000000e+00,5.000000000000000000e+00,5.000000000000000000e+00,5.000000000000000000e+00,5.000000000000000000e+00,5.000000000000000000e+00,5.000000000000000000e+00,5.000000000000000000e+00,5.000000000000000000e+00,5.000000000000000000e+00,5.000000000000000000e+00,5.000000000000000000e+00,5.000000000000000000e+00,5.000000000000000000e+00,5.000000000000000000e+00,5.000000000000000000e+00,2.270046949386596680e+00,2.278010845184326172e+00,2.178606510162353516e+00,2.158212423324584961e+00,2.157536029815673828e+00,2.169039487838745117e+00,2.291127443313598633e+00,2.293186426162719727e+00,2.319416522979736328e+00,4.850275039672851562e+00,4.660304546356201172e+00,4.484653949737548828e+00,2.347798585891723633e+00,4.170291423797607422e+00,4.029077053070068359e+00,3.897113561630249023e+00,3.773520231246948242e+00,3.657525300979614258e+00,3.548448324203491211e+00,3.445689201354980469e+00,3.348714351654052734e+00,3.257048606872558594e+00,3.170266866683959961e+00,3.087990283966064453e+00,3.009876012802124023e+00,2.935616016387939453e+00,2.864932298660278320e+00,2.797572374343872070e+00,2.733307361602783203e+00,2.671928405761718750e+00,2.613245487213134766e+00,2.557085037231445312e+00,2.503287315368652344e+00,2.451706886291503906e+00,2.402209281921386719e+00,2.354670763015747070e+00,2.308976888656616211e+00,2.265022993087768555e+00,2.222711324691772461e+00,2.181951284408569336e+00,2.142659187316894531e+00,2.104757308959960938e+00,2.068172931671142578e+00,2.032838821411132812e+00,1.998691797256469727e+00,1.965672969818115234e+00,1.933727264404296875e+00,1.902803182601928711e+00,1.872852683067321777e+00,1.843830466270446777e+00
5.000000000000000000e+00,5.000000000000000000e+00,5.000000000000000000e+00,5.000000000000000000e+00,5.000000000000000000e+00,5.000000000000000000e+00,5.000000000000000000e+00,5.000000000000000000e+00,5.000000000000000000e+00,5.000000000000000000e+00,5.000000000000000000e+00,5.000000000000000000e+00,5.000000000000000000e+00,5.000000000000000000e+00,5.000000000000000000e+00,5.000000000000000000e+00,5.000000000000000000e+00,5.000000000000000000e+00,5.000000000000000000e+00,5.000000000000000000e+00,5.000000000000000000e+00,5.000000000000000000e+00,5.000000000000000000e+00,5.000000000000000000e+00,5.000000000000000000e+00,5.000000000000000000e+00,5.000000000000000000e+00,5.000000000000000000e+00,5.000000000000000000e+00,5.000000000000000000e+00,2.276963472366333008e+00,5.000000000000000000e+00,2.184475421905517578e+00,2.150725364685058594e+00,2.149359464645385742e+00,2.153808832168579102e+00,2.287956237792968750e+00,2.288066625595092773e+00,2.312364339828491211e+00,4.850413322448730469e+00,4.660431861877441406e+00,4.484772205352783203e+00,2.323496103286743164e+00,4.170393466949462891e+00,4.029172420501708984e+00,3.897203207015991211e+00,3.773603677749633789e+00,3.657603740692138672e+00,3.548522710800170898e+00,3.445758819580078125e+00,3.348780155181884766e+00,3.257110834121704102e+00,3.170326232910156250e+00,3.088046073913574219e+00,3.009929180145263672e+00,2.935667037963867188e+00,2.864980697631835938e+00,2.797618389129638672e+00,2.733351230621337891e+00,2.671970605850219727e+00,2.613285541534423828e+00,2.557123422622680664e+00,2.503324270248413086e+00,2.451742410659790039e+00,2.402243137359619141e+00,2.354703187942504883e+00,2.309008359909057617e+00,2.265053272247314453e+00,2.222740173339843750e+00,2.181979179382324219e+00,2.142686367034912109e+00,2.104783296585083008e+00,2.068197965621948242e+00,2.032863140106201172e+00,1.998715162277221680e+00,1.965695500373840332e+00,1.933749079704284668e+00,1.902824521064758301e+00,1.872873425483703613e+00,1.843850612640380859e+00
5.000000000000000000e+00,5.000000000000000000e+00,5.000000000000000000e+00,5.000000000000000000e+00,5.000000000000000000e+00,5.000000000000000000e+00,5.000000000000000000e+00,5.000000000000000000e+00,5.000000000000000000e+00,5.000000000000000000e+00,5.000000000000000000e+00,5.000000000000000000e+00,5.000000000000000000e+00,5.000000000000000000e+00,5.000000000000000000e+00,5.000000000000000000e+00,5.000000000000000000e+00,5.000000000000000000e+00,5.000000000000000000e+00,5.000000000000000000e+00,5.000000000000000000e+00,5.000000000000000000e+00,5.000000000000000000e+00,5.000000000000000000e+00,5.000000000000000000e+00,5.000000000000000000e+00,5.000000000000000000e+00,5.000000000000000000e+00,5.000000000000000000e+00,5.000000000000000000e+00,2.267146587371826172e+00,5.000000000000000000e+00,2.195764780044555664e+00,2.144349575042724609e+00,2.141860008239746094e+00,2.140578746795654297e+00,2.191955804824829102e+00,2.290181875228881836e+00,2.317087650299072266e+00,4.850552082061767578e+00,4.660559654235839844e+00,4.484890937805175781e+00,4.321982860565185547e+00,2.290782213211059570e+00,4.029268264770507812e+00,3.897292375564575195e+00,3.773687839508056641e+00,3.657682180404663086e+00,3.548596620559692383e+00,3.445828914642333984e+00,3.348846197128295898e+00,3.257173061370849609e+00,3.170385360717773438e+00,3.088102340698242188e+00,3.009982347488403320e+00,2.935717582702636719e+00,2.865029096603393555e+00,2.797664642333984375e+00,2.733394861221313477e+00,2.672012329101562500e+00,2.613325834274291992e+00,2.557161808013916016e+00,2.503360986709594727e+00,2.451777696609497070e+00,2.402277231216430664e+00,2.354735851287841797e+00,2.309039592742919922e+00,2.265083551406860352e+00,2.222769260406494141e+00,2.182007312774658203e+00,2.142713308334350586e+00,2.104809522628784180e+00,2.068223237991333008e+00,2.032887458801269531e+00,1.998738646507263184e+00,1.965718388557434082e+00,1.933771133422851562e+00,1.902845859527587891e+00,1.872894048690795898e+00,1.843870401382446289e+00
5.000000000000000000e+00,5.000000000000000000e+00,5.000000000000000000e+00,5.000000000000000000e+00,5.000000000000000000e+00,5.000000000000000000e+00,5.000000000000000000e+00,5.000000000000000000e+00,5.000000000000000000e+00,5.000000000000000000e+00,5.000000000000000000e+00,5.000000000000000000e+00,5.000000000000000000e+00,5.000000000000000000e+00,5.000000000000000000e+00,5.000000000000000000e+00,5.000000000000000000e+00,5.000000000000000000e+00,5.000000000000000000e+00,5.000000000000000000e+00,5.000000000000000000e+00,5.000000000000000000e+00,5.000000000000000000e+00,5.000000000000000000e+00,5.000000000000000000e+00,5.000000000000000000e+00,5.000000000000000000e+00,5.000000000000000000e+00,5.000000000000000000e+00,5.000000000000000000e+00,2.247572422027587891e+00,2.251287221908569336e+00,2.221668481826782227e+00,2.151471614837646484e+00,2.135192155838012695e+00,2.132312774658203125e+00,2.173890352249145508e+00,2.296827077865600586e+00,2.327017784118652344e+00,4.850689888000488281e+00,4.660687446594238281e+00,4.485008716583251953e+00,4.322093009948730469e+00,2.343991994857788086e+00,4.029363632202148438e+00,3.897381544113159180e+00,3.773771286010742188e+00,3.657761335372924805e+00,3.548670530319213867e+00,3.445898771286010742e+00,3.348912000656127930e+00,3.257235765457153320e+00,3.170444250106811523e+00,3.088158369064331055e+00,3.010035991668701172e+00,2.935768127441406250e+00,2.865077257156372070e+00,2.797710657119750977e+00,2.733438968658447266e+00,2.672054052352905273e+00,2.613365888595581055e+00,2.557200431823730469e+00,2.503397941589355469e+00,2.451812982559204102e+00,2.402311086654663086e+00,2.354768514633178711e+00,2.309070825576782227e+00,2.265113592147827148e+00,2.222798347473144531e+00,2.182035207748413086e+00,2.142740249633789062e+00,2.104835510253906250e+00,2.068248510360717773e+00,2.032911777496337891e+00,1.998762249946594238e+00,1.965741157531738281e+00,1.933793187141418457e+00,1.902866959571838379e+00,1.872914552688598633e+00,1.843890428543090820e+00
5.000000000000000000e+00,5.000000000000000000e+00,5.000000000000000000e+00,5.000000000000000000e+00,5.000000000000000000e+00,5.000000000000000000e+00,5.000000000000000000e+00,5.000000000000000000e+00,5.000000000000000000e+00,5.000000000000000000e+00,5.000000000000000000e+00,5.000000000000000000e+00,5.000000000000000000e+00,5.000000000000000000e+00,5.000000000000000000e+00,5.000000000000000000e+00,5.000000000000000000e+00,5.000000000000000000e+00,5.000000000000000000e+00,5.000000000000000000e+00,5.000000000000000000e+00,5.000000000000000000e+00,5.000000000000000000e+00,5.000000000000000000e+00,5.000000000000000000e+00,5.000000000000000000e+00,5.000000000000000000e+00,5.000000000000000000e+00,5.000000000000000000e+00,5.000000000000000000e+00,2.237417221069335938e+00,2.244567632675170898e+00,5.000000000000000000e+00,2.162878513336181641e+00,2.124296903610229492e+00,2.121377706527709961e+00,2.156442403793334961e+00,2.304078340530395508e+00,2.337914943695068359e+00,4.850828647613525391e+00,4.660815715789794922e+00,4.485127449035644531e+00,4.322202682495117188e+00,4.170700550079345703e+00,4.029458999633789062e+00,3.897471189498901367e+00,3.773854970932006836e+00,3.657839775085449219e+00,3.548744916915893555e+00,3.445968389511108398e+00,3.348978042602539062e+00,3.257297992706298828e+00,3.170503616333007812e+00,3.088214397430419922e+00,3.010089159011840820e+00,2.935818910598754883e+00,2.865125656127929688e+00,2.797756195068359375e+00,2.733482837677001953e+00,2.672096252441406250e+00,2.613405942916870117e+00,2.557238817214965820e+00,2.503434896469116211e+00,2.451848506927490234e+00,2.402344942092895508e+00,2.354801177978515625e+00,2.309102296829223633e+00,2.265143632888793945e+00,2.222827434539794922e+00,2.182063341140747070e+00,2.142767429351806641e+00,2.104861497879028320e+00,2.068273544311523438e+00,2.032936096191406250e+00,1.998785614967346191e+00,1.965763688087463379e+00,1.933815121650695801e+00,1.902888417243957520e+00,1.872935295104980469e+00,1.843910574913024902e+00
5.000000000000000000e+00,5.000000000000000000e+00,5.000000000000000000e+00,5.000000000000000000e+00,5.000000000000000000e+00,5.000000000000000000e+00,5.000000000000000000e+00,5.000000000000000000e+00,5.000000000000000000e+00,5.000000000000000000e+00,5.000000000000000000e+00,5.000000000000000000e+00,5.000000000000000000e+00,5.000000000000000000e+00,5.000000000000000000e+00,5.000000000000000000e+00,5.000000000000000000e+00,5.000000000000000000e+00,5.000000000000000000e+00,5.000000000000000000e+00,5.000000000000000000e+00,5.000000000000000000e+00,5.000000000000000000e+00,5.000000000000000000e+00,5.000000000000000000e+00,5.000000000000000000e+00,5.000000000000000000e+00,5.000000000000000000e+00,5.000000000000000000e+00,5.000000000000000000e+00,2.225410938262939453e+00,5.000000000000000000e+00,5.000000000000000000e+00,2.178735017776489258e+00,2.121003150939941406e+00,2.110554218292236328e+00,2.137526512145996094e+00,2.310361623764038086e+00,2.352390527725219727e+00,4.850966930389404297e+00,4.660943031311035156e+00,4.485245704650878906e+00,4.322312831878662109e+00,4.170802593231201172e+00,4.029554367065429688e+00,3.897560358047485352e+00,3.773939132690429688e+00,3.657918453216552734e+00,3.548818826675415039e+00,3.446038484573364258e+00,3.349044084548950195e+00,3.257360219955444336e+00,3.170562505722045898e+00,3.088270664215087891e+00,3.010142326354980469e+00,2.935869693756103516e+00,2.865173578262329102e+00,2.797802448272705078e+00,2.733526706695556641e+00,2.672138214111328125e+00,2.613446235656738281e+00,2.557277202606201172e+00,2.503471612930297852e+00,2.451883792877197266e+00,2.402379035949707031e+00,2.354833602905273438e+00,2.309133768081665039e+00,2.265173912048339844e+00,2.222856521606445312e+00,2.182091236114501953e+00,2.142794370651245117e+00,2.104887723922729492e+00,2.068298578262329102e+00,2.032960414886474609e+00,1.998809218406677246e+00,1.965786576271057129e+00,1.933837175369262695e+00,1.902909755706787109e+00,1.872955918312072754e+00,1.843930363655090332e+00
5.000000000000000000e+00,5.000000000000000000e+00,5.000000000000000000e+00,5.000000000000000000e+00,5.000000000000000000e+00,5.000000000000000000e+00,5.000000000000000000e+00,5.000000000000000000e+00,5.000000000000000000e+00,5.000000000000000000e+00,5.000000000000000000e+00,5.000000000000000000e+00,5.000000000000000000e+00,5.000000000000000000e+00,5.000000000000000000e+00,5.000000000000000000e+00,5.000000000000000000e+00,5.000000000000000000e+00,5.000000000000000000e+00,5.000000000000000000e+00,5.000000000000000000e+00,5.000000000000000000e+00,5.000000000000000000e+00,5.000000000000000000e+00,5.000000000000000000e+00,5.000000000000000000e+00,5.000000000000000000e+00,5.000000000000000000e+00,5.000000000000000000e+00,5.000000000000000000e+00,5.000000000000000000e+00,5.000000000000000000e+00,5.000000000000000000e+00,2.198365688323974609e+00,2.130188703536987305e+00,2.104838609695434570e+00,2.117783784866333008e+00,2.316832065582275391e+00,2.359990358352661133e+00,4.851105213165283203e+00,4.661070823669433594e+00,4.485363960266113281e+00,4.322422504425048828e+00,4.170905113220214844e+00,4.029650211334228516e+00,3.897649526596069336e+00,3.774022579193115234e+00,3.657997369766235352e+00,3.548892736434936523e+00,3.446108102798461914e+00,3.349109888076782227e+00,3.257422924041748047e+00,3.170621633529663086e+00,3.088326692581176758e+00,3.010195732116699219e+00,2.935920000076293945e+00,2.865221738815307617e+00,2.797848463058471680e+00,2.733570814132690430e+00,2.672180175781250000e+00,2.613486528396606445e+00,2.557315587997436523e+00,2.503508567810058594e+00,2.451919078826904297e+00,2.402412891387939453e+00,2.354866266250610352e+00,2.309165000915527344e+00,2.265204191207885742e+00,2.222885608673095703e+00,2.182119369506835938e+00,2.142821311950683594e+00,2.104913711547851562e+00,2.068323850631713867e+00,2.032984495162963867e+00,1.998832702636718750e+00,1.965809345245361328e+00,1.933859229087829590e+00,1.902930855751037598e+00,1.872976422309875488e+00,1.843950510025024414e+00
5.000000000000000000e+00,5.000000000000000000e+00,5.000000000000000000e+00,5.000000000000000000e+00,5.000000000000000000e+00,5.000000000000000000e+00,5.000000000000000000e+00,5.000000000000000000e+00,5.000000000000000000e+00,5.000000000000000000e+00,5.000000000000000000e+00,5.000000000000000000e+00,5.000000000000000000e+00,5.000000000000000000e+00,5.000000000000000000e+00,5.000000000000000000e+00,5.000000000000000000e+00,5.000000000000000000e+00,5.000000000000000000e+00,5.000000000000000000e+00,5.000000000000000000e+00,5.000000000000000000e+00,5.000000000000000000e+00,5.000000000000000000e+00,5.000000000000000000e+00,5.000000000000000000e+00,5.000000000000000000e+00,5.000000000000000000e+00,5.000000000000000000e+00,5.000000000000000000e+00,5.000000000000000000e+00,5.000000000000000000e+00,5.000000000000000000e+00,5.000000000000000000e+00,2.143766880035400391e+00,2.103125095367431641e+00,2.107315778732299805e+00,2.323679208755493164e+00,5.000000000000000000e+00,4.851243972778320312e+00,4.661198616027832031e+00,4.485482215881347656e+00,4.322532176971435547e+00,4.171007156372070312e+00,4.029745578765869141e+00,3.897739171981811523e+00,3.774106264114379883e+00,3.658075809478759766e+00,3.548966884613037109e+00,3.446178197860717773e+00,3.349175930023193359e+00,3.257485151290893555e+00,3.170680999755859375e+00,3.088382720947265625e+00,3.010248661041259766e+00,2.935970783233642578e+00,2.865270376205444336e+00,2.797894477844238281e+00,2.733614683151245117e+00,2.672222375869750977e+00,2.613526582717895508e+00,2.557354211807250977e+00,2.503545522689819336e+00,2.451954603195190430e+00,2.402446746826171875e+00,2.354898929595947266e+00,2.309196472167968750e+00,2.265234231948852539e+00,2.222914695739746094e+00,2.182147264480590820e+00,2.142848253250122070e+00,2.104939699172973633e+00,2.068349123001098633e+00,2.033009052276611328e+00,1.998856067657470703e+00,1.965831875801086426e+00,1.933881044387817383e+00,1.902952313423156738e+00,1.872997164726257324e+00,1.843970537185668945e+00
5.000000000000000000e+00,5.000000000000000000e+00,5.000000000000000000e+00,5.000000000000000000e+00,5.000000000000000000e+00,5.000000000000000000e+00,5.000000000000000000e+00,5.000000000000000000e+00,5.000000000000000000e+00,5.000000000000000000e+00,5.000000000000000000e+00,5.000000000000000000e+00,5.000000000000000000e+00,5.000000000000000000e+00,5.000000000000000000e+00,5.000000000000000000e+00,5.000000000000000000e+00,5.000000000000000000e+00,5.000000000000000000e+00,5.000000000000000000e+00,5.000000000000000000e+00,5.000000000000000000e+00,5.000000000000000000e+00,5.000000000000000000e+00,5.000000000000000000e+00,5.000000000000000000e+00,5.000000000000000000e+00,5.000000000000000000e+00,5.000000000000000000e+00,5.000000000000000000e+00,5.000000000000000000e+00,5.000000000000000000e+00,5.000000000000000000e+00,5.000000000000000000e+00,2.149048089981079102e+00,2.110951662063598633e+00,2.117499828338623047e+00,2.329766273498535156e+00,5.000000000000000000e+00,4.851382255554199219e+00,4.661326408386230469e+00,4.485600471496582031e+00,4.322642326354980469e+00,4.171109676361083984e+00,4.029840946197509766e+00,3.897828340530395508e+00,3.774190425872802734e+00,3.658154487609863281e+00,3.549041032791137695e+00,3.446248054504394531e+00,3.349241971969604492e+00,3.257547378540039062e+00,3.170739889144897461e+00,3.088438749313354492e+00,3.010301828384399414e+00,2.936021566390991211e+00,2.865318536758422852e+00,2.797940731048583984e+00,2.733658552169799805e+00,2.672264099121093750e+00,2.613566875457763672e+00,2.557392597198486328e+00,2.503582239151000977e+00,2.451989889144897461e+00,2.402480840682983398e+00,2.354931592941284180e+00,2.309227705001831055e+00,2.265264511108398438e+00,2.222943782806396484e+00,2.182175159454345703e+00,2.142875194549560547e+00,2.104965925216674805e+00,2.068374156951904297e+00,2.033033132553100586e+00,1.998879671096801758e+00,1.965854644775390625e+00,1.933903098106384277e+00,1.902973651885986328e+00,1.873017907142639160e+00,1.843990445137023926e+00
5.000000000000000000e+00,5.000000000000000000e+00,5.000000000000000000e+00,5.000000000000000000e+00,5.000000000000000000e+00,5.000000000000000000e+00,5.000000000000000000e+00,5.000000000000000000e+00,5.000000000000000000e+00,5.000000000000000000e+00,5.000000000000000000e+00,5.000000000000000000e+00,5.000000000000000000e+00,5.000000000000000000e+00,5.000000000000000000e+00,5.000000000000000000e+00,5.000000000000000000e+00,5.000000000000000000e+00,5.000000000000000000e+00,5.000000000000000000e+00,5.000000000000000000e+00,5.000000000000000000e+00,5.000000000000000000e+00,5.000000000000000000e+00,5.000000000000000000e+00,5.000000000000000000e+00,5.000000000000000000e+00,5.000000000000000000e+00,5.000000000000000000e+00,5.000000000000000000e+00,5.000000000000000000e+00,5.000000000000000000e+00,5.000000000000000000e+00,5.000000000000000000e+00,2.146713018417358398e+00,2.126872777938842773e+00,2.133669137954711914e+00,2.338590621948242188e+00,5.000000000000000000e+00,4.851521015167236328e+00,4.661454200744628906e+00,4.485718727111816406e+00,4.322752475738525391e+00,4.171211719512939453e+00,4.029936790466308594e+00,3.897917509078979492e+00,3.774273872375488281e+00,3.658233404159545898e+00,3.549114942550659180e+00,3.446317672729492188e+00,3.349308013916015625e+00,3.257610082626342773e+00,3.170798778533935547e+00,3.088494777679443359e+00,3.010355472564697266e+00,2.936072349548339844e+00,2.865366697311401367e+00,2.797986745834350586e+00,2.733702659606933594e+00,2.672306060791015625e+00,2.613606929779052734e+00,2.557430982589721680e+00,2.503619194030761719e+00,2.452025175094604492e+00,2.402514696121215820e+00,2.354964256286621094e+00,2.309259176254272461e+00,2.265294551849365234e+00,2.222972869873046875e+00,2.182203292846679688e+00,2.142902135848999023e+00,2.104991912841796875e+00,2.068399429321289062e+00,2.033057451248168945e+00,1.998903274536132812e+00,1.965877532958984375e+00,1.933925151824951172e+00,1.902994751930236816e+00,1.873038291931152344e+00,1.844010472297668457e+00
5.000000000000000000e+00,5.000000000000000000e+00,5.000000000000000000e+00,5.000000000000000000e+00,5.000000000000000000e+00,5.000000000000000000e+00,5.000000000000000000e+00,5.000000000000000000e+00,5.000000000000000000e+00,5.000000000000000000e+00,5.000000000000000000e+00,5.000000000000000000e+00,5.000000000000000000e+00,5.000000000000000000e+00,5.000000000000000000e+00,5.000000000000000000e+00,5.000000000000000000e+00,5.000000000000000000e+00,5.000000000000000000e+00,5.000000000000000000e+00,5.000000000000000000e+00,5.000000000000000000e+00,5.000000000000000000e+00,5.000000000000000000e+00,5.000000000000000000e+00,5.000000000000000000e+00,5.000000000000000000e+00,5.000000000000000000e+00,5.000000000000000000e+00,5.000000000000000000e+00,5.000000000000000000e+00,5.000000000000000000e+00,5.000000000000000000e+00,5.000000000000000000e+00,2.151948451995849609e+00,2.138484239578247070e+00,2.155942678451538086e+00,2.360953092575073242e+00,5.000000000000000000e+00,4.851658821105957031e+00,4.661581993103027344e+00,4.485837459564208984e+00,4.322862148284912109e+00,4.171314239501953125e+00,4.030032157897949219e+00,3.898007154464721680e+00,3.774357557296752930e+00,3.658312082290649414e+00,3.549189329147338867e+00,3.446387767791748047e+00,3.349373817443847656e+00,3.257672071456909180e+00,3.170858144760131836e+00,3.088550806045532227e+00,3.010408639907836914e+00,2.936122894287109375e+00,2.865415096282958984e+00,2.798032522201538086e+00,2.733746528625488281e+00,2.672348260879516602e+00,2.613646984100341797e+00,2.557469606399536133e+00,2.503656148910522461e+00,2.452060699462890625e+00,2.402548551559448242e+00,2.354996681213378906e+00,2.309290647506713867e+00,2.265324831008911133e+00,2.223001718521118164e+00,2.182231187820434570e+00,2.142929315567016602e+00,2.105017900466918945e+00,2.068424463272094727e+00,2.033082008361816406e+00,1.998926877975463867e+00,1.965900063514709473e+00,1.933947086334228516e+00,1.903016209602355957e+00,1.873059034347534180e+00,1.844030499458312988e+00
5.000000000000000000e+00,5.000000000000000000e+00,5.000000000000000000e+00,5.000000000000000000e+00,5.000000000000000000e+00,5.000000000000000000e+00,5.000000000000000000e+00,5.000000000000000000e+00,5.000000000000000000e+00,5.000000000000000000e+00,5.000000000000000000e+00,5.000000000000000000e+00,5.000000000000000000e+00,5.000000000000000000e+00,5.000000000000000000e+00,5.000000000000000000e+00,5.000000000000000000e+00,5.000000000000000000e+00,5.000000000000000000e+00,5.000000000000000000e+00,5.000000000000000000e+00,5.000000000000000000e+00,5.000000000000000000e+00,5.000000000000000000e+00,5.000000000000000000e+00,5.000000000000000000e+00,5.000000000000000000e+00,5.000000000000000000e+00,5.000000000000000000e+00,5.000000000000000000e+00,5.000000000000000000e+00,5.000000000000000000e+00,5.000000000000000000e+00,5.000000000000000000e+00,2.160103321075439453e+00,2.147139787673950195e+00,2.174099445343017578e+00,5.000000000000000000e+00,5.000000000000000000e+00,4.851796150207519531e+00,4.661709785461425781e+00,4.485955715179443359e+00,4.322971820831298828e+00,4.171416759490966797e+00,4.030127525329589844e+00,3.898096323013305664e+00,3.774441719055175781e+00,3.658390522003173828e+00,3.549263238906860352e+00,3.446457624435424805e+00,3.349439620971679688e+00,3.257734537124633789e+00,3.170917034149169922e+00,3.088607072830200195e+00,3.010461807250976562e+00,2.936173677444458008e+00,2.865463256835937500e+00,2.798078775405883789e+00,2.733790397644042969e+00,2.672390222549438477e+00,2.613687276840209961e+00,2.557507991790771484e+00,2.503692865371704102e+00,2.452095985412597656e+00,2.402582645416259766e+00,2.355029344558715820e+00,2.309321880340576172e+00,2.265355110168457031e+00,2.223031044006347656e+00,2.182259321212768555e+00,2.142956256866455078e+00,2.105044126510620117e+00,2.068449735641479492e+00,2.033106088638305664e+00,1.998950123786926270e+00,1.965922832489013672e+00,1.933969140052795410e+00,1.903037548065185547e+00,1.873079776763916016e+00,1.844050407409667969e+00
5.000000000000000000e+00,5.000000000000000000e+00,5.000000000000000000e+00,5.000000000000000000e+00,5.000000000000000000e+00,5.000000000000000000e+00,5.000000000000000000e+00,5.000000000000000000e+00,5.000000000000000000e+00,5.000000000000000000e+00,5.000000000000000000e+00,5.000000000000000000e+00,5.000000000000000000e+00,5.000000000000000000e+00,5.000000000000000000e+00,5.000000000000000000e+00,5.000000000000000000e+00,5.000000000000000000e+00,5.000000000000000000e+00,5.000000000000000000e+00,5.000000000000000000e+00,5.000000000000000000e+00,5.000000000000000000e+00,5.000000000000000000e+00,5.000000000000000000e+00,5.000000000000000000e+00,5.000000000000000000e+00,5.000000000000000000e+00,5.000000000000000000e+00,5.000000000000000000e+00,5.000000000000000000e+00,5.000000000000000000e+00,5.000000000000000000e+00,2.595184326171875000e+00,2.167322397232055664e+00,2.148958444595336914e+00,2.173381090164184570e+00,5.000000000000000000e+00,5.000000000000000000e+00,4.851933002471923828e+00,4.661837577819824219e+00,4.486073970794677734e+00,4.323081970214843750e+00,4.171518802642822266e+00,4.030223369598388672e+00,3.898185729980468750e+00,3.774525403976440430e+00,3.658469438552856445e+00,3.549337625503540039e+00,3.446527004241943359e+00,3.349505662918090820e+00,3.257797002792358398e+00,3.170976161956787109e+00,3.088663101196289062e+00,3.010515213012695312e+00,2.936224460601806641e+00,2.865511417388916016e+00,2.798124790191650391e+00,2.733834505081176758e+00,2.672432184219360352e+00,2.613727569580078125e+00,2.557546377182006836e+00,2.503729820251464844e+00,2.452131271362304688e+00,2.402616500854492188e+00,2.355062007904052734e+00,2.309353113174438477e+00,2.265385150909423828e+00,2.223059892654418945e+00,2.182287454605102539e+00,2.142983198165893555e+00,2.105070114135742188e+00,2.068474769592285156e+00,2.033130407333374023e+00,1.998973727226257324e+00,1.965945720672607422e+00,1.933991193771362305e+00,1.903058648109436035e+00,1.873100280761718750e+00,1.844070434570312500e+00
5.000000000000000000e+00,5.000000000000000000e+00,5.000000000000000000e+00,5.000000000000000000e+00,5.000000000000000000e+00,5.000000000000000000e+00,5.000000000000000000e+00,5.000000000000000000e+00,5.000000000000000000e+00,5.000000000000000000e+00,5.000000000000000000e+00,5.000000000000000000e+00,5.000000000000000000e+00,5.000000000000000000e+00,5.000000000000000000e+00,5.000000000000000000e+00,5.000000000000000000e+00,5.000000000000000000e+00,5.000000000000000000e+00,5.000000000000000000e+00,5.000000000000000000e+00,5.000000000000000000e+00,5.000000000000000000e+00,5.000000000000000000e+00,5.000000000000000000e+00,5.000000000000000000e+00,5.000000000000000000e+00,5.000000000000000000e+00,5.000000000000000000e+00,5.000000000000000000e+00,5.000000000000000000e+00,5.000000000000000000e+00,5.000000000000000000e+00,2.558602571487426758e+00,2.174597263336181641e+00,2.151867151260375977e+00,2.172008991241455078e+00,5.000000000000000000e+00,5.000000000000000000e+00,4.852070808410644531e+00,4.661962985992431641e+00,4.486192226409912109e+00,4.323192119598388672e+00,4.171621322631835938e+00,4.030318737030029297e+00,3.898275375366210938e+00,3.774608850479125977e+00,3.658548116683959961e+00,3.549411296844482422e+00,3.446597099304199219e+00,3.349571466445922852e+00,3.257859468460083008e+00,3.171035528182983398e+00,3.088719129562377930e+00,3.010568380355834961e+00,2.936275005340576172e+00,2.865560054779052734e+00,2.798170804977416992e+00,2.733878374099731445e+00,2.672474145889282227e+00,2.613767623901367188e+00,2.557585000991821289e+00,2.503766536712646484e+00,2.452166795730590820e+00,2.402650356292724609e+00,2.355094671249389648e+00,2.309384584426879883e+00,2.265415430068969727e+00,2.223088979721069336e+00,2.182315349578857422e+00,2.143010377883911133e+00,2.105096101760864258e+00,2.068500041961669922e+00,2.033154726028442383e+00,1.998997330665588379e+00,1.965968251228332520e+00,1.934013009071350098e+00,1.903080105781555176e+00,1.873120903968811035e+00,1.844090461730957031e+00
5.000000000000000000e+00,5.000000000000000000e+00,5.000000000000000000e+00,5.000000000000000000e+00,5.000000000000000000e+00,5.000000000000000000e+00,5.000000000000000000e+00,5.000000000000000000e+00,5.000000000000000000e+00,5.000000000000000000e+00,5.000000000000000000e+00,5.000000000000000000e+00,5.000000000000000000e+00,5.000000000000000000e+00,5.000000000000000000e+00,5.000000000000000000e+00,5.000000000000000000e+00,5.000000000000000000e+00,5.000000000000000000e+00,5.000000000000000000e+00,5.000000000000000000e+00,5.000000000000000000e+00,5.000000000000000000e+00,5.000000000000000000e+00,5.000000000000000000e+00,5.000000000000000000e+00,5.000000000000000000e+00,5.000000000000000000e+00,5.000000000000000000e+00,5.000000000000000000e+00,5.000000000000000000e+00,5.000000000000000000e+00,5.000000000000000000e+00,2.581846237182617188e+00,2.182106971740722656e+00,2.156337738037109375e+00,2.170274496078491211e+00,5.000000000000000000e+00,5.000000000000000000e+00,4.852208137512207031e+00,4.662090301513671875e+00,4.486308574676513672e+00,4.323301792144775391e+00,4.171723842620849609e+00,4.030414104461669922e+00,3.898364543914794922e+00,3.774693012237548828e+00,3.658626317977905273e+00,3.549485206604003906e+00,3.446666955947875977e+00,3.349637746810913086e+00,3.257921695709228516e+00,3.171094417572021484e+00,3.088775396347045898e+00,3.010622024536132812e+00,2.936325788497924805e+00,2.865608215332031250e+00,2.798217058181762695e+00,2.733922243118286133e+00,2.672516107559204102e+00,2.613807916641235352e+00,2.557623386383056641e+00,2.503803491592407227e+00,2.452202081680297852e+00,2.402684450149536133e+00,2.355127096176147461e+00,2.309416055679321289e+00,2.265445470809936523e+00,2.223118066787719727e+00,2.182343244552612305e+00,2.143037319183349609e+00,2.105122089385986328e+00,2.068525075912475586e+00,2.033179044723510742e+00,1.999020695686340332e+00,1.965991020202636719e+00,1.934035062789916992e+00,1.903101444244384766e+00,1.873141646385192871e+00,1.844110369682312012e+00
5.000000000000000000e+00,5.000000000000000000e+00,5.000000000000000000e+00,5.000000000000000000e+00,5.000000000000000000e+00,5.000000000000000000e+00,5.000000000000000000e+00,5.000000000000000000e+00,5.000000000000000000e+00,5.000000000000000000e+00,5.000000000000000000e+00,5.000000000000000000e+00,5.000000000000000000e+00,5.000000000000000000e+00,5.000000000000000000e+00,5.000000000000000000e+00,5.000000000000000000e+00,5.000000000000000000e+00,5.000000000000000000e+00,5.000000000000000000e+00,5.000000000000000000e+00,5.000000000000000000e+00,5.000000000000000000e+00,5.000000000000000000e+00,5.000000000000000000e+00,5.000000000000000000e+00,5.000000000000000000e+00,5.000000000000000000e+00,5.000000000000000000e+00,5.000000000000000000e+00,5.000000000000000000e+00,5.000000000000000000e+00,5.000000000000000000e+00,2.609483957290649414e+00,2.190313577651977539e+00,2.162415742874145508e+00,2.170464515686035156e+00,5.000000000000000000e+00,5.000000000000000000e+00,4.852345466613769531e+00,4.662217140197753906e+00,4.486426353454589844e+00,4.323410511016845703e+00,4.171825885772705078e+00,4.030509948730468750e+00,3.898453712463378906e+00,3.774776458740234375e+00,3.658705472946166992e+00,3.549559593200683594e+00,3.446736574172973633e+00,3.349703550338745117e+00,3.257984399795532227e+00,3.171153545379638672e+00,3.088831424713134766e+00,3.010675191879272461e+00,2.936376571655273438e+00,2.865656375885009766e+00,2.798262834548950195e+00,2.733966350555419922e+00,2.672558069229125977e+00,2.613847970962524414e+00,2.557662010192871094e+00,2.503840446472167969e+00,2.452237367630004883e+00,2.402718305587768555e+00,2.355159997940063477e+00,2.309447288513183594e+00,2.265475749969482422e+00,2.223147153854370117e+00,2.182371377944946289e+00,2.143064260482788086e+00,2.105148315429687500e+00,2.068550348281860352e+00,2.033203601837158203e+00,1.999044299125671387e+00,1.966013908386230469e+00,1.934057235717773438e+00,1.903122544288635254e+00,1.873162150382995605e+00,1.844130396842956543e+00
5.000000000000000000e+00,5.000000000000000000e+00,5.000000000000000000e+00,5.000000000000000000e+00,5.000000000000000000e+00,5.000000000000000000e+00,5.000000000000000000e+00,5.000000000000000000e+00,5.000000000000000000e+00,5.000000000000000000e+00,5.000000000000000000e+00,5.000000000000000000e+00,5.000000000000000000e+00,5.000000000000000000e+00,5.000000000000000000e+00,5.000000000000000000e+00,5.000000000000000000e+00,5.000000000000000000e+00,5.000000000000000000e+00,5.000000000000000000e+00,5.000000000000000000e+00,5.000000000000000000e+00,5.000000000000000000e+00,5.000000000000000000e+00,5.000000000000000000e+00,5.000000000000000000e+00,5.000000000000000000e+00,5.000000000000000000e+00,5.000000000000000000e+00,5.000000000000000000e+00,5.000000000000000000e+00,5.000000000000000000e+00,2.681782722473144531e+00,2.659842967987060547e+00,2.199428558349609375e+00,2.171494960784912109e+00,2.170933485031127930e+00,5.000000000000000000e+00,5.000000000000000000e+00,4.852482795715332031e+00,4.662343502044677734e+00,4.486544132232666016e+00,4.323519229888916016e+00,4.171928405761718750e+00,4.030605316162109375e+00,3.898543119430541992e+00,3.774860143661499023e+00,3.658783912658691406e+00,3.549633502960205078e+00,3.446806669235229492e+00,3.349769353866577148e+00,3.258046627044677734e+00,3.171212911605834961e+00,3.088887453079223633e+00,3.010728359222412109e+00,2.936427116394042969e+00,2.865704774856567383e+00,2.798308849334716797e+00,2.734010219573974609e+00,2.672600269317626953e+00,2.613888263702392578e+00,2.557700395584106445e+00,2.503877162933349609e+00,2.452272891998291016e+00,2.402752399444580078e+00,2.355192422866821289e+00,2.309478759765625000e+00,2.265505790710449219e+00,2.223176240921020508e+00,2.182399272918701172e+00,2.143091440200805664e+00,2.105174303054809570e+00,2.068575382232666016e+00,2.033227682113647461e+00,1.999067783355712891e+00,1.966036438941955566e+00,1.934079051017761230e+00,1.903144001960754395e+00,1.873182892799377441e+00,1.844150543212890625e+00
4.873895168304443359e+00,4.872697830200195312e+00,4.871500968933105469e+00,4.870305061340332031e+00,4.869110107421875000e+00,4.867915153503417969e+00,4.866720676422119141e+00,4.865527629852294922e+00,4.864334583282470703e+00,4.863142013549804688e+00,4.861949920654296875e+00,4.860758781433105469e+00,4.859568119049072266e+00,4.858377933502197266e+00,4.857188701629638672e+00,4.855999946594238281e+00,4.854811668395996094e+00,4.853623390197753906e+00,4.852436542510986328e+00,4.851250171661376953e+00,4.850063800811767578e+00,4.848878383636474609e+00,4.847693920135498047e+00,4.846509456634521484e+00,4.845325946807861328e+00,4.844142436981201172e+00,4.842960357666015625e+00,4.841778278350830078e+00,4.840596675872802734e+00,4.839415550231933594e+00,4.838235855102539062e+00,4.837056159973144531e+00,2.659328460693359375e+00,2.675727128982543945e+00,2.231836795806884766e+00,2.180650472640991211e+00,2.176308155059814453e+00,4.829990386962890625e+00,4.828814506530761719e+00,4.827639102935791016e+00,4.662470817565917969e+00,4.486661434173583984e+00,4.323628425598144531e+00,4.172029018402099609e+00,4.030700683593750000e+00,3.898632526397705078e+00,3.774944305419921875e+00,3.658863067626953125e+00,3.549707412719726562e+00,3.446876525878906250e+00,3.349835634231567383e+00,3.258108854293823242e+00,3.171272039413452148e+00,3.088943719863891602e+00,3.010782003402709961e+00,2.936477899551391602e+00,2.865753173828125000e+00,2.798355102539062500e+00,2.734054088592529297e+00,2.672642230987548828e+00,2.613928556442260742e+00,2.557739019393920898e+00,2.503914117813110352e+00,2.452308177947998047e+00,2.402786254882812500e+00,2.355225086212158203e+00,2.309509992599487305e+00,2.265536069869995117e+00,2.223205327987670898e+00,2.182427406311035156e+00,2.143118381500244141e+00,2.105200290679931641e+00,2.068600654602050781e+00,2.033252000808715820e+00,1.999091148376464844e+00,1.966059207916259766e+00,1.934101104736328125e+00,1.903165340423583984e+00,1.873203516006469727e+00,1.844170570373535156e+00
3.776921033859252930e+00,3.776202440261840820e+00,3.775483846664428711e+00,3.774765253067016602e+00,3.774047374725341797e+00,3.773329496383666992e+00,3.772611856460571289e+00,3.771894693374633789e+00,3.771177291870117188e+00,3.770460844039916992e+00,3.769744396209716797e+00,3.769027948379516602e+00,3.768312215805053711e+00,3.767596721649169922e+00,3.766881227493286133e+00,3.766166210174560547e+00,3.765451192855834961e+00,3.764736652374267578e+00,3.764022588729858398e+00,3.763308286666870117e+00,3.762594699859619141e+00,3.761881351470947266e+00,3.761167764663696289e+00,3.760455131530761719e+00,3.759742498397827148e+00,3.759029865264892578e+00,3.758317947387695312e+00,3.757605791091918945e+00,3.756894350051879883e+00,3.756183147430419922e+00,3.755471944808959961e+00,3.754761219024658203e+00,2.646732330322265625e+00,2.678211688995361328e+00,3.752630710601806641e+00,2.201531171798706055e+00,2.195259571075439453e+00,3.750502347946166992e+00,3.749793052673339844e+00,3.749084711074829102e+00,3.748376369476318359e+00,3.747668027877807617e+00,3.746960401535034180e+00,3.746253013610839844e+00,3.745545387268066406e+00,3.744838476181030273e+00,3.744131565093994141e+00,3.658941507339477539e+00,3.549781799316406250e+00,3.446946382522583008e+00,3.349901437759399414e+00,3.258171558380126953e+00,3.171330928802490234e+00,3.088999748229980469e+00,3.010835170745849609e+00,2.936528682708740234e+00,2.865801334381103516e+00,2.798401117324829102e+00,2.734098196029663086e+00,2.672684192657470703e+00,2.613968610763549805e+00,2.557777404785156250e+00,2.503951072692871094e+00,2.452343463897705078e+00,2.402820348739624023e+00,2.355257749557495117e+00,2.309541463851928711e+00,2.265566110610961914e+00,2.223234415054321289e+00,2.182455539703369141e+00,2.143145322799682617e+00,2.105226516723632812e+00,2.068625926971435547e+00,2.033276319503784180e+00,1.999114751815795898e+00,1.966082096099853516e+00,1.934123158454895020e+00,1.903186440467834473e+00,1.873224020004272461e+00,1.844190478324890137e+00
3.083021879196166992e+00,3.082542657852172852e+00,3.082063913345336914e+00,3.081584930419921875e+00,3.081106424331665039e+00,3.080628156661987305e+00,3.080149650573730469e+00,3.079671621322631836e+00,3.079193592071533203e+00,3.078715562820434570e+00,3.078238010406494141e+00,3.077760696411132812e+00,3.077282905578613281e+00,3.076805830001831055e+00,3.076328516006469727e+00,3.075851678848266602e+00,3.075375080108642578e+00,3.074898242950439453e+00,3.074421644210815430e+00,3.073945522308349609e+00,3.073468923568725586e+00,3.072993040084838867e+00,3.072517156600952148e+00,3.072041273117065430e+00,3.071565628051757812e+00,3.071089982986450195e+00,3.070614814758300781e+00,3.070139646530151367e+00,3.069664478302001953e+00,3.069189786911010742e+00,3.068715095520019531e+00,3.068240165710449219e+00,2.633825302124023438e+00,2.672485828399658203e+00,3.066817283630371094e+00,2.201618432998657227e+00,2.183231830596923828e+00,3.065395832061767578e+00,3.064922332763671875e+00,3.064448833465576172e+00,3.063975572586059570e+00,3.063502550125122070e+00,3.063029289245605469e+00,3.062556505203247070e+00,3.062083721160888672e+00,3.061611175537109375e+00,3.061138868331909180e+00,3.060666561126708984e+00,3.060194492340087891e+00,3.059722661972045898e+00,3.059250593185424805e+00,3.058779001235961914e+00,3.058307409286499023e+00,3.057836055755615234e+00,3.010888338088989258e+00,2.936579227447509766e+00,2.865849733352661133e+00,2.798447132110595703e+00,2.734142065048217773e+00,2.672726392745971680e+00,2.614008903503417969e+00,2.557815790176391602e+00,2.503987789154052734e+00,2.452378988265991211e+00,2.402854204177856445e+00,2.355290412902832031e+00,2.309572935104370117e+00,2.265596389770507812e+00,2.223263263702392578e+00,2.182483434677124023e+00,2.143172502517700195e+00,2.105252504348754883e+00,2.068650960922241211e+00,2.033300638198852539e+00,1.999138355255126953e+00,1.966104626655578613e+00,1.934145092964172363e+00,1.903207898139953613e+00,1.873244762420654297e+00,1.844210505485534668e+00
2.604517459869384766e+00,2.604175329208374023e+00,2.603833675384521484e+00,2.603492021560668945e+00,2.603150129318237305e+00,2.602808713912963867e+00,2.602467298507690430e+00,2.602125883102416992e+00,2.601784706115722656e+00,2.601443529129028320e+00,2.601102352142333984e+00,2.600761413574218750e+00,2.600420475006103516e+00,2.600079774856567383e+00,2.599739074707031250e+00,2.599398374557495117e+00,2.599057912826538086e+00,2.598717451095581055e+00,2.598376989364624023e+00,2.598036766052246094e+00,2.597696304321289062e+00,2.597356319427490234e+00,2.597016572952270508e+00,2.596676349639892578e+00,2.596336603164672852e+00,2.595996856689453125e+00,2.595657110214233398e+00,2.595317602157592773e+00,2.594978332519531250e+00,2.594638824462890625e+00,2.594299554824829102e+00,2.593960285186767578e+00,2.593621253967285156e+00,2.593282222747802734e+00,2.592943191528320312e+00,2.194353342056274414e+00,2.155035495758056641e+00,2.147188425064086914e+00,2.591588258743286133e+00,2.591249942779541016e+00,2.590911388397216797e+00,2.590573072433471680e+00,2.590234756469726562e+00,2.589896678924560547e+00,2.589558601379394531e+00,2.589220523834228516e+00,2.588882684707641602e+00,2.588545083999633789e+00,2.588207244873046875e+00,2.587869644165039062e+00,2.587532043457031250e+00,2.587194681167602539e+00,2.586857318878173828e+00,2.586519956588745117e+00,2.586182832717895508e+00,2.585845947265625000e+00,2.585508823394775391e+00,2.585171937942504883e+00,2.584835052490234375e+00,2.584498167037963867e+00,2.584161758422851562e+00,2.557854413986206055e+00,2.504024744033813477e+00,2.452414274215698242e+00,2.402888298034667969e+00,2.355322837829589844e+00,2.309604167938232422e+00,2.265626668930053711e+00,2.223292589187622070e+00,2.182511329650878906e+00,2.143199443817138672e+00,2.105278491973876953e+00,2.068676233291625977e+00,2.033324956893920898e+00,1.999161720275878906e+00,1.966127514839172363e+00,1.934167146682739258e+00,1.903229236602783203e+00,1.873265504837036133e+00,1.844230532646179199e+00
2.254648923873901367e+00,2.254390239715576172e+00,2.254131555557250977e+00,2.253873109817504883e+00,2.253614664077758789e+00,2.253355979919433594e+00,2.253097534179687500e+00,2.252839326858520508e+00,2.252581119537353516e+00,2.252322912216186523e+00,2.252064943313598633e+00,2.251806735992431641e+00,2.251548528671264648e+00,2.251290798187255859e+00,2.251032829284667969e+00,2.250774860382080078e+00,2.250517129898071289e+00,2.250259399414062500e+00,2.250001668930053711e+00,2.249743938446044922e+00,2.249486684799194336e+00,2.249228954315185547e+00,2.248971462249755859e+00,2.248714208602905273e+00,2.248457908630371094e+00,2.248203277587890625e+00,2.247948408126831055e+00,2.247693777084350586e+00,2.247439146041870117e+00,2.247184514999389648e+00,2.246930122375488281e+00,2.246675729751586914e+00,2.246421098709106445e+00,2.246166944503784180e+00,2.245912551879882812e+00,2.245658397674560547e+00,2.113032817840576172e+00,2.097831249237060547e+00,2.105903863906860352e+00,2.244642019271850586e+00,2.244387865066528320e+00,2.244134187698364258e+00,2.243880271911621094e+00,2.243626594543457031e+00,2.243372917175292969e+00,2.243119239807128906e+00,2.242865562438964844e+00,2.242612123489379883e+00,2.242358446121215820e+00,2.242105007171630859e+00,2.241851806640625000e+00,2.241598367691040039e+00,2.241345167160034180e+00,2.241091966629028320e+00,2.240838766098022461e+00,2.240585803985595703e+00,2.240332841873168945e+00,2.240079879760742188e+00,2.239826917648315430e+00,2.239573955535888672e+00,2.239321231842041016e+00,2.239068508148193359e+00,2.238815784454345703e+00,2.238563299179077148e+00,2.238310575485229492e+00,2.238058090209960938e+00,2.237805604934692383e+00,2.237553358078002930e+00,2.223321437835693359e+00,2.182539463043212891e+00,2.143226385116577148e+00,2.105304718017578125e+00,2.068701267242431641e+00,2.033349275588989258e+00,1.999185204505920410e+00,1.966150283813476562e+00,1.934189200401306152e+00,1.903250336647033691e+00,1.873286008834838867e+00,1.844250440597534180e+00
1.987753510475158691e+00,1.987552404403686523e+00,1.987351298332214355e+00,1.987150311470031738e+00,1.986949324607849121e+00,1.986748337745666504e+00,1.986547708511352539e+00,1.986346840858459473e+00,1.986146092414855957e+00,1.985945224761962891e+00,1.985744476318359375e+00,1.985543847084045410e+00,1.985343217849731445e+00,1.985142827033996582e+00,1.984942317008972168e+00,1.984741687774658203e+00,1.984541296958923340e+00,1.984340786933898926e+00,1.984140276908874512e+00,1.983940243721008301e+00,1.983739852905273438e+00,1.983539581298828125e+00,1.983339309692382812e+00,1.983139157295227051e+00,1.982939004898071289e+00,1.982738852500915527e+00,1.982538938522338867e+00,1.982338905334472656e+00,1.982138872146606445e+00,1.981938958168029785e+00,1.981739044189453125e+00,1.981539130210876465e+00,1.981339335441589355e+00,1.981139659881591797e+00,1.980939984321594238e+00,1.980740189552307129e+00,1.980540513992309570e+00,1.980340838432312012e+00,1.980141282081604004e+00,1.979941725730895996e+00,1.979742407798767090e+00,1.979542970657348633e+00,1.979343533515930176e+00,1.979144096374511719e+00,1.978944659233093262e+00,1.978745341300964355e+00,1.978546142578125000e+00,1.978347063064575195e+00,1.978147864341735840e+00,1.977948665618896484e+00,1.977749586105346680e+00,1.977550506591796875e+00,1.977351427078247070e+00,1.977152466773986816e+00,1.976953744888305664e+00,1.976754784584045410e+00,1.976555943489074707e+00,1.976357102394104004e+00,1.976158261299133301e+00,1.975959420204162598e+00,1.975760698318481445e+00,1.975562334060668945e+00,1.975363612174987793e+00,1.975165009498596191e+00,1.974966406822204590e+00,1.974767923355102539e+00,1.974569439888000488e+00,1.974370956420898438e+00,1.974172830581665039e+00,1.973974466323852539e+00,1.973776102066040039e+00,1.973577857017517090e+00,1.973379611968994141e+00,1.973181366920471191e+00,1.972983241081237793e+00,1.966172814369201660e+00,1.934211015701293945e+00,1.903271794319152832e+00,1.873306632041931152e+00,1.844270467758178711e+00
1.777357578277587891e+00,1.777196764945983887e+00,1.777036070823669434e+00,1.776875376701354980e+00,1.776714682579040527e+00,1.776554107666015625e+00,1.776393532752990723e+00,1.776232957839965820e+00,1.776072382926940918e+00,1.775911808013916016e+00,1.775751233100891113e+00,1.775590777397155762e+00,1.775430440902709961e+00,1.775270104408264160e+00,1.775109648704528809e+00,1.774949312210083008e+00,1.774788856506347656e+00,1.774628639221191406e+00,1.774468302726745605e+00,1.774308204650878906e+00,1.774147987365722656e+00,1.773987770080566406e+00,1.773827552795410156e+00,1.773667454719543457e+00,1.773507356643676758e+00,1.773347258567810059e+00,1.773187398910522461e+00,1.773027300834655762e+00,1.772867321968078613e+00,1.772707343101501465e+00,1.772547364234924316e+00,1.772387504577636719e+00,1.772227644920349121e+00,1.772067904472351074e+00,1.771908044815063477e+00,1.771748304367065430e+00,1.771588563919067383e+00,1.771428823471069336e+00,1.771269083023071289e+00,1.771109580993652344e+00,1.770949840545654297e+00,1.770790219306945801e+00,1.770630598068237305e+00,1.770471096038818359e+00,1.770311474800109863e+00,1.770151972770690918e+00,1.769992709159851074e+00,1.769833207130432129e+00,1.769673824310302734e+00,1.769514441490173340e+00,1.769355058670043945e+00,1.769195675849914551e+00,1.769036412239074707e+00,1.768877267837524414e+00,1.768718004226684570e+00,1.768558859825134277e+00,1.768399596214294434e+00,1.768240451812744141e+00,1.768081307411193848e+00,1.767922163009643555e+00,1.767763257026672363e+00,1.767604231834411621e+00,1.767445206642150879e+00,1.767286181449890137e+00,1.767127275466918945e+00,1.766968250274658203e+00,1.766809344291687012e+00,1.766650676727294922e+00,1.766491889953613281e+00,1.766332983970642090e+00,1.766174197196960449e+00,1.766015410423278809e+00,1.765856742858886719e+00,1.765697956085205078e+00,1.765539526939392090e+00,1.765380859375000000e+00,1.765222311019897461e+00,1.765063643455505371e+00,1.764905095100402832e+00,1.764746546745300293e+00
1.607237815856933594e+00,1.607106328010559082e+00,1.606974840164184570e+00,1.606843471527099609e+00,1.606712222099304199e+00,1.606580734252929688e+00,1.606449365615844727e+00,1.606318116188049316e+00,1.606186747550964355e+00,1.606055378913879395e+00,1.605924129486083984e+00,1.605792999267578125e+00,1.605661749839782715e+00,1.605530500411987305e+00,1.605399370193481445e+00,1.605268120765686035e+00,1.605136990547180176e+00,1.605005860328674316e+00,1.604874968528747559e+00,1.604743838310241699e+00,1.604612708091735840e+00,1.604481697082519531e+00,1.604350686073303223e+00,1.604219675064086914e+00,1.604088664054870605e+00,1.603957891464233398e+00,1.603826880455017090e+00,1.603695988655090332e+00,1.603565096855163574e+00,1.603434205055236816e+00,1.603303313255310059e+00,1.603172540664672852e+00,1.603041887283325195e+00,1.602910995483398438e+00,1.602780222892761230e+00,1.602649569511413574e+00,1.602518796920776367e+00,1.602388024330139160e+00,1.602257370948791504e+00,1.602126836776733398e+00,1.601996183395385742e+00,1.601865649223327637e+00,1.601734995841979980e+00,1.601604461669921875e+00,1.601473808288574219e+00,1.601343512535095215e+00,1.601212978363037109e+00,1.601082444190979004e+00,1.600952029228210449e+00,1.600821495056152344e+00,1.600691080093383789e+00,1.600560665130615234e+00,1.600430488586425781e+00,1.600300073623657227e+00,1.600169777870178223e+00,1.600039362907409668e+00,1.599909067153930664e+00,1.599778771400451660e+00,1.599648475646972656e+00,1.599518418312072754e+00,1.599388241767883301e+00,1.599258065223693848e+00,1.599127888679504395e+00,1.598997712135314941e+00,1.598867535591125488e+00,1.598737478256225586e+00,1.598607540130615234e+00,1.598477482795715332e+00,1.598347425460815430e+00,1.598217368125915527e+00,1.598087310791015625e+00,1.597957372665405273e+00,1.597827434539794922e+00,1.597697615623474121e+00,1.597567677497863770e+00,1.597437739372253418e+00,1.597307920455932617e+00,1.597177982330322266e+00,1.597048163414001465e+00,1.596918344497680664e+00
1.466839313507080078e+00,1.466729760169982910e+00,1.466620326042175293e+00,1.466510891914367676e+00,1.466401457786560059e+00,1.466292023658752441e+00,1.466182589530944824e+00,1.466073155403137207e+00,1.465963721275329590e+00,1.465854406356811523e+00,1.465745091438293457e+00,1.465635776519775391e+00,1.465526461601257324e+00,1.465417146682739258e+00,1.465307831764221191e+00,1.465198516845703125e+00,1.465089201927185059e+00,1.464980125427246094e+00,1.464870929718017578e+00,1.464761614799499512e+00,1.464652419090270996e+00,1.464543223381042480e+00,1.464434146881103516e+00,1.464324951171875000e+00,1.464215874671936035e+00,1.464106798171997070e+00,1.463997721672058105e+00,1.463888645172119141e+00,1.463779568672180176e+00,1.463670492172241211e+00,1.463561415672302246e+00,1.463452577590942383e+00,1.463343501091003418e+00,1.463234543800354004e+00,1.463125586509704590e+00,1.463016629219055176e+00,1.462907671928405762e+00,1.462798714637756348e+00,1.462689995765686035e+00,1.462581038475036621e+00,1.462472200393676758e+00,1.462363362312316895e+00,1.462254405021667480e+00,1.462145686149597168e+00,1.462036848068237305e+00,1.461928129196166992e+00,1.461819410324096680e+00,1.461710572242736816e+00,1.461601853370666504e+00,1.461493134498596191e+00,1.461384415626525879e+00,1.461275696754455566e+00,1.461167097091674805e+00,1.461058497428894043e+00,1.460949778556823730e+00,1.460841178894042969e+00,1.460732579231262207e+00,1.460623979568481445e+00,1.460515379905700684e+00,1.460406899452209473e+00,1.460298418998718262e+00,1.460189819335937500e+00,1.460081338882446289e+00,1.459972858428955078e+00,1.459864377975463867e+00,1.459756016731262207e+00,1.459647536277770996e+00,1.459539055824279785e+00,1.459430694580078125e+00,1.459322214126586914e+00,1.459213852882385254e+00,1.459105491638183594e+00,1.458997249603271484e+00,1.458888888359069824e+00,1.458780527114868164e+00,1.458672285079956055e+00,1.458563923835754395e+00,1.458455681800842285e+00,1.458347439765930176e+00,1.458239316940307617e+00
1.348998904228210449e+00,1.348906278610229492e+00,1.348813772201538086e+00,1.348721146583557129e+00,1.348628520965576172e+00,1.348536014556884766e+00,1.348443388938903809e+00,1.348350882530212402e+00,1.348258376121520996e+00,1.348165988922119141e+00,1.348073482513427734e+00,1.347980976104736328e+00,1.347888469696044922e+00,1.347795963287353516e+00,1.347703456878662109e+00,1.347611069679260254e+00,1.347518682479858398e+00,1.347426295280456543e+00,1.347333908081054688e+00,1.347241520881652832e+00,1.347149133682250977e+00,1.347056746482849121e+00,1.346964478492736816e+00,1.346872210502624512e+00,1.346779823303222656e+00,1.346687555313110352e+00,1.346595287322998047e+00,1.346502900123596191e+00,1.346410632133483887e+00,1.346318364143371582e+00,1.346226215362548828e+00,1.346133947372436523e+00,1.346041798591613770e+00,1.345949530601501465e+00,1.345857381820678711e+00,1.345765113830566406e+00,1.345672965049743652e+00,1.345580935478210449e+00,1.345488786697387695e+00,1.345396637916564941e+00,1.345304489135742188e+00,1.345212340354919434e+00,1.345120191574096680e+00,1.345028162002563477e+00,1.344936132431030273e+00,1.344844102859497070e+00,1.344752073287963867e+00,1.344660043716430664e+00,1.344568014144897461e+00,1.344475984573364258e+00,1.344383955001831055e+00,1.344292044639587402e+00,1.344200015068054199e+00,1.344108104705810547e+00,1.344016194343566895e+00,1.343924164772033691e+00,1.343832254409790039e+00,1.343740344047546387e+00,1.343648552894592285e+00,1.343556642532348633e+00,1.343464732170104980e+00,1.343372941017150879e+00,1.343281030654907227e+00,1.343189239501953125e+00,1.343097329139709473e+00,1.343005657196044922e+00,1.342913866043090820e+00,1.342822074890136719e+00,1.342730283737182617e+00,1.342638492584228516e+00,1.342546701431274414e+00,1.342455148696899414e+00,1.342363357543945312e+00,1.342271685600280762e+00,1.342180013656616211e+00,1.342088222503662109e+00,1.341996550559997559e+00,1.341904878616333008e+00,1.341813325881958008e+00,1.341721773147583008e+00
1.248684287071228027e+00,1.248605012893676758e+00,1.248525619506835938e+00,1.248446345329284668e+00,1.248366951942443848e+00,1.248287677764892578e+00,1.248208403587341309e+00,1.248129010200500488e+00,1.248049855232238770e+00,1.247970581054687500e+00,1.247891306877136230e+00,1.247812032699584961e+00,1.247732758522033691e+00,1.247653603553771973e+00,1.247574329376220703e+00,1.247495174407958984e+00,1.247416019439697266e+00,1.247336745262145996e+00,1.247257590293884277e+00,1.247178435325622559e+00,1.247099280357360840e+00,1.247020125389099121e+00,1.246940970420837402e+00,1.246861815452575684e+00,1.246782779693603516e+00,1.246703624725341797e+00,1.246624469757080078e+00,1.246545433998107910e+00,1.246466279029846191e+00,1.246387362480163574e+00,1.246308207511901855e+00,1.246229171752929688e+00,1.246150135993957520e+00,1.246071100234985352e+00,1.245992064476013184e+00,1.245913028717041016e+00,1.245834112167358398e+00,1.245755076408386230e+00,1.245676159858703613e+00,1.245597124099731445e+00,1.245518207550048828e+00,1.245439171791076660e+00,1.245360255241394043e+00,1.245281457901000977e+00,1.245202541351318359e+00,1.245123624801635742e+00,1.245044708251953125e+00,1.244965791702270508e+00,1.244886875152587891e+00,1.244807958602905273e+00,1.244729161262512207e+00,1.244650363922119141e+00,1.244571447372436523e+00,1.244492650032043457e+00,1.244413852691650391e+00,1.244335055351257324e+00,1.244256258010864258e+00,1.244177460670471191e+00,1.244098663330078125e+00,1.244019985198974609e+00,1.243941187858581543e+00,1.243862390518188477e+00,1.243783593177795410e+00,1.243704915046691895e+00,1.243626236915588379e+00,1.243547558784484863e+00,1.243468880653381348e+00,1.243390083312988281e+00,1.243311405181884766e+00,1.243232727050781250e+00,1.243154048919677734e+00,1.243075489997863770e+00,1.242996931076049805e+00,1.242918252944946289e+00,1.242839574813842773e+00,1.242761015892028809e+00,1.242682337760925293e+00,1.242603898048400879e+00,1.242525339126586914e+00,1.242446660995483398e+00
1.162256360054016113e+00,1.162187695503234863e+00,1.162118911743164062e+00,1.162050127983093262e+00,1.161981463432312012e+00,1.161912679672241211e+00,1.161844015121459961e+00,1.161775350570678711e+00,1.161706686019897461e+00,1.161637902259826660e+00,1.161569237709045410e+00,1.161500573158264160e+00,1.161431908607482910e+00,1.161363244056701660e+00,1.161294698715209961e+00,1.161226034164428711e+00,1.161157369613647461e+00,1.161088824272155762e+00,1.161020159721374512e+00,1.160951614379882812e+00,1.160882949829101562e+00,1.160814404487609863e+00,1.160745859146118164e+00,1.160677313804626465e+00,1.160608649253845215e+00,1.160540103912353516e+00,1.160471558570861816e+00,1.160403013229370117e+00,1.160334587097167969e+00,1.160266041755676270e+00,1.160197496414184570e+00,1.160128951072692871e+00,1.160060524940490723e+00,1.159991979598999023e+00,1.159923553466796875e+00,1.159855127334594727e+00,1.159786581993103027e+00,1.159718155860900879e+00,1.159649729728698730e+00,1.159581303596496582e+00,1.159512877464294434e+00,1.159444332122802734e+00,1.159376025199890137e+00,1.159307599067687988e+00,1.159239172935485840e+00,1.159170866012573242e+00,1.159102439880371094e+00,1.159034013748168945e+00,1.158965706825256348e+00,1.158897399902343750e+00,1.158828973770141602e+00,1.158760666847229004e+00,1.158692359924316406e+00,1.158623933792114258e+00,1.158555626869201660e+00,1.158487319946289062e+00,1.158419132232666016e+00,1.158350825309753418e+00,1.158282518386840820e+00,1.158214211463928223e+00,1.158145904541015625e+00,1.158077716827392578e+00,1.158009409904479980e+00,1.157941222190856934e+00,1.157873034477233887e+00,1.157804727554321289e+00,1.157736539840698242e+00,1.157668352127075195e+00,1.157600045204162598e+00,1.157531857490539551e+00,1.157463788986206055e+00,1.157395601272583008e+00,1.157327413558959961e+00,1.157259225845336914e+00,1.157191038131713867e+00,1.157122850418090820e+00,1.157054781913757324e+00,1.156986713409423828e+00,1.156918525695800781e+00,1.156850457191467285e+00
1.087018132209777832e+00,1.086957931518554688e+00,1.086897850036621094e+00,1.086837768554687500e+00,1.086777567863464355e+00,1.086717486381530762e+00,1.086657404899597168e+00,1.086597323417663574e+00,1.086537241935729980e+00,1.086477160453796387e+00,1.086417078971862793e+00,1.086356997489929199e+00,1.086296916007995605e+00,1.086236953735351562e+00,1.086176872253417969e+00,1.086116790771484375e+00,1.086056828498840332e+00,1.085996747016906738e+00,1.085936665534973145e+00,1.085876703262329102e+00,1.085816740989685059e+00,1.085756778717041016e+00,1.085696697235107422e+00,1.085636734962463379e+00,1.085576772689819336e+00,1.085516810417175293e+00,1.085456728935241699e+00,1.085396885871887207e+00,1.085336923599243164e+00,1.085276961326599121e+00,1.085216999053955078e+00,1.085157036781311035e+00,1.085097193717956543e+00,1.085037231445312500e+00,1.084977388381958008e+00,1.084917426109313965e+00,1.084857583045959473e+00,1.084797620773315430e+00,1.084737658500671387e+00,1.084677815437316895e+00,1.084617972373962402e+00,1.084558129310607910e+00,1.084498286247253418e+00,1.084438443183898926e+00,1.084378480911254883e+00,1.084318637847900391e+00,1.084258794784545898e+00,1.084198951721191406e+00,1.084139227867126465e+00,1.084079384803771973e+00,1.084019660949707031e+00,1.083959817886352539e+00,1.083899974822998047e+00,1.083840131759643555e+00,1.083780407905578613e+00,1.083720684051513672e+00,1.083660960197448730e+00,1.083601117134094238e+00,1.083541393280029297e+00,1.083481550216674805e+00,1.083421826362609863e+00,1.083362102508544922e+00,1.083302497863769531e+00,1.083242654800415039e+00,1.083182930946350098e+00,1.083123207092285156e+00,1.083063602447509766e+00,1.083003878593444824e+00,1.082944154739379883e+00,1.082884550094604492e+00,1.082824826240539551e+00,1.082765102386474609e+00,1.082705497741699219e+00,1.082645773887634277e+00,1.082586169242858887e+00,1.082526445388793945e+00,1.082466959953308105e+00,1.082407236099243164e+00,1.082347631454467773e+00,1.082288026809692383e+00
1.020928621292114258e+00,1.020875573158264160e+00,1.020822525024414062e+00,1.020769476890563965e+00,1.020716547966003418e+00,1.020663499832153320e+00,1.020610451698303223e+00,1.020557522773742676e+00,1.020504474639892578e+00,1.020451426506042480e+00,1.020398497581481934e+00,1.020345449447631836e+00,1.020292520523071289e+00,1.020239591598510742e+00,1.020186543464660645e+00,1.020133614540100098e+00,1.020080566406250000e+00,1.020027637481689453e+00,1.019974708557128906e+00,1.019921779632568359e+00,1.019868850708007812e+00,1.019815921783447266e+00,1.019762992858886719e+00,1.019710063934326172e+00,1.019657135009765625e+00,1.019604206085205078e+00,1.019551396369934082e+00,1.019498467445373535e+00,1.019445538520812988e+00,1.019392609596252441e+00,1.019339799880981445e+00,1.019286870956420898e+00,1.019233942031860352e+00,1.019181132316589355e+00,1.019128322601318359e+00,1.019075393676757812e+00,1.019022583961486816e+00,1.018969774246215820e+00,1.018916845321655273e+00,1.018864035606384277e+00,1.018811225891113281e+00,1.018758416175842285e+00,1.018705606460571289e+00,1.018652796745300293e+00,1.018599987030029297e+00,1.018547177314758301e+00,1.018494367599487305e+00,1.018441557884216309e+00,1.018388867378234863e+00,1.018336057662963867e+00,1.018283247947692871e+00,1.018230438232421875e+00,1.018177747726440430e+00,1.018124938011169434e+00,1.018072247505187988e+00,1.018019437789916992e+00,1.017966747283935547e+00,1.017913937568664551e+00,1.017861247062683105e+00,1.017808556556701660e+00,1.017755746841430664e+00,1.017703056335449219e+00,1.017650365829467773e+00,1.017597675323486328e+00,1.017544984817504883e+00,1.017492294311523438e+00,1.017439603805541992e+00,1.017386913299560547e+00,1.017334222793579102e+00,1.017281532287597656e+00,1.017228960990905762e+00,1.017176270484924316e+00,1.017123579978942871e+00,1.017070889472961426e+00,1.017018318176269531e+00,1.016965627670288086e+00,1.016913056373596191e+00,1.016860365867614746e+00,1.016807794570922852e+00,1.016755104064941406e+00
