5.000000000000000000e+00,5.000000000000000000e+00,5.000000000000000000e+00,5.000000000000000000e+00,5.000000000000000000e+00,5.000000000000000000e+00,5.000000000000000000e+00,5.000000000000000000e+00,5.000000000000000000e+00,5.000000000000000000e+00,5.000000000000000000e+00,5.000000000000000000e+00,5.000000000000000000e+00,5.000000000000000000e+00,5.000000000000000000e+00,5.000000000000000000e+00,5.000000000000000000e+00,5.000000000000000000e+00,5.000000000000000000e+00,5.000000000000000000e+00,5.000000000000000000e+00,5.000000000000000000e+00,5.000000000000000000e+00,5.000000000000000000e+00,5.000000000000000000e+00,5.000000000000000000e+00,5.000000000000000000e+00,5.000000000000000000e+00,5.000000000000000000e+00,5.000000000000000000e+00,5.000000000000000000e+00,5.000000000000000000e+00,5.000000000000000000e+00,5.000000000000000000e+00,5.000000000000000000e+00,5.000000000000000000e+00,5.000000000000000000e+00,5.000000000000000000e+00,5.000000000000000000e+00,5.000000000000000000e+00,5.000000000000000000e+00,5.000000000000000000e+00,5.000000000000000000e+00,4.170730113983154297e+00,4.029472827911376953e+00,3.897471189498901367e+00,3.773843050003051758e+00,3.657817363739013672e+00,3.548712968826293945e+00,3.445928335189819336e+00,3.348930835723876953e+00,3.257244110107421875e+00,3.170444011688232422e+00,3.088150262832641602e+00,3.010020256042480469e+00,2.935746431350708008e+00,2.865049362182617188e+00,2.797677278518676758e+00,2.733401060104370117e+00,2.672012090682983398e+00,2.613319873809814453e+00,2.557150602340698242e+00,2.503345012664794922e+00,2.451757431030273438e+00,2.402252674102783203e+00,2.354707717895507812e+00,2.309008121490478516e+00,2.265048742294311523e+00,2.222731590270996094e+00,2.181967020034790039e+00,2.142670631408691406e+00,2.104764699935913086e+00,2.068176269531250000e+00,2.032838582992553711e+00,1.998688101768493652e+00,1.965665936470031738e+00,1.933717370033264160e+00,1.902790784835815430e+00,1.872837543487548828e+00,1.843812942504882812e+00
5.000000000000000000e+00,5.000000000000000000e+00,5.000000000000000000e+00,5.000000000000000000e+00,5.000000000000000000e+00,5.000000000000000000e+00,5.000000000000000000e+00,5.000000000000000000e+00,5.000000000000000000e+00,5.000000000000000000e+00,5.000000000000000000e+00,5.000000000000000000e+00,5.000000000000000000e+00,5.000000000000000000e+00,5.000000000000000000e+00,5.000000000000000000e+00,5.000000000000000000e+00,5.000000000000000000e+00,5.000000000000000000e+00,5.000000000000000000e+00,5.000000000000000000e+00,5.000000000000000000e+00,5.000000000000000000e+00,5.000000000000000000e+00,5.000000000000000000e+00,5.000000000000000000e+00,5.000000000000000000e+00,5.000000000000000000e+00,5.000000000000000000e+00,5.000000000000000000e+00,5.000000000000000000e+00,5.000000000000000000e+00,5.000000000000000000e+00,5.000000000000000000e+00,5.000000000000000000e+00,5.000000000000000000e+00,5.000000000000000000e+00,5.000000000000000000e+00,5.000000000000000000e+00,5.000000000000000000e+00,5.000000000000000000e+00,5.000000000000000000e+00,4.322360992431640625e+00,4.170833110809326172e+00,4.029568672180175781e+00,3.897560834884643555e+00,3.773927450180053711e+00,3.657896518707275391e+00,3.548787117004394531e+00,3.445998907089233398e+00,3.348997116088867188e+00,3.257307052612304688e+00,3.170503616333007812e+00,3.088206529617309570e+00,3.010073900222778320e+00,2.935797214508056641e+00,2.865097761154174805e+00,2.797723531723022461e+00,2.733445167541503906e+00,2.672054290771484375e+00,2.613360404968261719e+00,2.557189226150512695e+00,2.503382205963134766e+00,2.451792716979980469e+00,2.402286767959594727e+00,2.354740619659423828e+00,2.309039592742919922e+00,2.265079021453857422e+00,2.222760915756225586e+00,2.181995153427124023e+00,2.142697811126708984e+00,2.104790687561035156e+00,2.068201541900634766e+00,2.032862901687622070e+00,1.998711705207824707e+00,1.965688943862915039e+00,1.933739423751831055e+00,1.902812123298645020e+00,1.872858405113220215e+00,1.843833088874816895e+00
5.000000000000000000e+00,5.000000000000000000e+00,5.000000000000000000e+00,5.000000000000000000e+00,5.000000000000000000e+00,5.000000000000000000e+00,5.000000000000000000e+00,5.000000000000000000e+00,5.000000000000000000e+00,5.000000000000000000e+00,5.000000000000000000e+00,5.000000000000000000e+00,5.000000000000000000e+00,5.000000000000000000e+00,5.000000000000000000e+00,5.000000000000000000e+00,5.000000000000000000e+00,5.000000000000000000e+00,5.000000000000000000e+00,5.000000000000000000e+00,5.000000000000000000e+00,5.000000000000000000e+00,5.000000000000000000e+00,5.000000000000000000e+00,5.000000000000000000e+00,5.000000000000000000e+00,5.000000000000000000e+00,5.000000000000000000e+00,5.000000000000000000e+00,5.000000000000000000e+00,5.000000000000000000e+00,5.000000000000000000e+00,5.000000000000000000e+00,5.000000000000000000e+00,5.000000000000000000e+00,5.000000000000000000e+00,5.000000000000000000e+00,5.000000000000000000e+00,5.000000000000000000e+00,5.000000000000000000e+00,5.000000000000000000e+00,4.485433578491210938e+00,4.322471141815185547e+00,4.170935630798339844e+00,4.029664993286132812e+00,3.897650957107543945e+00,3.774011611938476562e+00,3.657975673675537109e+00,3.548861980438232422e+00,3.446069002151489258e+00,3.349063634872436523e+00,3.257369756698608398e+00,3.170563220977783203e+00,3.088263034820556641e+00,3.010127544403076172e+00,2.935848236083984375e+00,2.865146398544311523e+00,2.797769784927368164e+00,2.733489513397216797e+00,2.672096490859985352e+00,2.613400697708129883e+00,2.557228088378906250e+00,2.503419160842895508e+00,2.451828479766845703e+00,2.402320861816406250e+00,2.354773283004760742e+00,2.309071063995361328e+00,2.265109300613403320e+00,2.222790241241455078e+00,2.182023286819458008e+00,2.142724752426147461e+00,2.104816913604736328e+00,2.068226814270019531e+00,2.032887458801269531e+00,1.998735189437866211e+00,1.965711832046508789e+00,1.933761715888977051e+00,1.902833461761474609e+00,1.872879147529602051e+00,1.843853354454040527e+00
5.000000000000000000e+00,5.000000000000000000e+00,5.000000000000000000e+00,5.000000000000000000e+00,5.000000000000000000e+00,5.000000000000000000e+00,5.000000000000000000e+00,5.000000000000000000e+00,5.000000000000000000e+00,5.000000000000000000e+00,5.000000000000000000e+00,5.000000000000000000e+00,5.000000000000000000e+00,5.000000000000000000e+00,5.000000000000000000e+00,5.000000000000000000e+00,5.000000000000000000e+00,5.000000000000000000e+00,5.000000000000000000e+00,5.000000000000000000e+00,5.000000000000000000e+00,5.000000000000000000e+00,5.000000000000000000e+00,5.000000000000000000e+00,5.000000000000000000e+00,5.000000000000000000e+00,5.000000000000000000e+00,5.000000000000000000e+00,5.000000000000000000e+00,5.000000000000000000e+00,5.000000000000000000e+00,5.000000000000000000e+00,5.000000000000000000e+00,5.000000000000000000e+00,5.000000000000000000e+00,5.000000000000000000e+00,5.000000000000000000e+00,5.000000000000000000e+00,5.000000000000000000e+00,5.000000000000000000e+00,4.661293029785156250e+00,4.485552310943603516e+00,4.322581768035888672e+00,4.171038627624511719e+00,4.029761314392089844e+00,3.897740602493286133e+00,3.774096012115478516e+00,3.658054828643798828e+00,3.548936605453491211e+00,3.446139335632324219e+00,3.349129676818847656e+00,3.257432699203491211e+00,3.170622587203979492e+00,3.088319301605224609e+00,3.010181188583374023e+00,2.935899257659912109e+00,2.865195035934448242e+00,2.797816276550292969e+00,2.733533620834350586e+00,2.672138929367065430e+00,2.613440990447998047e+00,2.557266712188720703e+00,2.503456354141235352e+00,2.451864004135131836e+00,2.402355194091796875e+00,2.354806184768676758e+00,2.309102535247802734e+00,2.265139818191528320e+00,2.222819328308105469e+00,2.182051420211791992e+00,2.142752170562744141e+00,2.104843139648437500e+00,2.068252325057983398e+00,2.032912015914916992e+00,1.998758792877197266e+00,1.965734601020812988e+00,1.933783769607543945e+00,1.902854800224304199e+00,1.872899889945983887e+00,1.843873381614685059e+00
5.000000000000000000e+00,5.000000000000000000e+00,5.000000000000000000e+00,5.000000000000000000e+00,5.000000000000000000e+00,5.000000000000000000e+00,5.000000000000000000e+00,5.000000000000000000e+00,5.000000000000000000e+00,5.000000000000000000e+00,5.000000000000000000e+00,5.000000000000000000e+00,5.000000000000000000e+00,5.000000000000000000e+00,5.000000000000000000e+00,5.000000000000000000e+00,5.000000000000000000e+00,5.000000000000000000e+00,5.000000000000000000e+00,5.000000000000000000e+00,5.000000000000000000e+00,5.000000000000000000e+00,5.000000000000000000e+00,5.000000000000000000e+00,5.000000000000000000e+00,5.000000000000000000e+00,5.000000000000000000e+00,5.000000000000000000e+00,5.000000000000000000e+00,5.000000000000000000e+00,5.000000000000000000e+00,5.000000000000000000e+00,5.000000000000000000e+00,5.000000000000000000e+00,5.000000000000000000e+00,5.000000000000000000e+00,5.000000000000000000e+00,5.000000000000000000e+00,5.000000000000000000e+00,4.851505279541015625e+00,4.661421775817871094e+00,4.485671520233154297e+00,4.322692394256591797e+00,4.171141624450683594e+00,4.029857158660888672e+00,3.897830724716186523e+00,3.774180173873901367e+00,3.658133983612060547e+00,3.549010992050170898e+00,3.446209430694580078e+00,3.349196195602416992e+00,3.257495164871215820e+00,3.170682191848754883e+00,3.088375806808471680e+00,3.010234594345092773e+00,2.935950279235839844e+00,2.865243673324584961e+00,2.797862529754638672e+00,2.733577966690063477e+00,2.672180891036987305e+00,2.613481521606445312e+00,2.557305335998535156e+00,2.503493309020996094e+00,2.451899528503417969e+00,2.402389287948608398e+00,2.354838848114013672e+00,2.309134244918823242e+00,2.265170097351074219e+00,2.222848653793334961e+00,2.182079792022705078e+00,2.142779111862182617e+00,2.104869365692138672e+00,2.068277597427368164e+00,2.032936334609985352e+00,1.998782634735107422e+00,1.965757369995117188e+00,1.933805823326110840e+00,1.902876377105712891e+00,1.872920513153076172e+00,1.843893408775329590e+00
5.000000000000000000e+00,5.000000000000000000e+00,5.000000000000000000e+00,5.000000000000000000e+00,5.000000000000000000e+00,5.000000000000000000e+00,5.000000000000000000e+00,5.000000000000000000e+00,5.000000000000000000e+00,5.000000000000000000e+00,5.000000000000000000e+00,5.000000000000000000e+00,5.000000000000000000e+00,5.000000000000000000e+00,5.000000000000000000e+00,5.000000000000000000e+00,5.000000000000000000e+00,5.000000000000000000e+00,5.000000000000000000e+00,5.000000000000000000e+00,5.000000000000000000e+00,5.000000000000000000e+00,5.000000000000000000e+00,5.000000000000000000e+00,5.000000000000000000e+00,5.000000000000000000e+00,5.000000000000000000e+00,5.000000000000000000e+00,5.000000000000000000e+00,5.000000000000000000e+00,5.000000000000000000e+00,5.000000000000000000e+00,5.000000000000000000e+00,5.000000000000000000e+00,5.000000000000000000e+00,5.000000000000000000e+00,5.000000000000000000e+00,5.000000000000000000e+00,5.000000000000000000e+00,4.851644515991210938e+00,4.661550045013427734e+00,4.485790252685546875e+00,4.322803020477294922e+00,4.171244621276855469e+00,4.029953479766845703e+00,3.897920370101928711e+00,3.774264574050903320e+00,3.658213138580322266e+00,3.549085617065429688e+00,3.446279764175415039e+00,3.349262475967407227e+00,3.257558107376098633e+00,3.170741558074951172e+00,3.088432073593139648e+00,3.010288476943969727e+00,2.936001062393188477e+00,2.865292310714721680e+00,2.797909021377563477e+00,2.733622074127197266e+00,2.672223329544067383e+00,2.613521814346313477e+00,2.557343959808349609e+00,2.503530502319335938e+00,2.451935052871704102e+00,2.402423381805419922e+00,2.354871749877929688e+00,2.309165716171264648e+00,2.265200376510620117e+00,2.222877979278564453e+00,2.182107686996459961e+00,2.142806529998779297e+00,2.104895591735839844e+00,2.068302869796752930e+00,2.032960891723632812e+00,1.998806238174438477e+00,1.965780377388000488e+00,1.933827877044677734e+00,1.902897834777832031e+00,1.872941493988037109e+00,1.843913435935974121e+00
5.000000000000000000e+00,5.000000000000000000e+00,5.000000000000000000e+00,5.000000000000000000e+00,5.000000000000000000e+00,5.000000000000000000e+00,5.000000000000000000e+00,5.000000000000000000e+00,5.000000000000000000e+00,5.000000000000000000e+00,5.000000000000000000e+00,5.000000000000000000e+00,5.000000000000000000e+00,5.000000000000000000e+00,5.000000000000000000e+00,5.000000000000000000e+00,5.000000000000000000e+00,5.000000000000000000e+00,5.000000000000000000e+00,5.000000000000000000e+00,5.000000000000000000e+00,5.000000000000000000e+00,5.000000000000000000e+00,5.000000000000000000e+00,5.000000000000000000e+00,5.000000000000000000e+00,5.000000000000000000e+00,3.236493825912475586e+00,5.000000000000000000e+00,5.000000000000000000e+00,5.000000000000000000e+00,5.000000000000000000e+00,5.000000000000000000e+00,5.000000000000000000e+00,5.000000000000000000e+00,5.000000000000000000e+00,5.000000000000000000e+00,5.000000000000000000e+00,5.000000000000000000e+00,4.851783752441406250e+00,4.661678791046142578e+00,4.485909461975097656e+00,4.322913646697998047e+00,4.171347618103027344e+00,4.030049324035644531e+00,3.898010492324829102e+00,3.774348735809326172e+00,3.658292531967163086e+00,3.549160003662109375e+00,3.446349859237670898e+00,3.349328994750976562e+00,3.257620811462402344e+00,3.170801162719726562e+00,3.088488817214965820e+00,3.010341882705688477e+00,2.936052322387695312e+00,2.865340709686279297e+00,2.797955274581909180e+00,2.733666419982910156e+00,2.672265529632568359e+00,2.613562345504760742e+00,2.557382822036743164e+00,2.503567457199096680e+00,2.451970815658569336e+00,2.402457475662231445e+00,2.354904413223266602e+00,2.309197425842285156e+00,2.265230655670166016e+00,2.222907066345214844e+00,2.182136058807373047e+00,2.142833471298217773e+00,2.104921817779541016e+00,2.068328142166137695e+00,2.032985210418701172e+00,1.998829722404479980e+00,1.965803265571594238e+00,1.933850169181823730e+00,1.902919173240661621e+00,1.872962117195129395e+00,1.843933701515197754e+00
5.000000000000000000e+00,5.000000000000000000e+00,5.000000000000000000e+00,5.000000000000000000e+00,5.000000000000000000e+00,5.000000000000000000e+00,5.000000000000000000e+00,5.000000000000000000e+00,5.000000000000000000e+00,5.000000000000000000e+00,5.000000000000000000e+00,5.000000000000000000e+00,5.000000000000000000e+00,5.000000000000000000e+00,5.000000000000000000e+00,5.000000000000000000e+00,5.000000000000000000e+00,5.000000000000000000e+00,5.000000000000000000e+00,5.000000000000000000e+00,5.000000000000000000e+00,5.000000000000000000e+00,5.000000000000000000e+00,5.000000000000000000e+00,5.000000000000000000e+00,5.000000000000000000e+00,3.278960466384887695e+00,3.223805665969848633e+00,3.248947620391845703e+00,5.000000000000000000e+00,5.000000000000000000e+00,5.000000000000000000e+00,5.000000000000000000e+00,5.000000000000000000e+00,5.000000000000000000e+00,5.000000000000000000e+00,5.000000000000000000e+00,5.000000000000000000e+00,5.000000000000000000e+00,4.851922988891601562e+00,4.661807060241699219e+00,4.486028671264648438e+00,4.323024272918701172e+00,4.171450614929199219e+00,4.030145645141601562e+00,3.898100614547729492e+00,3.774433135986328125e+00,3.658371448516845703e+00,3.549234628677368164e+00,3.446420431137084961e+00,3.349395036697387695e+00,3.257683753967285156e+00,3.170860528945922852e+00,3.088545322418212891e+00,3.010395526885986328e+00,2.936103105545043945e+00,2.865389347076416016e+00,2.798001527786254883e+00,2.733710527420043945e+00,2.672307729721069336e+00,2.613602638244628906e+00,2.557421684265136719e+00,2.503604650497436523e+00,2.452006101608276367e+00,2.402491807937622070e+00,2.354937314987182617e+00,2.309228897094726562e+00,2.265261173248291016e+00,2.222936391830444336e+00,2.182164192199707031e+00,2.142860651016235352e+00,2.104948043823242188e+00,2.068353414535522461e+00,2.033009767532348633e+00,1.998853325843811035e+00,1.965826034545898438e+00,1.933872222900390625e+00,1.902940750122070312e+00,1.872982859611511230e+00,1.843953847885131836e+00
5.000000000000000000e+00,5.000000000000000000e+00,5.000000000000000000e+00,5.000000000000000000e+00,5.000000000000000000e+00,5.000000000000000000e+00,5.000000000000000000e+00,5.000000000000000000e+00,5.000000000000000000e+00,5.000000000000000000e+00,5.000000000000000000e+00,5.000000000000000000e+00,5.000000000000000000e+00,5.000000000000000000e+00,5.000000000000000000e+00,5.000000000000000000e+00,5.000000000000000000e+00,5.000000000000000000e+00,5.000000000000000000e+00,5.000000000000000000e+00,5.000000000000000000e+00,5.000000000000000000e+00,5.000000000000000000e+00,5.000000000000000000e+00,5.000000000000000000e+00,5.000000000000000000e+00,3.316151142120361328e+00,3.229114770889282227e+00,3.255181312561035156e+00,5.000000000000000000e+00,5.000000000000000000e+00,5.000000000000000000e+00,5.000000000000000000e+00,5.000000000000000000e+00,5.000000000000000000e+00,5.000000000000000000e+00,5.000000000000000000e+00,5.000000000000000000e+00,5.000000000000000000e+00,4.852062225341796875e+00,4.661935806274414062e+00,4.486147880554199219e+00,4.323134899139404297e+00,4.171553611755371094e+00,4.030241489410400391e+00,3.898190259933471680e+00,3.774517297744750977e+00,3.658450841903686523e+00,3.549309015274047852e+00,3.446490764617919922e+00,3.349461793899536133e+00,3.257746458053588867e+00,3.170920133590698242e+00,3.088601589202880859e+00,3.010449171066284180e+00,2.936154365539550781e+00,2.865437984466552734e+00,2.798048019409179688e+00,2.733754873275756836e+00,2.672349929809570312e+00,2.613643169403076172e+00,2.557460069656372070e+00,2.503641605377197266e+00,2.452041864395141602e+00,2.402525663375854492e+00,2.354970216751098633e+00,2.309260368347167969e+00,2.265291452407836914e+00,2.222965717315673828e+00,2.182192325592041016e+00,2.142887830734252930e+00,2.104974269866943359e+00,2.068378686904907227e+00,2.033034324645996094e+00,1.998877167701721191e+00,1.965848803520202637e+00,1.933894395828247070e+00,1.902962088584899902e+00,1.873003602027893066e+00,1.843973875045776367e+00
5.000000000000000000e+00,5.000000000000000000e+00,5.000000000000000000e+00,5.000000000000000000e+00,5.000000000000000000e+00,5.000000000000000000e+00,5.000000000000000000e+00,5.000000000000000000e+00,5.000000000000000000e+00,5.000000000000000000e+00,5.000000000000000000e+00,5.000000000000000000e+00,5.000000000000000000e+00,5.000000000000000000e+00,5.000000000000000000e+00,5.000000000000000000e+00,5.000000000000000000e+00,5.000000000000000000e+00,5.000000000000000000e+00,5.000000000000000000e+00,5.000000000000000000e+00,5.000000000000000000e+00,5.000000000000000000e+00,5.000000000000000000e+00,5.000000000000000000e+00,5.000000000000000000e+00,5.000000000000000000e+00,3.248158216476440430e+00,3.276609182357788086e+00,5.000000000000000000e+00,5.000000000000000000e+00,5.000000000000000000e+00,5.000000000000000000e+00,5.000000000000000000e+00,5.000000000000000000e+00,5.000000000000000000e+00,5.000000000000000000e+00,5.000000000000000000e+00,5.000000000000000000e+00,4.852201461791992188e+00,4.662064552307128906e+00,4.486267089843750000e+00,4.323245048522949219e+00,4.171656131744384766e+00,4.030337810516357422e+00,3.898280382156372070e+00,3.774601697921752930e+00,3.658529758453369141e+00,3.549383640289306641e+00,3.446560859680175781e+00,3.349527835845947266e+00,3.257809400558471680e+00,3.170979499816894531e+00,3.088658094406127930e+00,3.010502815246582031e+00,2.936205148696899414e+00,2.865486621856689453e+00,2.798094272613525391e+00,2.733798980712890625e+00,2.672392368316650391e+00,2.613683462142944336e+00,2.557498931884765625e+00,2.503678798675537109e+00,2.452077388763427734e+00,2.402559995651245117e+00,2.355002880096435547e+00,2.309291839599609375e+00,2.265321969985961914e+00,2.222994804382324219e+00,2.182220697402954102e+00,2.142915010452270508e+00,2.105000495910644531e+00,2.068404197692871094e+00,2.033058643341064453e+00,1.998900771141052246e+00,1.965871810913085938e+00,1.933916449546813965e+00,1.902983427047729492e+00,1.873024463653564453e+00,1.843993902206420898e+00
5.000000000000000000e+00,5.000000000000000000e+00,5.000000000000000000e+00,5.000000000000000000e+00,5.000000000000000000e+00,5.000000000000000000e+00,5.000000000000000000e+00,5.000000000000000000e+00,5.000000000000000000e+00,5.000000000000000000e+00,5.000000000000000000e+00,5.000000000000000000e+00,5.000000000000000000e+00,5.000000000000000000e+00,5.000000000000000000e+00,5.000000000000000000e+00,5.000000000000000000e+00,5.000000000000000000e+00,5.000000000000000000e+00,5.000000000000000000e+00,5.000000000000000000e+00,5.000000000000000000e+00,5.000000000000000000e+00,5.000000000000000000e+00,5.000000000000000000e+00,5.000000000000000000e+00,5.000000000000000000e+00,3.317960262298583984e+00,3.335409164428710938e+00,5.000000000000000000e+00,5.000000000000000000e+00,5.000000000000000000e+00,5.000000000000000000e+00,5.000000000000000000e+00,5.000000000000000000e+00,5.000000000000000000e+00,5.000000000000000000e+00,5.000000000000000000e+00,5.000000000000000000e+00,4.852340698242187500e+00,4.662192821502685547e+00,4.486385822296142578e+00,4.323355674743652344e+00,4.171759128570556641e+00,4.030433654785156250e+00,3.898370027542114258e+00,3.774685859680175781e+00,3.658609151840209961e+00,3.549458026885986328e+00,3.446631431579589844e+00,3.349594354629516602e+00,3.257871866226196289e+00,3.171039104461669922e+00,3.088714361190795898e+00,3.010556221008300781e+00,2.936256170272827148e+00,2.865535020828247070e+00,2.798140764236450195e+00,2.733843326568603516e+00,2.672434568405151367e+00,2.613723993301391602e+00,2.557537555694580078e+00,2.503715753555297852e+00,2.452112913131713867e+00,2.402594089508056641e+00,2.355035781860351562e+00,2.309323549270629883e+00,2.265352249145507812e+00,2.223024129867553711e+00,2.182248830795288086e+00,2.142942190170288086e+00,2.105026721954345703e+00,2.068429231643676758e+00,2.033083200454711914e+00,1.998924374580383301e+00,1.965894699096679688e+00,1.933938741683959961e+00,1.903004884719848633e+00,1.873045206069946289e+00,1.844014167785644531e+00
5.000000000000000000e+00,5.000000000000000000e+00,5.000000000000000000e+00,5.000000000000000000e+00,5.000000000000000000e+00,5.000000000000000000e+00,5.000000000000000000e+00,5.000000000000000000e+00,5.000000000000000000e+00,5.000000000000000000e+00,5.000000000000000000e+00,5.000000000000000000e+00,5.000000000000000000e+00,5.000000000000000000e+00,5.000000000000000000e+00,5.000000000000000000e+00,5.000000000000000000e+00,5.000000000000000000e+00,5.000000000000000000e+00,5.000000000000000000e+00,5.000000000000000000e+00,5.000000000000000000e+00,5.000000000000000000e+00,3.238938570022583008e+00,3.243620634078979492e+00,3.248824834823608398e+00,3.241657733917236328e+00,3.258038997650146484e+00,3.264509439468383789e+00,3.283864736557006836e+00,3.322700262069702148e+00,3.341696023941040039e+00,5.000000000000000000e+00,5.000000000000000000e+00,5.000000000000000000e+00,5.000000000000000000e+00,5.000000000000000000e+00,5.000000000000000000e+00,5.000000000000000000e+00,4.852479934692382812e+00,4.662321567535400391e+00,4.486505031585693359e+00,4.323466300964355469e+00,4.171862125396728516e+00,4.030529975891113281e+00,3.898460149765014648e+00,3.774770259857177734e+00,3.658688068389892578e+00,3.549532651901245117e+00,3.446701526641845703e+00,3.349660634994506836e+00,3.257934808731079102e+00,3.171098470687866211e+00,3.088771104812622070e+00,3.010610103607177734e+00,2.936307191848754883e+00,2.865583658218383789e+00,2.798186779022216797e+00,2.733887434005737305e+00,2.672476768493652344e+00,2.613764286041259766e+00,2.557576417922973633e+00,2.503752946853637695e+00,2.452148437500000000e+00,2.402628183364868164e+00,2.355068683624267578e+00,2.309355020523071289e+00,2.265382528305053711e+00,2.223053216934204102e+00,2.182276964187622070e+00,2.142969369888305664e+00,2.105052947998046875e+00,2.068454742431640625e+00,2.033107519149780273e+00,1.998947858810424805e+00,1.965917468070983887e+00,1.933960795402526855e+00,1.903026461601257324e+00,1.873065829277038574e+00,1.844034314155578613e+00
5.000000000000000000e+00,5.000000000000000000e+00,5.000000000000000000e+00,5.000000000000000000e+00,5.000000000000000000e+00,5.000000000000000000e+00,5.000000000000000000e+00,5.000000000000000000e+00,5.000000000000000000e+00,5.000000000000000000e+00,5.000000000000000000e+00,5.000000000000000000e+00,5.000000000000000000e+00,5.000000000000000000e+00,5.000000000000000000e+00,5.000000000000000000e+00,5.000000000000000000e+00,5.000000000000000000e+00,5.000000000000000000e+00,5.000000000000000000e+00,5.000000000000000000e+00,5.000000000000000000e+00,5.000000000000000000e+00,3.238320350646972656e+00,3.244453430175781250e+00,3.210174322128295898e+00,3.195083141326904297e+00,3.213946580886840820e+00,3.214896440505981445e+00,3.248769998550415039e+00,3.312119722366333008e+00,3.346049308776855469e+00,5.000000000000000000e+00,5.000000000000000000e+00,5.000000000000000000e+00,5.000000000000000000e+00,5.000000000000000000e+00,5.000000000000000000e+00,5.000000000000000000e+00,4.852619171142578125e+00,4.662450313568115234e+00,4.486624240875244141e+00,4.323577404022216797e+00,4.171965122222900391e+00,4.030625820159912109e+00,3.898549795150756836e+00,3.774854898452758789e+00,3.658767461776733398e+00,3.549607038497924805e+00,3.446771860122680664e+00,3.349727153778076172e+00,3.257997512817382812e+00,3.171158075332641602e+00,3.088827371597290039e+00,3.010663747787475586e+00,2.936358213424682617e+00,2.865632057189941406e+00,2.798233270645141602e+00,2.733931541442871094e+00,2.672518968582153320e+00,2.613804817199707031e+00,2.557615041732788086e+00,2.503790140151977539e+00,2.452184200286865234e+00,2.402662277221679688e+00,2.355101585388183594e+00,2.309386730194091797e+00,2.265412807464599609e+00,2.223082542419433594e+00,2.182305097579956055e+00,2.142996549606323242e+00,2.105079174041748047e+00,2.068480014801025391e+00,2.033132076263427734e+00,1.998971700668334961e+00,1.965940237045288086e+00,1.933982849121093750e+00,1.903047800064086914e+00,1.873086810111999512e+00,1.844054341316223145e+00
5.000000000000000000e+00,5.000000000000000000e+00,5.000000000000000000e+00,5.000000000000000000e+00,5.000000000000000000e+00,5.000000000000000000e+00,5.000000000000000000e+00,5.000000000000000000e+00,5.000000000000000000e+00,5.000000000000000000e+00,5.000000000000000000e+00,5.000000000000000000e+00,5.000000000000000000e+00,5.000000000000000000e+00,5.000000000000000000e+00,5.000000000000000000e+00,5.000000000000000000e+00,5.000000000000000000e+00,5.000000000000000000e+00,5.000000000000000000e+00,5.000000000000000000e+00,5.000000000000000000e+00,5.000000000000000000e+00,3.263919353485107422e+00,3.251280784606933594e+00,3.211242675781250000e+00,3.200031518936157227e+00,3.207510471343994141e+00,3.215510606765747070e+00,3.244914531707763672e+00,3.311397075653076172e+00,3.363487243652343750e+00,5.000000000000000000e+00,5.000000000000000000e+00,5.000000000000000000e+00,5.000000000000000000e+00,5.000000000000000000e+00,5.000000000000000000e+00,5.000000000000000000e+00,4.852758407592773438e+00,4.662578582763671875e+00,4.486743450164794922e+00,4.323688030242919922e+00,4.172068119049072266e+00,4.030722141265869141e+00,3.898639917373657227e+00,3.774938821792602539e+00,3.658846378326416016e+00,3.549681901931762695e+00,3.446841955184936523e+00,3.349793672561645508e+00,3.258060455322265625e+00,3.171217441558837891e+00,3.088883876800537109e+00,3.010717391967773438e+00,2.936409235000610352e+00,2.865680932998657227e+00,2.798279523849487305e+00,2.733975887298583984e+00,2.672561407089233398e+00,2.613845109939575195e+00,2.557653665542602539e+00,2.503827333450317383e+00,2.452219724655151367e+00,2.402696609497070312e+00,2.355134248733520508e+00,2.309418201446533203e+00,2.265443325042724609e+00,2.223111629486083984e+00,2.182333230972290039e+00,2.143023729324340820e+00,2.105105161666870117e+00,2.068505287170410156e+00,2.033156394958496094e+00,1.998995304107666016e+00,1.965963363647460938e+00,1.934004902839660645e+00,1.903069138526916504e+00,1.873107433319091797e+00,1.844074368476867676e+00
5.000000000000000000e+00,5.000000000000000000e+00,5.000000000000000000e+00,5.000000000000000000e+00,5.000000000000000000e+00,5.000000000000000000e+00,5.000000000000000000e+00,5.000000000000000000e+00,5.000000000000000000e+00,5.000000000000000000e+00,5.000000000000000000e+00,5.000000000000000000e+00,5.000000000000000000e+00,5.000000000000000000e+00,5.000000000000000000e+00,5.000000000000000000e+00,5.000000000000000000e+00,5.000000000000000000e+00,5.000000000000000000e+00,5.000000000000000000e+00,5.000000000000000000e+00,5.000000000000000000e+00,5.000000000000000000e+00,3.271405458450317383e+00,3.249800682067871094e+00,3.228988885879516602e+00,3.202269315719604492e+00,3.197273969650268555e+00,3.210772037506103516e+00,3.253301858901977539e+00,3.349923372268676758e+00,3.375873327255249023e+00,5.000000000000000000e+00,5.000000000000000000e+00,5.000000000000000000e+00,5.000000000000000000e+00,5.000000000000000000e+00,5.000000000000000000e+00,5.000000000000000000e+00,4.852897644042968750e+00,4.662707328796386719e+00,4.486862182617187500e+00,4.323798656463623047e+00,4.172171115875244141e+00,4.030817985534667969e+00,3.898729562759399414e+00,3.775023460388183594e+00,3.658926010131835938e+00,3.549756288528442383e+00,3.446912527084350586e+00,3.349859952926635742e+00,3.258123159408569336e+00,3.171277046203613281e+00,3.088940143585205078e+00,3.010771036148071289e+00,2.936460256576538086e+00,2.865729331970214844e+00,2.798326015472412109e+00,2.734019994735717773e+00,2.672603607177734375e+00,2.613885641098022461e+00,2.557692289352416992e+00,2.503864288330078125e+00,2.452255249023437500e+00,2.402730703353881836e+00,2.355167150497436523e+00,2.309449672698974609e+00,2.265473604202270508e+00,2.223140954971313477e+00,2.182361364364624023e+00,2.143050909042358398e+00,2.105131626129150391e+00,2.068530559539794922e+00,2.033180952072143555e+00,1.999018907546997070e+00,1.965986132621765137e+00,1.934027194976806641e+00,1.903090596199035645e+00,1.873128175735473633e+00,1.844094634056091309e+00
5.000000000000000000e+00,5.000000000000000000e+00,5.000000000000000000e+00,5.000000000000000000e+00,5.000000000000000000e+00,5.000000000000000000e+00,5.000000000000000000e+00,5.000000000000000000e+00,5.000000000000000000e+00,5.000000000000000000e+00,5.000000000000000000e+00,5.000000000000000000e+00,5.000000000000000000e+00,5.000000000000000000e+00,5.000000000000000000e+00,5.000000000000000000e+00,5.000000000000000000e+00,5.000000000000000000e+00,5.000000000000000000e+00,5.000000000000000000e+00,5.000000000000000000e+00,5.000000000000000000e+00,5.000000000000000000e+00,5.000000000000000000e+00,3.240429162979125977e+00,3.248133182525634766e+00,3.202378273010253906e+00,3.199064254760742188e+00,3.211786270141601562e+00,3.245960474014282227e+00,3.375109910964965820e+00,3.382244348526000977e+00,5.000000000000000000e+00,5.000000000000000000e+00,5.000000000000000000e+00,5.000000000000000000e+00,5.000000000000000000e+00,5.000000000000000000e+00,5.000000000000000000e+00,4.853037357330322266e+00,4.662836074829101562e+00,4.486981391906738281e+00,4.323909282684326172e+00,4.172274112701416016e+00,4.030914306640625000e+00,3.898819684982299805e+00,3.775107622146606445e+00,3.659004926681518555e+00,3.549830913543701172e+00,3.446982622146606445e+00,3.349926471710205078e+00,3.258186101913452148e+00,3.171336412429809570e+00,3.088996887207031250e+00,3.010824441909790039e+00,2.936511278152465820e+00,2.865777969360351562e+00,2.798372030258178711e+00,2.734064340591430664e+00,2.672645807266235352e+00,2.613925933837890625e+00,2.557731151580810547e+00,2.503901481628417969e+00,2.452290773391723633e+00,2.402764797210693359e+00,2.355199813842773438e+00,2.309481382369995117e+00,2.265503883361816406e+00,2.223170280456542969e+00,2.182389736175537109e+00,2.143078088760375977e+00,2.105157613754272461e+00,2.068556070327758789e+00,2.033205270767211914e+00,1.999042749404907227e+00,1.966008901596069336e+00,1.934049248695373535e+00,1.903112173080444336e+00,1.873148918151855469e+00,1.844114780426025391e+00
5.000000000000000000e+00,5.000000000000000000e+00,5.000000000000000000e+00,5.000000000000000000e+00,5.000000000000000000e+00,5.000000000000000000e+00,5.000000000000000000e+00,5.000000000000000000e+00,5.000000000000000000e+00,5.000000000000000000e+00,5.000000000000000000e+00,5.000000000000000000e+00,5.000000000000000000e+00,5.000000000000000000e+00,5.000000000000000000e+00,5.000000000000000000e+00,5.000000000000000000e+00,5.000000000000000000e+00,5.000000000000000000e+00,5.000000000000000000e+00,5.000000000000000000e+00,5.000000000000000000e+00,5.000000000000000000e+00,5.000000000000000000e+00,3.247917413711547852e+00,3.244675159454345703e+00,3.193713903427124023e+00,3.200893878936767578e+00,3.204705953598022461e+00,3.235559701919555664e+00,3.396388053894042969e+00,3.395781517028808594e+00,5.000000000000000000e+00,5.000000000000000000e+00,5.000000000000000000e+00,5.000000000000000000e+00,5.000000000000000000e+00,5.000000000000000000e+00,5.000000000000000000e+00,4.853176593780517578e+00,4.662964344024658203e+00,4.487100601196289062e+00,4.324019432067871094e+00,4.172377586364746094e+00,4.031010627746582031e+00,3.898909568786621094e+00,3.775192022323608398e+00,3.659084320068359375e+00,3.549905300140380859e+00,3.447053194046020508e+00,3.349992752075195312e+00,3.258249044418334961e+00,3.171396017074584961e+00,3.089053153991699219e+00,3.010878324508666992e+00,2.936562299728393555e+00,2.865826606750488281e+00,2.798418521881103516e+00,2.734108448028564453e+00,2.672688245773315430e+00,2.613966464996337891e+00,2.557769775390625000e+00,2.503938674926757812e+00,2.452326536178588867e+00,2.402798891067504883e+00,2.355232715606689453e+00,2.309512853622436523e+00,2.265534400939941406e+00,2.223199605941772461e+00,2.182417869567871094e+00,2.143105268478393555e+00,2.105184078216552734e+00,2.068581104278564453e+00,2.033229827880859375e+00,1.999066233634948730e+00,1.966032028198242188e+00,1.934071302413940430e+00,1.903133511543273926e+00,1.873169779777526855e+00,1.844134807586669922e+00
5.000000000000000000e+00,5.000000000000000000e+00,5.000000000000000000e+00,5.000000000000000000e+00,5.000000000000000000e+00,5.000000000000000000e+00,5.000000000000000000e+00,5.000000000000000000e+00,5.000000000000000000e+00,5.000000000000000000e+00,5.000000000000000000e+00,5.000000000000000000e+00,5.000000000000000000e+00,5.000000000000000000e+00,5.000000000000000000e+00,5.000000000000000000e+00,5.000000000000000000e+00,5.000000000000000000e+00,5.000000000000000000e+00,5.000000000000000000e+00,5.000000000000000000e+00,5.000000000000000000e+00,5.000000000000000000e+00,5.000000000000000000e+00,3.244719982147216797e+00,3.228286743164062500e+00,3.206637859344482422e+00,3.188916921615600586e+00,3.198954343795776367e+00,3.227959871292114258e+00,3.330447435379028320e+00,3.416910648345947266e+00,5.000000000000000000e+00,5.000000000000000000e+00,5.000000000000000000e+00,5.000000000000000000e+00,5.000000000000000000e+00,5.000000000000000000e+00,5.000000000000000000e+00,4.853316307067871094e+00,4.663093090057373047e+00,4.487219810485839844e+00,4.324130058288574219e+00,4.172480583190917969e+00,4.031106472015380859e+00,3.898999691009521484e+00,3.775276184082031250e+00,3.659163713455200195e+00,3.549979925155639648e+00,3.447123289108276367e+00,3.350059270858764648e+00,3.258311748504638672e+00,3.171455383300781250e+00,3.089109659194946289e+00,3.010931730270385742e+00,2.936613559722900391e+00,2.865875244140625000e+00,2.798464775085449219e+00,2.734152793884277344e+00,2.672730445861816406e+00,2.614006996154785156e+00,2.557808637619018555e+00,2.503975629806518555e+00,2.452362060546875000e+00,2.402833223342895508e+00,2.355265378952026367e+00,2.309544563293457031e+00,2.265564680099487305e+00,2.223228693008422852e+00,2.182446002960205078e+00,2.143132448196411133e+00,2.105210304260253906e+00,2.068606615066528320e+00,2.033254146575927734e+00,1.999089837074279785e+00,1.966054797172546387e+00,1.934093475341796875e+00,1.903154850006103516e+00,1.873190522193908691e+00,1.844155073165893555e+00
5.000000000000000000e+00,5.000000000000000000e+00,5.000000000000000000e+00,5.000000000000000000e+00,5.000000000000000000e+00,5.000000000000000000e+00,5.000000000000000000e+00,5.000000000000000000e+00,5.000000000000000000e+00,5.000000000000000000e+00,5.000000000000000000e+00,5.000000000000000000e+00,5.000000000000000000e+00,5.000000000000000000e+00,5.000000000000000000e+00,5.000000000000000000e+00,5.000000000000000000e+00,5.000000000000000000e+00,5.000000000000000000e+00,5.000000000000000000e+00,5.000000000000000000e+00,5.000000000000000000e+00,5.000000000000000000e+00,3.214338064193725586e+00,3.200495481491088867e+00,3.228248834609985352e+00,3.204583406448364258e+00,3.196135759353637695e+00,3.218242168426513672e+00,3.249144792556762695e+00,3.408936262130737305e+00,3.406310081481933594e+00,5.000000000000000000e+00,5.000000000000000000e+00,5.000000000000000000e+00,5.000000000000000000e+00,5.000000000000000000e+00,5.000000000000000000e+00,5.000000000000000000e+00,4.853455543518066406e+00,4.663221836090087891e+00,4.487339019775390625e+00,4.324240684509277344e+00,4.172583580017089844e+00,4.031202793121337891e+00,3.899089336395263672e+00,3.775360584259033203e+00,3.659242630004882812e+00,3.550054311752319336e+00,3.447193622589111328e+00,3.350125551223754883e+00,3.258374691009521484e+00,3.171514987945556641e+00,3.089165925979614258e+00,3.010985612869262695e+00,2.936664342880249023e+00,2.865923643112182617e+00,2.798511266708374023e+00,2.734196901321411133e+00,2.672772645950317383e+00,2.614047288894653320e+00,2.557847261428833008e+00,2.504012823104858398e+00,2.452397584915161133e+00,2.402867317199707031e+00,2.355298280715942383e+00,2.309576034545898438e+00,2.265595197677612305e+00,2.223258018493652344e+00,2.182474136352539062e+00,2.143159627914428711e+00,2.105236530303955078e+00,2.068631887435913086e+00,2.033278703689575195e+00,1.999113440513610840e+00,1.966077566146850586e+00,1.934115767478942871e+00,1.903176188468933105e+00,1.873211145401000977e+00,1.844175219535827637e+00
5.000000000000000000e+00,5.000000000000000000e+00,5.000000000000000000e+00,5.000000000000000000e+00,5.000000000000000000e+00,5.000000000000000000e+00,5.000000000000000000e+00,5.000000000000000000e+00,5.000000000000000000e+00,5.000000000000000000e+00,5.000000000000000000e+00,5.000000000000000000e+00,5.000000000000000000e+00,5.000000000000000000e+00,5.000000000000000000e+00,5.000000000000000000e+00,5.000000000000000000e+00,5.000000000000000000e+00,5.000000000000000000e+00,5.000000000000000000e+00,5.000000000000000000e+00,5.000000000000000000e+00,5.000000000000000000e+00,3.159089803695678711e+00,3.173736572265625000e+00,3.228682041168212891e+00,3.223035573959350586e+00,3.214026689529418945e+00,3.224482536315917969e+00,3.207928657531738281e+00,3.312605857849121094e+00,3.400422811508178711e+00,5.000000000000000000e+00,5.000000000000000000e+00,5.000000000000000000e+00,5.000000000000000000e+00,5.000000000000000000e+00,5.000000000000000000e+00,5.000000000000000000e+00,4.853594779968261719e+00,4.663350582122802734e+00,4.487457752227783203e+00,4.324351310729980469e+00,4.172686576843261719e+00,4.031298637390136719e+00,3.899179458618164062e+00,3.775444746017456055e+00,3.659322023391723633e+00,3.550129175186157227e+00,3.447263717651367188e+00,3.350192070007324219e+00,3.258437395095825195e+00,3.171574354171752930e+00,3.089222669601440430e+00,3.011039018630981445e+00,2.936715602874755859e+00,2.865972280502319336e+00,2.798557519912719727e+00,2.734241247177124023e+00,2.672814846038818359e+00,2.614087820053100586e+00,2.557885885238647461e+00,2.504049777984619141e+00,2.452433347702026367e+00,2.402901411056518555e+00,2.355331182479858398e+00,2.309607505798339844e+00,2.265625476837158203e+00,2.223287105560302734e+00,2.182502269744873047e+00,2.143186807632446289e+00,2.105262756347656250e+00,2.068657159805297852e+00,2.033303260803222656e+00,1.999137282371520996e+00,1.966100454330444336e+00,1.934137821197509766e+00,1.903197884559631348e+00,1.873231887817382812e+00,1.844195246696472168e+00
5.000000000000000000e+00,5.000000000000000000e+00,5.000000000000000000e+00,5.000000000000000000e+00,5.000000000000000000e+00,5.000000000000000000e+00,5.000000000000000000e+00,5.000000000000000000e+00,5.000000000000000000e+00,5.000000000000000000e+00,5.000000000000000000e+00,5.000000000000000000e+00,5.000000000000000000e+00,5.000000000000000000e+00,5.000000000000000000e+00,5.000000000000000000e+00,5.000000000000000000e+00,5.000000000000000000e+00,5.000000000000000000e+00,5.000000000000000000e+00,5.000000000000000000e+00,5.000000000000000000e+00,5.000000000000000000e+00,3.124305009841918945e+00,5.000000000000000000e+00,3.230739831924438477e+00,3.224284887313842773e+00,3.262375354766845703e+00,3.161423444747924805e+00,3.169040203094482422e+00,3.209798574447631836e+00,3.390357017517089844e+00,5.000000000000000000e+00,5.000000000000000000e+00,5.000000000000000000e+00,5.000000000000000000e+00,5.000000000000000000e+00,5.000000000000000000e+00,5.000000000000000000e+00,4.853734016418457031e+00,4.663479328155517578e+00,4.487576961517333984e+00,4.324461936950683594e+00,4.172789573669433594e+00,4.031394958496093750e+00,3.899269342422485352e+00,3.775529384613037109e+00,3.659401178359985352e+00,3.550203561782836914e+00,3.447334289550781250e+00,3.350258350372314453e+00,3.258500337600708008e+00,3.171633958816528320e+00,3.089278936386108398e+00,3.011092901229858398e+00,2.936766386032104492e+00,2.866020917892456055e+00,2.798604011535644531e+00,2.734285354614257812e+00,2.672857284545898438e+00,2.614128351211547852e+00,2.557924509048461914e+00,2.504086971282958984e+00,2.452468633651733398e+00,2.402935504913330078e+00,2.355364084243774414e+00,2.309638977050781250e+00,2.265655755996704102e+00,2.223316431045532227e+00,2.182530403137207031e+00,2.143213987350463867e+00,2.105288982391357422e+00,2.068682432174682617e+00,2.033327579498291016e+00,1.999160885810852051e+00,1.966123461723327637e+00,1.934159874916076660e+00,1.903219223022460938e+00,1.873252868652343750e+00,1.844215273857116699e+00
5.000000000000000000e+00,5.000000000000000000e+00,5.000000000000000000e+00,5.000000000000000000e+00,5.000000000000000000e+00,5.000000000000000000e+00,5.000000000000000000e+00,5.000000000000000000e+00,5.000000000000000000e+00,5.000000000000000000e+00,5.000000000000000000e+00,5.000000000000000000e+00,5.000000000000000000e+00,5.000000000000000000e+00,5.000000000000000000e+00,5.000000000000000000e+00,5.000000000000000000e+00,5.000000000000000000e+00,5.000000000000000000e+00,5.000000000000000000e+00,5.000000000000000000e+00,5.000000000000000000e+00,5.000000000000000000e+00,3.065433979034423828e+00,5.000000000000000000e+00,3.234991312026977539e+00,3.223757505416870117e+00,3.260266065597534180e+00,3.139378786087036133e+00,3.145794391632080078e+00,3.215238809585571289e+00,3.396364927291870117e+00,5.000000000000000000e+00,5.000000000000000000e+00,5.000000000000000000e+00,5.000000000000000000e+00,5.000000000000000000e+00,5.000000000000000000e+00,5.000000000000000000e+00,4.853873729705810547e+00,4.663608074188232422e+00,4.487696170806884766e+00,4.324572563171386719e+00,4.172892570495605469e+00,4.031491279602050781e+00,3.899359464645385742e+00,3.775613546371459961e+00,3.659480571746826172e+00,3.550278186798095703e+00,3.447404384613037109e+00,3.350324869155883789e+00,3.258562803268432617e+00,3.171693563461303711e+00,3.089335441589355469e+00,3.011146306991577148e+00,2.936817646026611328e+00,2.866069555282592773e+00,2.798650026321411133e+00,2.734329700469970703e+00,2.672899484634399414e+00,2.614168882369995117e+00,2.557963371276855469e+00,2.504123926162719727e+00,2.452504396438598633e+00,2.402969837188720703e+00,2.355396747589111328e+00,2.309670686721801758e+00,2.265686035156250000e+00,2.223345756530761719e+00,2.182558774948120117e+00,2.143241167068481445e+00,2.105315208435058594e+00,2.068707942962646484e+00,2.033352136611938477e+00,1.999184370040893555e+00,1.966146230697631836e+00,1.934182167053222656e+00,1.903240561485290527e+00,1.873273491859436035e+00,1.844235539436340332e+00
5.000000000000000000e+00,5.000000000000000000e+00,5.000000000000000000e+00,5.000000000000000000e+00,5.000000000000000000e+00,5.000000000000000000e+00,5.000000000000000000e+00,5.000000000000000000e+00,5.000000000000000000e+00,5.000000000000000000e+00,5.000000000000000000e+00,5.000000000000000000e+00,5.000000000000000000e+00,5.000000000000000000e+00,5.000000000000000000e+00,5.000000000000000000e+00,5.000000000000000000e+00,5.000000000000000000e+00,5.000000000000000000e+00,5.000000000000000000e+00,5.000000000000000000e+00,5.000000000000000000e+00,5.000000000000000000e+00,5.000000000000000000e+00,5.000000000000000000e+00,3.250138521194458008e+00,3.234121561050415039e+00,3.271298885345458984e+00,3.114853143692016602e+00,3.124987840652465820e+00,5.000000000000000000e+00,3.386721134185791016e+00,5.000000000000000000e+00,5.000000000000000000e+00,5.000000000000000000e+00,5.000000000000000000e+00,5.000000000000000000e+00,5.000000000000000000e+00,5.000000000000000000e+00,4.854012966156005859e+00,4.663736820220947266e+00,4.487815380096435547e+00,4.324683666229248047e+00,4.172995567321777344e+00,4.031587600708007812e+00,3.899449110031127930e+00,3.775697946548461914e+00,3.659559488296508789e+00,3.550353050231933594e+00,3.447474956512451172e+00,3.350391149520874023e+00,3.258625984191894531e+00,3.171752929687500000e+00,3.089391946792602539e+00,3.011200189590454102e+00,2.936868429183959961e+00,2.866118192672729492e+00,2.798696517944335938e+00,2.734373807907104492e+00,2.672941684722900391e+00,2.614209175109863281e+00,2.558001995086669922e+00,2.504161119461059570e+00,2.452539920806884766e+00,2.403004169464111328e+00,2.355429649353027344e+00,2.309702157974243164e+00,2.265716552734375000e+00,2.223374843597412109e+00,2.182586908340454102e+00,2.143268346786499023e+00,2.105341196060180664e+00,2.068733215332031250e+00,2.033376693725585938e+00,1.999207973480224609e+00,1.966169118881225586e+00,1.934204220771789551e+00,1.903261899948120117e+00,1.873294234275817871e+00,1.844255685806274414e+00
5.000000000000000000e+00,5.000000000000000000e+00,5.000000000000000000e+00,5.000000000000000000e+00,5.000000000000000000e+00,5.000000000000000000e+00,5.000000000000000000e+00,5.000000000000000000e+00,5.000000000000000000e+00,5.000000000000000000e+00,5.000000000000000000e+00,5.000000000000000000e+00,5.000000000000000000e+00,5.000000000000000000e+00,5.000000000000000000e+00,5.000000000000000000e+00,5.000000000000000000e+00,5.000000000000000000e+00,5.000000000000000000e+00,5.000000000000000000e+00,5.000000000000000000e+00,5.000000000000000000e+00,5.000000000000000000e+00,5.000000000000000000e+00,5.000000000000000000e+00,3.269854545593261719e+00,3.251178979873657227e+00,3.285942554473876953e+00,3.092073678970336914e+00,3.096680641174316406e+00,5.000000000000000000e+00,5.000000000000000000e+00,5.000000000000000000e+00,5.000000000000000000e+00,5.000000000000000000e+00,5.000000000000000000e+00,5.000000000000000000e+00,5.000000000000000000e+00,5.000000000000000000e+00,4.854152202606201172e+00,4.663865566253662109e+00,4.487934589385986328e+00,4.324794292449951172e+00,4.173098564147949219e+00,4.031683444976806641e+00,3.899539232254028320e+00,3.775782108306884766e+00,3.659638881683349609e+00,3.550427436828613281e+00,3.447545051574707031e+00,3.350457668304443359e+00,3.258688449859619141e+00,3.171812772750854492e+00,3.089448451995849609e+00,3.011253595352172852e+00,2.936919689178466797e+00,2.866166830062866211e+00,2.798742771148681641e+00,2.734418153762817383e+00,2.672983884811401367e+00,2.614249706268310547e+00,2.558040857315063477e+00,2.504198074340820312e+00,2.452575683593750000e+00,2.403038263320922852e+00,2.355462312698364258e+00,2.309733867645263672e+00,2.265746831893920898e+00,2.223404169082641602e+00,2.182615041732788086e+00,2.143295526504516602e+00,2.105367660522460938e+00,2.068758487701416016e+00,2.033401012420654297e+00,1.999231815338134766e+00,1.966191887855529785e+00,1.934226274490356445e+00,1.903283596038818359e+00,1.873314976692199707e+00,1.844275712966918945e+00
5.000000000000000000e+00,5.000000000000000000e+00,5.000000000000000000e+00,5.000000000000000000e+00,5.000000000000000000e+00,5.000000000000000000e+00,5.000000000000000000e+00,5.000000000000000000e+00,5.000000000000000000e+00,5.000000000000000000e+00,5.000000000000000000e+00,5.000000000000000000e+00,5.000000000000000000e+00,5.000000000000000000e+00,5.000000000000000000e+00,5.000000000000000000e+00,5.000000000000000000e+00,5.000000000000000000e+00,5.000000000000000000e+00,5.000000000000000000e+00,5.000000000000000000e+00,5.000000000000000000e+00,5.000000000000000000e+00,5.000000000000000000e+00,5.000000000000000000e+00,3.288788557052612305e+00,3.267890453338623047e+00,3.300646543502807617e+00,3.063408851623535156e+00,3.076579332351684570e+00,5.000000000000000000e+00,5.000000000000000000e+00,5.000000000000000000e+00,5.000000000000000000e+00,5.000000000000000000e+00,5.000000000000000000e+00,5.000000000000000000e+00,5.000000000000000000e+00,5.000000000000000000e+00,4.854291915893554688e+00,4.663994312286376953e+00,4.488053798675537109e+00,4.324904918670654297e+00,4.173201560974121094e+00,4.031779766082763672e+00,3.899629116058349609e+00,3.775866746902465820e+00,3.659718036651611328e+00,3.550502061843872070e+00,3.447615623474121094e+00,3.350523948669433594e+00,3.258751630783081055e+00,3.171872138977050781e+00,3.089504718780517578e+00,3.011307477951049805e+00,2.936970472335815430e+00,2.866215467453002930e+00,2.798789262771606445e+00,2.734462261199951172e+00,2.673026323318481445e+00,2.614289999008178711e+00,2.558079481124877930e+00,2.504235267639160156e+00,2.452610969543457031e+00,2.403072357177734375e+00,2.355495214462280273e+00,2.309765338897705078e+00,2.265777349472045898e+00,2.223433494567871094e+00,2.182643175125122070e+00,2.143322706222534180e+00,2.105393648147583008e+00,2.068783760070800781e+00,2.033425569534301758e+00,1.999255418777465820e+00,1.966214895248413086e+00,1.934248447418212891e+00,1.903304934501647949e+00,1.873335838317871094e+00,1.844295740127563477e+00
5.000000000000000000e+00,5.000000000000000000e+00,5.000000000000000000e+00,5.000000000000000000e+00,5.000000000000000000e+00,5.000000000000000000e+00,5.000000000000000000e+00,5.000000000000000000e+00,5.000000000000000000e+00,5.000000000000000000e+00,5.000000000000000000e+00,5.000000000000000000e+00,5.000000000000000000e+00,5.000000000000000000e+00,5.000000000000000000e+00,5.000000000000000000e+00,5.000000000000000000e+00,5.000000000000000000e+00,5.000000000000000000e+00,5.000000000000000000e+00,5.000000000000000000e+00,5.000000000000000000e+00,5.000000000000000000e+00,5.000000000000000000e+00,5.000000000000000000e+00,5.000000000000000000e+00,3.282803297042846680e+00,3.315473556518554688e+00,3.052713632583618164e+00,3.070798397064208984e+00,5.000000000000000000e+00,5.000000000000000000e+00,5.000000000000000000e+00,5.000000000000000000e+00,5.000000000000000000e+00,5.000000000000000000e+00,5.000000000000000000e+00,5.000000000000000000e+00,5.000000000000000000e+00,4.854431152343750000e+00,4.664123058319091797e+00,4.488173007965087891e+00,4.325015544891357422e+00,4.173304557800292969e+00,4.031876087188720703e+00,3.899719238281250000e+00,3.775950908660888672e+00,3.659797430038452148e+00,3.550576448440551758e+00,3.447685956954956055e+00,3.350590467453002930e+00,3.258814096450805664e+00,3.171931743621826172e+00,3.089561462402343750e+00,3.011360883712768555e+00,2.937021732330322266e+00,2.866263866424560547e+00,2.798835754394531250e+00,2.734506607055664062e+00,2.673068523406982422e+00,2.614330530166625977e+00,2.558118104934692383e+00,2.504272460937500000e+00,2.452646732330322266e+00,2.403106451034545898e+00,2.355528116226196289e+00,2.309797048568725586e+00,2.265807628631591797e+00,2.223462820053100586e+00,2.182671546936035156e+00,2.143349885940551758e+00,2.105420112609863281e+00,2.068809032440185547e+00,2.033450126647949219e+00,1.999279022216796875e+00,1.966237783432006836e+00,1.934270739555358887e+00,1.903326272964477539e+00,1.873356580734252930e+00,1.844316005706787109e+00
5.000000000000000000e+00,5.000000000000000000e+00,5.000000000000000000e+00,5.000000000000000000e+00,5.000000000000000000e+00,5.000000000000000000e+00,5.000000000000000000e+00,5.000000000000000000e+00,5.000000000000000000e+00,5.000000000000000000e+00,5.000000000000000000e+00,5.000000000000000000e+00,5.000000000000000000e+00,5.000000000000000000e+00,5.000000000000000000e+00,5.000000000000000000e+00,5.000000000000000000e+00,5.000000000000000000e+00,5.000000000000000000e+00,5.000000000000000000e+00,5.000000000000000000e+00,5.000000000000000000e+00,5.000000000000000000e+00,5.000000000000000000e+00,5.000000000000000000e+00,5.000000000000000000e+00,3.297673225402832031e+00,3.333134651184082031e+00,3.065675973892211914e+00,3.087342977523803711e+00,5.000000000000000000e+00,5.000000000000000000e+00,5.000000000000000000e+00,5.000000000000000000e+00,5.000000000000000000e+00,5.000000000000000000e+00,5.000000000000000000e+00,5.000000000000000000e+00,5.000000000000000000e+00,4.854570388793945312e+00,4.664251327514648438e+00,4.488292217254638672e+00,4.325126171112060547e+00,4.173407554626464844e+00,4.031971931457519531e+00,3.899809360504150391e+00,3.776035308837890625e+00,3.659876585006713867e+00,3.550651311874389648e+00,3.447756290435791016e+00,3.350656747817993164e+00,3.258877277374267578e+00,3.171991109848022461e+00,3.089617967605590820e+00,3.011414766311645508e+00,2.937072515487670898e+00,2.866312742233276367e+00,2.798882007598876953e+00,2.734550714492797852e+00,2.673110961914062500e+00,2.614370822906494141e+00,2.558156967163085938e+00,2.504309654235839844e+00,2.452682256698608398e+00,2.403140783309936523e+00,2.355561017990112305e+00,2.309828519821166992e+00,2.265838146209716797e+00,2.223491907119750977e+00,2.182699680328369141e+00,2.143377065658569336e+00,2.105446100234985352e+00,2.068834543228149414e+00,2.033474445343017578e+00,1.999302625656127930e+00,1.966260552406311035e+00,1.934292793273925781e+00,1.903347849845886230e+00,1.873377323150634766e+00,1.844336152076721191e+00
5.000000000000000000e+00,5.000000000000000000e+00,5.000000000000000000e+00,5.000000000000000000e+00,5.000000000000000000e+00,5.000000000000000000e+00,5.000000000000000000e+00,5.000000000000000000e+00,5.000000000000000000e+00,5.000000000000000000e+00,5.000000000000000000e+00,5.000000000000000000e+00,5.000000000000000000e+00,5.000000000000000000e+00,5.000000000000000000e+00,5.000000000000000000e+00,5.000000000000000000e+00,5.000000000000000000e+00,5.000000000000000000e+00,5.000000000000000000e+00,5.000000000000000000e+00,5.000000000000000000e+00,5.000000000000000000e+00,5.000000000000000000e+00,5.000000000000000000e+00,5.000000000000000000e+00,3.323031663894653320e+00,3.361618757247924805e+00,3.088890314102172852e+00,3.098659515380859375e+00,5.000000000000000000e+00,5.000000000000000000e+00,5.000000000000000000e+00,5.000000000000000000e+00,5.000000000000000000e+00,5.000000000000000000e+00,5.000000000000000000e+00,5.000000000000000000e+00,5.000000000000000000e+00,4.854708671569824219e+00,4.664380073547363281e+00,4.488411426544189453e+00,4.325236797332763672e+00,4.173510551452636719e+00,4.032068252563476562e+00,3.899899244308471680e+00,3.776119470596313477e+00,3.659955978393554688e+00,3.550725698471069336e+00,3.447826623916625977e+00,3.350723266601562500e+00,3.258939743041992188e+00,3.172050714492797852e+00,3.089674234390258789e+00,3.011468172073364258e+00,2.937123775482177734e+00,2.866361141204833984e+00,2.798928499221801758e+00,2.734595060348510742e+00,2.673152923583984375e+00,2.614411354064941406e+00,2.558195590972900391e+00,2.504346609115600586e+00,2.452718019485473633e+00,2.403174877166748047e+00,2.355593919754028320e+00,2.309859991073608398e+00,2.265868425369262695e+00,2.223521232604980469e+00,2.182727813720703125e+00,2.143404245376586914e+00,2.105472564697265625e+00,2.068859815597534180e+00,2.033499002456665039e+00,1.999326467514038086e+00,1.966283321380615234e+00,1.934314846992492676e+00,1.903369307518005371e+00,1.873397946357727051e+00,1.844356179237365723e+00
5.000000000000000000e+00,5.000000000000000000e+00,5.000000000000000000e+00,5.000000000000000000e+00,5.000000000000000000e+00,5.000000000000000000e+00,5.000000000000000000e+00,5.000000000000000000e+00,5.000000000000000000e+00,5.000000000000000000e+00,5.000000000000000000e+00,5.000000000000000000e+00,5.000000000000000000e+00,5.000000000000000000e+00,5.000000000000000000e+00,5.000000000000000000e+00,5.000000000000000000e+00,5.000000000000000000e+00,5.000000000000000000e+00,5.000000000000000000e+00,5.000000000000000000e+00,5.000000000000000000e+00,5.000000000000000000e+00,5.000000000000000000e+00,5.000000000000000000e+00,5.000000000000000000e+00,3.429959535598754883e+00,3.467189073562622070e+00,3.093094110488891602e+00,3.100338220596313477e+00,5.000000000000000000e+00,5.000000000000000000e+00,5.000000000000000000e+00,5.000000000000000000e+00,5.000000000000000000e+00,5.000000000000000000e+00,5.000000000000000000e+00,5.000000000000000000e+00,5.000000000000000000e+00,4.854846000671386719e+00,4.664508819580078125e+00,4.488530635833740234e+00,4.325347423553466797e+00,4.173613548278808594e+00,4.032164573669433594e+00,3.899989366531372070e+00,3.776204109191894531e+00,3.660034894943237305e+00,3.550800561904907227e+00,3.447896718978881836e+00,3.350789546966552734e+00,3.259002923965454102e+00,3.172110080718994141e+00,3.089730978012084961e+00,3.011522054672241211e+00,2.937174558639526367e+00,2.866409778594970703e+00,2.798974514007568359e+00,2.734639406204223633e+00,2.673195362091064453e+00,2.614451646804809570e+00,2.558234453201293945e+00,2.504383802413940430e+00,2.452753543853759766e+00,2.403208971023559570e+00,2.355626583099365234e+00,2.309891462326049805e+00,2.265898704528808594e+00,2.223550558090209961e+00,2.182756185531616211e+00,2.143431425094604492e+00,2.105498552322387695e+00,2.068885087966918945e+00,2.033523321151733398e+00,1.999349951744079590e+00,1.966306447982788086e+00,1.934336900711059570e+00,1.903390645980834961e+00,1.873418927192687988e+00,1.844376325607299805e+00
5.000000000000000000e+00,5.000000000000000000e+00,5.000000000000000000e+00,5.000000000000000000e+00,5.000000000000000000e+00,5.000000000000000000e+00,5.000000000000000000e+00,5.000000000000000000e+00,5.000000000000000000e+00,5.000000000000000000e+00,5.000000000000000000e+00,5.000000000000000000e+00,5.000000000000000000e+00,5.000000000000000000e+00,5.000000000000000000e+00,5.000000000000000000e+00,5.000000000000000000e+00,5.000000000000000000e+00,5.000000000000000000e+00,5.000000000000000000e+00,5.000000000000000000e+00,5.000000000000000000e+00,5.000000000000000000e+00,5.000000000000000000e+00,5.000000000000000000e+00,5.000000000000000000e+00,3.496700048446655273e+00,3.516307592391967773e+00,3.089310169219970703e+00,3.101236104965209961e+00,5.000000000000000000e+00,5.000000000000000000e+00,5.000000000000000000e+00,5.000000000000000000e+00,5.000000000000000000e+00,5.000000000000000000e+00,5.000000000000000000e+00,5.000000000000000000e+00,5.000000000000000000e+00,4.854983329772949219e+00,4.664635181427001953e+00,4.488649845123291016e+00,4.325458049774169922e+00,4.173716545104980469e+00,4.032260894775390625e+00,3.900079250335693359e+00,3.776288270950317383e+00,3.660114526748657227e+00,3.550874948501586914e+00,3.447967290878295898e+00,3.350856065750122070e+00,3.259065389633178711e+00,3.172169923782348633e+00,3.089787244796752930e+00,3.011575460433959961e+00,2.937225818634033203e+00,2.866458415985107422e+00,2.799021005630493164e+00,2.734683752059936523e+00,2.673237562179565430e+00,2.614492177963256836e+00,2.558273077011108398e+00,2.504420757293701172e+00,2.452789068222045898e+00,2.403243064880371094e+00,2.355659484863281250e+00,2.309923171997070312e+00,2.265929222106933594e+00,2.223579645156860352e+00,2.182784080505371094e+00,2.143458604812622070e+00,2.105525016784667969e+00,2.068910360336303711e+00,2.033547878265380859e+00,1.999373555183410645e+00,1.966329216957092285e+00,1.934359192848205566e+00,1.903411984443664551e+00,1.873439669609069824e+00,1.844396591186523438e+00
5.000000000000000000e+00,5.000000000000000000e+00,5.000000000000000000e+00,5.000000000000000000e+00,5.000000000000000000e+00,5.000000000000000000e+00,5.000000000000000000e+00,5.000000000000000000e+00,5.000000000000000000e+00,5.000000000000000000e+00,5.000000000000000000e+00,5.000000000000000000e+00,5.000000000000000000e+00,5.000000000000000000e+00,5.000000000000000000e+00,5.000000000000000000e+00,5.000000000000000000e+00,5.000000000000000000e+00,5.000000000000000000e+00,5.000000000000000000e+00,5.000000000000000000e+00,5.000000000000000000e+00,5.000000000000000000e+00,5.000000000000000000e+00,5.000000000000000000e+00,5.000000000000000000e+00,3.602729082107543945e+00,3.568207740783691406e+00,3.085494518280029297e+00,3.108166456222534180e+00,5.000000000000000000e+00,5.000000000000000000e+00,5.000000000000000000e+00,5.000000000000000000e+00,5.000000000000000000e+00,5.000000000000000000e+00,5.000000000000000000e+00,5.000000000000000000e+00,5.000000000000000000e+00,4.855121135711669922e+00,4.664762020111083984e+00,4.488767147064208984e+00,4.325569152832031250e+00,4.173819541931152344e+00,4.032356739044189453e+00,3.900169372558593750e+00,3.776372909545898438e+00,3.660193443298339844e+00,3.550949573516845703e+00,3.448037385940551758e+00,3.350922822952270508e+00,3.259128570556640625e+00,3.172229290008544922e+00,3.089843988418579102e+00,3.011629343032836914e+00,2.937276601791381836e+00,2.866507053375244141e+00,2.799067258834838867e+00,2.734728097915649414e+00,2.673280000686645508e+00,2.614532470703125000e+00,2.558311939239501953e+00,2.504457950592041016e+00,2.452824592590332031e+00,2.403277397155761719e+00,2.355692148208618164e+00,2.309954881668090820e+00,2.265959501266479492e+00,2.223608970642089844e+00,2.182812452316284180e+00,2.143485784530639648e+00,2.105551004409790039e+00,2.068935871124267578e+00,2.033572196960449219e+00,1.999397397041320801e+00,1.966351985931396484e+00,1.934381365776062012e+00,1.903433680534362793e+00,1.873460292816162109e+00,1.844416618347167969e+00
5.000000000000000000e+00,5.000000000000000000e+00,5.000000000000000000e+00,5.000000000000000000e+00,5.000000000000000000e+00,5.000000000000000000e+00,5.000000000000000000e+00,5.000000000000000000e+00,5.000000000000000000e+00,5.000000000000000000e+00,5.000000000000000000e+00,5.000000000000000000e+00,5.000000000000000000e+00,5.000000000000000000e+00,5.000000000000000000e+00,5.000000000000000000e+00,5.000000000000000000e+00,5.000000000000000000e+00,5.000000000000000000e+00,5.000000000000000000e+00,5.000000000000000000e+00,5.000000000000000000e+00,5.000000000000000000e+00,5.000000000000000000e+00,5.000000000000000000e+00,5.000000000000000000e+00,5.000000000000000000e+00,3.624263525009155273e+00,3.083024263381958008e+00,3.117537498474121094e+00,5.000000000000000000e+00,5.000000000000000000e+00,5.000000000000000000e+00,5.000000000000000000e+00,5.000000000000000000e+00,5.000000000000000000e+00,5.000000000000000000e+00,5.000000000000000000e+00,5.000000000000000000e+00,4.855258941650390625e+00,4.664889335632324219e+00,4.488884925842285156e+00,4.325678825378417969e+00,4.173922538757324219e+00,4.032453060150146484e+00,3.900259017944335938e+00,3.776457309722900391e+00,3.660272836685180664e+00,3.551023960113525391e+00,3.448107957839965820e+00,3.350989103317260742e+00,3.259191274642944336e+00,3.172288894653320312e+00,3.089900255203247070e+00,3.011682987213134766e+00,2.937327861785888672e+00,2.866555690765380859e+00,2.799113750457763672e+00,2.734772205352783203e+00,2.673322200775146484e+00,2.614573240280151367e+00,2.558350563049316406e+00,2.504495143890380859e+00,2.452860355377197266e+00,2.403311491012573242e+00,2.355725049972534180e+00,2.309986352920532227e+00,2.265989780426025391e+00,2.223638296127319336e+00,2.182840585708618164e+00,2.143512964248657227e+00,2.105577468872070312e+00,2.068961143493652344e+00,2.033596754074096680e+00,1.999421000480651855e+00,1.966374874114990234e+00,1.934403419494628906e+00,1.903455018997192383e+00,1.873481273651123047e+00,1.844436645507812500e+00
5.000000000000000000e+00,5.000000000000000000e+00,5.000000000000000000e+00,5.000000000000000000e+00,5.000000000000000000e+00,5.000000000000000000e+00,5.000000000000000000e+00,5.000000000000000000e+00,5.000000000000000000e+00,5.000000000000000000e+00,5.000000000000000000e+00,5.000000000000000000e+00,5.000000000000000000e+00,5.000000000000000000e+00,5.000000000000000000e+00,5.000000000000000000e+00,5.000000000000000000e+00,5.000000000000000000e+00,5.000000000000000000e+00,5.000000000000000000e+00,5.000000000000000000e+00,5.000000000000000000e+00,5.000000000000000000e+00,5.000000000000000000e+00,5.000000000000000000e+00,5.000000000000000000e+00,5.000000000000000000e+00,3.662386417388916016e+00,3.080557584762573242e+00,3.127133846282958984e+00,5.000000000000000000e+00,5.000000000000000000e+00,5.000000000000000000e+00,5.000000000000000000e+00,5.000000000000000000e+00,5.000000000000000000e+00,5.000000000000000000e+00,5.000000000000000000e+00,5.000000000000000000e+00,4.855396270751953125e+00,4.665016174316406250e+00,4.489002227783203125e+00,4.325787544250488281e+00,4.174026012420654297e+00,4.032549381256103516e+00,3.900349378585815430e+00,3.776541471481323242e+00,3.660351991653442383e+00,3.551098823547363281e+00,3.448178052902221680e+00,3.351055622100830078e+00,3.259254217147827148e+00,3.172348260879516602e+00,3.089956760406494141e+00,3.011736631393432617e+00,2.937378883361816406e+00,2.866604328155517578e+00,2.799160003662109375e+00,2.734816551208496094e+00,2.673364400863647461e+00,2.614613533020019531e+00,2.558389425277709961e+00,2.504532098770141602e+00,2.452895879745483398e+00,2.403345823287963867e+00,2.355757951736450195e+00,2.310018062591552734e+00,2.266020298004150391e+00,2.223667383193969727e+00,2.182868719100952148e+00,2.143540143966674805e+00,2.105603456497192383e+00,2.068986415863037109e+00,2.033621311187744141e+00,1.999444603919982910e+00,1.966397881507873535e+00,1.934425473213195801e+00,1.903476357460021973e+00,1.873502016067504883e+00,1.844456791877746582e+00
4.875116825103759766e+00,4.873906135559082031e+00,4.872696399688720703e+00,4.871487140655517578e+00,4.870278358459472656e+00,4.869070053100585938e+00,4.867862224578857422e+00,4.866655349731445312e+00,4.865448951721191406e+00,4.864243030548095703e+00,4.863038063049316406e+00,4.861833572387695312e+00,4.860629558563232422e+00,4.859426021575927734e+00,4.858223438262939453e+00,4.857020854949951172e+00,4.855819225311279297e+00,4.854618072509765625e+00,4.853417873382568359e+00,4.852218151092529297e+00,4.851018905639648438e+00,4.849820613861083984e+00,4.848622322082519531e+00,4.847424983978271484e+00,4.846227645874023438e+00,4.845031738281250000e+00,4.843835830688476562e+00,3.645121574401855469e+00,3.082972526550292969e+00,4.840252399444580078e+00,4.839059352874755859e+00,4.837866306304931641e+00,4.836673736572265625e+00,4.835482597351074219e+00,4.834291458129882812e+00,4.833100795745849609e+00,4.831911087036132812e+00,4.830721855163574219e+00,4.829533576965332031e+00,4.828345298767089844e+00,4.665143013000488281e+00,4.489120006561279297e+00,4.325896739959716797e+00,4.174127101898193359e+00,4.032645225524902344e+00,3.900439023971557617e+00,3.776626110076904297e+00,3.660431385040283203e+00,3.551173210144042969e+00,3.448248624801635742e+00,3.351121902465820312e+00,3.259316921234130859e+00,3.172407865524291992e+00,3.090013265609741211e+00,3.011790275573730469e+00,2.937429904937744141e+00,2.866652727127075195e+00,2.799206495285034180e+00,2.734860658645629883e+00,2.673406600952148438e+00,2.614654064178466797e+00,2.558428049087524414e+00,2.504569292068481445e+00,2.452931404113769531e+00,2.403379917144775391e+00,2.355790853500366211e+00,2.310049533843994141e+00,2.266050577163696289e+00,2.223696708679199219e+00,2.182896852493286133e+00,2.143567323684692383e+00,2.105629920959472656e+00,2.069011688232421875e+00,2.033645629882812500e+00,1.999468207359313965e+00,1.966420769691467285e+00,1.934447765350341797e+00,1.903497815132141113e+00,1.873522639274597168e+00,1.844477057456970215e+00
3.777937173843383789e+00,3.777210235595703125e+00,3.776483297348022461e+00,3.775757074356079102e+00,3.775030612945556641e+00,3.774304628372192383e+00,3.773579120635986328e+00,3.772853612899780273e+00,3.772128582000732422e+00,3.771403789520263672e+00,3.770679473876953125e+00,3.769954919815063477e+00,3.769230842590332031e+00,3.768507242202758789e+00,3.767783641815185547e+00,3.767060756683349609e+00,3.766337871551513672e+00,3.765615463256835938e+00,3.764893054962158203e+00,3.764171123504638672e+00,3.763449192047119141e+00,3.762727975845336914e+00,3.762006521224975586e+00,3.761285543441772461e+00,3.760565042495727539e+00,3.759844541549682617e+00,3.759124755859375000e+00,3.758404731750488281e+00,3.011571407318115234e+00,3.756965875625610352e+00,3.756246805191040039e+00,3.755528211593627930e+00,3.754809617996215820e+00,3.754091739654541016e+00,3.753373622894287109e+00,3.752656221389770508e+00,3.751938581466674805e+00,3.751221895217895508e+00,3.750504732131958008e+00,3.749788045883178711e+00,3.749072074890136719e+00,3.748355865478515625e+00,3.747640371322631836e+00,3.746924877166748047e+00,3.746209859848022461e+00,3.745494842529296875e+00,3.744780540466308594e+00,3.660511016845703125e+00,3.551248073577880859e+00,3.448318719863891602e+00,3.351188421249389648e+00,3.259379863739013672e+00,3.172467231750488281e+00,3.090069770812988281e+00,3.011843919754028320e+00,2.937481164932250977e+00,2.866701602935791016e+00,2.799252748489379883e+00,2.734905004501342773e+00,2.673449039459228516e+00,2.614694356918334961e+00,2.558466672897338867e+00,2.504606485366821289e+00,2.452967166900634766e+00,2.403414011001586914e+00,2.355823516845703125e+00,2.310081005096435547e+00,2.266081094741821289e+00,2.223726034164428711e+00,2.182925224304199219e+00,2.143594503402709961e+00,2.105656147003173828e+00,2.069036960601806641e+00,2.033670186996459961e+00,1.999492049217224121e+00,1.966443538665771484e+00,1.934469819068908691e+00,1.903519392013549805e+00,1.873543381690979004e+00,1.844497084617614746e+00
3.083886623382568359e+00,3.083402156829833984e+00,3.082917690277099609e+00,3.082433700561523438e+00,3.081949472427368164e+00,3.081465721130371094e+00,3.080981969833374023e+00,3.080498695373535156e+00,3.080015182495117188e+00,3.079531908035278320e+00,3.079048633575439453e+00,3.078565597534179688e+00,3.078083038330078125e+00,3.077600240707397461e+00,3.077117919921875000e+00,3.076635360717773438e+00,3.076153516769409180e+00,3.075671195983886719e+00,3.075189590454101562e+00,3.074707746505737305e+00,3.074225902557373047e+00,3.073744773864746094e+00,3.073263168334960938e+00,3.072782278060913086e+00,3.072301149368286133e+00,3.071820497512817383e+00,3.071339607238769531e+00,3.070859193801879883e+00,3.070378780364990234e+00,3.069898366928100586e+00,3.069418430328369141e+00,3.068938493728637695e+00,3.068458795547485352e+00,3.067979097366333008e+00,3.067499637603759766e+00,3.067020177841186523e+00,3.066540956497192383e+00,3.066062211990356445e+00,3.065583229064941406e+00,3.065104722976684570e+00,3.064625978469848633e+00,3.064147710800170898e+00,3.063669204711914062e+00,3.063191175460815430e+00,3.062713146209716797e+00,3.062235116958618164e+00,3.061757564544677734e+00,3.061280012130737305e+00,3.060802698135375977e+00,3.060325384140014648e+00,3.059848546981811523e+00,3.059371471405029297e+00,3.058894634246826172e+00,3.058418035507202148e+00,3.011897802352905273e+00,2.937531948089599609e+00,2.866750001907348633e+00,2.799299240112304688e+00,2.734949111938476562e+00,2.673491477966308594e+00,2.614734888076782227e+00,2.558505296707153320e+00,2.504643678665161133e+00,2.453002691268920898e+00,2.403448104858398438e+00,2.355856418609619141e+00,2.310112714767456055e+00,2.266111612319946289e+00,2.223755359649658203e+00,2.182953357696533203e+00,2.143621683120727539e+00,2.105682373046875000e+00,2.069062232971191406e+00,2.033694744110107422e+00,1.999515652656555176e+00,1.966466546058654785e+00,1.934491991996765137e+00,1.903540730476379395e+00,1.873564362525939941e+00,1.844517230987548828e+00
2.605268716812133789e+00,2.604922771453857422e+00,2.604577302932739258e+00,2.604231595993041992e+00,2.603886127471923828e+00,2.603540658950805664e+00,2.603195428848266602e+00,2.602850198745727539e+00,2.602504968643188477e+00,2.602159976959228516e+00,2.601814985275268555e+00,2.601470232009887695e+00,2.601125478744506836e+00,2.600780963897705078e+00,2.600436210632324219e+00,2.600091934204101562e+00,2.599747419357299805e+00,2.599402904510498047e+00,2.599058866500854492e+00,2.598714590072631836e+00,2.598370790481567383e+00,2.598026752471923828e+00,2.597682952880859375e+00,2.597339153289794922e+00,2.596995592117309570e+00,2.596651792526245117e+00,2.596308231353759766e+00,2.595965147018432617e+00,2.595621585845947266e+00,2.595278501510620117e+00,2.594935417175292969e+00,2.594592332839965820e+00,2.594249486923217773e+00,2.593906641006469727e+00,2.593563795089721680e+00,2.593220949172973633e+00,2.592878580093383789e+00,2.592535972595214844e+00,2.592193841934204102e+00,2.591851234436035156e+00,2.591509342193603516e+00,2.591166973114013672e+00,2.590825080871582031e+00,2.590483188629150391e+00,2.590141057968139648e+00,2.589799404144287109e+00,2.589457750320434570e+00,2.589116334915161133e+00,2.588774681091308594e+00,2.588433504104614258e+00,2.588092088699340820e+00,2.587750911712646484e+00,2.587409734725952148e+00,2.587068557739257812e+00,2.586727619171142578e+00,2.586386680603027344e+00,2.586046218872070312e+00,2.585705280303955078e+00,2.585364818572998047e+00,2.585024356842041016e+00,2.584683895111083984e+00,2.558544158935546875e+00,2.504680633544921875e+00,2.453038454055786133e+00,2.403482437133789062e+00,2.355889320373535156e+00,2.310144186019897461e+00,2.266141891479492188e+00,2.223784446716308594e+00,2.182981491088867188e+00,2.143648862838745117e+00,2.105708599090576172e+00,2.069087743759155273e+00,2.033719062805175781e+00,1.999539256095886230e+00,1.966489434242248535e+00,1.934514045715332031e+00,1.903562068939208984e+00,1.873584985733032227e+00,1.844537496566772461e+00
2.255281686782836914e+00,2.255021333694458008e+00,2.254761219024658203e+00,2.254501104354858398e+00,2.254240989685058594e+00,2.253980875015258789e+00,2.253720760345458984e+00,2.253460884094238281e+00,2.253201246261596680e+00,2.252941131591796875e+00,2.252681493759155273e+00,2.252421855926513672e+00,2.252162218093872070e+00,2.251902580261230469e+00,2.251643180847167969e+00,2.251383543014526367e+00,2.251124382019042969e+00,2.250864982604980469e+00,2.250605583190917969e+00,2.250346422195434570e+00,2.250087499618530273e+00,2.249828100204467773e+00,2.249569177627563477e+00,2.249310255050659180e+00,2.249052047729492188e+00,2.248794317245483398e+00,2.248536825180053711e+00,2.248279094696044922e+00,2.248021602630615234e+00,2.247764110565185547e+00,2.247506856918334961e+00,2.247249603271484375e+00,2.246992111206054688e+00,2.246735095977783203e+00,2.246477842330932617e+00,2.246220827102661133e+00,2.245963811874389648e+00,2.245706796646118164e+00,2.245449781417846680e+00,2.245193004608154297e+00,2.244936227798461914e+00,2.244679450988769531e+00,2.244422674179077148e+00,2.244166135787963867e+00,2.243909597396850586e+00,2.243653059005737305e+00,2.243396759033203125e+00,2.243140220642089844e+00,2.242883920669555664e+00,2.242627620697021484e+00,2.242371320724487305e+00,2.242115259170532227e+00,2.241859197616577148e+00,2.241603136062622070e+00,2.241347074508666992e+00,2.241091251373291016e+00,2.240835428237915039e+00,2.240579605102539062e+00,2.240323781967163086e+00,2.240068197250366211e+00,2.239812612533569336e+00,2.239557027816772461e+00,2.239301443099975586e+00,2.239045858383178711e+00,2.238790750503540039e+00,2.238535165786743164e+00,2.238279819488525391e+00,2.238024711608886719e+00,2.223813772201538086e+00,2.183009624481201172e+00,2.143676042556762695e+00,2.105734825134277344e+00,2.069113016128540039e+00,2.033743619918823242e+00,1.999562740325927734e+00,1.966512203216552734e+00,1.934536337852478027e+00,1.903583526611328125e+00,1.873605728149414062e+00,1.844557523727416992e+00
1.988243460655212402e+00,1.988041043281555176e+00,1.987838745117187500e+00,1.987636685371398926e+00,1.987434387207031250e+00,1.987232208251953125e+00,1.987030029296875000e+00,1.986828088760375977e+00,1.986626029014587402e+00,1.986423969268798828e+00,1.986222267150878906e+00,1.986020207405090332e+00,1.985818386077880859e+00,1.985616683959960938e+00,1.985414862632751465e+00,1.985213041305541992e+00,1.985011577606201172e+00,1.984809875488281250e+00,1.984608173370361328e+00,1.984406709671020508e+00,1.984205126762390137e+00,1.984003543853759766e+00,1.983802318572998047e+00,1.983600735664367676e+00,1.983399391174316406e+00,1.983198165893554688e+00,1.982996821403503418e+00,1.982795596122741699e+00,1.982594490051269531e+00,1.982393264770507812e+00,1.982192039489746094e+00,1.981991171836853027e+00,1.981790065765380859e+00,1.981588959693908691e+00,1.981388211250305176e+00,1.981187224388122559e+00,1.980986237525939941e+00,1.980785608291625977e+00,1.980584740638732910e+00,1.980383872985839844e+00,1.980183124542236328e+00,1.979982614517211914e+00,1.979781866073608398e+00,1.979581236839294434e+00,1.979380846023559570e+00,1.979180216789245605e+00,1.978979706764221191e+00,1.978779435157775879e+00,1.978579044342041016e+00,1.978378534317016602e+00,1.978178381919860840e+00,1.977978110313415527e+00,1.977777838706970215e+00,1.977577805519104004e+00,1.977377533912658691e+00,1.977177381515502930e+00,1.976977467536926270e+00,1.976777315139770508e+00,1.976577281951904297e+00,1.976377487182617188e+00,1.976177573204040527e+00,1.975977659225463867e+00,1.975777983665466309e+00,1.975578069686889648e+00,1.975378274917602539e+00,1.975178718566894531e+00,1.974979043006896973e+00,1.974779367446899414e+00,1.974579930305480957e+00,1.974380254745483398e+00,1.974180698394775391e+00,1.973981380462646484e+00,1.973781943321228027e+00,1.973582506179809570e+00,1.973383307456970215e+00,1.966535091400146484e+00,1.934558391571044922e+00,1.903605103492736816e+00,1.873626470565795898e+00,1.844577670097351074e+00
1.777747869491577148e+00,1.777585983276367188e+00,1.777424216270446777e+00,1.777262687683105469e+00,1.777101039886474609e+00,1.776939272880554199e+00,1.776777625083923340e+00,1.776616215705871582e+00,1.776454687118530273e+00,1.776293039321899414e+00,1.776131749153137207e+00,1.775970220565795898e+00,1.775808811187744141e+00,1.775647521018981934e+00,1.775486111640930176e+00,1.775324702262878418e+00,1.775163531303405762e+00,1.775002241134643555e+00,1.774840950965881348e+00,1.774679899215698242e+00,1.774518609046936035e+00,1.774357438087463379e+00,1.774196386337280273e+00,1.774035215377807617e+00,1.773874163627624512e+00,1.773713231086730957e+00,1.773552179336547852e+00,1.773391127586364746e+00,1.773230314254760742e+00,1.773069262504577637e+00,1.772908329963684082e+00,1.772747635841369629e+00,1.772586703300476074e+00,1.772425889968872070e+00,1.772265195846557617e+00,1.772104382514953613e+00,1.771943688392639160e+00,1.771783113479614258e+00,1.771622419357299805e+00,1.771461725234985352e+00,1.771301031112670898e+00,1.771140575408935547e+00,1.770980000495910645e+00,1.770819425582885742e+00,1.770659089088439941e+00,1.770498514175415039e+00,1.770338058471679688e+00,1.770177841186523438e+00,1.770017385482788086e+00,1.769856929779052734e+00,1.769696831703186035e+00,1.769536495208740234e+00,1.769376158714294434e+00,1.769216060638427734e+00,1.769055843353271484e+00,1.768895626068115234e+00,1.768735527992248535e+00,1.768575429916381836e+00,1.768415212631225586e+00,1.768255352973937988e+00,1.768095254898071289e+00,1.767935276031494141e+00,1.767775416374206543e+00,1.767615437507629395e+00,1.767455458641052246e+00,1.767295718193054199e+00,1.767135858535766602e+00,1.766975879669189453e+00,1.766816258430480957e+00,1.766656517982482910e+00,1.766496658325195312e+00,1.766337156295776367e+00,1.766177415847778320e+00,1.766017675399780273e+00,1.765858173370361328e+00,1.765698552131652832e+00,1.765538930892944336e+00,1.765379428863525391e+00,1.765220046043395996e+00,1.765060544013977051e+00
1.607555627822875977e+00,1.607423424720764160e+00,1.607291102409362793e+00,1.607159018516540527e+00,1.607026696205139160e+00,1.606894493103027344e+00,1.606762290000915527e+00,1.606630325317382812e+00,1.606498122215270996e+00,1.606366038322448730e+00,1.606234073638916016e+00,1.606101989746093750e+00,1.605969905853271484e+00,1.605838060379028320e+00,1.605705976486206055e+00,1.605574011802673340e+00,1.605442166328430176e+00,1.605310201644897461e+00,1.605178356170654297e+00,1.605046510696411133e+00,1.604914665222167969e+00,1.604782819747924805e+00,1.604651093482971191e+00,1.604519248008728027e+00,1.604387521743774414e+00,1.604255795478820801e+00,1.604124069213867188e+00,1.603992342948913574e+00,1.603860735893249512e+00,1.603729128837585449e+00,1.603597402572631836e+00,1.603465914726257324e+00,1.603334307670593262e+00,1.603202700614929199e+00,1.603071212768554688e+00,1.602939724922180176e+00,1.602808117866516113e+00,1.602676749229431152e+00,1.602545261383056641e+00,1.602413773536682129e+00,1.602282285690307617e+00,1.602151036262512207e+00,1.602019667625427246e+00,1.601888179779052734e+00,1.601757049560546875e+00,1.601625680923461914e+00,1.601494312286376953e+00,1.601363182067871094e+00,1.601231932640075684e+00,1.601100683212280273e+00,1.600969552993774414e+00,1.600838303565979004e+00,1.600707173347473145e+00,1.600576162338256836e+00,1.600444912910461426e+00,1.600313782691955566e+00,1.600182890892028809e+00,1.600051760673522949e+00,1.599920630455017090e+00,1.599789738655090332e+00,1.599658727645874023e+00,1.599527716636657715e+00,1.599396944046020508e+00,1.599265933036804199e+00,1.599135041236877441e+00,1.599004268646240234e+00,1.598873376846313477e+00,1.598742485046386719e+00,1.598611712455749512e+00,1.598480939865112305e+00,1.598350167274475098e+00,1.598219513893127441e+00,1.598088741302490234e+00,1.597957968711853027e+00,1.597827434539794922e+00,1.597696661949157715e+00,1.597566008567810059e+00,1.597435355186462402e+00,1.597304821014404297e+00,1.597174167633056641e+00
1.467103004455566406e+00,1.466992855072021484e+00,1.466882586479187012e+00,1.466772556304931641e+00,1.466662406921386719e+00,1.466552257537841797e+00,1.466442227363586426e+00,1.466332197189331055e+00,1.466222167015075684e+00,1.466112136840820312e+00,1.466002225875854492e+00,1.465892195701599121e+00,1.465782165527343750e+00,1.465672254562377930e+00,1.465562224388122559e+00,1.465452313423156738e+00,1.465342521667480469e+00,1.465232610702514648e+00,1.465122699737548828e+00,1.465012907981872559e+00,1.464902997016906738e+00,1.464793086051940918e+00,1.464683413505554199e+00,1.464573621749877930e+00,1.464463710784912109e+00,1.464354038238525391e+00,1.464244246482849121e+00,1.464134573936462402e+00,1.464024901390075684e+00,1.463915109634399414e+00,1.463805437088012695e+00,1.463695883750915527e+00,1.463586211204528809e+00,1.463476538658142090e+00,1.463366985321044922e+00,1.463257312774658203e+00,1.463147759437561035e+00,1.463038325309753418e+00,1.462928652763366699e+00,1.462819099426269531e+00,1.462709546089172363e+00,1.462600111961364746e+00,1.462490677833557129e+00,1.462381124496459961e+00,1.462271809577941895e+00,1.462162375450134277e+00,1.462052822113037109e+00,1.461943507194519043e+00,1.461834192276000977e+00,1.461724758148193359e+00,1.461615443229675293e+00,1.461506128311157227e+00,1.461396813392639160e+00,1.461287498474121094e+00,1.461178183555603027e+00,1.461068868637084961e+00,1.460959792137145996e+00,1.460850477218627930e+00,1.460741281509399414e+00,1.460632085800170898e+00,1.460522890090942383e+00,1.460413694381713867e+00,1.460304617881774902e+00,1.460195422172546387e+00,1.460086226463317871e+00,1.459977269172668457e+00,1.459868192672729492e+00,1.459758996963500977e+00,1.459650039672851562e+00,1.459540963172912598e+00,1.459431886672973633e+00,1.459323048591613770e+00,1.459213972091674805e+00,1.459105014801025391e+00,1.458996057510375977e+00,1.458887100219726562e+00,1.458778142929077148e+00,1.458669185638427734e+00,1.458560347557067871e+00,1.458451509475708008e+00
1.349221110343933105e+00,1.349127888679504395e+00,1.349034667015075684e+00,1.348941564559936523e+00,1.348848462104797363e+00,1.348755359649658203e+00,1.348662137985229492e+00,1.348569154739379883e+00,1.348476052284240723e+00,1.348382949829101562e+00,1.348289966583251953e+00,1.348196864128112793e+00,1.348103880882263184e+00,1.348010897636413574e+00,1.347917914390563965e+00,1.347824931144714355e+00,1.347731947898864746e+00,1.347638964653015137e+00,1.347545981407165527e+00,1.347453117370605469e+00,1.347360253334045410e+00,1.347267270088195801e+00,1.347174525260925293e+00,1.347081542015075684e+00,1.346988677978515625e+00,1.346895933151245117e+00,1.346802949905395508e+00,1.346710085868835449e+00,1.346617341041564941e+00,1.346524596214294434e+00,1.346431732177734375e+00,1.346338987350463867e+00,1.346246242523193359e+00,1.346153378486633301e+00,1.346060752868652344e+00,1.345968008041381836e+00,1.345875263214111328e+00,1.345782637596130371e+00,1.345689892768859863e+00,1.345597147941589355e+00,1.345504522323608398e+00,1.345411896705627441e+00,1.345319271087646484e+00,1.345226526260375977e+00,1.345134019851684570e+00,1.345041394233703613e+00,1.344948768615722656e+00,1.344856262207031250e+00,1.344763636589050293e+00,1.344671130180358887e+00,1.344578623771667480e+00,1.344486117362976074e+00,1.344393491744995117e+00,1.344301104545593262e+00,1.344208598136901855e+00,1.344116091728210449e+00,1.344023704528808594e+00,1.343931198120117188e+00,1.343838691711425781e+00,1.343746423721313477e+00,1.343653917312622070e+00,1.343561530113220215e+00,1.343469142913818359e+00,1.343376755714416504e+00,1.343284368515014648e+00,1.343192100524902344e+00,1.343099713325500488e+00,1.343007326126098633e+00,1.342915177345275879e+00,1.342822790145874023e+00,1.342730522155761719e+00,1.342638254165649414e+00,1.342545986175537109e+00,1.342453718185424805e+00,1.342361569404602051e+00,1.342269301414489746e+00,1.342177033424377441e+00,1.342084884643554688e+00,1.341992735862731934e+00,1.341900587081909180e+00
1.248873829841613770e+00,1.248794078826904297e+00,1.248714208602905273e+00,1.248634457588195801e+00,1.248554706573486328e+00,1.248474836349487305e+00,1.248395085334777832e+00,1.248315334320068359e+00,1.248235583305358887e+00,1.248155832290649414e+00,1.248076081275939941e+00,1.247996449470520020e+00,1.247916698455810547e+00,1.247837066650390625e+00,1.247757315635681152e+00,1.247677564620971680e+00,1.247597932815551758e+00,1.247518301010131836e+00,1.247438669204711914e+00,1.247359037399291992e+00,1.247279405593872070e+00,1.247199773788452148e+00,1.247120141983032227e+00,1.247040510177612305e+00,1.246960997581481934e+00,1.246881365776062012e+00,1.246801853179931641e+00,1.246722221374511719e+00,1.246642708778381348e+00,1.246563196182250977e+00,1.246483683586120605e+00,1.246404170989990234e+00,1.246324658393859863e+00,1.246245145797729492e+00,1.246165752410888672e+00,1.246086239814758301e+00,1.246006727218627930e+00,1.245927333831787109e+00,1.245847821235656738e+00,1.245768308639526367e+00,1.245688915252685547e+00,1.245609521865844727e+00,1.245530128479003906e+00,1.245450735092163086e+00,1.245371341705322266e+00,1.245291948318481445e+00,1.245212554931640625e+00,1.245133280754089355e+00,1.245053887367248535e+00,1.244974493980407715e+00,1.244895339012145996e+00,1.244815945625305176e+00,1.244736552238464355e+00,1.244657397270202637e+00,1.244578003883361816e+00,1.244498729705810547e+00,1.244419574737548828e+00,1.244340300559997559e+00,1.244261026382446289e+00,1.244181871414184570e+00,1.244102597236633301e+00,1.244023323059082031e+00,1.243944168090820312e+00,1.243865013122558594e+00,1.243785738945007324e+00,1.243706703186035156e+00,1.243627429008483887e+00,1.243548274040222168e+00,1.243469238281250000e+00,1.243390083312988281e+00,1.243310928344726562e+00,1.243231892585754395e+00,1.243152737617492676e+00,1.243073582649230957e+00,1.242994546890258789e+00,1.242915511131286621e+00,1.242836356163024902e+00,1.242757320404052734e+00,1.242678284645080566e+00,1.242599248886108398e+00
1.162419915199279785e+00,1.162350773811340332e+00,1.162281632423400879e+00,1.162212491035461426e+00,1.162143349647521973e+00,1.162074208259582520e+00,1.162005066871643066e+00,1.161936044692993164e+00,1.161866903305053711e+00,1.161797761917114258e+00,1.161728739738464355e+00,1.161659717559814453e+00,1.161590576171875000e+00,1.161521553993225098e+00,1.161452531814575195e+00,1.161383390426635742e+00,1.161314487457275391e+00,1.161245465278625488e+00,1.161176443099975586e+00,1.161107420921325684e+00,1.161038398742675781e+00,1.160969376564025879e+00,1.160900473594665527e+00,1.160831451416015625e+00,1.160762429237365723e+00,1.160693526268005371e+00,1.160624623298645020e+00,1.160555601119995117e+00,1.160486698150634766e+00,1.160417795181274414e+00,1.160348892211914062e+00,1.160279989242553711e+00,1.160211086273193359e+00,1.160142183303833008e+00,1.160073280334472656e+00,1.160004496574401855e+00,1.159935593605041504e+00,1.159866690635681152e+00,1.159797906875610352e+00,1.159729003906250000e+00,1.159660100936889648e+00,1.159591317176818848e+00,1.159522533416748047e+00,1.159453630447387695e+00,1.159384965896606445e+00,1.159316062927246094e+00,1.159247279167175293e+00,1.159178614616394043e+00,1.159109830856323242e+00,1.159041047096252441e+00,1.158972263336181641e+00,1.158903479576110840e+00,1.158834815025329590e+00,1.158766031265258789e+00,1.158697366714477539e+00,1.158628582954406738e+00,1.158559918403625488e+00,1.158491253852844238e+00,1.158422470092773438e+00,1.158353924751281738e+00,1.158285260200500488e+00,1.158216595649719238e+00,1.158147931098937988e+00,1.158079266548156738e+00,1.158010601997375488e+00,1.157942056655883789e+00,1.157873392105102539e+00,1.157804727554321289e+00,1.157736182212829590e+00,1.157667636871337891e+00,1.157598972320556641e+00,1.157530426979064941e+00,1.157461881637573242e+00,1.157393217086791992e+00,1.157324790954589844e+00,1.157256126403808594e+00,1.157187581062316895e+00,1.157119035720825195e+00,1.157050609588623047e+00,1.156982064247131348e+00
1.087160587310791016e+00,1.087100148200988770e+00,1.087039589881896973e+00,1.086979150772094727e+00,1.086918711662292480e+00,1.086858153343200684e+00,1.086797714233398438e+00,1.086737275123596191e+00,1.086676836013793945e+00,1.086616396903991699e+00,1.086556077003479004e+00,1.086495637893676758e+00,1.086435198783874512e+00,1.086374759674072266e+00,1.086314320564270020e+00,1.086254000663757324e+00,1.086193561553955078e+00,1.086133241653442383e+00,1.086072802543640137e+00,1.086012482643127441e+00,1.085952162742614746e+00,1.085891723632812500e+00,1.085831403732299805e+00,1.085771083831787109e+00,1.085710763931274414e+00,1.085650444030761719e+00,1.085590124130249023e+00,1.085529804229736328e+00,1.085469484329223633e+00,1.085409164428710938e+00,1.085348844528198242e+00,1.085288643836975098e+00,1.085228323936462402e+00,1.085168004035949707e+00,1.085107803344726562e+00,1.085047483444213867e+00,1.084987282752990723e+00,1.084927082061767578e+00,1.084866762161254883e+00,1.084806561470031738e+00,1.084746241569519043e+00,1.084686040878295898e+00,1.084625840187072754e+00,1.084565639495849609e+00,1.084505438804626465e+00,1.084445238113403320e+00,1.084385037422180176e+00,1.084324955940246582e+00,1.084264755249023438e+00,1.084204554557800293e+00,1.084144473075866699e+00,1.084084272384643555e+00,1.084024071693420410e+00,1.083963990211486816e+00,1.083903789520263672e+00,1.083843708038330078e+00,1.083783626556396484e+00,1.083723425865173340e+00,1.083663344383239746e+00,1.083603262901306152e+00,1.083543181419372559e+00,1.083483099937438965e+00,1.083423018455505371e+00,1.083362936973571777e+00,1.083302855491638184e+00,1.083242893218994141e+00,1.083182811737060547e+00,1.083122730255126953e+00,1.083062648773193359e+00,1.083002686500549316e+00,1.082942605018615723e+00,1.082882642745971680e+00,1.082822561264038086e+00,1.082762598991394043e+00,1.082702636718750000e+00,1.082642555236816406e+00,1.082582592964172363e+00,1.082522630691528320e+00,1.082462668418884277e+00,1.082402706146240234e+00
1.021053910255432129e+00,1.021000504493713379e+00,1.020947098731994629e+00,1.020893812179565430e+00,1.020840525627136230e+00,1.020787119865417480e+00,1.020733714103698730e+00,1.020680427551269531e+00,1.020627140998840332e+00,1.020573854446411133e+00,1.020520567893981934e+00,1.020467281341552734e+00,1.020413875579833984e+00,1.020360708236694336e+00,1.020307421684265137e+00,1.020254015922546387e+00,1.020200848579406738e+00,1.020147562026977539e+00,1.020094275474548340e+00,1.020041108131408691e+00,1.019987821578979492e+00,1.019934535026550293e+00,1.019881367683410645e+00,1.019828081130981445e+00,1.019774794578552246e+00,1.019721627235412598e+00,1.019668459892272949e+00,1.019615173339843750e+00,1.019562005996704102e+00,1.019508838653564453e+00,1.019455552101135254e+00,1.019402384757995605e+00,1.019349217414855957e+00,1.019296050071716309e+00,1.019242882728576660e+00,1.019189715385437012e+00,1.019136548042297363e+00,1.019083380699157715e+00,1.019030213356018066e+00,1.018977046012878418e+00,1.018923878669738770e+00,1.018870830535888672e+00,1.018817663192749023e+00,1.018764495849609375e+00,1.018711447715759277e+00,1.018658399581909180e+00,1.018605232238769531e+00,1.018552184104919434e+00,1.018499016761779785e+00,1.018445968627929688e+00,1.018392920494079590e+00,1.018339753150939941e+00,1.018286705017089844e+00,1.018233656883239746e+00,1.018180608749389648e+00,1.018127560615539551e+00,1.018074512481689453e+00,1.018021464347839355e+00,1.017968416213989258e+00,1.017915368080139160e+00,1.017862319946289062e+00,1.017809271812438965e+00,1.017756342887878418e+00,1.017703294754028320e+00,1.017650246620178223e+00,1.017597317695617676e+00,1.017544269561767578e+00,1.017491340637207031e+00,1.017438292503356934e+00,1.017385363578796387e+00,1.017332315444946289e+00,1.017279386520385742e+00,1.017226457595825195e+00,1.017173409461975098e+00,1.017120599746704102e+00,1.017067551612854004e+00,1.017014622688293457e+00,1.016961693763732910e+00,1.016908764839172363e+00,1.016855835914611816e+00
