5.000000000000000000e+00,5.000000000000000000e+00,5.000000000000000000e+00,5.000000000000000000e+00,5.000000000000000000e+00,5.000000000000000000e+00,5.000000000000000000e+00,5.000000000000000000e+00,5.000000000000000000e+00,5.000000000000000000e+00,5.000000000000000000e+00,5.000000000000000000e+00,5.000000000000000000e+00,5.000000000000000000e+00,5.000000000000000000e+00,5.000000000000000000e+00,5.000000000000000000e+00,5.000000000000000000e+00,5.000000000000000000e+00,5.000000000000000000e+00,5.000000000000000000e+00,5.000000000000000000e+00,5.000000000000000000e+00,5.000000000000000000e+00,5.000000000000000000e+00,5.000000000000000000e+00,5.000000000000000000e+00,5.000000000000000000e+00,5.000000000000000000e+00,5.000000000000000000e+00,5.000000000000000000e+00,5.000000000000000000e+00,5.000000000000000000e+00,1.830869793891906738e+00,1.822525501251220703e+00,1.825619578361511230e+00,1.787426352500915527e+00,1.764788985252380371e+00,1.754223465919494629e+00,1.751804947853088379e+00,1.754921913146972656e+00,1.762578606605529785e+00,1.776211619377136230e+00,1.806016802787780762e+00,1.920661449432373047e+00,1.907380342483520508e+00,1.924233198165893555e+00,3.657584667205810547e+00,3.548496246337890625e+00,3.445726633071899414e+00,3.348742246627807617e+00,3.257068157196044922e+00,3.170279264450073242e+00,3.087995529174804688e+00,3.009875297546386719e+00,2.935610055923461914e+00,2.864921092987060547e+00,2.797556638717651367e+00,2.733287334442138672e+00,2.671904802322387695e+00,2.613218545913696289e+00,2.557054996490478516e+00,2.503254652023315430e+00,2.451671600341796875e+00,2.402171611785888672e+00,2.354630708694458008e+00,2.308935165405273438e+00,2.264979600906372070e+00,2.222666025161743164e+00,2.181904792785644531e+00,2.142611503601074219e+00,2.104708433151245117e+00,2.068122863769531250e+00,2.032787561416625977e+00,1.998639702796936035e+00,1.965620040893554688e+00,1.933673501014709473e+00,1.902748942375183105e+00,1.872797846794128418e+00,1.843775153160095215e+00
5.000000000000000000e+00,5.000000000000000000e+00,5.000000000000000000e+00,5.000000000000000000e+00,5.000000000000000000e+00,5.000000000000000000e+00,5.000000000000000000e+00,5.000000000000000000e+00,5.000000000000000000e+00,5.000000000000000000e+00,5.000000000000000000e+00,5.000000000000000000e+00,5.000000000000000000e+00,5.000000000000000000e+00,5.000000000000000000e+00,5.000000000000000000e+00,5.000000000000000000e+00,5.000000000000000000e+00,5.000000000000000000e+00,5.000000000000000000e+00,5.000000000000000000e+00,5.000000000000000000e+00,5.000000000000000000e+00,5.000000000000000000e+00,5.000000000000000000e+00,5.000000000000000000e+00,5.000000000000000000e+00,5.000000000000000000e+00,5.000000000000000000e+00,5.000000000000000000e+00,5.000000000000000000e+00,5.000000000000000000e+00,5.000000000000000000e+00,1.835082650184631348e+00,1.820503354072570801e+00,1.821108460426330566e+00,1.797769427299499512e+00,1.767505288124084473e+00,1.755989909172058105e+00,1.753519892692565918e+00,1.756120204925537109e+00,1.764038801193237305e+00,1.778574585914611816e+00,1.804972887039184570e+00,1.920243382453918457e+00,1.906956315040588379e+00,1.928197741508483887e+00,3.657663106918334961e+00,3.548570394515991211e+00,3.445796489715576172e+00,3.348808050155639648e+00,3.257130384445190430e+00,3.170338153839111328e+00,3.088051557540893555e+00,3.009928464889526367e+00,2.935660362243652344e+00,2.864969015121459961e+00,2.797602415084838867e+00,2.733330965042114258e+00,2.671946525573730469e+00,2.613258600234985352e+00,2.557093143463134766e+00,2.503291368484497070e+00,2.451706886291503906e+00,2.402205228805541992e+00,2.354663372039794922e+00,2.308966398239135742e+00,2.265009641647338867e+00,2.222695112228393555e+00,2.181932687759399414e+00,2.142638444900512695e+00,2.104734420776367188e+00,2.068147897720336914e+00,2.032811880111694336e+00,1.998662948608398438e+00,1.965642571449279785e+00,1.933695435523986816e+00,1.902770161628723145e+00,1.872818350791931152e+00,1.843795061111450195e+00
5.000000000000000000e+00,5.000000000000000000e+00,5.000000000000000000e+00,5.000000000000000000e+00,5.000000000000000000e+00,5.000000000000000000e+00,5.000000000000000000e+00,5.000000000000000000e+00,5.000000000000000000e+00,5.000000000000000000e+00,5.000000000000000000e+00,5.000000000000000000e+00,5.000000000000000000e+00,5.000000000000000000e+00,5.000000000000000000e+00,5.000000000000000000e+00,5.000000000000000000e+00,5.000000000000000000e+00,5.000000000000000000e+00,5.000000000000000000e+00,5.000000000000000000e+00,5.000000000000000000e+00,5.000000000000000000e+00,5.000000000000000000e+00,5.000000000000000000e+00,5.000000000000000000e+00,5.000000000000000000e+00,5.000000000000000000e+00,5.000000000000000000e+00,5.000000000000000000e+00,5.000000000000000000e+00,5.000000000000000000e+00,5.000000000000000000e+00,1.840297698974609375e+00,1.823981404304504395e+00,1.828442096710205078e+00,1.793178439140319824e+00,1.756923317909240723e+00,1.744441151618957520e+00,1.745027184486389160e+00,1.758574128150939941e+00,1.762914538383483887e+00,1.772276401519775391e+00,1.800943017005920410e+00,1.928542375564575195e+00,1.915354728698730469e+00,1.929766416549682617e+00,3.657741308212280273e+00,3.548643827438354492e+00,3.445865869522094727e+00,3.348873615264892578e+00,3.257192373275756836e+00,3.170397043228149414e+00,3.088107347488403320e+00,3.009981393814086914e+00,2.935710906982421875e+00,2.865017175674438477e+00,2.797648191452026367e+00,2.733374834060668945e+00,2.671988487243652344e+00,2.613298654556274414e+00,2.557131528854370117e+00,2.503328084945678711e+00,2.451742172241210938e+00,2.402239322662353516e+00,2.354695796966552734e+00,2.308997869491577148e+00,2.265039682388305664e+00,2.222724199295043945e+00,2.181960582733154297e+00,2.142665386199951172e+00,2.104760408401489258e+00,2.068172931671142578e+00,2.032835960388183594e+00,1.998686552047729492e+00,1.965665340423583984e+00,1.933717250823974609e+00,1.902791261672973633e+00,1.872838854789733887e+00,1.843814849853515625e+00
5.000000000000000000e+00,5.000000000000000000e+00,5.000000000000000000e+00,5.000000000000000000e+00,5.000000000000000000e+00,5.000000000000000000e+00,5.000000000000000000e+00,5.000000000000000000e+00,5.000000000000000000e+00,5.000000000000000000e+00,5.000000000000000000e+00,5.000000000000000000e+00,5.000000000000000000e+00,5.000000000000000000e+00,5.000000000000000000e+00,5.000000000000000000e+00,5.000000000000000000e+00,5.000000000000000000e+00,5.000000000000000000e+00,5.000000000000000000e+00,5.000000000000000000e+00,5.000000000000000000e+00,5.000000000000000000e+00,5.000000000000000000e+00,5.000000000000000000e+00,5.000000000000000000e+00,5.000000000000000000e+00,5.000000000000000000e+00,5.000000000000000000e+00,5.000000000000000000e+00,5.000000000000000000e+00,5.000000000000000000e+00,5.000000000000000000e+00,1.847187995910644531e+00,1.828516006469726562e+00,1.835835337638854980e+00,1.780082702636718750e+00,1.751607775688171387e+00,1.739584207534790039e+00,1.740508913993835449e+00,1.747583508491516113e+00,1.753055691719055176e+00,1.764150738716125488e+00,1.786056995391845703e+00,1.938152432441711426e+00,1.925196766853332520e+00,1.935620427131652832e+00,3.657819747924804688e+00,3.548717737197875977e+00,3.445935487747192383e+00,3.348939418792724609e+00,3.257254600524902344e+00,3.170455932617187500e+00,3.088163137435913086e+00,3.010034561157226562e+00,2.935761451721191406e+00,2.865065574645996094e+00,2.797694206237792969e+00,2.733418703079223633e+00,2.672030448913574219e+00,2.613338708877563477e+00,2.557169914245605469e+00,2.503364801406860352e+00,2.451777458190917969e+00,2.402273178100585938e+00,2.354728221893310547e+00,2.309028863906860352e+00,2.265069723129272461e+00,2.222753047943115234e+00,2.181988477706909180e+00,2.142692089080810547e+00,2.104785919189453125e+00,2.068197727203369141e+00,2.032860279083251953e+00,1.998709917068481445e+00,1.965687990188598633e+00,1.933739304542541504e+00,1.902812600135803223e+00,1.872859597206115723e+00,1.843834996223449707e+00
5.000000000000000000e+00,5.000000000000000000e+00,5.000000000000000000e+00,5.000000000000000000e+00,5.000000000000000000e+00,5.000000000000000000e+00,5.000000000000000000e+00,5.000000000000000000e+00,5.000000000000000000e+00,5.000000000000000000e+00,5.000000000000000000e+00,5.000000000000000000e+00,5.000000000000000000e+00,5.000000000000000000e+00,5.000000000000000000e+00,5.000000000000000000e+00,5.000000000000000000e+00,5.000000000000000000e+00,5.000000000000000000e+00,5.000000000000000000e+00,5.000000000000000000e+00,5.000000000000000000e+00,5.000000000000000000e+00,5.000000000000000000e+00,5.000000000000000000e+00,5.000000000000000000e+00,5.000000000000000000e+00,5.000000000000000000e+00,5.000000000000000000e+00,5.000000000000000000e+00,5.000000000000000000e+00,5.000000000000000000e+00,5.000000000000000000e+00,1.853645801544189453e+00,1.836813926696777344e+00,1.825316071510314941e+00,1.777912616729736328e+00,1.754320263862609863e+00,1.757608532905578613e+00,1.752137184143066406e+00,1.749097585678100586e+00,1.756309270858764648e+00,1.778279662132263184e+00,1.790305137634277344e+00,1.947858572006225586e+00,1.935140252113342285e+00,1.942569613456726074e+00,3.657898426055908203e+00,3.548791646957397461e+00,3.446005105972290039e+00,3.349005460739135742e+00,3.257316827774047852e+00,3.170515060424804688e+00,3.088219165802001953e+00,3.010087728500366211e+00,2.935811758041381836e+00,2.865113496780395508e+00,2.797739982604980469e+00,2.733462333679199219e+00,2.672072172164916992e+00,2.613378524780273438e+00,2.557208061218261719e+00,2.503401517868041992e+00,2.451812505722045898e+00,2.402306795120239258e+00,2.354760885238647461e+00,2.309060096740722656e+00,2.265099763870239258e+00,2.222781896591186523e+00,2.182016372680664062e+00,2.142718791961669922e+00,2.104811906814575195e+00,2.068222999572753906e+00,2.032884359359741211e+00,1.998733282089233398e+00,1.965710520744323730e+00,1.933761119842529297e+00,1.902833819389343262e+00,1.872880101203918457e+00,1.843854784965515137e+00
5.000000000000000000e+00,5.000000000000000000e+00,5.000000000000000000e+00,5.000000000000000000e+00,5.000000000000000000e+00,5.000000000000000000e+00,5.000000000000000000e+00,5.000000000000000000e+00,5.000000000000000000e+00,5.000000000000000000e+00,5.000000000000000000e+00,5.000000000000000000e+00,5.000000000000000000e+00,5.000000000000000000e+00,5.000000000000000000e+00,5.000000000000000000e+00,5.000000000000000000e+00,5.000000000000000000e+00,5.000000000000000000e+00,5.000000000000000000e+00,5.000000000000000000e+00,5.000000000000000000e+00,5.000000000000000000e+00,5.000000000000000000e+00,5.000000000000000000e+00,5.000000000000000000e+00,5.000000000000000000e+00,5.000000000000000000e+00,5.000000000000000000e+00,5.000000000000000000e+00,5.000000000000000000e+00,5.000000000000000000e+00,5.000000000000000000e+00,1.856993675231933594e+00,1.832367181777954102e+00,1.824802756309509277e+00,1.778750658035278320e+00,1.764398574829101562e+00,1.749561429023742676e+00,1.749904870986938477e+00,1.749110579490661621e+00,1.757636189460754395e+00,1.771081209182739258e+00,1.795088648796081543e+00,1.853590726852416992e+00,1.944146394729614258e+00,1.949052453041076660e+00,3.657976627349853516e+00,3.548865318298339844e+00,3.446074485778808594e+00,3.349070787429809570e+00,3.257378816604614258e+00,3.170573711395263672e+00,3.088274955749511719e+00,3.010140657424926758e+00,2.935862541198730469e+00,2.865161657333374023e+00,2.797785997390747070e+00,2.733506202697753906e+00,2.672113895416259766e+00,2.613418817520141602e+00,2.557246446609497070e+00,2.503438234329223633e+00,2.451847791671752930e+00,2.402340650558471680e+00,2.354793310165405273e+00,2.309091567993164062e+00,2.265130043029785156e+00,2.222810983657836914e+00,2.182044029235839844e+00,2.142745733261108398e+00,2.104838132858276367e+00,2.068248033523559570e+00,2.032908678054809570e+00,1.998756766319274902e+00,1.965733289718627930e+00,1.933783054351806641e+00,1.902854919433593750e+00,1.872900605201721191e+00,1.843874692916870117e+00
5.000000000000000000e+00,5.000000000000000000e+00,5.000000000000000000e+00,5.000000000000000000e+00,5.000000000000000000e+00,5.000000000000000000e+00,5.000000000000000000e+00,5.000000000000000000e+00,5.000000000000000000e+00,5.000000000000000000e+00,5.000000000000000000e+00,5.000000000000000000e+00,5.000000000000000000e+00,5.000000000000000000e+00,5.000000000000000000e+00,5.000000000000000000e+00,5.000000000000000000e+00,5.000000000000000000e+00,5.000000000000000000e+00,5.000000000000000000e+00,5.000000000000000000e+00,5.000000000000000000e+00,5.000000000000000000e+00,5.000000000000000000e+00,5.000000000000000000e+00,5.000000000000000000e+00,5.000000000000000000e+00,5.000000000000000000e+00,5.000000000000000000e+00,5.000000000000000000e+00,5.000000000000000000e+00,5.000000000000000000e+00,5.000000000000000000e+00,1.830879807472229004e+00,1.808077335357666016e+00,1.818524718284606934e+00,1.780755162239074707e+00,1.764146447181701660e+00,1.753804683685302734e+00,1.752202033996582031e+00,1.753370285034179688e+00,1.760488986968994141e+00,1.772561073303222656e+00,1.789625883102416992e+00,1.827815055847167969e+00,1.935732722282409668e+00,1.938015937805175781e+00,3.658055067062377930e+00,3.548939228057861328e+00,3.446144342422485352e+00,3.349136829376220703e+00,3.257441282272338867e+00,3.170632600784301758e+00,3.088330984115600586e+00,3.010193824768066406e+00,2.935913085937500000e+00,2.865209817886352539e+00,2.797832012176513672e+00,2.733550071716308594e+00,2.672155857086181641e+00,2.613458871841430664e+00,2.557285070419311523e+00,2.503475189208984375e+00,2.451883077621459961e+00,2.402374505996704102e+00,2.354825973510742188e+00,2.309122562408447266e+00,2.265160083770751953e+00,2.222839593887329102e+00,2.182071924209594727e+00,2.142772674560546875e+00,2.104863882064819336e+00,2.068273067474365234e+00,2.032932758331298828e+00,1.998780131340026855e+00,1.965755939483642578e+00,1.933805108070373535e+00,1.902876257896423340e+00,1.872921228408813477e+00,1.843894720077514648e+00
5.000000000000000000e+00,5.000000000000000000e+00,5.000000000000000000e+00,5.000000000000000000e+00,5.000000000000000000e+00,5.000000000000000000e+00,5.000000000000000000e+00,5.000000000000000000e+00,5.000000000000000000e+00,5.000000000000000000e+00,5.000000000000000000e+00,5.000000000000000000e+00,5.000000000000000000e+00,5.000000000000000000e+00,5.000000000000000000e+00,5.000000000000000000e+00,5.000000000000000000e+00,5.000000000000000000e+00,5.000000000000000000e+00,5.000000000000000000e+00,5.000000000000000000e+00,5.000000000000000000e+00,5.000000000000000000e+00,5.000000000000000000e+00,5.000000000000000000e+00,5.000000000000000000e+00,5.000000000000000000e+00,5.000000000000000000e+00,5.000000000000000000e+00,5.000000000000000000e+00,5.000000000000000000e+00,5.000000000000000000e+00,5.000000000000000000e+00,1.812863945960998535e+00,1.792173981666564941e+00,1.804228663444519043e+00,1.768200635910034180e+00,1.752983689308166504e+00,1.756348252296447754e+00,1.764996170997619629e+00,1.764506459236145020e+00,1.776013016700744629e+00,1.785406827926635742e+00,1.787226557731628418e+00,1.817857623100280762e+00,1.932327151298522949e+00,1.929989695549011230e+00,3.658133745193481445e+00,3.549013137817382812e+00,3.446213960647583008e+00,3.349202632904052734e+00,3.257503509521484375e+00,3.170691728591918945e+00,3.088387012481689453e+00,3.010246992111206055e+00,2.935963392257690430e+00,2.865257740020751953e+00,2.797877788543701172e+00,2.733593702316284180e+00,2.672197580337524414e+00,2.613498687744140625e+00,2.557323217391967773e+00,2.503511667251586914e+00,2.451918125152587891e+00,2.402408361434936523e+00,2.354858398437500000e+00,2.309154033660888672e+00,2.265189886093139648e+00,2.222868680953979492e+00,2.182099819183349609e+00,2.142799615859985352e+00,2.104889869689941406e+00,2.068298101425170898e+00,2.032957077026367188e+00,1.998803496360778809e+00,1.965778470039367676e+00,1.933826923370361328e+00,1.902897477149963379e+00,1.872941732406616211e+00,1.843914628028869629e+00
5.000000000000000000e+00,5.000000000000000000e+00,5.000000000000000000e+00,5.000000000000000000e+00,5.000000000000000000e+00,5.000000000000000000e+00,5.000000000000000000e+00,5.000000000000000000e+00,5.000000000000000000e+00,5.000000000000000000e+00,5.000000000000000000e+00,5.000000000000000000e+00,5.000000000000000000e+00,5.000000000000000000e+00,5.000000000000000000e+00,5.000000000000000000e+00,5.000000000000000000e+00,5.000000000000000000e+00,5.000000000000000000e+00,5.000000000000000000e+00,5.000000000000000000e+00,5.000000000000000000e+00,5.000000000000000000e+00,5.000000000000000000e+00,5.000000000000000000e+00,5.000000000000000000e+00,5.000000000000000000e+00,5.000000000000000000e+00,5.000000000000000000e+00,5.000000000000000000e+00,5.000000000000000000e+00,5.000000000000000000e+00,5.000000000000000000e+00,1.799102425575256348e+00,1.775405645370483398e+00,1.793235659599304199e+00,1.735124588012695312e+00,1.719333052635192871e+00,1.733404517173767090e+00,1.763415932655334473e+00,1.778010487556457520e+00,1.791813015937805176e+00,1.784991860389709473e+00,1.777664065361022949e+00,1.801684498786926270e+00,1.931783199310302734e+00,1.922281026840209961e+00,1.964432120323181152e+00,3.549086809158325195e+00,3.446283340454101562e+00,3.349268198013305664e+00,3.257565498352050781e+00,3.170750379562377930e+00,3.088442564010620117e+00,3.010299921035766602e+00,2.936013936996459961e+00,2.865305900573730469e+00,2.797923564910888672e+00,2.733637571334838867e+00,2.672239542007446289e+00,2.613538742065429688e+00,2.557361602783203125e+00,2.503548383712768555e+00,2.451953411102294922e+00,2.402442216873168945e+00,2.354890823364257812e+00,2.309185028076171875e+00,2.265219926834106445e+00,2.222897768020629883e+00,2.182127952575683594e+00,2.142826557159423828e+00,2.104915857315063477e+00,2.068323373794555664e+00,2.032981395721435547e+00,1.998827099800109863e+00,1.965801239013671875e+00,1.933848738670349121e+00,1.902918577194213867e+00,1.872962236404418945e+00,1.843934416770935059e+00
5.000000000000000000e+00,5.000000000000000000e+00,5.000000000000000000e+00,5.000000000000000000e+00,5.000000000000000000e+00,5.000000000000000000e+00,5.000000000000000000e+00,5.000000000000000000e+00,5.000000000000000000e+00,5.000000000000000000e+00,5.000000000000000000e+00,5.000000000000000000e+00,5.000000000000000000e+00,5.000000000000000000e+00,5.000000000000000000e+00,5.000000000000000000e+00,5.000000000000000000e+00,5.000000000000000000e+00,5.000000000000000000e+00,5.000000000000000000e+00,5.000000000000000000e+00,5.000000000000000000e+00,5.000000000000000000e+00,5.000000000000000000e+00,5.000000000000000000e+00,5.000000000000000000e+00,5.000000000000000000e+00,5.000000000000000000e+00,5.000000000000000000e+00,5.000000000000000000e+00,5.000000000000000000e+00,5.000000000000000000e+00,5.000000000000000000e+00,1.778373837471008301e+00,1.752800583839416504e+00,1.731877446174621582e+00,1.715301871299743652e+00,1.699304461479187012e+00,1.703282356262207031e+00,1.731439471244812012e+00,1.811400055885314941e+00,1.780475020408630371e+00,1.768538117408752441e+00,1.757047772407531738e+00,1.776772975921630859e+00,1.811473846435546875e+00,1.912617087364196777e+00,1.932113051414489746e+00,3.549160718917846680e+00,3.446353197097778320e+00,3.349334001541137695e+00,3.257627725601196289e+00,3.170809507369995117e+00,3.088498592376708984e+00,3.010353088378906250e+00,2.936064720153808594e+00,2.865354061126708984e+00,2.797969579696655273e+00,2.733681440353393555e+00,2.672281503677368164e+00,2.613578796386718750e+00,2.557399988174438477e+00,2.503585338592529297e+00,2.451988697052001953e+00,2.402476072311401367e+00,2.354923248291015625e+00,2.309216260910034180e+00,2.265249967575073242e+00,2.222926616668701172e+00,2.182155609130859375e+00,2.142853498458862305e+00,2.104941844940185547e+00,2.068348169326782227e+00,2.033005475997924805e+00,1.998850345611572266e+00,1.965823888778686523e+00,1.933870792388916016e+00,1.902939915657043457e+00,1.872982978820800781e+00,1.843954563140869141e+00
5.000000000000000000e+00,5.000000000000000000e+00,5.000000000000000000e+00,5.000000000000000000e+00,5.000000000000000000e+00,5.000000000000000000e+00,5.000000000000000000e+00,5.000000000000000000e+00,5.000000000000000000e+00,5.000000000000000000e+00,5.000000000000000000e+00,5.000000000000000000e+00,5.000000000000000000e+00,5.000000000000000000e+00,5.000000000000000000e+00,5.000000000000000000e+00,5.000000000000000000e+00,5.000000000000000000e+00,5.000000000000000000e+00,5.000000000000000000e+00,5.000000000000000000e+00,5.000000000000000000e+00,5.000000000000000000e+00,5.000000000000000000e+00,5.000000000000000000e+00,5.000000000000000000e+00,5.000000000000000000e+00,5.000000000000000000e+00,5.000000000000000000e+00,5.000000000000000000e+00,5.000000000000000000e+00,5.000000000000000000e+00,5.000000000000000000e+00,1.761898159980773926e+00,1.753921866416931152e+00,1.719637274742126465e+00,1.703662514686584473e+00,1.687981963157653809e+00,1.690469622611999512e+00,1.712568879127502441e+00,1.802545309066772461e+00,1.761618018150329590e+00,1.753362298011779785e+00,1.745745778083801270e+00,1.764632940292358398e+00,1.798955202102661133e+00,1.912781596183776855e+00,1.914290189743041992e+00,3.549234628677368164e+00,3.446422815322875977e+00,3.349399805068969727e+00,3.257690191268920898e+00,3.170868396759033203e+00,3.088554620742797852e+00,3.010406494140625000e+00,2.936115026473999023e+00,2.865402221679687500e+00,2.798015356063842773e+00,2.733725070953369141e+00,2.672323226928710938e+00,2.613618850708007812e+00,2.557438135147094727e+00,2.503621816635131836e+00,2.452023983001708984e+00,2.402509450912475586e+00,2.354955673217773438e+00,2.309247493743896484e+00,2.265280008316040039e+00,2.222955465316772461e+00,2.182183504104614258e+00,2.142880439758300781e+00,2.104967832565307617e+00,2.068373441696166992e+00,2.033029794692993164e+00,1.998873710632324219e+00,1.965846419334411621e+00,1.933892726898193359e+00,1.902961134910583496e+00,1.873003482818603516e+00,1.843974351882934570e+00
5.000000000000000000e+00,5.000000000000000000e+00,5.000000000000000000e+00,5.000000000000000000e+00,5.000000000000000000e+00,5.000000000000000000e+00,5.000000000000000000e+00,5.000000000000000000e+00,5.000000000000000000e+00,5.000000000000000000e+00,5.000000000000000000e+00,5.000000000000000000e+00,5.000000000000000000e+00,5.000000000000000000e+00,5.000000000000000000e+00,5.000000000000000000e+00,5.000000000000000000e+00,5.000000000000000000e+00,5.000000000000000000e+00,5.000000000000000000e+00,5.000000000000000000e+00,5.000000000000000000e+00,5.000000000000000000e+00,5.000000000000000000e+00,5.000000000000000000e+00,5.000000000000000000e+00,5.000000000000000000e+00,5.000000000000000000e+00,5.000000000000000000e+00,5.000000000000000000e+00,5.000000000000000000e+00,5.000000000000000000e+00,5.000000000000000000e+00,1.757180213928222656e+00,1.727438092231750488e+00,1.711632966995239258e+00,1.694915175437927246e+00,1.679394483566284180e+00,1.683088421821594238e+00,1.703227400779724121e+00,1.789687037467956543e+00,1.760738492012023926e+00,1.747771263122558594e+00,1.740017175674438477e+00,1.757833957672119141e+00,1.791359782218933105e+00,1.934918165206909180e+00,1.925596952438354492e+00,3.549308300018310547e+00,3.446492195129394531e+00,3.349465370178222656e+00,3.257752180099487305e+00,3.170927286148071289e+00,3.088610410690307617e+00,3.010459423065185547e+00,2.936165571212768555e+00,2.865450382232666016e+00,2.798061370849609375e+00,2.733768939971923828e+00,2.672365188598632812e+00,2.613658905029296875e+00,2.557476520538330078e+00,2.503658771514892578e+00,2.452059030532836914e+00,2.402543306350708008e+00,2.354988098144531250e+00,2.309278726577758789e+00,2.265310287475585938e+00,2.222984552383422852e+00,2.182211637496948242e+00,2.142907381057739258e+00,2.104993820190429688e+00,2.068398475646972656e+00,2.033054113388061523e+00,1.998897314071655273e+00,1.965869188308715820e+00,1.933914542198181152e+00,1.902982234954833984e+00,1.873023867607116699e+00,1.843994259834289551e+00
5.000000000000000000e+00,5.000000000000000000e+00,5.000000000000000000e+00,4.704873561859130859e+00,4.743499755859375000e+00,5.000000000000000000e+00,5.000000000000000000e+00,5.000000000000000000e+00,5.000000000000000000e+00,5.000000000000000000e+00,5.000000000000000000e+00,5.000000000000000000e+00,5.000000000000000000e+00,5.000000000000000000e+00,5.000000000000000000e+00,5.000000000000000000e+00,5.000000000000000000e+00,5.000000000000000000e+00,5.000000000000000000e+00,5.000000000000000000e+00,5.000000000000000000e+00,5.000000000000000000e+00,5.000000000000000000e+00,5.000000000000000000e+00,5.000000000000000000e+00,5.000000000000000000e+00,5.000000000000000000e+00,5.000000000000000000e+00,5.000000000000000000e+00,5.000000000000000000e+00,5.000000000000000000e+00,5.000000000000000000e+00,5.000000000000000000e+00,1.731431722640991211e+00,1.704208374023437500e+00,1.695626497268676758e+00,1.686689853668212891e+00,1.670893907546997070e+00,1.675771474838256836e+00,1.694660305976867676e+00,1.813551425933837891e+00,1.759651899337768555e+00,1.744958162307739258e+00,1.737515449523925781e+00,1.753840208053588867e+00,1.787685871124267578e+00,1.896657586097717285e+00,1.907347202301025391e+00,3.549382209777832031e+00,3.446562051773071289e+00,3.349531173706054688e+00,3.257814407348632812e+00,3.170986175537109375e+00,3.088666439056396484e+00,3.010512590408325195e+00,2.936216115951538086e+00,2.865498542785644531e+00,2.798107385635375977e+00,2.733813047409057617e+00,2.672406911849975586e+00,2.613698959350585938e+00,2.557514905929565430e+00,2.503695249557495117e+00,2.452094316482543945e+00,2.402577400207519531e+00,2.355020761489868164e+00,2.309309959411621094e+00,2.265340089797973633e+00,2.223013401031494141e+00,2.182239294052124023e+00,2.142934083938598633e+00,2.105019807815551758e+00,2.068423509597778320e+00,2.033078193664550781e+00,1.998920679092407227e+00,1.965891838073730469e+00,1.933936595916748047e+00,1.903003692626953125e+00,1.873044610023498535e+00,1.844014286994934082e+00
5.000000000000000000e+00,5.000000000000000000e+00,5.000000000000000000e+00,4.726320266723632812e+00,4.757089614868164062e+00,5.000000000000000000e+00,5.000000000000000000e+00,5.000000000000000000e+00,5.000000000000000000e+00,5.000000000000000000e+00,5.000000000000000000e+00,5.000000000000000000e+00,5.000000000000000000e+00,5.000000000000000000e+00,5.000000000000000000e+00,5.000000000000000000e+00,5.000000000000000000e+00,5.000000000000000000e+00,5.000000000000000000e+00,5.000000000000000000e+00,5.000000000000000000e+00,5.000000000000000000e+00,5.000000000000000000e+00,5.000000000000000000e+00,5.000000000000000000e+00,5.000000000000000000e+00,5.000000000000000000e+00,5.000000000000000000e+00,5.000000000000000000e+00,5.000000000000000000e+00,5.000000000000000000e+00,5.000000000000000000e+00,5.000000000000000000e+00,1.709094882011413574e+00,1.684696555137634277e+00,1.680857658386230469e+00,1.679517865180969238e+00,1.662478804588317871e+00,1.667958855628967285e+00,1.685210466384887695e+00,1.821765899658203125e+00,1.757401823997497559e+00,1.741571426391601562e+00,1.735020875930786133e+00,1.749864697456359863e+00,1.785915732383728027e+00,1.877256989479064941e+00,1.887734055519104004e+00,3.549456119537353516e+00,3.446631669998168945e+00,3.349597215652465820e+00,3.257876634597778320e+00,3.171045303344726562e+00,3.088722467422485352e+00,3.010565757751464844e+00,2.936266660690307617e+00,2.865546464920043945e+00,2.798152923583984375e+00,2.733856678009033203e+00,2.672448635101318359e+00,2.613739013671875000e+00,2.557553052902221680e+00,2.503731966018676758e+00,2.452129364013671875e+00,2.402611017227172852e+00,2.355053186416625977e+00,2.309341192245483398e+00,2.265370368957519531e+00,2.223042488098144531e+00,2.182267427444458008e+00,2.142961025238037109e+00,2.105045795440673828e+00,2.068448543548583984e+00,2.033102512359619141e+00,1.998943924903869629e+00,1.965914368629455566e+00,1.933958411216735840e+00,1.903024792671203613e+00,1.873065114021301270e+00,1.844034194946289062e+00
5.000000000000000000e+00,5.000000000000000000e+00,4.748589038848876953e+00,4.796575546264648438e+00,4.827194213867187500e+00,5.000000000000000000e+00,5.000000000000000000e+00,5.000000000000000000e+00,5.000000000000000000e+00,5.000000000000000000e+00,5.000000000000000000e+00,5.000000000000000000e+00,5.000000000000000000e+00,5.000000000000000000e+00,5.000000000000000000e+00,5.000000000000000000e+00,5.000000000000000000e+00,5.000000000000000000e+00,5.000000000000000000e+00,5.000000000000000000e+00,5.000000000000000000e+00,5.000000000000000000e+00,5.000000000000000000e+00,5.000000000000000000e+00,5.000000000000000000e+00,5.000000000000000000e+00,5.000000000000000000e+00,5.000000000000000000e+00,5.000000000000000000e+00,5.000000000000000000e+00,5.000000000000000000e+00,5.000000000000000000e+00,5.000000000000000000e+00,1.692230582237243652e+00,1.660467982292175293e+00,1.740219473838806152e+00,1.671809673309326172e+00,1.654557943344116211e+00,1.659387230873107910e+00,1.675865769386291504e+00,1.822560548782348633e+00,1.755133152008056641e+00,1.737086892127990723e+00,1.732365846633911133e+00,1.746692419052124023e+00,1.784148931503295898e+00,1.869906663894653320e+00,1.881872773170471191e+00,3.549529790878295898e+00,3.446701049804687500e+00,3.349662542343139648e+00,3.257938623428344727e+00,3.171103954315185547e+00,3.088778257369995117e+00,3.010618686676025391e+00,2.936317205429077148e+00,2.865594625473022461e+00,2.798198938369750977e+00,2.733900547027587891e+00,2.672490596771240234e+00,2.613778829574584961e+00,2.557591438293457031e+00,2.503768682479858398e+00,2.452164649963378906e+00,2.402644872665405273e+00,2.355085611343383789e+00,2.309372663497924805e+00,2.265400409698486328e+00,2.223071336746215820e+00,2.182295322418212891e+00,2.142987966537475586e+00,2.105071783065795898e+00,2.068473815917968750e+00,2.033126831054687500e+00,1.998967528343200684e+00,1.965937137603759766e+00,1.933980464935302734e+00,1.903045892715454102e+00,1.873085618019104004e+00,1.844053983688354492e+00
4.653577327728271484e+00,4.671250820159912109e+00,4.691024303436279297e+00,4.722220897674560547e+00,4.764866352081298828e+00,4.815608024597167969e+00,4.879493236541748047e+00,5.000000000000000000e+00,5.000000000000000000e+00,5.000000000000000000e+00,5.000000000000000000e+00,5.000000000000000000e+00,5.000000000000000000e+00,5.000000000000000000e+00,5.000000000000000000e+00,5.000000000000000000e+00,5.000000000000000000e+00,5.000000000000000000e+00,5.000000000000000000e+00,5.000000000000000000e+00,5.000000000000000000e+00,5.000000000000000000e+00,5.000000000000000000e+00,5.000000000000000000e+00,5.000000000000000000e+00,5.000000000000000000e+00,5.000000000000000000e+00,5.000000000000000000e+00,5.000000000000000000e+00,5.000000000000000000e+00,5.000000000000000000e+00,5.000000000000000000e+00,5.000000000000000000e+00,1.675571203231811523e+00,5.000000000000000000e+00,5.000000000000000000e+00,1.662603974342346191e+00,1.645541071891784668e+00,1.652415633201599121e+00,1.668332457542419434e+00,1.826958775520324707e+00,1.752870321273803711e+00,1.732826352119445801e+00,1.728290438652038574e+00,1.743286848068237305e+00,3.898536682128906250e+00,3.774845123291015625e+00,3.658761024475097656e+00,3.549603700637817383e+00,3.446770906448364258e+00,3.349728584289550781e+00,3.258001089096069336e+00,3.171163082122802734e+00,3.088834047317504883e+00,3.010671854019165039e+00,2.936367750167846680e+00,2.865643024444580078e+00,2.798244953155517578e+00,2.733944416046142578e+00,2.672532558441162109e+00,2.613818883895874023e+00,2.557629823684692383e+00,2.503805398941040039e+00,2.452199935913085938e+00,2.402678728103637695e+00,2.355118274688720703e+00,2.309403657913208008e+00,2.265430450439453125e+00,2.223100185394287109e+00,2.182323217391967773e+00,2.143014907836914062e+00,2.105097532272338867e+00,2.068498611450195312e+00,2.033150911331176758e+00,1.998990893363952637e+00,1.965959787368774414e+00,1.934002399444580078e+00,1.903067350387573242e+00,1.873106360435485840e+00,1.844074130058288574e+00
4.691581249237060547e+00,4.702186584472656250e+00,4.670255661010742188e+00,4.694539070129394531e+00,4.737082958221435547e+00,4.791091918945312500e+00,4.907819747924804688e+00,4.957324028015136719e+00,5.000000000000000000e+00,5.000000000000000000e+00,5.000000000000000000e+00,5.000000000000000000e+00,5.000000000000000000e+00,5.000000000000000000e+00,5.000000000000000000e+00,5.000000000000000000e+00,5.000000000000000000e+00,5.000000000000000000e+00,5.000000000000000000e+00,5.000000000000000000e+00,5.000000000000000000e+00,5.000000000000000000e+00,5.000000000000000000e+00,5.000000000000000000e+00,5.000000000000000000e+00,5.000000000000000000e+00,5.000000000000000000e+00,5.000000000000000000e+00,5.000000000000000000e+00,5.000000000000000000e+00,5.000000000000000000e+00,5.000000000000000000e+00,5.000000000000000000e+00,5.000000000000000000e+00,5.000000000000000000e+00,5.000000000000000000e+00,1.654757142066955566e+00,1.636621832847595215e+00,1.645502328872680664e+00,1.658506393432617188e+00,1.855134248733520508e+00,1.747269153594970703e+00,1.729132652282714844e+00,1.724938035011291504e+00,1.735579967498779297e+00,3.898625850677490234e+00,3.774928808212280273e+00,3.658839702606201172e+00,1.894035220146179199e+00,3.446840524673461914e+00,3.349794387817382812e+00,3.258063316345214844e+00,3.171222209930419922e+00,3.088890075683593750e+00,3.010725021362304688e+00,2.936418056488037109e+00,2.865690946578979492e+00,2.798290729522705078e+00,2.733987808227539062e+00,2.672574043273925781e+00,2.613858699798583984e+00,2.557667970657348633e+00,2.503842115402221680e+00,2.452235221862792969e+00,2.402712583541870117e+00,2.355150699615478516e+00,2.309435129165649414e+00,2.265460491180419922e+00,2.223129272460937500e+00,2.182351112365722656e+00,2.143041849136352539e+00,2.105123758316040039e+00,2.068523883819580078e+00,2.033175230026245117e+00,1.999014258384704590e+00,1.965982317924499512e+00,1.934024214744567871e+00,1.903088450431823730e+00,1.873126745223999023e+00,1.844093918800354004e+00
5.000000000000000000e+00,4.706988811492919922e+00,4.681312561035156250e+00,4.691225051879882812e+00,4.727341175079345703e+00,4.803348064422607422e+00,4.899323940277099609e+00,4.954185485839843750e+00,5.000000000000000000e+00,5.000000000000000000e+00,5.000000000000000000e+00,5.000000000000000000e+00,5.000000000000000000e+00,5.000000000000000000e+00,5.000000000000000000e+00,5.000000000000000000e+00,5.000000000000000000e+00,5.000000000000000000e+00,5.000000000000000000e+00,5.000000000000000000e+00,5.000000000000000000e+00,5.000000000000000000e+00,5.000000000000000000e+00,5.000000000000000000e+00,5.000000000000000000e+00,5.000000000000000000e+00,5.000000000000000000e+00,5.000000000000000000e+00,5.000000000000000000e+00,5.000000000000000000e+00,5.000000000000000000e+00,5.000000000000000000e+00,5.000000000000000000e+00,5.000000000000000000e+00,5.000000000000000000e+00,5.000000000000000000e+00,1.649050831794738770e+00,1.627798795700073242e+00,1.637724161148071289e+00,1.648795604705810547e+00,4.662664890289306641e+00,1.744570374488830566e+00,1.722885727882385254e+00,1.721598625183105469e+00,1.727941155433654785e+00,3.898714780807495117e+00,3.775012016296386719e+00,3.658917903900146484e+00,3.549751281738281250e+00,3.446910142898559570e+00,3.349859952926635742e+00,3.258125305175781250e+00,3.171280860900878906e+00,3.088945865631103516e+00,3.010778188705444336e+00,2.936468839645385742e+00,2.865739107131958008e+00,2.798336744308471680e+00,2.734031677246093750e+00,2.672616004943847656e+00,2.613898992538452148e+00,2.557706356048583984e+00,2.503878831863403320e+00,2.452270507812500000e+00,2.402746438980102539e+00,2.355183124542236328e+00,2.309466361999511719e+00,2.265490531921386719e+00,2.223158359527587891e+00,2.182379007339477539e+00,2.143068790435791016e+00,2.105149745941162109e+00,2.068548917770385742e+00,2.033199310302734375e+00,1.999037861824035645e+00,1.966005086898803711e+00,1.934046268463134766e+00,1.903109669685363770e+00,1.873147249221801758e+00,1.844113826751708984e+00
5.000000000000000000e+00,4.713418960571289062e+00,4.673810482025146484e+00,4.689318656921386719e+00,4.733024120330810547e+00,4.801709651947021484e+00,4.913865566253662109e+00,4.952979087829589844e+00,5.000000000000000000e+00,5.000000000000000000e+00,5.000000000000000000e+00,5.000000000000000000e+00,5.000000000000000000e+00,5.000000000000000000e+00,5.000000000000000000e+00,5.000000000000000000e+00,5.000000000000000000e+00,5.000000000000000000e+00,5.000000000000000000e+00,5.000000000000000000e+00,5.000000000000000000e+00,5.000000000000000000e+00,5.000000000000000000e+00,5.000000000000000000e+00,5.000000000000000000e+00,5.000000000000000000e+00,5.000000000000000000e+00,5.000000000000000000e+00,5.000000000000000000e+00,5.000000000000000000e+00,5.000000000000000000e+00,5.000000000000000000e+00,5.000000000000000000e+00,5.000000000000000000e+00,5.000000000000000000e+00,5.000000000000000000e+00,1.643383741378784180e+00,1.619070291519165039e+00,1.628254294395446777e+00,1.639197826385498047e+00,4.662792205810546875e+00,1.742854595184326172e+00,1.716683506965637207e+00,1.716401576995849609e+00,1.720369100570678711e+00,3.898803949356079102e+00,3.775095701217651367e+00,3.658996582031250000e+00,3.549825191497802734e+00,3.446979761123657227e+00,3.349925756454467773e+00,3.258187770843505859e+00,3.171339988708496094e+00,3.089001893997192383e+00,3.010831356048583984e+00,2.936519384384155273e+00,2.865787267684936523e+00,2.798382520675659180e+00,2.734075546264648438e+00,2.672657966613769531e+00,2.613939046859741211e+00,2.557744741439819336e+00,2.503915786743164062e+00,2.452305793762207031e+00,2.402780294418334961e+00,2.355215787887573242e+00,2.309497594833374023e+00,2.265520572662353516e+00,2.223187208175659180e+00,2.182406902313232422e+00,2.143095731735229492e+00,2.105175495147705078e+00,2.068573951721191406e+00,2.033223628997802734e+00,1.999061107635498047e+00,1.966027736663818359e+00,1.934068083763122559e+00,1.903131008148193359e+00,1.873167991638183594e+00,1.844133853912353516e+00
5.000000000000000000e+00,4.725292682647705078e+00,4.679894924163818359e+00,4.690814018249511719e+00,4.727676391601562500e+00,4.800497055053710938e+00,4.924198150634765625e+00,4.938655376434326172e+00,5.000000000000000000e+00,5.000000000000000000e+00,5.000000000000000000e+00,5.000000000000000000e+00,5.000000000000000000e+00,5.000000000000000000e+00,5.000000000000000000e+00,5.000000000000000000e+00,5.000000000000000000e+00,5.000000000000000000e+00,5.000000000000000000e+00,5.000000000000000000e+00,5.000000000000000000e+00,5.000000000000000000e+00,5.000000000000000000e+00,5.000000000000000000e+00,5.000000000000000000e+00,5.000000000000000000e+00,5.000000000000000000e+00,5.000000000000000000e+00,5.000000000000000000e+00,5.000000000000000000e+00,5.000000000000000000e+00,5.000000000000000000e+00,5.000000000000000000e+00,5.000000000000000000e+00,5.000000000000000000e+00,5.000000000000000000e+00,1.644409298896789551e+00,1.617745757102966309e+00,1.626368999481201172e+00,1.635286927223205566e+00,4.662919521331787109e+00,1.740710616111755371e+00,1.711733818054199219e+00,1.711903810501098633e+00,1.718061804771423340e+00,3.898893117904663086e+00,3.775179386138916016e+00,3.659075021743774414e+00,3.549899339675903320e+00,3.447049617767333984e+00,3.349991798400878906e+00,3.258249998092651367e+00,3.171398878097534180e+00,3.089057922363281250e+00,3.010884523391723633e+00,2.936569690704345703e+00,2.865835189819335938e+00,2.798428058624267578e+00,2.734119176864624023e+00,2.672699689865112305e+00,2.613978862762451172e+00,2.557782888412475586e+00,2.503952264785766602e+00,2.452340841293334961e+00,2.402814149856567383e+00,2.355248212814331055e+00,2.309528827667236328e+00,2.265550613403320312e+00,2.223216295242309570e+00,2.182434797286987305e+00,2.143122673034667969e+00,2.105201482772827148e+00,2.068598985671997070e+00,2.033247947692871094e+00,1.999084472656250000e+00,1.966050267219543457e+00,1.934090018272399902e+00,1.903152108192443848e+00,1.873188495635986328e+00,1.844153761863708496e+00
5.000000000000000000e+00,4.695112705230712891e+00,4.660845756530761719e+00,4.705668926239013672e+00,4.741290569305419922e+00,4.786913871765136719e+00,5.000000000000000000e+00,4.913612365722656250e+00,5.000000000000000000e+00,5.000000000000000000e+00,5.000000000000000000e+00,5.000000000000000000e+00,5.000000000000000000e+00,5.000000000000000000e+00,5.000000000000000000e+00,5.000000000000000000e+00,5.000000000000000000e+00,5.000000000000000000e+00,5.000000000000000000e+00,5.000000000000000000e+00,5.000000000000000000e+00,5.000000000000000000e+00,5.000000000000000000e+00,5.000000000000000000e+00,5.000000000000000000e+00,5.000000000000000000e+00,5.000000000000000000e+00,5.000000000000000000e+00,5.000000000000000000e+00,5.000000000000000000e+00,5.000000000000000000e+00,5.000000000000000000e+00,5.000000000000000000e+00,5.000000000000000000e+00,5.000000000000000000e+00,5.000000000000000000e+00,1.685920715332031250e+00,1.619449019432067871e+00,1.627960324287414551e+00,1.637632012367248535e+00,4.663047313690185547e+00,1.741195678710937500e+00,1.711005091667175293e+00,1.711228013038635254e+00,1.721794128417968750e+00,3.898982048034667969e+00,3.775262594223022461e+00,3.659153223037719727e+00,3.549972772598266602e+00,3.447118997573852539e+00,3.350057363510131836e+00,3.258311986923217773e+00,3.171457767486572266e+00,3.089113712310791016e+00,3.010937452316284180e+00,2.936620235443115234e+00,2.865883350372314453e+00,2.798474073410034180e+00,2.734163045883178711e+00,2.672741651535034180e+00,2.614019155502319336e+00,2.557821273803710938e+00,2.503989219665527344e+00,2.452376127243041992e+00,2.402848005294799805e+00,2.355280876159667969e+00,2.309560060501098633e+00,2.265580892562866211e+00,2.223245143890380859e+00,2.182462692260742188e+00,2.143149614334106445e+00,2.105227708816528320e+00,2.068624258041381836e+00,2.033272027969360352e+00,1.999108076095581055e+00,1.966073036193847656e+00,1.934112071990966797e+00,1.903173327445983887e+00,1.873208999633789062e+00,1.844173669815063477e+00
5.000000000000000000e+00,4.664705276489257812e+00,4.590981006622314453e+00,4.642202854156494141e+00,4.743457794189453125e+00,4.761545181274414062e+00,5.000000000000000000e+00,4.903507709503173828e+00,5.000000000000000000e+00,5.000000000000000000e+00,5.000000000000000000e+00,5.000000000000000000e+00,5.000000000000000000e+00,5.000000000000000000e+00,5.000000000000000000e+00,5.000000000000000000e+00,5.000000000000000000e+00,5.000000000000000000e+00,5.000000000000000000e+00,5.000000000000000000e+00,5.000000000000000000e+00,5.000000000000000000e+00,5.000000000000000000e+00,5.000000000000000000e+00,5.000000000000000000e+00,5.000000000000000000e+00,5.000000000000000000e+00,5.000000000000000000e+00,5.000000000000000000e+00,5.000000000000000000e+00,5.000000000000000000e+00,5.000000000000000000e+00,5.000000000000000000e+00,5.000000000000000000e+00,5.000000000000000000e+00,5.000000000000000000e+00,1.679237008094787598e+00,1.632384419441223145e+00,1.641276597976684570e+00,1.653192043304443359e+00,4.663174629211425781e+00,1.749843001365661621e+00,1.722927331924438477e+00,1.721377372741699219e+00,1.755474328994750977e+00,3.899071216583251953e+00,3.775346279144287109e+00,3.659231901168823242e+00,3.550046920776367188e+00,3.447188615798950195e+00,3.350123167037963867e+00,3.258374452590942383e+00,3.171516895294189453e+00,3.089169740676879883e+00,3.010990381240844727e+00,2.936670780181884766e+00,2.865931510925292969e+00,2.798520088195800781e+00,2.734206914901733398e+00,2.672783613204956055e+00,2.614059209823608398e+00,2.557859897613525391e+00,2.504025936126708984e+00,2.452411413192749023e+00,2.402881860733032227e+00,2.355313301086425781e+00,2.309591293334960938e+00,2.265610694885253906e+00,2.223273992538452148e+00,2.182490587234497070e+00,2.143176317214965820e+00,2.105253458023071289e+00,2.068649291992187500e+00,2.033296346664428711e+00,1.999131441116333008e+00,1.966095685958862305e+00,1.934133887290954590e+00,1.903194665908813477e+00,1.873229742050170898e+00,1.844193696975708008e+00
5.000000000000000000e+00,4.636786460876464844e+00,4.556776046752929688e+00,4.608541488647460938e+00,4.730229377746582031e+00,4.753754138946533203e+00,5.000000000000000000e+00,4.875470161437988281e+00,5.000000000000000000e+00,5.000000000000000000e+00,5.000000000000000000e+00,5.000000000000000000e+00,5.000000000000000000e+00,5.000000000000000000e+00,5.000000000000000000e+00,5.000000000000000000e+00,5.000000000000000000e+00,5.000000000000000000e+00,5.000000000000000000e+00,5.000000000000000000e+00,5.000000000000000000e+00,5.000000000000000000e+00,5.000000000000000000e+00,5.000000000000000000e+00,5.000000000000000000e+00,5.000000000000000000e+00,5.000000000000000000e+00,5.000000000000000000e+00,5.000000000000000000e+00,5.000000000000000000e+00,5.000000000000000000e+00,5.000000000000000000e+00,5.000000000000000000e+00,5.000000000000000000e+00,5.000000000000000000e+00,5.000000000000000000e+00,1.708928585052490234e+00,1.659705281257629395e+00,1.673191189765930176e+00,1.760239958763122559e+00,4.663301944732666016e+00,1.763310790061950684e+00,1.738121151924133301e+00,1.736494421958923340e+00,4.031275272369384766e+00,3.899160385131835938e+00,3.775429964065551758e+00,3.659310579299926758e+00,3.550120830535888672e+00,3.447258472442626953e+00,3.350188970565795898e+00,3.258436679840087891e+00,3.171575784683227539e+00,3.089225530624389648e+00,3.011043787002563477e+00,2.936721563339233398e+00,2.865979433059692383e+00,2.798565864562988281e+00,2.734250545501708984e+00,2.672825336456298828e+00,2.614099025726318359e+00,2.557898044586181641e+00,2.504062652587890625e+00,2.452446699142456055e+00,2.402915477752685547e+00,2.355345726013183594e+00,2.309622526168823242e+00,2.265640974044799805e+00,2.223303079605102539e+00,2.182518482208251953e+00,2.143203258514404297e+00,2.105279445648193359e+00,2.068674325942993164e+00,2.033320426940917969e+00,1.999154806137084961e+00,1.966118216514587402e+00,1.934155702590942383e+00,1.903215885162353516e+00,1.873250246047973633e+00,1.844213604927062988e+00
5.000000000000000000e+00,5.000000000000000000e+00,4.519917964935302734e+00,4.578202247619628906e+00,4.724356651306152344e+00,4.752105712890625000e+00,5.000000000000000000e+00,5.000000000000000000e+00,5.000000000000000000e+00,5.000000000000000000e+00,5.000000000000000000e+00,5.000000000000000000e+00,5.000000000000000000e+00,5.000000000000000000e+00,5.000000000000000000e+00,5.000000000000000000e+00,5.000000000000000000e+00,5.000000000000000000e+00,5.000000000000000000e+00,5.000000000000000000e+00,5.000000000000000000e+00,5.000000000000000000e+00,5.000000000000000000e+00,5.000000000000000000e+00,5.000000000000000000e+00,5.000000000000000000e+00,5.000000000000000000e+00,5.000000000000000000e+00,5.000000000000000000e+00,5.000000000000000000e+00,5.000000000000000000e+00,5.000000000000000000e+00,5.000000000000000000e+00,5.000000000000000000e+00,5.000000000000000000e+00,5.000000000000000000e+00,1.751562595367431641e+00,1.709253787994384766e+00,1.732329368591308594e+00,4.853675365447998047e+00,1.817570328712463379e+00,1.769965052604675293e+00,1.756271362304687500e+00,1.751879692077636719e+00,4.031370639801025391e+00,3.899249315261840820e+00,3.775513172149658203e+00,3.659388780593872070e+00,3.550194501876831055e+00,3.447327852249145508e+00,3.350254535675048828e+00,3.258498668670654297e+00,3.171634435653686523e+00,3.089281320571899414e+00,3.011096715927124023e+00,2.936771869659423828e+00,2.866027832031250000e+00,2.798611879348754883e+00,2.734294652938842773e+00,2.672867298126220703e+00,2.614139318466186523e+00,2.557936429977416992e+00,2.504099369049072266e+00,2.452481985092163086e+00,2.402949571609497070e+00,2.355378389358520508e+00,2.309653997421264648e+00,2.265671014785766602e+00,2.223332166671752930e+00,2.182546615600585938e+00,2.143230438232421875e+00,2.105305433273315430e+00,2.068699359893798828e+00,2.033344745635986328e+00,1.999178290367126465e+00,1.966141104698181152e+00,1.934177875518798828e+00,1.903236985206604004e+00,1.873270750045776367e+00,1.844233393669128418e+00
5.000000000000000000e+00,5.000000000000000000e+00,4.494482517242431641e+00,4.554275989532470703e+00,4.719947814941406250e+00,4.745038986206054688e+00,5.000000000000000000e+00,5.000000000000000000e+00,5.000000000000000000e+00,5.000000000000000000e+00,5.000000000000000000e+00,5.000000000000000000e+00,5.000000000000000000e+00,5.000000000000000000e+00,5.000000000000000000e+00,5.000000000000000000e+00,5.000000000000000000e+00,5.000000000000000000e+00,5.000000000000000000e+00,5.000000000000000000e+00,5.000000000000000000e+00,5.000000000000000000e+00,5.000000000000000000e+00,5.000000000000000000e+00,5.000000000000000000e+00,5.000000000000000000e+00,5.000000000000000000e+00,5.000000000000000000e+00,5.000000000000000000e+00,5.000000000000000000e+00,5.000000000000000000e+00,5.000000000000000000e+00,5.000000000000000000e+00,5.000000000000000000e+00,5.000000000000000000e+00,5.000000000000000000e+00,1.788280487060546875e+00,1.758954405784606934e+00,1.785506844520568848e+00,4.853813648223876953e+00,1.827338218688964844e+00,1.787107706069946289e+00,1.774804711341857910e+00,1.784497857093811035e+00,4.031466007232666016e+00,3.899338483810424805e+00,3.775596857070922852e+00,3.659467458724975586e+00,3.550268411636352539e+00,3.447397708892822266e+00,3.350320577621459961e+00,3.258560657501220703e+00,3.171693325042724609e+00,3.089337348937988281e+00,3.011149883270263672e+00,2.936822414398193359e+00,2.866075992584228516e+00,2.798657894134521484e+00,2.734338521957397461e+00,2.672909259796142578e+00,2.614179372787475586e+00,2.557974815368652344e+00,2.504136323928833008e+00,2.452517271041870117e+00,2.402983427047729492e+00,2.355410814285278320e+00,2.309684991836547852e+00,2.265701055526733398e+00,2.223361015319824219e+00,2.182574272155761719e+00,2.143257141113281250e+00,2.105331420898437500e+00,2.068724393844604492e+00,2.033369064331054688e+00,1.999201655387878418e+00,1.966163635253906250e+00,1.934199690818786621e+00,1.903258442878723145e+00,1.873291373252868652e+00,1.844253540039062500e+00
5.000000000000000000e+00,5.000000000000000000e+00,4.505838871002197266e+00,4.578230857849121094e+00,4.719287872314453125e+00,4.742185592651367188e+00,5.000000000000000000e+00,5.000000000000000000e+00,5.000000000000000000e+00,5.000000000000000000e+00,5.000000000000000000e+00,5.000000000000000000e+00,5.000000000000000000e+00,5.000000000000000000e+00,5.000000000000000000e+00,5.000000000000000000e+00,5.000000000000000000e+00,5.000000000000000000e+00,5.000000000000000000e+00,5.000000000000000000e+00,5.000000000000000000e+00,5.000000000000000000e+00,5.000000000000000000e+00,5.000000000000000000e+00,5.000000000000000000e+00,5.000000000000000000e+00,5.000000000000000000e+00,5.000000000000000000e+00,5.000000000000000000e+00,5.000000000000000000e+00,5.000000000000000000e+00,5.000000000000000000e+00,5.000000000000000000e+00,5.000000000000000000e+00,5.000000000000000000e+00,5.000000000000000000e+00,1.827261805534362793e+00,1.792274236679077148e+00,1.823160648345947266e+00,4.853950500488281250e+00,1.826078891754150391e+00,1.791473388671875000e+00,1.781714081764221191e+00,1.797624349594116211e+00,4.031560897827148438e+00,3.899427890777587891e+00,3.775680541992187500e+00,3.659545898437500000e+00,3.550342559814453125e+00,3.447467565536499023e+00,3.350386142730712891e+00,3.258623123168945312e+00,3.171752452850341797e+00,3.089393377304077148e+00,3.011203050613403320e+00,2.936873197555541992e+00,2.866123914718627930e+00,2.798703670501708984e+00,2.734382152557373047e+00,2.672950983047485352e+00,2.614219188690185547e+00,2.558012962341308594e+00,2.504172801971435547e+00,2.452552318572998047e+00,2.403017044067382812e+00,2.355443239212036133e+00,2.309716463088989258e+00,2.265731096267700195e+00,2.223390102386474609e+00,2.182602405548095703e+00,2.143284082412719727e+00,2.105357408523559570e+00,2.068749666213989258e+00,2.033393144607543945e+00,1.999225020408630371e+00,1.966186285018920898e+00,1.934221506118774414e+00,1.903279542922973633e+00,1.873311877250671387e+00,1.844273328781127930e+00
5.000000000000000000e+00,5.000000000000000000e+00,4.580780506134033203e+00,4.628916263580322266e+00,4.760034561157226562e+00,4.805725097656250000e+00,5.000000000000000000e+00,5.000000000000000000e+00,5.000000000000000000e+00,5.000000000000000000e+00,5.000000000000000000e+00,5.000000000000000000e+00,5.000000000000000000e+00,5.000000000000000000e+00,5.000000000000000000e+00,5.000000000000000000e+00,5.000000000000000000e+00,5.000000000000000000e+00,5.000000000000000000e+00,5.000000000000000000e+00,5.000000000000000000e+00,5.000000000000000000e+00,5.000000000000000000e+00,5.000000000000000000e+00,5.000000000000000000e+00,5.000000000000000000e+00,5.000000000000000000e+00,5.000000000000000000e+00,5.000000000000000000e+00,5.000000000000000000e+00,5.000000000000000000e+00,5.000000000000000000e+00,5.000000000000000000e+00,5.000000000000000000e+00,5.000000000000000000e+00,5.000000000000000000e+00,1.871208310127258301e+00,1.831634402275085449e+00,1.861605882644653320e+00,4.854088783264160156e+00,1.824821352958679199e+00,1.795381903648376465e+00,1.786249756813049316e+00,1.808625459671020508e+00,4.031656742095947266e+00,3.899516582489013672e+00,3.775763750076293945e+00,3.659624338150024414e+00,3.550416231155395508e+00,3.447536706924438477e+00,3.350451707839965820e+00,3.258685111999511719e+00,3.171811342239379883e+00,3.089449167251586914e+00,3.011255979537963867e+00,2.936923503875732422e+00,2.866172075271606445e+00,2.798749446868896484e+00,2.734426021575927734e+00,2.672992944717407227e+00,2.614259481430053711e+00,2.558051586151123047e+00,2.504209756851196289e+00,2.452587604522705078e+00,2.403050899505615234e+00,2.355475902557373047e+00,2.309747695922851562e+00,2.265761375427246094e+00,2.223419189453125000e+00,2.182630300521850586e+00,2.143311023712158203e+00,2.105383396148681641e+00,2.068774700164794922e+00,2.033417463302612305e+00,1.999248623847961426e+00,1.966209053993225098e+00,1.934243559837341309e+00,1.903300762176513672e+00,1.873332381248474121e+00,1.844293236732482910e+00
5.000000000000000000e+00,5.000000000000000000e+00,4.625929355621337891e+00,4.664413928985595703e+00,4.797497749328613281e+00,4.870280265808105469e+00,5.000000000000000000e+00,5.000000000000000000e+00,5.000000000000000000e+00,5.000000000000000000e+00,5.000000000000000000e+00,5.000000000000000000e+00,5.000000000000000000e+00,5.000000000000000000e+00,5.000000000000000000e+00,5.000000000000000000e+00,5.000000000000000000e+00,5.000000000000000000e+00,5.000000000000000000e+00,5.000000000000000000e+00,5.000000000000000000e+00,5.000000000000000000e+00,5.000000000000000000e+00,5.000000000000000000e+00,5.000000000000000000e+00,5.000000000000000000e+00,5.000000000000000000e+00,5.000000000000000000e+00,5.000000000000000000e+00,5.000000000000000000e+00,5.000000000000000000e+00,5.000000000000000000e+00,5.000000000000000000e+00,5.000000000000000000e+00,5.000000000000000000e+00,5.000000000000000000e+00,1.924839854240417480e+00,1.872549653053283691e+00,1.906194448471069336e+00,4.854227542877197266e+00,1.824768543243408203e+00,1.799307703971862793e+00,1.790808558464050293e+00,1.855280995368957520e+00,4.031751632690429688e+00,3.899605989456176758e+00,3.775847434997558594e+00,3.659702777862548828e+00,3.550489902496337891e+00,3.447606325149536133e+00,3.350517749786376953e+00,3.258747577667236328e+00,3.171870231628417969e+00,3.089505195617675781e+00,3.011309385299682617e+00,2.936974048614501953e+00,2.866220474243164062e+00,2.798795461654663086e+00,2.734469890594482422e+00,2.673034906387329102e+00,2.614299535751342773e+00,2.558089971542358398e+00,2.504246473312377930e+00,2.452623128890991211e+00,2.403084993362426758e+00,2.355508327484130859e+00,2.309778928756713867e+00,2.265791416168212891e+00,2.223448038101196289e+00,2.182658195495605469e+00,2.143337965011596680e+00,2.105409383773803711e+00,2.068799734115600586e+00,2.033441781997680664e+00,1.999271988868713379e+00,1.966231584548950195e+00,1.934265494346618652e+00,1.903322100639343262e+00,1.873353123664855957e+00,1.844313263893127441e+00
5.000000000000000000e+00,5.000000000000000000e+00,4.709530830383300781e+00,4.704382419586181641e+00,4.816138744354248047e+00,5.000000000000000000e+00,5.000000000000000000e+00,5.000000000000000000e+00,5.000000000000000000e+00,5.000000000000000000e+00,5.000000000000000000e+00,5.000000000000000000e+00,5.000000000000000000e+00,5.000000000000000000e+00,5.000000000000000000e+00,5.000000000000000000e+00,5.000000000000000000e+00,5.000000000000000000e+00,5.000000000000000000e+00,5.000000000000000000e+00,5.000000000000000000e+00,5.000000000000000000e+00,5.000000000000000000e+00,5.000000000000000000e+00,5.000000000000000000e+00,5.000000000000000000e+00,5.000000000000000000e+00,5.000000000000000000e+00,5.000000000000000000e+00,5.000000000000000000e+00,5.000000000000000000e+00,5.000000000000000000e+00,5.000000000000000000e+00,5.000000000000000000e+00,5.000000000000000000e+00,5.000000000000000000e+00,1.982261896133422852e+00,1.921651482582092285e+00,2.002516746520996094e+00,4.854365825653076172e+00,1.825955390930175781e+00,1.803250432014465332e+00,1.795362353324890137e+00,4.173269748687744141e+00,4.031847000122070312e+00,3.899695158004760742e+00,3.775931358337402344e+00,3.659781217575073242e+00,3.550563812255859375e+00,3.447676181793212891e+00,3.350583553314208984e+00,3.258809804916381836e+00,3.171929359436035156e+00,3.089561223983764648e+00,3.011362552642822266e+00,2.937024831771850586e+00,2.866268396377563477e+00,2.798841238021850586e+00,2.734513521194458008e+00,2.673076629638671875e+00,2.614339351654052734e+00,2.558128118515014648e+00,2.504283189773559570e+00,2.452658176422119141e+00,2.403118610382080078e+00,2.355540752410888672e+00,2.309810161590576172e+00,2.265821456909179688e+00,2.223476886749267578e+00,2.182686090469360352e+00,2.143364906311035156e+00,2.105435371398925781e+00,2.068824768066406250e+00,2.033465862274169922e+00,1.999295353889465332e+00,1.966254234313964844e+00,1.934287309646606445e+00,1.903343200683593750e+00,1.873373627662658691e+00,1.844333171844482422e+00
5.000000000000000000e+00,5.000000000000000000e+00,5.000000000000000000e+00,4.757273197174072266e+00,4.837358474731445312e+00,5.000000000000000000e+00,5.000000000000000000e+00,5.000000000000000000e+00,5.000000000000000000e+00,5.000000000000000000e+00,5.000000000000000000e+00,5.000000000000000000e+00,5.000000000000000000e+00,5.000000000000000000e+00,5.000000000000000000e+00,5.000000000000000000e+00,5.000000000000000000e+00,5.000000000000000000e+00,5.000000000000000000e+00,5.000000000000000000e+00,5.000000000000000000e+00,5.000000000000000000e+00,5.000000000000000000e+00,5.000000000000000000e+00,5.000000000000000000e+00,5.000000000000000000e+00,5.000000000000000000e+00,5.000000000000000000e+00,5.000000000000000000e+00,5.000000000000000000e+00,5.000000000000000000e+00,5.000000000000000000e+00,5.000000000000000000e+00,5.000000000000000000e+00,5.000000000000000000e+00,5.000000000000000000e+00,5.000000000000000000e+00,1.992771387100219727e+00,5.000000000000000000e+00,4.854504108428955078e+00,1.830358862876892090e+00,1.808000564575195312e+00,1.799770116806030273e+00,4.173372268676757812e+00,4.031942367553710938e+00,3.899784088134765625e+00,3.776014328002929688e+00,3.659859418869018555e+00,3.550637483596801758e+00,3.447745561599731445e+00,3.350649118423461914e+00,3.258871793746948242e+00,3.171988248825073242e+00,3.089617013931274414e+00,3.011415481567382812e+00,2.937075138092041016e+00,2.866316556930541992e+00,2.798887252807617188e+00,2.734557390213012695e+00,2.673118591308593750e+00,2.614379644393920898e+00,2.558166503906250000e+00,2.504319906234741211e+00,2.452693462371826172e+00,2.403152465820312500e+00,2.355573415756225586e+00,2.309841632843017578e+00,2.265851497650146484e+00,2.223505973815917969e+00,2.182713985443115234e+00,2.143391847610473633e+00,2.105461359024047852e+00,2.068850040435791016e+00,2.033490180969238281e+00,1.999318957328796387e+00,1.966277003288269043e+00,1.934309363365173340e+00,1.903364419937133789e+00,1.873394131660461426e+00,1.844353079795837402e+00
5.000000000000000000e+00,5.000000000000000000e+00,4.704209327697753906e+00,4.708455085754394531e+00,4.868859767913818359e+00,5.000000000000000000e+00,5.000000000000000000e+00,5.000000000000000000e+00,5.000000000000000000e+00,5.000000000000000000e+00,5.000000000000000000e+00,5.000000000000000000e+00,5.000000000000000000e+00,5.000000000000000000e+00,5.000000000000000000e+00,5.000000000000000000e+00,5.000000000000000000e+00,5.000000000000000000e+00,5.000000000000000000e+00,5.000000000000000000e+00,5.000000000000000000e+00,5.000000000000000000e+00,5.000000000000000000e+00,5.000000000000000000e+00,5.000000000000000000e+00,5.000000000000000000e+00,5.000000000000000000e+00,5.000000000000000000e+00,5.000000000000000000e+00,5.000000000000000000e+00,5.000000000000000000e+00,5.000000000000000000e+00,5.000000000000000000e+00,5.000000000000000000e+00,5.000000000000000000e+00,5.000000000000000000e+00,2.033568620681762695e+00,2.004594087600708008e+00,5.000000000000000000e+00,4.854642391204833984e+00,1.834622502326965332e+00,1.812954664230346680e+00,1.825006723403930664e+00,4.173474311828613281e+00,4.032037734985351562e+00,3.899873018264770508e+00,3.776098012924194336e+00,3.659938097000122070e+00,3.550711631774902344e+00,3.447815418243408203e+00,3.350715160369873047e+00,3.258934259414672852e+00,3.172047138214111328e+00,3.089673042297363281e+00,3.011468887329101562e+00,2.937125921249389648e+00,2.866364955902099609e+00,2.798933267593383789e+00,2.734601497650146484e+00,2.673160552978515625e+00,2.614419698715209961e+00,2.558204889297485352e+00,2.504356861114501953e+00,2.452728748321533203e+00,2.403186559677124023e+00,2.355606079101562500e+00,2.309872865676879883e+00,2.265881538391113281e+00,2.223534822463989258e+00,2.182741880416870117e+00,2.143418788909912109e+00,2.105487346649169922e+00,2.068874835968017578e+00,2.033514261245727539e+00,1.999342203140258789e+00,1.966299653053283691e+00,1.934331297874450684e+00,1.903385758399963379e+00,1.873414874076843262e+00,1.844373106956481934e+00
4.875243186950683594e+00,4.874032497406005859e+00,4.872822284698486328e+00,4.871613025665283203e+00,4.787177085876464844e+00,4.869196414947509766e+00,4.867988586425781250e+00,4.866781711578369141e+00,4.865575313568115234e+00,4.864369392395019531e+00,4.863163948059082031e+00,4.861959457397460938e+00,4.860755443572998047e+00,4.859552383422851562e+00,4.858349800109863281e+00,4.857147216796875000e+00,4.855945587158203125e+00,4.854744911193847656e+00,4.853544235229492188e+00,4.852344989776611328e+00,4.851145744323730469e+00,4.849946975708007812e+00,4.848748683929443359e+00,4.847551345825195312e+00,4.846354484558105469e+00,4.845158100128173828e+00,4.843962669372558594e+00,4.842767715454101562e+00,4.841573238372802734e+00,4.840379238128662109e+00,4.839185714721679688e+00,4.837993144989013672e+00,4.836800575256347656e+00,4.835609436035156250e+00,4.834418296813964844e+00,4.833228111267089844e+00,2.021448612213134766e+00,2.004192113876342773e+00,4.829660415649414062e+00,4.828472137451171875e+00,1.838674783706665039e+00,1.817936062812805176e+00,1.841955542564392090e+00,4.173575401306152344e+00,4.032132625579833984e+00,3.899962425231933594e+00,3.776181697845458984e+00,3.660016775131225586e+00,3.550785541534423828e+00,3.447885274887084961e+00,3.350780963897705078e+00,3.258996486663818359e+00,3.172106266021728516e+00,3.089729070663452148e+00,3.011522054672241211e+00,2.937176465988159180e+00,2.866412878036499023e+00,2.798979043960571289e+00,2.734645128250122070e+00,2.673202276229858398e+00,2.614459514617919922e+00,2.558243274688720703e+00,2.504393339157104492e+00,2.452764034271240234e+00,2.403220176696777344e+00,2.355638504028320312e+00,2.309904098510742188e+00,2.265911817550659180e+00,2.223563909530639648e+00,2.182769775390625000e+00,2.143445730209350586e+00,2.105513334274291992e+00,2.068900108337402344e+00,2.033538579940795898e+00,1.999365568161010742e+00,1.966322183609008789e+00,1.934353113174438477e+00,1.903406977653503418e+00,1.873435258865356445e+00,1.844393014907836914e+00
3.778071165084838867e+00,3.777344226837158203e+00,3.776617288589477539e+00,3.775890827178955078e+00,3.775164365768432617e+00,3.774438619613647461e+00,3.773713111877441406e+00,3.772987604141235352e+00,3.772262811660766602e+00,3.771537542343139648e+00,3.770813226699829102e+00,3.770088911056518555e+00,3.769365072250366211e+00,3.768641471862792969e+00,3.767917871475219727e+00,3.767194986343383789e+00,3.766471862792968750e+00,3.765749454498291016e+00,3.765027046203613281e+00,3.764304876327514648e+00,3.763583421707153320e+00,3.762861728668212891e+00,3.762140750885009766e+00,3.761419534683227539e+00,3.760699033737182617e+00,3.759978532791137695e+00,3.759258508682250977e+00,3.758538961410522461e+00,3.757819175720214844e+00,3.757100105285644531e+00,3.756380796432495117e+00,3.755662441253662109e+00,3.754943609237670898e+00,3.754225730895996094e+00,3.753507852554321289e+00,3.752789974212646484e+00,2.010586261749267578e+00,2.001985549926757812e+00,2.017944335937500000e+00,3.749922275543212891e+00,1.842745065689086914e+00,1.822944879531860352e+00,3.747774362564086914e+00,3.747059106826782227e+00,3.746343851089477539e+00,3.745629072189331055e+00,3.744914293289184570e+00,3.660094976425170898e+00,3.550859212875366211e+00,3.447954654693603516e+00,3.350846529006958008e+00,3.259058713912963867e+00,3.172165155410766602e+00,3.089784860610961914e+00,3.011574983596801758e+00,2.937226772308349609e+00,2.866461038589477539e+00,2.799025058746337891e+00,2.734688997268676758e+00,2.673244237899780273e+00,2.614499807357788086e+00,2.558281660079956055e+00,2.504430294036865234e+00,2.452799320220947266e+00,2.403254032135009766e+00,2.355670928955078125e+00,2.309935331344604492e+00,2.265941858291625977e+00,2.223592996597290039e+00,2.182797908782958984e+00,2.143472671508789062e+00,2.105539321899414062e+00,2.068925142288208008e+00,2.033562898635864258e+00,1.999389171600341797e+00,1.966344952583312988e+00,1.934375166893005371e+00,1.903428077697753906e+00,1.873455762863159180e+00,1.844412803649902344e+00
3.084014654159545898e+00,3.083530187606811523e+00,3.083045959472656250e+00,3.082561731338500977e+00,3.082077741622924805e+00,3.081593990325927734e+00,3.081110239028930664e+00,3.080626726150512695e+00,3.080143213272094727e+00,3.079659938812255859e+00,3.079176664352416992e+00,3.078693866729736328e+00,3.078211069107055664e+00,3.077728509902954102e+00,3.077245950698852539e+00,3.076763629913330078e+00,3.076281547546386719e+00,3.075799226760864258e+00,3.075317382812500000e+00,3.074835777282714844e+00,3.074354171752929688e+00,3.073872804641723633e+00,3.073391437530517578e+00,3.072910308837890625e+00,3.072429180145263672e+00,3.071948528289794922e+00,3.071467638015747070e+00,3.070987224578857422e+00,3.070506811141967773e+00,3.070026397705078125e+00,3.069546461105346680e+00,3.069066524505615234e+00,3.068586826324462891e+00,3.068107366561889648e+00,3.067627668380737305e+00,3.067148447036743164e+00,1.998718619346618652e+00,1.989614725112915039e+00,3.065711259841918945e+00,3.065232515335083008e+00,1.860442876815795898e+00,1.849253058433532715e+00,3.063797473907470703e+00,3.063318967819213867e+00,3.062841176986694336e+00,3.062363147735595703e+00,3.061885595321655273e+00,3.061408281326293945e+00,3.060930728912353516e+00,3.060453414916992188e+00,3.059976339340209961e+00,3.059499502182006836e+00,3.059022426605224609e+00,3.058545827865600586e+00,3.011628150939941406e+00,2.937277555465698242e+00,2.866509437561035156e+00,2.799071073532104492e+00,2.734732866287231445e+00,2.673286199569702148e+00,2.614539861679077148e+00,2.558320045471191406e+00,2.504467010498046875e+00,2.452834606170654297e+00,2.403288125991821289e+00,2.355703592300415039e+00,2.309966802597045898e+00,2.265971899032592773e+00,2.223621845245361328e+00,2.182825803756713867e+00,2.143499374389648438e+00,2.105565309524536133e+00,2.068950176239013672e+00,2.033586978912353516e+00,1.999412536621093750e+00,1.966367602348327637e+00,1.934396982192993164e+00,1.903449535369873047e+00,1.873476505279541016e+00,1.844432950019836426e+00
2.605387687683105469e+00,2.605041980743408203e+00,2.604696273803710938e+00,2.604350805282592773e+00,2.604005098342895508e+00,2.603659868240356445e+00,2.603314638137817383e+00,2.602969408035278320e+00,2.602624177932739258e+00,2.602279186248779297e+00,2.601934194564819336e+00,2.601589202880859375e+00,2.601244688034057617e+00,2.600899934768676758e+00,2.600555419921875000e+00,2.600210905075073242e+00,2.599866390228271484e+00,2.599522113800048828e+00,2.599177837371826172e+00,2.598833799362182617e+00,2.598489761352539062e+00,2.598145723342895508e+00,2.597801923751831055e+00,2.597458124160766602e+00,2.597114562988281250e+00,2.596770763397216797e+00,2.596427440643310547e+00,2.596084117889404297e+00,2.595740795135498047e+00,2.595397710800170898e+00,2.595054388046264648e+00,2.594711303710937500e+00,2.594368457794189453e+00,2.594025611877441406e+00,2.593683004379272461e+00,2.593340158462524414e+00,2.592997550964355469e+00,2.592654943466186523e+00,2.592312812805175781e+00,2.591970205307006836e+00,1.833973884582519531e+00,1.834361195564270020e+00,2.590944051742553711e+00,2.590602159500122070e+00,2.590260028839111328e+00,2.589918375015258789e+00,2.589576721191406250e+00,2.589235067367553711e+00,2.588893651962280273e+00,2.588552236557006836e+00,2.588211059570312500e+00,2.587869644165039062e+00,2.587528705596923828e+00,2.587187528610229492e+00,2.586846590042114258e+00,2.586505889892578125e+00,2.586164951324462891e+00,2.585824251174926758e+00,2.585483551025390625e+00,2.585143089294433594e+00,2.584802627563476562e+00,2.558358192443847656e+00,2.504503726959228516e+00,2.452869653701782227e+00,2.403321743011474609e+00,2.355736017227172852e+00,2.309997797012329102e+00,2.266001939773559570e+00,2.223650932312011719e+00,2.182853698730468750e+00,2.143526554107666016e+00,2.105591297149658203e+00,2.068975448608398438e+00,2.033611297607421875e+00,1.999435901641845703e+00,1.966390132904052734e+00,1.934418916702270508e+00,1.903470635414123535e+00,1.873497009277343750e+00,1.844452738761901855e+00
2.255386114120483398e+00,2.255126237869262695e+00,2.254866123199462891e+00,2.254606246948242188e+00,2.254346370697021484e+00,2.254086494445800781e+00,2.253826856613159180e+00,2.253566980361938477e+00,2.253307580947875977e+00,2.253047943115234375e+00,2.252788305282592773e+00,2.252528905868530273e+00,2.252269506454467773e+00,2.252010107040405273e+00,2.251750707626342773e+00,2.251491546630859375e+00,2.251232385635375977e+00,2.250973224639892578e+00,2.250714302062988281e+00,2.250455379486083984e+00,2.250196456909179688e+00,2.249937534332275391e+00,2.249678611755371094e+00,2.249419927597045898e+00,2.249161958694458008e+00,2.248904228210449219e+00,2.248646736145019531e+00,2.248389005661010742e+00,2.248131752014160156e+00,2.247874021530151367e+00,2.247616767883300781e+00,2.247359275817871094e+00,2.247102260589599609e+00,2.246845006942749023e+00,2.246587753295898438e+00,2.246330738067626953e+00,2.246073722839355469e+00,2.245816707611083984e+00,2.245559692382812500e+00,2.245302915573120117e+00,1.785733699798583984e+00,1.797289371490478516e+00,2.244532585144042969e+00,2.244276046752929688e+00,2.244019508361816406e+00,2.243762969970703125e+00,2.243506431579589844e+00,2.243250131607055664e+00,2.242993831634521484e+00,2.242737531661987305e+00,2.242481231689453125e+00,2.242225170135498047e+00,2.241968870162963867e+00,2.241713047027587891e+00,2.241456985473632812e+00,2.241200923919677734e+00,2.240945339202880859e+00,2.240689277648925781e+00,2.240433692932128906e+00,2.240177869796752930e+00,2.239922285079956055e+00,2.239666700363159180e+00,2.239411115646362305e+00,2.239155769348144531e+00,2.238900423049926758e+00,2.238645076751708984e+00,2.238389730453491211e+00,2.238134384155273438e+00,2.223679780960083008e+00,2.182881593704223633e+00,2.143553495407104492e+00,2.105617284774780273e+00,2.069000482559204102e+00,2.033635616302490234e+00,1.999459505081176758e+00,1.966413021087646484e+00,1.934440970420837402e+00,1.903491854667663574e+00,1.873517513275146484e+00,1.844472646713256836e+00
1.988326430320739746e+00,1.988124251365661621e+00,1.987922310829162598e+00,1.987720251083374023e+00,1.987518191337585449e+00,1.987316250801086426e+00,1.987114310264587402e+00,1.986912369728088379e+00,1.986710548400878906e+00,1.986508846282958984e+00,1.986307144165039062e+00,1.986105322837829590e+00,1.985903620719909668e+00,1.985702037811279297e+00,1.985500335693359375e+00,1.985298991203308105e+00,1.985097527503967285e+00,1.984895944595336914e+00,1.984694480895996094e+00,1.984493017196655273e+00,1.984291672706604004e+00,1.984090328216552734e+00,1.983889341354370117e+00,1.983687996864318848e+00,1.983486771583557129e+00,1.983285665512084961e+00,1.983084559440612793e+00,1.982883453369140625e+00,1.982682347297668457e+00,1.982481598854064941e+00,1.982280611991882324e+00,1.982079625129699707e+00,1.981878757476806641e+00,1.981677889823913574e+00,1.981477141380310059e+00,1.981276631355285645e+00,1.981075882911682129e+00,1.980875134468078613e+00,1.980674505233764648e+00,1.980473875999450684e+00,1.728500008583068848e+00,1.743801355361938477e+00,1.777935862541198730e+00,1.979672074317932129e+00,1.979471683502197266e+00,1.979271292686462402e+00,1.979071021080017090e+00,1.978870749473571777e+00,1.978670477867126465e+00,1.978470444679260254e+00,1.978270292282104492e+00,1.978070259094238281e+00,1.977870106697082520e+00,1.977670073509216309e+00,1.977470040321350098e+00,1.977270364761352539e+00,1.977070450782775879e+00,1.976870536804199219e+00,1.976670742034912109e+00,1.976470947265625000e+00,1.976271152496337891e+00,1.976071476936340332e+00,1.975871920585632324e+00,1.975672364234924316e+00,1.975472688674926758e+00,1.975273132324218750e+00,1.975073695182800293e+00,1.974874138832092285e+00,1.974674940109252930e+00,1.974475622177124023e+00,1.974276185035705566e+00,1.974076867103576660e+00,1.973877668380737305e+00,1.973678350448608398e+00,1.973479151725769043e+00,1.966435551643371582e+00,1.934462785720825195e+00,1.903513193130493164e+00,1.873538255691528320e+00,1.844492793083190918e+00
1.777815699577331543e+00,1.777654051780700684e+00,1.777492403984069824e+00,1.777330994606018066e+00,1.777169466018676758e+00,1.777008056640625000e+00,1.776846528053283691e+00,1.776685118675231934e+00,1.776523709297180176e+00,1.776362299919128418e+00,1.776201128959655762e+00,1.776039838790893555e+00,1.775878548622131348e+00,1.775717258453369141e+00,1.775555968284606934e+00,1.775394797325134277e+00,1.775233745574951172e+00,1.775072693824768066e+00,1.774911522865295410e+00,1.774750471115112305e+00,1.774589419364929199e+00,1.774428367614746094e+00,1.774267315864562988e+00,1.774106502532958984e+00,1.773945569992065430e+00,1.773784637451171875e+00,1.773623704910278320e+00,1.773462891578674316e+00,1.773302078247070312e+00,1.773141503334045410e+00,1.772980690002441406e+00,1.772819876670837402e+00,1.772659182548522949e+00,1.772498488426208496e+00,1.772337913513183594e+00,1.772177219390869141e+00,1.772016763687133789e+00,1.771856188774108887e+00,1.771695733070373535e+00,1.771535158157348633e+00,1.771374702453613281e+00,1.771214246749877930e+00,1.771053791046142578e+00,1.770893573760986328e+00,1.770733237266540527e+00,1.770572900772094727e+00,1.770412564277648926e+00,1.770252346992492676e+00,1.770092010498046875e+00,1.769932031631469727e+00,1.769771814346313477e+00,1.769611716270446777e+00,1.769451498985290527e+00,1.769291400909423828e+00,1.769131302833557129e+00,1.768971323966979980e+00,1.768811464309692383e+00,1.768651485443115234e+00,1.768491506576538086e+00,1.768331527709960938e+00,1.768171668052673340e+00,1.768011808395385742e+00,1.767851948738098145e+00,1.767692327499389648e+00,1.767532587051391602e+00,1.767372727394104004e+00,1.767213106155395508e+00,1.767053365707397461e+00,1.766893625259399414e+00,1.766734242439270020e+00,1.766574621200561523e+00,1.766414999961853027e+00,1.766255497932434082e+00,1.766095995903015137e+00,1.765936493873596191e+00,1.765776991844177246e+00,1.765617728233337402e+00,1.765458345413208008e+00,1.765298962593078613e+00,1.765139579772949219e+00
1.607612371444702148e+00,1.607480168342590332e+00,1.607348084449768066e+00,1.607216000556945801e+00,1.607084035873413086e+00,1.606951951980590820e+00,1.606819868087768555e+00,1.606687903404235840e+00,1.606555819511413574e+00,1.606423854827880859e+00,1.606292009353637695e+00,1.606160163879394531e+00,1.606028199195861816e+00,1.605896353721618652e+00,1.605764389038085938e+00,1.605632543563842773e+00,1.605500698089599609e+00,1.605369091033935547e+00,1.605237245559692383e+00,1.605105519294738770e+00,1.604973793029785156e+00,1.604842066764831543e+00,1.604710340499877930e+00,1.604578614234924316e+00,1.604447126388549805e+00,1.604315519332885742e+00,1.604183912277221680e+00,1.604052305221557617e+00,1.603920698165893555e+00,1.603789210319519043e+00,1.603657841682434082e+00,1.603526353836059570e+00,1.603394865989685059e+00,1.603263378143310547e+00,1.603131890296936035e+00,1.603000521659851074e+00,1.602869033813476562e+00,1.602737903594970703e+00,1.602606534957885742e+00,1.602475166320800781e+00,1.602343797683715820e+00,1.602212548255920410e+00,1.602081298828125000e+00,1.601950168609619141e+00,1.601818919181823730e+00,1.601687788963317871e+00,1.601556539535522461e+00,1.601425409317016602e+00,1.601294279098510742e+00,1.601163148880004883e+00,1.601032137870788574e+00,1.600901126861572266e+00,1.600770115852355957e+00,1.600638985633850098e+00,1.600507974624633789e+00,1.600377082824707031e+00,1.600246071815490723e+00,1.600115299224853516e+00,1.599984288215637207e+00,1.599853396415710449e+00,1.599722504615783691e+00,1.599591612815856934e+00,1.599460840225219727e+00,1.599330186843872070e+00,1.599199295043945312e+00,1.599068522453308105e+00,1.598937749862670898e+00,1.598807096481323242e+00,1.598676323890686035e+00,1.598545670509338379e+00,1.598415136337280273e+00,1.598284482955932617e+00,1.598153829574584961e+00,1.598023295402526855e+00,1.597892642021179199e+00,1.597762107849121094e+00,1.597631573677062988e+00,1.597501158714294434e+00,1.597370743751525879e+00,1.597240209579467773e+00
1.467151284217834473e+00,1.467041134834289551e+00,1.466931104660034180e+00,1.466821074485778809e+00,1.466711044311523438e+00,1.466601133346557617e+00,1.466491222381591797e+00,1.466381192207336426e+00,1.466271281242370605e+00,1.466161251068115234e+00,1.466051340103149414e+00,1.465941548347473145e+00,1.465831637382507324e+00,1.465721845626831055e+00,1.465611934661865234e+00,1.465502142906188965e+00,1.465392231941223145e+00,1.465282440185546875e+00,1.465172767639160156e+00,1.465062975883483887e+00,1.464953303337097168e+00,1.464843511581420898e+00,1.464733839035034180e+00,1.464624047279357910e+00,1.464514493942260742e+00,1.464404821395874023e+00,1.464295148849487305e+00,1.464185476303100586e+00,1.464075922966003418e+00,1.463966250419616699e+00,1.463856697082519531e+00,1.463747262954711914e+00,1.463637709617614746e+00,1.463528156280517578e+00,1.463418602943420410e+00,1.463309049606323242e+00,1.463199615478515625e+00,1.463090062141418457e+00,1.462980747222900391e+00,1.462871313095092773e+00,1.462761878967285156e+00,1.462652444839477539e+00,1.462543010711669922e+00,1.462433695793151855e+00,1.462324380874633789e+00,1.462215065956115723e+00,1.462105751037597656e+00,1.461996436119079590e+00,1.461887121200561523e+00,1.461777806282043457e+00,1.461668610572814941e+00,1.461559414863586426e+00,1.461450219154357910e+00,1.461341023445129395e+00,1.461231827735900879e+00,1.461122632026672363e+00,1.461013436317443848e+00,1.460904240608215332e+00,1.460795283317565918e+00,1.460686206817626953e+00,1.460577011108398438e+00,1.460467934608459473e+00,1.460358858108520508e+00,1.460249781608581543e+00,1.460140943527221680e+00,1.460031867027282715e+00,1.459922909736633301e+00,1.459813952445983887e+00,1.459704875946044922e+00,1.459595918655395508e+00,1.459486961364746094e+00,1.459378242492675781e+00,1.459269285202026367e+00,1.459160447120666504e+00,1.459051489830017090e+00,1.458942651748657227e+00,1.458833813667297363e+00,1.458725094795227051e+00,1.458616256713867188e+00,1.458507537841796875e+00
1.349262714385986328e+00,1.349169611930847168e+00,1.349076509475708008e+00,1.348983526229858398e+00,1.348890423774719238e+00,1.348797440528869629e+00,1.348704457283020020e+00,1.348611474037170410e+00,1.348518490791320801e+00,1.348425388336181641e+00,1.348332405090332031e+00,1.348239541053771973e+00,1.348146677017211914e+00,1.348053693771362305e+00,1.347960829734802246e+00,1.347867846488952637e+00,1.347774982452392578e+00,1.347682118415832520e+00,1.347589254379272461e+00,1.347496390342712402e+00,1.347403645515441895e+00,1.347310781478881836e+00,1.347217917442321777e+00,1.347125172615051270e+00,1.347032308578491211e+00,1.346939682960510254e+00,1.346846938133239746e+00,1.346754074096679688e+00,1.346661329269409180e+00,1.346568703651428223e+00,1.346475958824157715e+00,1.346383213996887207e+00,1.346290588378906250e+00,1.346197962760925293e+00,1.346105217933654785e+00,1.346012592315673828e+00,1.345919966697692871e+00,1.345827341079711914e+00,1.345734715461730957e+00,1.345642209053039551e+00,1.345549583435058594e+00,1.345456957817077637e+00,1.345364451408386230e+00,1.345271825790405273e+00,1.345179319381713867e+00,1.345086932182312012e+00,1.344994425773620605e+00,1.344901919364929199e+00,1.344809412956237793e+00,1.344716906547546387e+00,1.344624400138854980e+00,1.344532012939453125e+00,1.344439625740051270e+00,1.344347238540649414e+00,1.344254732131958008e+00,1.344162344932556152e+00,1.344069957733154297e+00,1.343977570533752441e+00,1.343885302543640137e+00,1.343793034553527832e+00,1.343700647354125977e+00,1.343608260154724121e+00,1.343515992164611816e+00,1.343423724174499512e+00,1.343331336975097656e+00,1.343239188194274902e+00,1.343146920204162598e+00,1.343054652214050293e+00,1.342962503433227539e+00,1.342870235443115234e+00,1.342777967453002930e+00,1.342685818672180176e+00,1.342593669891357422e+00,1.342501521110534668e+00,1.342409372329711914e+00,1.342317223548889160e+00,1.342225074768066406e+00,1.342132925987243652e+00,1.342040896415710449e+00,1.341948866844177246e+00
1.248910307884216309e+00,1.248830556869506836e+00,1.248750805854797363e+00,1.248671054840087891e+00,1.248591423034667969e+00,1.248511672019958496e+00,1.248432040214538574e+00,1.248352289199829102e+00,1.248272657394409180e+00,1.248192906379699707e+00,1.248113274574279785e+00,1.248033642768859863e+00,1.247954010963439941e+00,1.247874379158020020e+00,1.247794747352600098e+00,1.247715115547180176e+00,1.247635602951049805e+00,1.247555971145629883e+00,1.247476339340209961e+00,1.247396826744079590e+00,1.247317314147949219e+00,1.247237801551818848e+00,1.247158169746398926e+00,1.247078657150268555e+00,1.246999144554138184e+00,1.246919631958007812e+00,1.246840238571166992e+00,1.246760725975036621e+00,1.246681213378906250e+00,1.246601700782775879e+00,1.246522307395935059e+00,1.246442794799804688e+00,1.246363401412963867e+00,1.246284008026123047e+00,1.246204614639282227e+00,1.246125102043151855e+00,1.246045708656311035e+00,1.245966315269470215e+00,1.245886921882629395e+00,1.245807647705078125e+00,1.245728254318237305e+00,1.245648980140686035e+00,1.245569586753845215e+00,1.245490312576293945e+00,1.245410919189453125e+00,1.245331645011901855e+00,1.245252370834350586e+00,1.245173096656799316e+00,1.245093822479248047e+00,1.245014548301696777e+00,1.244935274124145508e+00,1.244855999946594238e+00,1.244776725769042969e+00,1.244697690010070801e+00,1.244618415832519531e+00,1.244539141654968262e+00,1.244459986686706543e+00,1.244380831718444824e+00,1.244301557540893555e+00,1.244222521781921387e+00,1.244143366813659668e+00,1.244064211845397949e+00,1.243985056877136230e+00,1.243905901908874512e+00,1.243826746940612793e+00,1.243747711181640625e+00,1.243668675422668457e+00,1.243589520454406738e+00,1.243510484695434570e+00,1.243431448936462402e+00,1.243352413177490234e+00,1.243273258209228516e+00,1.243194222450256348e+00,1.243115305900573730e+00,1.243036270141601562e+00,1.242957234382629395e+00,1.242878317832946777e+00,1.242799282073974609e+00,1.242720246315002441e+00,1.242641448974609375e+00
1.162452101707458496e+00,1.162383079528808594e+00,1.162313938140869141e+00,1.162244915962219238e+00,1.162175774574279785e+00,1.162106752395629883e+00,1.162037730216979980e+00,1.161968708038330078e+00,1.161899685859680176e+00,1.161830663681030273e+00,1.161761641502380371e+00,1.161692619323730469e+00,1.161623597145080566e+00,1.161554574966430664e+00,1.161485671997070312e+00,1.161416649818420410e+00,1.161347627639770508e+00,1.161278724670410156e+00,1.161209702491760254e+00,1.161140799522399902e+00,1.161071896553039551e+00,1.161002993583679199e+00,1.160934090614318848e+00,1.160865068435668945e+00,1.160796165466308594e+00,1.160727262496948242e+00,1.160658359527587891e+00,1.160589575767517090e+00,1.160520672798156738e+00,1.160451889038085938e+00,1.160382986068725586e+00,1.160314083099365234e+00,1.160245299339294434e+00,1.160176396369934082e+00,1.160107612609863281e+00,1.160038828849792480e+00,1.159970045089721680e+00,1.159901261329650879e+00,1.159832477569580078e+00,1.159763574600219727e+00,1.159694910049438477e+00,1.159626126289367676e+00,1.159557342529296875e+00,1.159488558769226074e+00,1.159419894218444824e+00,1.159351110458374023e+00,1.159282445907592773e+00,1.159213781356811523e+00,1.159144997596740723e+00,1.159076333045959473e+00,1.159007549285888672e+00,1.158938884735107422e+00,1.158870220184326172e+00,1.158801674842834473e+00,1.158733010292053223e+00,1.158664345741271973e+00,1.158595681190490723e+00,1.158527016639709473e+00,1.158458352088928223e+00,1.158389687538146973e+00,1.158321261405944824e+00,1.158252596855163574e+00,1.158184051513671875e+00,1.158115386962890625e+00,1.158046841621398926e+00,1.157978296279907227e+00,1.157909631729125977e+00,1.157841205596923828e+00,1.157772660255432129e+00,1.157704114913940430e+00,1.157635569572448730e+00,1.157567024230957031e+00,1.157498478889465332e+00,1.157430052757263184e+00,1.157361507415771484e+00,1.157293081283569336e+00,1.157224535942077637e+00,1.157156109809875488e+00,1.157087564468383789e+00,1.157019138336181641e+00
1.087189316749572754e+00,1.087128877639770508e+00,1.087068438529968262e+00,1.087007999420166016e+00,1.086947679519653320e+00,1.086887240409851074e+00,1.086826801300048828e+00,1.086766362190246582e+00,1.086706042289733887e+00,1.086645722389221191e+00,1.086585283279418945e+00,1.086524963378906250e+00,1.086464524269104004e+00,1.086404204368591309e+00,1.086343884468078613e+00,1.086283564567565918e+00,1.086223244667053223e+00,1.086162924766540527e+00,1.086102604866027832e+00,1.086042284965515137e+00,1.085981965065002441e+00,1.085921645164489746e+00,1.085861325263977051e+00,1.085801124572753906e+00,1.085740804672241211e+00,1.085680484771728516e+00,1.085620284080505371e+00,1.085559964179992676e+00,1.085499763488769531e+00,1.085439562797546387e+00,1.085379242897033691e+00,1.085319042205810547e+00,1.085258841514587402e+00,1.085198521614074707e+00,1.085138440132141113e+00,1.085078239440917969e+00,1.085018038749694824e+00,1.084957838058471680e+00,1.084897637367248535e+00,1.084837436676025391e+00,1.084777235984802246e+00,1.084717035293579102e+00,1.084656953811645508e+00,1.084596753120422363e+00,1.084536552429199219e+00,1.084476470947265625e+00,1.084416270256042480e+00,1.084356188774108887e+00,1.084296107292175293e+00,1.084236025810241699e+00,1.084175944328308105e+00,1.084115743637084961e+00,1.084055662155151367e+00,1.083995580673217773e+00,1.083935618400573730e+00,1.083875536918640137e+00,1.083815455436706543e+00,1.083755373954772949e+00,1.083695292472839355e+00,1.083635210990905762e+00,1.083575129508972168e+00,1.083515167236328125e+00,1.083455204963684082e+00,1.083395123481750488e+00,1.083335161209106445e+00,1.083275079727172852e+00,1.083215117454528809e+00,1.083155035972595215e+00,1.083095192909240723e+00,1.083035111427307129e+00,1.082975149154663086e+00,1.082915186882019043e+00,1.082855224609375000e+00,1.082795262336730957e+00,1.082735419273376465e+00,1.082675457000732422e+00,1.082615494728088379e+00,1.082555532455444336e+00,1.082495570182800293e+00,1.082435727119445801e+00
1.021079659461975098e+00,1.021026372909545898e+00,1.020973086357116699e+00,1.020919799804687500e+00,1.020866513252258301e+00,1.020813226699829102e+00,1.020759940147399902e+00,1.020706653594970703e+00,1.020653367042541504e+00,1.020600080490112305e+00,1.020546913146972656e+00,1.020493626594543457e+00,1.020440340042114258e+00,1.020387053489685059e+00,1.020333886146545410e+00,1.020280718803405762e+00,1.020227432250976562e+00,1.020174264907836914e+00,1.020120978355407715e+00,1.020067811012268066e+00,1.020014524459838867e+00,1.019961357116699219e+00,1.019908189773559570e+00,1.019855022430419922e+00,1.019801855087280273e+00,1.019748687744140625e+00,1.019695520401000977e+00,1.019642353057861328e+00,1.019589185714721680e+00,1.019536018371582031e+00,1.019482851028442383e+00,1.019429802894592285e+00,1.019376635551452637e+00,1.019323468208312988e+00,1.019270300865173340e+00,1.019217252731323242e+00,1.019164204597473145e+00,1.019111037254333496e+00,1.019057869911193848e+00,1.019004821777343750e+00,1.018951773643493652e+00,1.018898606300354004e+00,1.018845558166503906e+00,1.018792510032653809e+00,1.018739461898803711e+00,1.018686413764953613e+00,1.018633246421813965e+00,1.018580198287963867e+00,1.018527150154113770e+00,1.018474221229553223e+00,1.018421173095703125e+00,1.018368124961853027e+00,1.018315076828002930e+00,1.018262028694152832e+00,1.018208980560302734e+00,1.018156051635742188e+00,1.018103003501892090e+00,1.018050074577331543e+00,1.017997026443481445e+00,1.017944097518920898e+00,1.017891049385070801e+00,1.017838120460510254e+00,1.017785191535949707e+00,1.017732143402099609e+00,1.017679214477539062e+00,1.017626285552978516e+00,1.017573356628417969e+00,1.017520308494567871e+00,1.017467498779296875e+00,1.017414569854736328e+00,1.017361640930175781e+00,1.017308712005615234e+00,1.017255783081054688e+00,1.017202854156494141e+00,1.017149925231933594e+00,1.017097115516662598e+00,1.017044186592102051e+00,1.016991257667541504e+00,1.016938328742980957e+00,1.016885519027709961e+00
9.625491499900817871e-01,9.625017642974853516e-01,9.624543786048889160e-01,9.624071121215820312e-01,9.623597264289855957e-01,9.623124003410339355e-01,9.622650146484375000e-01,9.622176885604858398e-01,9.621703624725341797e-01,9.621229767799377441e-01,9.620756506919860840e-01,9.620283246040344238e-01,9.619809985160827637e-01,9.619336724281311035e-01,9.618863463401794434e-01,9.618390798568725586e-01,9.617918729782104492e-01,9.617445468902587891e-01,9.616972208023071289e-01,9.616499543190002441e-01,9.616026878356933594e-01,9.615553617477416992e-01,9.615080952644348145e-01,9.614608287811279297e-01,9.614135622978210449e-01,9.613662958145141602e-01,9.613190293312072754e-01,9.612717628479003906e-01,9.612244963645935059e-01,9.611773490905761719e-01,9.611301422119140625e-01,9.610828757286071777e-01,9.610356688499450684e-01,9.609884023666381836e-01,9.609411954879760742e-01,9.608939886093139648e-01,9.608467817306518555e-01,9.607995152473449707e-01,9.607523083686828613e-01,9.607051610946655273e-01,9.606579542160034180e-01,9.606107473373413086e-01,9.605635404586791992e-01,9.605164527893066406e-01,9.604693055152893066e-01,9.604220986366271973e-01,9.603749513626098633e-01,9.603278040885925293e-01,9.602805972099304199e-01,9.602334499359130859e-01,9.601863026618957520e-01,9.601391553878784180e-01,9.600920081138610840e-01,9.600448608398437500e-01,9.599977731704711914e-01,9.599506258964538574e-01,9.599035978317260742e-01,9.598565101623535156e-01,9.598093628883361816e-01,9.597622752189636230e-01,9.597151279449462891e-01,9.596680402755737305e-01,9.596209526062011719e-01,9.595738649368286133e-01,9.595267772674560547e-01,9.594796895980834961e-01,9.594326019287109375e-01,9.593855142593383789e-01,9.593384861946105957e-01,9.592915177345275879e-01,9.592444896697998047e-01,9.591974020004272461e-01,9.591503739356994629e-01,9.591032862663269043e-01,9.590562582015991211e-01,9.590092301368713379e-01,9.589622020721435547e-01,9.589151740074157715e-01,9.588681459426879883e-01,9.588211178779602051e-01
9.103650450706481934e-01,9.103226661682128906e-01,9.102802872657775879e-01,9.102379083633422852e-01,9.101955294609069824e-01,9.101532101631164551e-01,9.101108312606811523e-01,9.100684523582458496e-01,9.100261330604553223e-01,9.099837541580200195e-01,9.099414944648742676e-01,9.098991751670837402e-01,9.098568558692932129e-01,9.098144769668579102e-01,9.097721576690673828e-01,9.097298383712768555e-01,9.096875190734863281e-01,9.096451997756958008e-01,9.096028804779052734e-01,9.095605611801147461e-01,9.095182418823242188e-01,9.094759821891784668e-01,9.094336628913879395e-01,9.093914031982421875e-01,9.093492031097412109e-01,9.093068838119506836e-01,9.092646241188049316e-01,9.092223048210144043e-01,9.091800451278686523e-01,9.091377854347229004e-01,9.090955257415771484e-01,9.090532660484313965e-01,9.090110063552856445e-01,9.089687466621398926e-01,9.089264869689941406e-01,9.088842272758483887e-01,9.088419675827026367e-01,9.087998867034912109e-01,9.087576270103454590e-01,9.087153673171997070e-01,9.086731672286987305e-01,9.086309075355529785e-01,9.085887074470520020e-01,9.085465073585510254e-01,9.085043072700500488e-01,9.084621071815490723e-01,9.084198474884033203e-01,9.083776473999023438e-01,9.083355069160461426e-01,9.082933068275451660e-01,9.082512259483337402e-01,9.082090258598327637e-01,9.081668257713317871e-01,9.081246256828308105e-01,9.080824851989746094e-01,9.080403447151184082e-01,9.079981446266174316e-01,9.079560041427612305e-01,9.079138040542602539e-01,9.078716635704040527e-01,9.078295230865478516e-01,9.077873826026916504e-01,9.077452421188354492e-01,9.077032208442687988e-01,9.076610803604125977e-01,9.076189398765563965e-01,9.075767993927001953e-01,9.075346589088439941e-01,9.074925780296325684e-01,9.074504375457763672e-01,9.074083566665649414e-01,9.073662161827087402e-01,9.073241353034973145e-01,9.072820544242858887e-01,9.072399139404296875e-01,9.071978330612182617e-01,9.071557521820068359e-01,9.071137905120849609e-01,9.070717096328735352e-01,9.070296287536621094e-01
