5.000000000000000000e+00,5.000000000000000000e+00,5.000000000000000000e+00,5.000000000000000000e+00,5.000000000000000000e+00,5.000000000000000000e+00,5.000000000000000000e+00,5.000000000000000000e+00,5.000000000000000000e+00,5.000000000000000000e+00,5.000000000000000000e+00,5.000000000000000000e+00,5.000000000000000000e+00,5.000000000000000000e+00,5.000000000000000000e+00,5.000000000000000000e+00,5.000000000000000000e+00,5.000000000000000000e+00,5.000000000000000000e+00,5.000000000000000000e+00,5.000000000000000000e+00,5.000000000000000000e+00,5.000000000000000000e+00,5.000000000000000000e+00,5.000000000000000000e+00,5.000000000000000000e+00,4.207110404968261719e+00,4.277815818786621094e+00,5.000000000000000000e+00,5.000000000000000000e+00,5.000000000000000000e+00,5.000000000000000000e+00,5.000000000000000000e+00,5.000000000000000000e+00,5.000000000000000000e+00,5.000000000000000000e+00,5.000000000000000000e+00,5.000000000000000000e+00,5.000000000000000000e+00,5.000000000000000000e+00,4.873372077941894531e+00,4.680141925811767578e+00,4.501650810241699219e+00,4.336274147033691406e+00,4.182617664337158203e+00,4.039478302001953125e+00,3.905812025070190430e+00,3.780708312988281250e+00,3.663369894027709961e+00,3.553095817565917969e+00,3.449266672134399414e+00,3.351333379745483398e+00,3.258807897567749023e+00,3.171253919601440430e+00,3.088281869888305664e+00,3.009540557861328125e+00,2.934714555740356445e+00,2.863519191741943359e+00,2.795696258544921875e+00,2.731012105941772461e+00,2.669253349304199219e+00,2.610225915908813477e+00,2.553752660751342773e+00,2.499671220779418945e+00,2.447833061218261719e+00,2.398101091384887695e+00,2.350349664688110352e+00,2.304462909698486328e+00,2.260333538055419922e+00,2.217862606048583984e+00,2.176958084106445312e+00,2.137535095214843750e+00,2.099514722824096680e+00,2.062823057174682617e+00,2.027391910552978516e+00,1.993157267570495605e+00,1.960059762001037598e+00,1.928043365478515625e+00,1.897056221961975098e+00,1.867049217224121094e+00
5.000000000000000000e+00,5.000000000000000000e+00,5.000000000000000000e+00,5.000000000000000000e+00,5.000000000000000000e+00,5.000000000000000000e+00,5.000000000000000000e+00,5.000000000000000000e+00,5.000000000000000000e+00,5.000000000000000000e+00,5.000000000000000000e+00,5.000000000000000000e+00,5.000000000000000000e+00,5.000000000000000000e+00,5.000000000000000000e+00,5.000000000000000000e+00,5.000000000000000000e+00,5.000000000000000000e+00,5.000000000000000000e+00,5.000000000000000000e+00,5.000000000000000000e+00,5.000000000000000000e+00,5.000000000000000000e+00,5.000000000000000000e+00,5.000000000000000000e+00,5.000000000000000000e+00,4.204362392425537109e+00,4.277175903320312500e+00,5.000000000000000000e+00,5.000000000000000000e+00,5.000000000000000000e+00,5.000000000000000000e+00,5.000000000000000000e+00,5.000000000000000000e+00,5.000000000000000000e+00,5.000000000000000000e+00,5.000000000000000000e+00,5.000000000000000000e+00,5.000000000000000000e+00,5.000000000000000000e+00,4.873515605926513672e+00,4.680274486541748047e+00,4.501773357391357422e+00,4.336388111114501953e+00,4.182723522186279297e+00,4.039577007293701172e+00,3.905904293060302734e+00,3.780794620513916016e+00,3.663451194763183594e+00,3.553172349929809570e+00,3.449338674545288086e+00,3.351401329040527344e+00,3.258872032165527344e+00,3.171314716339111328e+00,3.088339090347290039e+00,3.009595394134521484e+00,2.934766769409179688e+00,2.863568782806396484e+00,2.795743703842163086e+00,2.731057167053222656e+00,2.669296264648437500e+00,2.610267162322998047e+00,2.553791999816894531e+00,2.499708890914916992e+00,2.447869300842285156e+00,2.398135900497436523e+00,2.350383043289184570e+00,2.304495096206665039e+00,2.260364532470703125e+00,2.217892408370971680e+00,2.176986694335937500e+00,2.137562751770019531e+00,2.099541187286376953e+00,2.062848806381225586e+00,2.027416706085205078e+00,1.993181467056274414e+00,1.960082888603210449e+00,1.928065896034240723e+00,1.897077918052673340e+00,1.867070317268371582e+00
5.000000000000000000e+00,5.000000000000000000e+00,5.000000000000000000e+00,5.000000000000000000e+00,5.000000000000000000e+00,5.000000000000000000e+00,5.000000000000000000e+00,5.000000000000000000e+00,5.000000000000000000e+00,5.000000000000000000e+00,5.000000000000000000e+00,5.000000000000000000e+00,5.000000000000000000e+00,5.000000000000000000e+00,5.000000000000000000e+00,5.000000000000000000e+00,5.000000000000000000e+00,5.000000000000000000e+00,5.000000000000000000e+00,5.000000000000000000e+00,5.000000000000000000e+00,5.000000000000000000e+00,5.000000000000000000e+00,5.000000000000000000e+00,5.000000000000000000e+00,5.000000000000000000e+00,4.256672859191894531e+00,4.324780464172363281e+00,5.000000000000000000e+00,5.000000000000000000e+00,5.000000000000000000e+00,5.000000000000000000e+00,5.000000000000000000e+00,5.000000000000000000e+00,5.000000000000000000e+00,5.000000000000000000e+00,5.000000000000000000e+00,5.000000000000000000e+00,5.000000000000000000e+00,5.000000000000000000e+00,4.873659133911132812e+00,4.680407047271728516e+00,4.501896381378173828e+00,4.336501598358154297e+00,4.182829380035400391e+00,4.039675712585449219e+00,3.905996561050415039e+00,3.780881166458129883e+00,3.663532257080078125e+00,3.553248643875122070e+00,3.449410676956176758e+00,3.351469278335571289e+00,3.258936405181884766e+00,3.171375513076782227e+00,3.088397026062011719e+00,3.009649753570556641e+00,2.934818983078002930e+00,2.863618373870849609e+00,2.795790910720825195e+00,2.731102228164672852e+00,2.669339418411254883e+00,2.610308408737182617e+00,2.553831577301025391e+00,2.499746799468994141e+00,2.447905540466308594e+00,2.398170709609985352e+00,2.350416660308837891e+00,2.304527282714843750e+00,2.260395526885986328e+00,2.217921972274780273e+00,2.177015304565429688e+00,2.137590408325195312e+00,2.099567890167236328e+00,2.062874555587768555e+00,2.027441501617431641e+00,1.993205308914184570e+00,1.960106253623962402e+00,1.928088307380676270e+00,1.897099733352661133e+00,1.867091298103332520e+00
5.000000000000000000e+00,5.000000000000000000e+00,5.000000000000000000e+00,5.000000000000000000e+00,5.000000000000000000e+00,5.000000000000000000e+00,5.000000000000000000e+00,5.000000000000000000e+00,5.000000000000000000e+00,5.000000000000000000e+00,5.000000000000000000e+00,5.000000000000000000e+00,5.000000000000000000e+00,5.000000000000000000e+00,5.000000000000000000e+00,5.000000000000000000e+00,5.000000000000000000e+00,5.000000000000000000e+00,5.000000000000000000e+00,5.000000000000000000e+00,5.000000000000000000e+00,5.000000000000000000e+00,5.000000000000000000e+00,5.000000000000000000e+00,4.274312973022460938e+00,4.251258373260498047e+00,4.262129783630371094e+00,4.253858089447021484e+00,4.281948566436767578e+00,4.286305427551269531e+00,5.000000000000000000e+00,5.000000000000000000e+00,5.000000000000000000e+00,5.000000000000000000e+00,5.000000000000000000e+00,5.000000000000000000e+00,5.000000000000000000e+00,5.000000000000000000e+00,5.000000000000000000e+00,5.000000000000000000e+00,4.873802661895751953e+00,4.680539608001708984e+00,4.502018928527832031e+00,4.336615562438964844e+00,4.182935237884521484e+00,4.039774417877197266e+00,3.906088829040527344e+00,3.780967712402343750e+00,3.663613557815551758e+00,3.553324937820434570e+00,3.449482679367065430e+00,3.351537227630615234e+00,3.259000539779663086e+00,3.171436548233032227e+00,3.088454723358154297e+00,3.009704589843750000e+00,2.934870719909667969e+00,2.863667964935302734e+00,2.795838117599487305e+00,2.731147289276123047e+00,2.669382572174072266e+00,2.610349416732788086e+00,2.553870916366577148e+00,2.499784708023071289e+00,2.447941780090332031e+00,2.398205518722534180e+00,2.350450038909912109e+00,2.304559230804443359e+00,2.260426282882690430e+00,2.217951774597167969e+00,2.177044153213500977e+00,2.137618064880371094e+00,2.099594593048095703e+00,2.062900304794311523e+00,2.027466535568237305e+00,1.993229508399963379e+00,1.960129380226135254e+00,1.928110837936401367e+00,1.897121429443359375e+00,1.867112517356872559e+00
5.000000000000000000e+00,5.000000000000000000e+00,5.000000000000000000e+00,5.000000000000000000e+00,5.000000000000000000e+00,5.000000000000000000e+00,5.000000000000000000e+00,5.000000000000000000e+00,5.000000000000000000e+00,5.000000000000000000e+00,5.000000000000000000e+00,5.000000000000000000e+00,5.000000000000000000e+00,5.000000000000000000e+00,5.000000000000000000e+00,5.000000000000000000e+00,5.000000000000000000e+00,5.000000000000000000e+00,5.000000000000000000e+00,5.000000000000000000e+00,5.000000000000000000e+00,5.000000000000000000e+00,5.000000000000000000e+00,4.267942428588867188e+00,4.244380950927734375e+00,4.194703578948974609e+00,4.201426029205322266e+00,4.205159187316894531e+00,4.255256175994873047e+00,4.298445701599121094e+00,5.000000000000000000e+00,5.000000000000000000e+00,5.000000000000000000e+00,5.000000000000000000e+00,5.000000000000000000e+00,5.000000000000000000e+00,5.000000000000000000e+00,5.000000000000000000e+00,5.000000000000000000e+00,5.000000000000000000e+00,4.873946189880371094e+00,4.680672168731689453e+00,4.502141475677490234e+00,4.336729526519775391e+00,4.183041095733642578e+00,4.039873123168945312e+00,3.906181097030639648e+00,3.781054258346557617e+00,3.663694620132446289e+00,3.553401470184326172e+00,3.449554681777954102e+00,3.351605176925659180e+00,3.259064912796020508e+00,3.171497344970703125e+00,3.088512420654296875e+00,3.009759426116943359e+00,2.934922933578491211e+00,2.863717794418334961e+00,2.795885562896728516e+00,2.731192588806152344e+00,2.669425725936889648e+00,2.610390663146972656e+00,2.553910493850708008e+00,2.499822378158569336e+00,2.447978019714355469e+00,2.398240327835083008e+00,2.350483417510986328e+00,2.304591417312622070e+00,2.260457277297973633e+00,2.217981576919555664e+00,2.177072763442993164e+00,2.137645721435546875e+00,2.099621295928955078e+00,2.062926054000854492e+00,2.027491331100463867e+00,1.993253350257873535e+00,1.960152745246887207e+00,1.928133249282836914e+00,1.897143244743347168e+00,1.867133498191833496e+00
5.000000000000000000e+00,5.000000000000000000e+00,5.000000000000000000e+00,5.000000000000000000e+00,5.000000000000000000e+00,5.000000000000000000e+00,5.000000000000000000e+00,5.000000000000000000e+00,5.000000000000000000e+00,5.000000000000000000e+00,5.000000000000000000e+00,5.000000000000000000e+00,5.000000000000000000e+00,5.000000000000000000e+00,5.000000000000000000e+00,5.000000000000000000e+00,5.000000000000000000e+00,5.000000000000000000e+00,5.000000000000000000e+00,5.000000000000000000e+00,5.000000000000000000e+00,5.000000000000000000e+00,5.000000000000000000e+00,5.000000000000000000e+00,4.283760547637939453e+00,4.203506469726562500e+00,4.193459987640380859e+00,4.212506294250488281e+00,4.261064052581787109e+00,4.310923576354980469e+00,5.000000000000000000e+00,5.000000000000000000e+00,5.000000000000000000e+00,5.000000000000000000e+00,5.000000000000000000e+00,5.000000000000000000e+00,5.000000000000000000e+00,5.000000000000000000e+00,5.000000000000000000e+00,5.000000000000000000e+00,4.874090194702148438e+00,4.680804252624511719e+00,4.502264022827148438e+00,4.336843013763427734e+00,4.183146953582763672e+00,4.039971828460693359e+00,3.906273365020751953e+00,3.781140565872192383e+00,3.663775920867919922e+00,3.553477764129638672e+00,3.449626684188842773e+00,3.351673126220703125e+00,3.259129047393798828e+00,3.171558141708374023e+00,3.088570117950439453e+00,3.009814262390136719e+00,2.934974908828735352e+00,2.863767147064208984e+00,2.795932769775390625e+00,2.731237649917602539e+00,2.669468879699707031e+00,2.610431909561157227e+00,2.553949832916259766e+00,2.499860286712646484e+00,2.448014259338378906e+00,2.398275136947631836e+00,2.350516796112060547e+00,2.304623603820800781e+00,2.260488271713256836e+00,2.218011379241943359e+00,2.177101373672485352e+00,2.137673377990722656e+00,2.099647998809814453e+00,2.062951803207397461e+00,2.027516126632690430e+00,1.993277549743652344e+00,1.960175871849060059e+00,1.928155899047851562e+00,1.897164940834045410e+00,1.867154717445373535e+00
5.000000000000000000e+00,5.000000000000000000e+00,5.000000000000000000e+00,5.000000000000000000e+00,5.000000000000000000e+00,5.000000000000000000e+00,5.000000000000000000e+00,5.000000000000000000e+00,5.000000000000000000e+00,5.000000000000000000e+00,5.000000000000000000e+00,5.000000000000000000e+00,5.000000000000000000e+00,5.000000000000000000e+00,5.000000000000000000e+00,5.000000000000000000e+00,5.000000000000000000e+00,5.000000000000000000e+00,5.000000000000000000e+00,5.000000000000000000e+00,5.000000000000000000e+00,5.000000000000000000e+00,5.000000000000000000e+00,5.000000000000000000e+00,4.276181697845458984e+00,4.199840068817138672e+00,4.189415931701660156e+00,4.206118583679199219e+00,4.271641731262207031e+00,4.311661720275878906e+00,5.000000000000000000e+00,5.000000000000000000e+00,5.000000000000000000e+00,5.000000000000000000e+00,5.000000000000000000e+00,5.000000000000000000e+00,5.000000000000000000e+00,5.000000000000000000e+00,5.000000000000000000e+00,5.000000000000000000e+00,4.874233722686767578e+00,4.680936813354492188e+00,4.502386569976806641e+00,4.336956977844238281e+00,4.183252811431884766e+00,4.040070533752441406e+00,3.906365871429443359e+00,3.781227111816406250e+00,3.663857221603393555e+00,3.553554296493530273e+00,3.449698686599731445e+00,3.351741075515747070e+00,3.259193420410156250e+00,3.171618938446044922e+00,3.088627815246582031e+00,3.009869098663330078e+00,2.935027122497558594e+00,2.863816738128662109e+00,2.795979976654052734e+00,2.731282711029052734e+00,2.669511795043945312e+00,2.610473155975341797e+00,2.553989410400390625e+00,2.499897956848144531e+00,2.448050498962402344e+00,2.398309946060180664e+00,2.350550174713134766e+00,2.304655790328979492e+00,2.260519027709960938e+00,2.218041181564331055e+00,2.177130222320556641e+00,2.137701034545898438e+00,2.099674701690673828e+00,2.062977552413940430e+00,2.027541160583496094e+00,1.993301510810852051e+00,1.960199236869812012e+00,1.928178310394287109e+00,1.897186875343322754e+00,1.867175698280334473e+00
5.000000000000000000e+00,5.000000000000000000e+00,5.000000000000000000e+00,5.000000000000000000e+00,5.000000000000000000e+00,5.000000000000000000e+00,5.000000000000000000e+00,5.000000000000000000e+00,5.000000000000000000e+00,5.000000000000000000e+00,5.000000000000000000e+00,5.000000000000000000e+00,5.000000000000000000e+00,5.000000000000000000e+00,5.000000000000000000e+00,5.000000000000000000e+00,5.000000000000000000e+00,5.000000000000000000e+00,5.000000000000000000e+00,5.000000000000000000e+00,5.000000000000000000e+00,5.000000000000000000e+00,5.000000000000000000e+00,5.000000000000000000e+00,4.285479068756103516e+00,4.190186023712158203e+00,4.195848941802978516e+00,4.202196121215820312e+00,4.285755634307861328e+00,4.330269813537597656e+00,5.000000000000000000e+00,5.000000000000000000e+00,5.000000000000000000e+00,5.000000000000000000e+00,5.000000000000000000e+00,5.000000000000000000e+00,5.000000000000000000e+00,5.000000000000000000e+00,5.000000000000000000e+00,5.000000000000000000e+00,4.874377727508544922e+00,4.681069374084472656e+00,4.502509117126464844e+00,4.337070465087890625e+00,4.183358669281005859e+00,4.040169715881347656e+00,3.906458139419555664e+00,3.781313657760620117e+00,3.663938283920288086e+00,3.553630590438842773e+00,3.449770689010620117e+00,3.351809024810791016e+00,3.259257555007934570e+00,3.171679973602294922e+00,3.088685512542724609e+00,3.009923934936523438e+00,2.935079097747802734e+00,2.863866329193115234e+00,2.796027183532714844e+00,2.731327772140502930e+00,2.669554948806762695e+00,2.610514402389526367e+00,2.554028749465942383e+00,2.499935865402221680e+00,2.448086738586425781e+00,2.398344755172729492e+00,2.350583791732788086e+00,2.304687738418579102e+00,2.260550022125244141e+00,2.218070983886718750e+00,2.177158832550048828e+00,2.137728691101074219e+00,2.099701404571533203e+00,2.063003301620483398e+00,2.027565956115722656e+00,1.993325591087341309e+00,1.960222363471984863e+00,1.928200840950012207e+00,1.897208571434020996e+00,1.867196917533874512e+00
5.000000000000000000e+00,5.000000000000000000e+00,5.000000000000000000e+00,5.000000000000000000e+00,5.000000000000000000e+00,5.000000000000000000e+00,5.000000000000000000e+00,5.000000000000000000e+00,5.000000000000000000e+00,5.000000000000000000e+00,5.000000000000000000e+00,5.000000000000000000e+00,5.000000000000000000e+00,5.000000000000000000e+00,5.000000000000000000e+00,5.000000000000000000e+00,5.000000000000000000e+00,5.000000000000000000e+00,5.000000000000000000e+00,5.000000000000000000e+00,5.000000000000000000e+00,5.000000000000000000e+00,5.000000000000000000e+00,5.000000000000000000e+00,4.295121192932128906e+00,4.195003032684326172e+00,4.187704086303710938e+00,4.212755203247070312e+00,4.275524616241455078e+00,4.320248126983642578e+00,5.000000000000000000e+00,5.000000000000000000e+00,5.000000000000000000e+00,5.000000000000000000e+00,5.000000000000000000e+00,5.000000000000000000e+00,5.000000000000000000e+00,5.000000000000000000e+00,5.000000000000000000e+00,5.000000000000000000e+00,4.874521255493164062e+00,4.681201934814453125e+00,4.502631664276123047e+00,4.337184429168701172e+00,4.183464527130126953e+00,4.040268421173095703e+00,3.906550407409667969e+00,3.781400203704833984e+00,3.664019584655761719e+00,3.553707122802734375e+00,3.449842691421508789e+00,3.351877212524414062e+00,3.259321928024291992e+00,3.171740770339965820e+00,3.088743209838867188e+00,3.009978771209716797e+00,2.935131311416625977e+00,2.863915920257568359e+00,2.796074390411376953e+00,2.731372833251953125e+00,2.669597864151000977e+00,2.610555648803710938e+00,2.554068326950073242e+00,2.499973773956298828e+00,2.448122978210449219e+00,2.398379325866699219e+00,2.350617170333862305e+00,2.304719924926757812e+00,2.260581016540527344e+00,2.218100547790527344e+00,2.177187442779541016e+00,2.137756347656250000e+00,2.099727869033813477e+00,2.063029050827026367e+00,2.027590751647949219e+00,1.993349552154541016e+00,1.960245728492736816e+00,1.928223252296447754e+00,1.897230386734008789e+00,1.867217898368835449e+00
5.000000000000000000e+00,5.000000000000000000e+00,5.000000000000000000e+00,5.000000000000000000e+00,5.000000000000000000e+00,5.000000000000000000e+00,5.000000000000000000e+00,5.000000000000000000e+00,5.000000000000000000e+00,5.000000000000000000e+00,5.000000000000000000e+00,5.000000000000000000e+00,5.000000000000000000e+00,5.000000000000000000e+00,5.000000000000000000e+00,5.000000000000000000e+00,5.000000000000000000e+00,5.000000000000000000e+00,5.000000000000000000e+00,5.000000000000000000e+00,5.000000000000000000e+00,5.000000000000000000e+00,5.000000000000000000e+00,5.000000000000000000e+00,4.272187709808349609e+00,4.211908340454101562e+00,4.204777240753173828e+00,4.212786197662353516e+00,4.263845443725585938e+00,4.300309181213378906e+00,5.000000000000000000e+00,5.000000000000000000e+00,5.000000000000000000e+00,5.000000000000000000e+00,5.000000000000000000e+00,5.000000000000000000e+00,5.000000000000000000e+00,5.000000000000000000e+00,5.000000000000000000e+00,5.000000000000000000e+00,4.874665260314941406e+00,4.681334495544433594e+00,4.502754211425781250e+00,4.337297916412353516e+00,4.183570384979248047e+00,4.040366649627685547e+00,3.906642675399780273e+00,3.781486749649047852e+00,3.664100885391235352e+00,3.553783416748046875e+00,3.449914693832397461e+00,3.351945161819458008e+00,3.259386301040649414e+00,3.171801567077636719e+00,3.088800907135009766e+00,3.010033369064331055e+00,2.935183525085449219e+00,2.863965511322021484e+00,2.796121835708618164e+00,2.731417894363403320e+00,2.669641017913818359e+00,2.610596656799316406e+00,2.554107666015625000e+00,2.500011444091796875e+00,2.448159456253051758e+00,2.398414134979248047e+00,2.350650548934936523e+00,2.304752111434936523e+00,2.260611772537231445e+00,2.218130350112915039e+00,2.177216053009033203e+00,2.137784004211425781e+00,2.099754571914672852e+00,2.063054800033569336e+00,2.027615785598754883e+00,1.993373751640319824e+00,1.960268855094909668e+00,1.928245902061462402e+00,1.897252082824707031e+00,1.867239117622375488e+00
5.000000000000000000e+00,5.000000000000000000e+00,5.000000000000000000e+00,5.000000000000000000e+00,5.000000000000000000e+00,5.000000000000000000e+00,5.000000000000000000e+00,5.000000000000000000e+00,5.000000000000000000e+00,5.000000000000000000e+00,5.000000000000000000e+00,5.000000000000000000e+00,5.000000000000000000e+00,5.000000000000000000e+00,5.000000000000000000e+00,5.000000000000000000e+00,5.000000000000000000e+00,5.000000000000000000e+00,5.000000000000000000e+00,5.000000000000000000e+00,5.000000000000000000e+00,5.000000000000000000e+00,5.000000000000000000e+00,5.000000000000000000e+00,4.206404209136962891e+00,4.186346054077148438e+00,4.259365558624267578e+00,4.148580551147460938e+00,4.195933818817138672e+00,5.000000000000000000e+00,5.000000000000000000e+00,5.000000000000000000e+00,5.000000000000000000e+00,5.000000000000000000e+00,5.000000000000000000e+00,5.000000000000000000e+00,5.000000000000000000e+00,5.000000000000000000e+00,5.000000000000000000e+00,5.000000000000000000e+00,4.874808788299560547e+00,4.681467056274414062e+00,4.502876758575439453e+00,4.337411880493164062e+00,4.183676242828369141e+00,4.040465354919433594e+00,3.906735181808471680e+00,3.781573295593261719e+00,3.664181947708129883e+00,3.553859710693359375e+00,3.449986696243286133e+00,3.352013111114501953e+00,3.259450435638427734e+00,3.171862363815307617e+00,3.088858604431152344e+00,3.010088205337524414e+00,2.935235500335693359e+00,2.864015102386474609e+00,2.796169042587280273e+00,2.731463193893432617e+00,2.669684171676635742e+00,2.610637903213500977e+00,2.554147243499755859e+00,2.500049352645874023e+00,2.448195695877075195e+00,2.398448944091796875e+00,2.350683927536010742e+00,2.304784297943115234e+00,2.260642766952514648e+00,2.218160152435302734e+00,2.177244901657104492e+00,2.137811660766601562e+00,2.099781274795532227e+00,2.063080549240112305e+00,2.027640581130981445e+00,1.993397593498229980e+00,1.960292220115661621e+00,1.928268194198608398e+00,1.897273898124694824e+00,1.867260098457336426e+00
5.000000000000000000e+00,5.000000000000000000e+00,5.000000000000000000e+00,5.000000000000000000e+00,5.000000000000000000e+00,5.000000000000000000e+00,5.000000000000000000e+00,5.000000000000000000e+00,5.000000000000000000e+00,5.000000000000000000e+00,5.000000000000000000e+00,5.000000000000000000e+00,5.000000000000000000e+00,5.000000000000000000e+00,5.000000000000000000e+00,5.000000000000000000e+00,5.000000000000000000e+00,5.000000000000000000e+00,5.000000000000000000e+00,5.000000000000000000e+00,5.000000000000000000e+00,5.000000000000000000e+00,5.000000000000000000e+00,4.235918045043945312e+00,4.204701900482177734e+00,4.173769950866699219e+00,4.235885620117187500e+00,4.124409675598144531e+00,4.169251441955566406e+00,4.238659381866455078e+00,5.000000000000000000e+00,5.000000000000000000e+00,5.000000000000000000e+00,5.000000000000000000e+00,5.000000000000000000e+00,5.000000000000000000e+00,5.000000000000000000e+00,5.000000000000000000e+00,5.000000000000000000e+00,5.000000000000000000e+00,4.874952793121337891e+00,4.681599617004394531e+00,4.502999782562255859e+00,4.337525844573974609e+00,4.183782100677490234e+00,4.040564060211181641e+00,3.906827449798583984e+00,3.781659603118896484e+00,3.664263248443603516e+00,3.553936243057250977e+00,3.450058698654174805e+00,3.352081060409545898e+00,3.259514808654785156e+00,3.171923398971557617e+00,3.088916301727294922e+00,3.010143041610717773e+00,2.935287714004516602e+00,2.864064693450927734e+00,2.796216487884521484e+00,2.731508255004882812e+00,2.669727325439453125e+00,2.610679149627685547e+00,2.554186582565307617e+00,2.500087022781372070e+00,2.448231935501098633e+00,2.398483753204345703e+00,2.350717544555664062e+00,2.304816484451293945e+00,2.260673761367797852e+00,2.218189954757690430e+00,2.177273511886596680e+00,2.137839317321777344e+00,2.099807977676391602e+00,2.063106298446655273e+00,2.027665376663208008e+00,1.993421792984008789e+00,1.960315346717834473e+00,1.928290843963623047e+00,1.897295594215393066e+00,1.867281317710876465e+00
5.000000000000000000e+00,5.000000000000000000e+00,5.000000000000000000e+00,5.000000000000000000e+00,5.000000000000000000e+00,5.000000000000000000e+00,5.000000000000000000e+00,5.000000000000000000e+00,5.000000000000000000e+00,5.000000000000000000e+00,5.000000000000000000e+00,5.000000000000000000e+00,5.000000000000000000e+00,5.000000000000000000e+00,5.000000000000000000e+00,5.000000000000000000e+00,5.000000000000000000e+00,5.000000000000000000e+00,5.000000000000000000e+00,5.000000000000000000e+00,5.000000000000000000e+00,5.000000000000000000e+00,5.000000000000000000e+00,4.176729202270507812e+00,5.000000000000000000e+00,4.173369884490966797e+00,4.228696823120117188e+00,4.102616310119628906e+00,4.150372982025146484e+00,5.000000000000000000e+00,4.286601543426513672e+00,5.000000000000000000e+00,5.000000000000000000e+00,5.000000000000000000e+00,5.000000000000000000e+00,5.000000000000000000e+00,5.000000000000000000e+00,5.000000000000000000e+00,5.000000000000000000e+00,5.000000000000000000e+00,4.875096321105957031e+00,4.681732177734375000e+00,4.503122329711914062e+00,4.337639331817626953e+00,4.183887958526611328e+00,4.040663242340087891e+00,3.906919717788696289e+00,3.781746149063110352e+00,3.664344549179077148e+00,3.554012775421142578e+00,3.450130701065063477e+00,3.352149009704589844e+00,3.259578943252563477e+00,3.171984195709228516e+00,3.088973999023437500e+00,3.010197877883911133e+00,2.935339689254760742e+00,2.864114522933959961e+00,2.796263694763183594e+00,2.731553316116333008e+00,2.669770479202270508e+00,2.610720396041870117e+00,2.554225921630859375e+00,2.500124692916870117e+00,2.448268175125122070e+00,2.398518562316894531e+00,2.350750923156738281e+00,2.304848432540893555e+00,2.260704517364501953e+00,2.218219757080078125e+00,2.177302122116088867e+00,2.137866973876953125e+00,2.099834680557250977e+00,2.063132047653198242e+00,2.027690410614013672e+00,1.993445754051208496e+00,1.960338711738586426e+00,1.928313255310058594e+00,1.897317528724670410e+00,1.867302298545837402e+00
5.000000000000000000e+00,5.000000000000000000e+00,5.000000000000000000e+00,5.000000000000000000e+00,5.000000000000000000e+00,5.000000000000000000e+00,5.000000000000000000e+00,5.000000000000000000e+00,5.000000000000000000e+00,5.000000000000000000e+00,5.000000000000000000e+00,5.000000000000000000e+00,5.000000000000000000e+00,5.000000000000000000e+00,5.000000000000000000e+00,5.000000000000000000e+00,5.000000000000000000e+00,5.000000000000000000e+00,5.000000000000000000e+00,5.000000000000000000e+00,5.000000000000000000e+00,5.000000000000000000e+00,5.000000000000000000e+00,5.000000000000000000e+00,5.000000000000000000e+00,4.171584606170654297e+00,4.216497898101806641e+00,4.081933498382568359e+00,4.181097507476806641e+00,5.000000000000000000e+00,5.000000000000000000e+00,5.000000000000000000e+00,5.000000000000000000e+00,5.000000000000000000e+00,5.000000000000000000e+00,5.000000000000000000e+00,5.000000000000000000e+00,5.000000000000000000e+00,5.000000000000000000e+00,5.000000000000000000e+00,4.875240325927734375e+00,4.681864738464355469e+00,4.503244876861572266e+00,4.337753295898437500e+00,4.183993816375732422e+00,4.040761947631835938e+00,3.907011985778808594e+00,3.781832695007324219e+00,3.664425611495971680e+00,3.554089069366455078e+00,3.450202703475952148e+00,3.352216958999633789e+00,3.259643316268920898e+00,3.172044992446899414e+00,3.089031696319580078e+00,3.010252714157104492e+00,2.935391902923583984e+00,2.864164113998413086e+00,2.796310901641845703e+00,2.731598615646362305e+00,2.669813394546508789e+00,2.610761642456054688e+00,2.554265499114990234e+00,2.500162601470947266e+00,2.448304176330566406e+00,2.398553371429443359e+00,2.350784301757812500e+00,2.304880619049072266e+00,2.260735511779785156e+00,2.218249559402465820e+00,2.177330732345581055e+00,2.137894630432128906e+00,2.099861383438110352e+00,2.063157796859741211e+00,2.027715206146240234e+00,1.993469834327697754e+00,1.960361838340759277e+00,1.928335785865783691e+00,1.897339224815368652e+00,1.867323517799377441e+00
5.000000000000000000e+00,5.000000000000000000e+00,5.000000000000000000e+00,5.000000000000000000e+00,5.000000000000000000e+00,5.000000000000000000e+00,5.000000000000000000e+00,5.000000000000000000e+00,5.000000000000000000e+00,5.000000000000000000e+00,5.000000000000000000e+00,5.000000000000000000e+00,5.000000000000000000e+00,5.000000000000000000e+00,5.000000000000000000e+00,5.000000000000000000e+00,5.000000000000000000e+00,5.000000000000000000e+00,5.000000000000000000e+00,5.000000000000000000e+00,5.000000000000000000e+00,5.000000000000000000e+00,5.000000000000000000e+00,5.000000000000000000e+00,5.000000000000000000e+00,4.168501377105712891e+00,4.213587760925292969e+00,4.064394474029541016e+00,5.000000000000000000e+00,5.000000000000000000e+00,5.000000000000000000e+00,5.000000000000000000e+00,5.000000000000000000e+00,5.000000000000000000e+00,5.000000000000000000e+00,5.000000000000000000e+00,5.000000000000000000e+00,5.000000000000000000e+00,5.000000000000000000e+00,5.000000000000000000e+00,4.875383853912353516e+00,4.681997776031494141e+00,4.503367900848388672e+00,4.337867259979248047e+00,4.184099674224853516e+00,4.040860652923583984e+00,3.907104492187500000e+00,3.781919240951538086e+00,3.664506912231445312e+00,3.554165601730346680e+00,3.450274705886840820e+00,3.352284908294677734e+00,3.259707689285278320e+00,3.172106027603149414e+00,3.089089632034301758e+00,3.010307550430297852e+00,2.935444116592407227e+00,2.864213705062866211e+00,2.796358346939086914e+00,2.731643676757812500e+00,2.669856548309326172e+00,2.610802888870239258e+00,2.554304838180541992e+00,2.500200271606445312e+00,2.448340415954589844e+00,2.398588180541992188e+00,2.350817680358886719e+00,2.304912805557250977e+00,2.260766506195068359e+00,2.218279361724853516e+00,2.177359580993652344e+00,2.137922286987304688e+00,2.099888086318969727e+00,2.063183546066284180e+00,2.027740001678466797e+00,1.993493795394897461e+00,1.960385203361511230e+00,1.928358197212219238e+00,1.897361040115356445e+00,1.867344498634338379e+00
5.000000000000000000e+00,5.000000000000000000e+00,5.000000000000000000e+00,5.000000000000000000e+00,5.000000000000000000e+00,5.000000000000000000e+00,5.000000000000000000e+00,5.000000000000000000e+00,5.000000000000000000e+00,5.000000000000000000e+00,5.000000000000000000e+00,5.000000000000000000e+00,5.000000000000000000e+00,5.000000000000000000e+00,5.000000000000000000e+00,5.000000000000000000e+00,5.000000000000000000e+00,5.000000000000000000e+00,5.000000000000000000e+00,5.000000000000000000e+00,5.000000000000000000e+00,5.000000000000000000e+00,5.000000000000000000e+00,5.000000000000000000e+00,5.000000000000000000e+00,4.182348251342773438e+00,4.218418598175048828e+00,4.089996337890625000e+00,4.178491115570068359e+00,5.000000000000000000e+00,5.000000000000000000e+00,5.000000000000000000e+00,5.000000000000000000e+00,5.000000000000000000e+00,5.000000000000000000e+00,5.000000000000000000e+00,5.000000000000000000e+00,5.000000000000000000e+00,5.000000000000000000e+00,5.000000000000000000e+00,4.875524997711181641e+00,4.682130336761474609e+00,4.503490447998046875e+00,4.337980747222900391e+00,4.184205532073974609e+00,4.040959358215332031e+00,3.907196760177612305e+00,3.782005786895751953e+00,3.664588212966918945e+00,3.554241895675659180e+00,3.450346708297729492e+00,3.352352857589721680e+00,3.259771823883056641e+00,3.172166824340820312e+00,3.089147329330444336e+00,3.010362386703491211e+00,2.935496091842651367e+00,2.864263296127319336e+00,2.796405553817749023e+00,2.731688737869262695e+00,2.669899702072143555e+00,2.610844135284423828e+00,2.554344415664672852e+00,2.500238180160522461e+00,2.448376655578613281e+00,2.398622989654541016e+00,2.350851058959960938e+00,2.304944992065429688e+00,2.260797262191772461e+00,2.218308925628662109e+00,2.177388191223144531e+00,2.137949943542480469e+00,2.099914789199829102e+00,2.063209295272827148e+00,2.027765035629272461e+00,1.993517994880676270e+00,1.960408329963684082e+00,1.928380846977233887e+00,1.897382736206054688e+00,1.867365598678588867e+00
5.000000000000000000e+00,5.000000000000000000e+00,5.000000000000000000e+00,5.000000000000000000e+00,5.000000000000000000e+00,5.000000000000000000e+00,5.000000000000000000e+00,5.000000000000000000e+00,5.000000000000000000e+00,5.000000000000000000e+00,5.000000000000000000e+00,5.000000000000000000e+00,5.000000000000000000e+00,5.000000000000000000e+00,5.000000000000000000e+00,5.000000000000000000e+00,5.000000000000000000e+00,5.000000000000000000e+00,5.000000000000000000e+00,5.000000000000000000e+00,5.000000000000000000e+00,5.000000000000000000e+00,5.000000000000000000e+00,5.000000000000000000e+00,5.000000000000000000e+00,4.252274513244628906e+00,4.260447025299072266e+00,4.186697006225585938e+00,4.219976425170898438e+00,5.000000000000000000e+00,5.000000000000000000e+00,5.000000000000000000e+00,5.000000000000000000e+00,5.000000000000000000e+00,5.000000000000000000e+00,5.000000000000000000e+00,5.000000000000000000e+00,5.000000000000000000e+00,5.000000000000000000e+00,5.000000000000000000e+00,4.875665187835693359e+00,4.682260990142822266e+00,4.503612995147705078e+00,4.338094711303710938e+00,4.184311866760253906e+00,4.041058063507080078e+00,3.907289266586303711e+00,3.782092332839965820e+00,3.664669513702392578e+00,3.554318428039550781e+00,3.450418710708618164e+00,3.352421045303344727e+00,3.259836196899414062e+00,3.172227621078491211e+00,3.089205026626586914e+00,3.010417222976684570e+00,2.935548305511474609e+00,2.864312887191772461e+00,2.796452999114990234e+00,2.731734037399291992e+00,2.669942855834960938e+00,2.610885381698608398e+00,2.554383993148803711e+00,2.500276088714599609e+00,2.448412895202636719e+00,2.398657798767089844e+00,2.350884437561035156e+00,2.304977178573608398e+00,2.260828256607055664e+00,2.218338727951049805e+00,2.177416801452636719e+00,2.137977600097656250e+00,2.099941492080688477e+00,2.063235044479370117e+00,2.027789831161499023e+00,1.993541836738586426e+00,1.960431694984436035e+00,1.928403258323669434e+00,1.897404670715332031e+00,1.867386698722839355e+00
5.000000000000000000e+00,5.000000000000000000e+00,5.000000000000000000e+00,5.000000000000000000e+00,5.000000000000000000e+00,5.000000000000000000e+00,5.000000000000000000e+00,5.000000000000000000e+00,5.000000000000000000e+00,5.000000000000000000e+00,5.000000000000000000e+00,5.000000000000000000e+00,5.000000000000000000e+00,5.000000000000000000e+00,5.000000000000000000e+00,5.000000000000000000e+00,5.000000000000000000e+00,5.000000000000000000e+00,5.000000000000000000e+00,5.000000000000000000e+00,5.000000000000000000e+00,5.000000000000000000e+00,5.000000000000000000e+00,5.000000000000000000e+00,5.000000000000000000e+00,4.323604583740234375e+00,4.280471801757812500e+00,4.243269920349121094e+00,4.269617080688476562e+00,5.000000000000000000e+00,5.000000000000000000e+00,5.000000000000000000e+00,5.000000000000000000e+00,5.000000000000000000e+00,5.000000000000000000e+00,5.000000000000000000e+00,5.000000000000000000e+00,5.000000000000000000e+00,5.000000000000000000e+00,5.000000000000000000e+00,4.875805377960205078e+00,4.682390689849853516e+00,4.503736019134521484e+00,4.338208675384521484e+00,4.184417724609375000e+00,4.041157245635986328e+00,3.907381534576416016e+00,3.782178878784179688e+00,3.664750814437866211e+00,3.554394721984863281e+00,3.450490713119506836e+00,3.352488994598388672e+00,3.259900331497192383e+00,3.172288656234741211e+00,3.089262723922729492e+00,3.010472059249877930e+00,2.935600519180297852e+00,2.864362478256225586e+00,2.796500205993652344e+00,2.731779098510742188e+00,2.669986009597778320e+00,2.610926628112792969e+00,2.554423332214355469e+00,2.500313758850097656e+00,2.448449373245239258e+00,2.398692607879638672e+00,2.350917816162109375e+00,2.305009126663208008e+00,2.260859251022338867e+00,2.218368530273437500e+00,2.177445650100708008e+00,2.138005256652832031e+00,2.099967956542968750e+00,2.063260793685913086e+00,2.027814626693725586e+00,1.993566036224365234e+00,1.960454821586608887e+00,1.928425788879394531e+00,1.897426247596740723e+00,1.867407798767089844e+00
5.000000000000000000e+00,5.000000000000000000e+00,5.000000000000000000e+00,5.000000000000000000e+00,5.000000000000000000e+00,5.000000000000000000e+00,5.000000000000000000e+00,5.000000000000000000e+00,5.000000000000000000e+00,5.000000000000000000e+00,5.000000000000000000e+00,5.000000000000000000e+00,5.000000000000000000e+00,5.000000000000000000e+00,5.000000000000000000e+00,5.000000000000000000e+00,5.000000000000000000e+00,5.000000000000000000e+00,5.000000000000000000e+00,5.000000000000000000e+00,5.000000000000000000e+00,5.000000000000000000e+00,5.000000000000000000e+00,5.000000000000000000e+00,5.000000000000000000e+00,5.000000000000000000e+00,4.291819572448730469e+00,4.343975543975830078e+00,4.325484275817871094e+00,5.000000000000000000e+00,5.000000000000000000e+00,5.000000000000000000e+00,5.000000000000000000e+00,5.000000000000000000e+00,5.000000000000000000e+00,5.000000000000000000e+00,5.000000000000000000e+00,5.000000000000000000e+00,5.000000000000000000e+00,5.000000000000000000e+00,4.875945568084716797e+00,4.682519912719726562e+00,4.503855228424072266e+00,4.338322639465332031e+00,4.184523582458496094e+00,4.041255950927734375e+00,3.907473802566528320e+00,3.782265424728393555e+00,3.664831876754760742e+00,3.554471254348754883e+00,3.450562715530395508e+00,3.352556943893432617e+00,3.259964704513549805e+00,3.172349452972412109e+00,3.089320421218872070e+00,3.010526895523071289e+00,2.935652494430541992e+00,2.864412307739257812e+00,2.796547412872314453e+00,2.731824159622192383e+00,2.670029163360595703e+00,2.610967874526977539e+00,2.554462909698486328e+00,2.500351667404174805e+00,2.448485612869262695e+00,2.398727416992187500e+00,2.350951194763183594e+00,2.305041313171386719e+00,2.260890007019042969e+00,2.218398332595825195e+00,2.177474260330200195e+00,2.138032913208007812e+00,2.099994659423828125e+00,2.063286542892456055e+00,2.027839660644531250e+00,1.993589997291564941e+00,1.960478186607360840e+00,1.928448200225830078e+00,1.897448182106018066e+00,1.867428898811340332e+00
5.000000000000000000e+00,5.000000000000000000e+00,5.000000000000000000e+00,5.000000000000000000e+00,5.000000000000000000e+00,5.000000000000000000e+00,5.000000000000000000e+00,5.000000000000000000e+00,5.000000000000000000e+00,5.000000000000000000e+00,5.000000000000000000e+00,5.000000000000000000e+00,5.000000000000000000e+00,5.000000000000000000e+00,5.000000000000000000e+00,5.000000000000000000e+00,5.000000000000000000e+00,5.000000000000000000e+00,5.000000000000000000e+00,5.000000000000000000e+00,5.000000000000000000e+00,5.000000000000000000e+00,5.000000000000000000e+00,5.000000000000000000e+00,5.000000000000000000e+00,5.000000000000000000e+00,4.305932521820068359e+00,5.000000000000000000e+00,4.394361495971679688e+00,5.000000000000000000e+00,5.000000000000000000e+00,5.000000000000000000e+00,5.000000000000000000e+00,5.000000000000000000e+00,5.000000000000000000e+00,5.000000000000000000e+00,5.000000000000000000e+00,5.000000000000000000e+00,5.000000000000000000e+00,5.000000000000000000e+00,4.876086235046386719e+00,4.682649135589599609e+00,4.503974914550781250e+00,4.338434219360351562e+00,4.184629440307617188e+00,4.041354656219482422e+00,3.907566308975219727e+00,3.782351970672607422e+00,3.664913177490234375e+00,3.554547548294067383e+00,3.450634717941284180e+00,3.352624893188476562e+00,3.260029077529907227e+00,3.172410249710083008e+00,3.089378118515014648e+00,3.010581731796264648e+00,2.935704708099365234e+00,2.864461898803710938e+00,2.796594858169555664e+00,2.731869459152221680e+00,2.670072317123413086e+00,2.611009120941162109e+00,2.554502248764038086e+00,2.500389575958251953e+00,2.448521852493286133e+00,2.398762226104736328e+00,2.350984811782836914e+00,2.305073261260986328e+00,2.260921001434326172e+00,2.218427896499633789e+00,2.177502870559692383e+00,2.138060569763183594e+00,2.100021362304687500e+00,2.063312292098999023e+00,2.027864456176757812e+00,1.993614077568054199e+00,1.960501432418823242e+00,1.928470849990844727e+00,1.897469878196716309e+00,1.867449998855590820e+00
5.000000000000000000e+00,5.000000000000000000e+00,5.000000000000000000e+00,5.000000000000000000e+00,5.000000000000000000e+00,5.000000000000000000e+00,5.000000000000000000e+00,5.000000000000000000e+00,5.000000000000000000e+00,5.000000000000000000e+00,5.000000000000000000e+00,5.000000000000000000e+00,5.000000000000000000e+00,5.000000000000000000e+00,5.000000000000000000e+00,5.000000000000000000e+00,5.000000000000000000e+00,5.000000000000000000e+00,5.000000000000000000e+00,5.000000000000000000e+00,5.000000000000000000e+00,5.000000000000000000e+00,5.000000000000000000e+00,5.000000000000000000e+00,5.000000000000000000e+00,5.000000000000000000e+00,4.360367298126220703e+00,5.000000000000000000e+00,4.355584621429443359e+00,5.000000000000000000e+00,5.000000000000000000e+00,5.000000000000000000e+00,5.000000000000000000e+00,5.000000000000000000e+00,5.000000000000000000e+00,5.000000000000000000e+00,5.000000000000000000e+00,5.000000000000000000e+00,5.000000000000000000e+00,5.000000000000000000e+00,4.876226425170898438e+00,4.682778835296630859e+00,4.504094600677490234e+00,4.338545322418212891e+00,4.184734344482421875e+00,4.041453361511230469e+00,3.907658576965332031e+00,3.782438516616821289e+00,3.664994478225708008e+00,3.554624080657958984e+00,3.450706958770751953e+00,3.352692842483520508e+00,3.260093212127685547e+00,3.172471284866333008e+00,3.089435815811157227e+00,3.010636568069458008e+00,2.935756921768188477e+00,2.864511489868164062e+00,2.796642065048217773e+00,2.731914520263671875e+00,2.670115470886230469e+00,2.611050367355346680e+00,2.554541826248168945e+00,2.500427246093750000e+00,2.448558092117309570e+00,2.398797035217285156e+00,2.351018190383911133e+00,2.305105447769165039e+00,2.260951757431030273e+00,2.218457698822021484e+00,2.177531719207763672e+00,2.138088226318359375e+00,2.100048065185546875e+00,2.063338041305541992e+00,2.027889251708984375e+00,1.993638038635253906e+00,1.960524797439575195e+00,1.928493261337280273e+00,1.897491693496704102e+00,1.867471098899841309e+00
4.871577739715576172e+00,4.870358467102050781e+00,4.869139671325683594e+00,4.867921829223632812e+00,4.866704463958740234e+00,4.865487575531005859e+00,4.864271640777587891e+00,4.863056182861328125e+00,4.861841201782226562e+00,4.860626697540283203e+00,4.859413146972656250e+00,4.858199596405029297e+00,4.856987476348876953e+00,4.855775356292724609e+00,4.854564189910888672e+00,4.853353500366210938e+00,4.852143287658691406e+00,4.850934028625488281e+00,4.849725246429443359e+00,4.848516941070556641e+00,4.847309112548828125e+00,4.846102237701416016e+00,4.844895362854003906e+00,4.843689918518066406e+00,4.842484474182128906e+00,4.841279506683349609e+00,4.285846233367919922e+00,4.838871955871582031e+00,4.837668895721435547e+00,4.836466789245605469e+00,4.835265159606933594e+00,4.834064006805419922e+00,4.832863330841064453e+00,4.831663608551025391e+00,4.830464363098144531e+00,4.829265594482421875e+00,4.828067779541015625e+00,4.826869964599609375e+00,4.825673103332519531e+00,4.824476718902587891e+00,4.823280811309814453e+00,4.682908058166503906e+00,4.504214286804199219e+00,4.338656425476074219e+00,4.184837818145751953e+00,4.041552066802978516e+00,3.907751083374023438e+00,3.782525062561035156e+00,3.665075778961181641e+00,3.554700613021850586e+00,3.450778961181640625e+00,3.352761030197143555e+00,3.260157585144042969e+00,3.172532081604003906e+00,3.089493751525878906e+00,3.010691404342651367e+00,2.935808897018432617e+00,2.864561080932617188e+00,2.796689510345458984e+00,2.731959819793701172e+00,2.670158624649047852e+00,2.611091613769531250e+00,2.554581165313720703e+00,2.500465154647827148e+00,2.448594331741333008e+00,2.398831844329833984e+00,2.351051568984985352e+00,2.305137634277343750e+00,2.260982751846313477e+00,2.218487501144409180e+00,2.177560091018676758e+00,2.138115882873535156e+00,2.100074768066406250e+00,2.063363790512084961e+00,2.027914285659790039e+00,1.993662238121032715e+00,1.960547924041748047e+00,1.928515791893005371e+00,1.897513389587402344e+00,1.867492198944091797e+00
3.776040077209472656e+00,3.775307655334472656e+00,3.774574995040893555e+00,3.773843050003051758e+00,3.773111581802368164e+00,3.772380113601684570e+00,3.771648645401000977e+00,3.770917892456054688e+00,3.770187616348266602e+00,3.769457340240478516e+00,3.768727064132690430e+00,3.767997503280639648e+00,3.767268180847167969e+00,3.766539096832275391e+00,3.765810251235961914e+00,3.765081405639648438e+00,3.764353036880493164e+00,3.763625144958496094e+00,3.762897491455078125e+00,3.762169837951660156e+00,3.761442661285400391e+00,3.760715961456298828e+00,3.759989500045776367e+00,3.759262800216674805e+00,3.758536815643310547e+00,3.757811307907104492e+00,3.757085800170898438e+00,3.756360769271850586e+00,3.755635499954223633e+00,3.754910945892333984e+00,3.754186630249023438e+00,3.753462553024291992e+00,3.752738475799560547e+00,3.752015113830566406e+00,3.751291751861572266e+00,3.750568866729736328e+00,3.749845981597900391e+00,3.749123573303222656e+00,3.748401641845703125e+00,3.747679710388183594e+00,3.746958017349243164e+00,3.746236801147460938e+00,3.745515823364257812e+00,3.744795083999633789e+00,3.744074821472167969e+00,3.743354320526123047e+00,3.742634296417236328e+00,3.741914987564086914e+00,3.665157079696655273e+00,3.554776906967163086e+00,3.450850963592529297e+00,3.352828979492187500e+00,3.260221958160400391e+00,3.172593116760253906e+00,3.089551448822021484e+00,3.010746240615844727e+00,2.935861110687255859e+00,2.864610671997070312e+00,2.796736717224121094e+00,2.732004880905151367e+00,2.670201778411865234e+00,2.611132860183715820e+00,2.554620742797851562e+00,2.500503063201904297e+00,2.448630571365356445e+00,2.398866653442382812e+00,2.351085186004638672e+00,2.305169820785522461e+00,2.261013746261596680e+00,2.218517303466796875e+00,2.177588939666748047e+00,2.138143301010131836e+00,2.100101470947265625e+00,2.063389539718627930e+00,2.027939081192016602e+00,1.993686199188232422e+00,1.960571289062500000e+00,1.928538203239440918e+00,1.897535324096679688e+00,1.867513298988342285e+00
3.082774639129638672e+00,3.082286357879638672e+00,3.081798315048217773e+00,3.081310510635375977e+00,3.080822467803955078e+00,3.080334901809692383e+00,3.079847335815429688e+00,3.079360246658325195e+00,3.078872680664062500e+00,3.078385829925537109e+00,3.077898979187011719e+00,3.077412366867065430e+00,3.076925516128540039e+00,3.076439142227172852e+00,3.075953006744384766e+00,3.075466871261596680e+00,3.074980735778808594e+00,3.074494838714599609e+00,3.074009418487548828e+00,3.073523998260498047e+00,3.073038578033447266e+00,3.072553157806396484e+00,3.072068214416503906e+00,3.071583509445190430e+00,3.071098804473876953e+00,3.070613861083984375e+00,3.070129632949829102e+00,3.069645404815673828e+00,3.069161415100097656e+00,3.068677186965942383e+00,3.068193435668945312e+00,3.067709684371948242e+00,3.067226409912109375e+00,3.066743135452270508e+00,3.066259622573852539e+00,3.065776824951171875e+00,3.065293788909912109e+00,3.064811229705810547e+00,3.064328432083129883e+00,3.063846111297607422e+00,3.063363790512084961e+00,3.062881708145141602e+00,3.062399625778198242e+00,3.061917781829833984e+00,3.061436176300048828e+00,3.060954570770263672e+00,3.060472965240478516e+00,3.059991836547851562e+00,3.059510946273803711e+00,3.059030055999755859e+00,3.058549165725708008e+00,3.058068513870239258e+00,3.057588100433349609e+00,3.057107686996459961e+00,3.056627511978149414e+00,3.010801076889038086e+00,2.935913324356079102e+00,2.864660501480102539e+00,2.796784162521362305e+00,2.732049942016601562e+00,2.670244693756103516e+00,2.611174106597900391e+00,2.554660320281982422e+00,2.500540733337402344e+00,2.448666810989379883e+00,2.398901462554931641e+00,2.351118564605712891e+00,2.305202007293701172e+00,2.261044502258300781e+00,2.218547105789184570e+00,2.177617549896240234e+00,2.138170957565307617e+00,2.100127935409545898e+00,2.063415288925170898e+00,2.027963876724243164e+00,1.993710279464721680e+00,1.960594415664672852e+00,1.928560853004455566e+00,1.897557020187377930e+00,1.867534399032592773e+00
2.604583978652954102e+00,2.604235172271728516e+00,2.603886842727661133e+00,2.603538513183593750e+00,2.603190183639526367e+00,2.602841854095458984e+00,2.602493762969970703e+00,2.602145910263061523e+00,2.601798057556152344e+00,2.601450204849243164e+00,2.601102352142333984e+00,2.600754737854003906e+00,2.600407361984252930e+00,2.600059986114501953e+00,2.599712610244750977e+00,2.599365234375000000e+00,2.599018096923828125e+00,2.598671197891235352e+00,2.598324060440063477e+00,2.597977161407470703e+00,2.597630500793457031e+00,2.597283840179443359e+00,2.596936941146850586e+00,2.596590518951416016e+00,2.596244335174560547e+00,2.595897912979125977e+00,2.595551729202270508e+00,2.595205545425415039e+00,2.594859600067138672e+00,2.594513654708862305e+00,2.594167709350585938e+00,2.593821763992309570e+00,2.593476295471191406e+00,2.593130588531494141e+00,2.592785120010375977e+00,2.592439651489257812e+00,2.592094421386718750e+00,2.591749191284179688e+00,2.591404199600219727e+00,2.591058969497680664e+00,2.590714216232299805e+00,2.590369224548339844e+00,2.590024471282958984e+00,2.589679956436157227e+00,2.589335203170776367e+00,2.588990926742553711e+00,2.588646411895751953e+00,2.588302135467529297e+00,2.587957859039306641e+00,2.587613821029663086e+00,2.587269783020019531e+00,2.586925983428955078e+00,2.586581945419311523e+00,2.586238145828247070e+00,2.585894584655761719e+00,2.585551261901855469e+00,2.585207700729370117e+00,2.584864139556884766e+00,2.584521055221557617e+00,2.584177732467651367e+00,2.583834648132324219e+00,2.583491563796997070e+00,2.554699659347534180e+00,2.500578641891479492e+00,2.448703289031982422e+00,2.398936271667480469e+00,2.351151943206787109e+00,2.305234193801879883e+00,2.261075496673583984e+00,2.218576908111572266e+00,2.177646160125732422e+00,2.138198614120483398e+00,2.100154638290405273e+00,2.063441038131713867e+00,2.027988910675048828e+00,1.993734240531921387e+00,1.960617780685424805e+00,1.928583145141601562e+00,1.897578835487365723e+00,1.867555379867553711e+00
2.254824876785278320e+00,2.254563331604003906e+00,2.254302024841308594e+00,2.254040479660034180e+00,2.253779172897338867e+00,2.253518104553222656e+00,2.253256797790527344e+00,2.252995729446411133e+00,2.252734661102294922e+00,2.252473592758178711e+00,2.252213001251220703e+00,2.251952171325683594e+00,2.251691579818725586e+00,2.251431226730346680e+00,2.251170873641967773e+00,2.250910282135009766e+00,2.250649929046630859e+00,2.250389814376831055e+00,2.250129699707031250e+00,2.249869585037231445e+00,2.249609231948852539e+00,2.249349355697631836e+00,2.249089479446411133e+00,2.248829603195190430e+00,2.248569726943969727e+00,2.248309850692749023e+00,2.248050212860107422e+00,2.247790575027465820e+00,2.247530937194824219e+00,2.247271299362182617e+00,2.247011899948120117e+00,2.246752500534057617e+00,2.246493101119995117e+00,2.246233701705932617e+00,2.245974540710449219e+00,2.245715379714965820e+00,2.245456218719482422e+00,2.245197057723999023e+00,2.244938135147094727e+00,2.244679212570190430e+00,2.244420289993286133e+00,2.244161367416381836e+00,2.243902683258056641e+00,2.243643999099731445e+00,2.243385314941406250e+00,2.243126630783081055e+00,2.242868185043334961e+00,2.242609739303588867e+00,2.242351531982421875e+00,2.242093086242675781e+00,2.241834640502929688e+00,2.241576433181762695e+00,2.241318464279174805e+00,2.241060256958007812e+00,2.240802049636840820e+00,2.240544319152832031e+00,2.240286350250244141e+00,2.240028381347656250e+00,2.239770650863647461e+00,2.239512920379638672e+00,2.239255189895629883e+00,2.238997459411621094e+00,2.238739967346191406e+00,2.238482475280761719e+00,2.238224983215332031e+00,2.237967491149902344e+00,2.237710237503051758e+00,2.237452983856201172e+00,2.237195730209350586e+00,2.218606710433959961e+00,2.177675008773803711e+00,2.138226270675659180e+00,2.100181341171264648e+00,2.063466787338256836e+00,2.028013706207275391e+00,1.993758440017700195e+00,1.960640907287597656e+00,1.928605794906616211e+00,1.897600531578063965e+00,1.867576599121093750e+00
1.987893342971801758e+00,1.987690091133117676e+00,1.987486958503723145e+00,1.987283706665039062e+00,1.987080574035644531e+00,1.986877560615539551e+00,1.986674547195434570e+00,1.986471533775329590e+00,1.986268520355224609e+00,1.986065626144409180e+00,1.985862731933593750e+00,1.985659956932067871e+00,1.985457181930541992e+00,1.985254406929016113e+00,1.985051989555358887e+00,1.984849333763122559e+00,1.984646677970886230e+00,1.984444022178649902e+00,1.984241485595703125e+00,1.984038949012756348e+00,1.983836531639099121e+00,1.983634114265441895e+00,1.983431696891784668e+00,1.983229398727416992e+00,1.983027100563049316e+00,1.982824802398681641e+00,1.982622623443603516e+00,1.982420444488525391e+00,1.982218265533447266e+00,1.982016205787658691e+00,1.981814146041870117e+00,1.981612443923950195e+00,1.981410384178161621e+00,1.981208443641662598e+00,1.981006622314453125e+00,1.980804800987243652e+00,1.980602979660034180e+00,1.980401158332824707e+00,1.980199456214904785e+00,1.979997754096984863e+00,1.979796171188354492e+00,1.979594588279724121e+00,1.979393005371093750e+00,1.979191422462463379e+00,1.978989958763122559e+00,1.978788614273071289e+00,1.978587150573730469e+00,1.978386044502258301e+00,1.978184700012207031e+00,1.977983474731445312e+00,1.977782249450683594e+00,1.977581024169921875e+00,1.977379918098449707e+00,1.977178812026977539e+00,1.976977705955505371e+00,1.976776719093322754e+00,1.976575732231140137e+00,1.976374745368957520e+00,1.976173877716064453e+00,1.975973010063171387e+00,1.975772142410278320e+00,1.975571393966674805e+00,1.975370645523071289e+00,1.975169897079467773e+00,1.974969506263732910e+00,1.974768877029418945e+00,1.974568247795104980e+00,1.974367737770080566e+00,1.974167227745056152e+00,1.973966836929321289e+00,1.973766446113586426e+00,1.973566055297851562e+00,1.973365664482116699e+00,1.973165392875671387e+00,1.972965121269226074e+00,1.972764968872070312e+00,1.960664272308349609e+00,1.928628206253051758e+00,1.897622466087341309e+00,1.867597699165344238e+00
1.777471899986267090e+00,1.777309417724609375e+00,1.777146935462951660e+00,1.776984453201293945e+00,1.776822090148925781e+00,1.776659846305847168e+00,1.776497602462768555e+00,1.776335239410400391e+00,1.776172876358032227e+00,1.776010632514953613e+00,1.775848388671875000e+00,1.775686264038085938e+00,1.775524020195007324e+00,1.775361895561218262e+00,1.775199770927429199e+00,1.775037765502929688e+00,1.774875640869140625e+00,1.774713635444641113e+00,1.774551630020141602e+00,1.774389624595642090e+00,1.774227738380432129e+00,1.774065971374511719e+00,1.773904085159301758e+00,1.773742318153381348e+00,1.773580431938171387e+00,1.773418664932250977e+00,1.773256897926330566e+00,1.773095130920410156e+00,1.772933483123779297e+00,1.772771835327148438e+00,1.772610187530517578e+00,1.772448539733886719e+00,1.772286891937255859e+00,1.772125363349914551e+00,1.771963834762573242e+00,1.771802306175231934e+00,1.771640896797180176e+00,1.771479487419128418e+00,1.771318197250366211e+00,1.771156787872314453e+00,1.770995497703552246e+00,1.770834207534790039e+00,1.770672917366027832e+00,1.770511627197265625e+00,1.770350337028503418e+00,1.770189166069030762e+00,1.770027995109558105e+00,1.769866824150085449e+00,1.769705772399902344e+00,1.769544601440429688e+00,1.769383549690246582e+00,1.769222617149353027e+00,1.769061565399169922e+00,1.768900632858276367e+00,1.768739819526672363e+00,1.768578886985778809e+00,1.768418073654174805e+00,1.768257260322570801e+00,1.768096446990966797e+00,1.767935633659362793e+00,1.767774820327758789e+00,1.767614126205444336e+00,1.767453432083129883e+00,1.767292737960815430e+00,1.767132043838500977e+00,1.766971468925476074e+00,1.766810894012451172e+00,1.766650319099426270e+00,1.766489744186401367e+00,1.766329288482666016e+00,1.766168832778930664e+00,1.766008615493774414e+00,1.765848159790039062e+00,1.765687823295593262e+00,1.765527367591857910e+00,1.765367150306701660e+00,1.765206813812255859e+00,1.765046596527099609e+00,1.764886379241943359e+00,1.764726161956787109e+00
1.607333421707153320e+00,1.607200503349304199e+00,1.607067704200744629e+00,1.606934905052185059e+00,1.606801986694335938e+00,1.606669187545776367e+00,1.606536507606506348e+00,1.606403708457946777e+00,1.606271028518676758e+00,1.606138348579406738e+00,1.606005549430847168e+00,1.605872988700866699e+00,1.605740427970886230e+00,1.605607867240905762e+00,1.605475187301635742e+00,1.605342626571655273e+00,1.605210065841674805e+00,1.605077624320983887e+00,1.604945063591003418e+00,1.604812622070312500e+00,1.604680061340332031e+00,1.604547619819641113e+00,1.604415297508239746e+00,1.604282855987548828e+00,1.604150414466857910e+00,1.604018092155456543e+00,1.603885769844055176e+00,1.603753447532653809e+00,1.603621363639831543e+00,1.603489041328430176e+00,1.603356838226318359e+00,1.603224635124206543e+00,1.603092432022094727e+00,1.602960228919982910e+00,1.602828025817871094e+00,1.602695941925048828e+00,1.602563738822937012e+00,1.602431654930114746e+00,1.602299571037292480e+00,1.602167606353759766e+00,1.602035522460937500e+00,1.601903557777404785e+00,1.601771593093872070e+00,1.601639628410339355e+00,1.601507663726806641e+00,1.601375818252563477e+00,1.601243972778320312e+00,1.601112127304077148e+00,1.600980281829833984e+00,1.600848436355590820e+00,1.600716590881347656e+00,1.600584864616394043e+00,1.600453019142150879e+00,1.600321292877197266e+00,1.600189566612243652e+00,1.600057840347290039e+00,1.599926114082336426e+00,1.599794507026672363e+00,1.599662899971008301e+00,1.599531292915344238e+00,1.599399685859680176e+00,1.599268078804016113e+00,1.599136710166931152e+00,1.599005103111267090e+00,1.598873615264892578e+00,1.598742127418518066e+00,1.598610639572143555e+00,1.598479270935058594e+00,1.598347783088684082e+00,1.598216414451599121e+00,1.598085045814514160e+00,1.597953677177429199e+00,1.597822308540344238e+00,1.597691059112548828e+00,1.597559809684753418e+00,1.597428441047668457e+00,1.597297191619873047e+00,1.597166061401367188e+00,1.597034931182861328e+00,1.596903800964355469e+00
1.466920614242553711e+00,1.466809868812561035e+00,1.466699242591857910e+00,1.466588735580444336e+00,1.466478109359741211e+00,1.466367483139038086e+00,1.466256856918334961e+00,1.466146349906921387e+00,1.466035723686218262e+00,1.465925216674804688e+00,1.465814709663391113e+00,1.465704083442687988e+00,1.465593695640563965e+00,1.465483188629150391e+00,1.465372681617736816e+00,1.465262293815612793e+00,1.465151786804199219e+00,1.465041399002075195e+00,1.464931011199951172e+00,1.464820742607116699e+00,1.464710354804992676e+00,1.464600086212158203e+00,1.464489698410034180e+00,1.464379429817199707e+00,1.464269042015075684e+00,1.464158773422241211e+00,1.464048504829406738e+00,1.463938236236572266e+00,1.463828086853027344e+00,1.463717818260192871e+00,1.463607668876647949e+00,1.463497519493103027e+00,1.463387250900268555e+00,1.463277101516723633e+00,1.463167071342468262e+00,1.463056921958923340e+00,1.462946891784667969e+00,1.462836861610412598e+00,1.462726831436157227e+00,1.462616801261901855e+00,1.462506771087646484e+00,1.462396740913391113e+00,1.462286710739135742e+00,1.462176680564880371e+00,1.462066769599914551e+00,1.461956858634948730e+00,1.461846828460693359e+00,1.461736917495727539e+00,1.461627125740051270e+00,1.461517214775085449e+00,1.461407303810119629e+00,1.461297512054443359e+00,1.461187720298767090e+00,1.461077928543090820e+00,1.460968136787414551e+00,1.460858345031738281e+00,1.460748553276062012e+00,1.460638880729675293e+00,1.460529088973999023e+00,1.460419416427612305e+00,1.460309743881225586e+00,1.460200071334838867e+00,1.460090398788452148e+00,1.459980726242065430e+00,1.459871053695678711e+00,1.459761381149291992e+00,1.459651827812194824e+00,1.459542274475097656e+00,1.459432721138000488e+00,1.459323287010192871e+00,1.459213733673095703e+00,1.459104180335998535e+00,1.458994746208190918e+00,1.458885192871093750e+00,1.458775758743286133e+00,1.458666324615478516e+00,1.458556890487670898e+00,1.458447456359863281e+00,1.458338022232055664e+00,1.458228588104248047e+00
1.349069237709045410e+00,1.348975539207458496e+00,1.348881959915161133e+00,1.348788380622863770e+00,1.348694801330566406e+00,1.348601222038269043e+00,1.348507761955261230e+00,1.348414182662963867e+00,1.348320603370666504e+00,1.348227143287658691e+00,1.348133802413940430e+00,1.348040223121643066e+00,1.347946763038635254e+00,1.347853302955627441e+00,1.347759962081909180e+00,1.347666501998901367e+00,1.347573041915893555e+00,1.347479701042175293e+00,1.347386240959167480e+00,1.347292900085449219e+00,1.347199559211730957e+00,1.347106218338012695e+00,1.347012877464294434e+00,1.346919536590576172e+00,1.346826195716857910e+00,1.346732974052429199e+00,1.346639752388000488e+00,1.346546530723571777e+00,1.346453189849853516e+00,1.346359968185424805e+00,1.346266746520996094e+00,1.346173524856567383e+00,1.346080303192138672e+00,1.345987081527709961e+00,1.345893979072570801e+00,1.345800757408142090e+00,1.345707654953002930e+00,1.345614433288574219e+00,1.345521330833435059e+00,1.345428228378295898e+00,1.345335125923156738e+00,1.345242023468017578e+00,1.345148921012878418e+00,1.345055937767028809e+00,1.344962954521179199e+00,1.344869852066040039e+00,1.344776868820190430e+00,1.344683766365051270e+00,1.344590783119201660e+00,1.344497799873352051e+00,1.344404816627502441e+00,1.344311833381652832e+00,1.344218969345092773e+00,1.344125986099243164e+00,1.344033002853393555e+00,1.343940138816833496e+00,1.343847274780273438e+00,1.343754291534423828e+00,1.343661427497863770e+00,1.343568682670593262e+00,1.343475818634033203e+00,1.343383073806762695e+00,1.343290209770202637e+00,1.343197345733642578e+00,1.343104600906372070e+00,1.343011736869812012e+00,1.342918992042541504e+00,1.342826247215270996e+00,1.342733502388000488e+00,1.342640757560729980e+00,1.342548012733459473e+00,1.342455387115478516e+00,1.342362642288208008e+00,1.342270016670227051e+00,1.342177271842956543e+00,1.342084646224975586e+00,1.341992139816284180e+00,1.341899514198303223e+00,1.341806888580322266e+00,1.341714262962341309e+00
1.248745679855346680e+00,1.248665571212768555e+00,1.248585462570190430e+00,1.248505234718322754e+00,1.248425006866455078e+00,1.248344898223876953e+00,1.248264789581298828e+00,1.248184561729431152e+00,1.248104453086853027e+00,1.248024344444274902e+00,1.247944235801696777e+00,1.247864127159118652e+00,1.247784018516540527e+00,1.247703909873962402e+00,1.247623920440673828e+00,1.247543811798095703e+00,1.247463703155517578e+00,1.247383832931518555e+00,1.247303724288940430e+00,1.247223734855651855e+00,1.247143745422363281e+00,1.247063755989074707e+00,1.246983766555786133e+00,1.246903777122497559e+00,1.246823787689208984e+00,1.246743798255920410e+00,1.246663928031921387e+00,1.246583938598632812e+00,1.246503949165344238e+00,1.246424078941345215e+00,1.246344208717346191e+00,1.246264338493347168e+00,1.246184349060058594e+00,1.246104478836059570e+00,1.246024727821350098e+00,1.245944857597351074e+00,1.245864987373352051e+00,1.245785236358642578e+00,1.245705366134643555e+00,1.245625495910644531e+00,1.245545744895935059e+00,1.245465993881225586e+00,1.245386123657226562e+00,1.245306372642517090e+00,1.245226621627807617e+00,1.245146870613098145e+00,1.245067119598388672e+00,1.244987368583679199e+00,1.244907617568969727e+00,1.244827985763549805e+00,1.244748353958129883e+00,1.244668602943420410e+00,1.244588971138000488e+00,1.244509339332580566e+00,1.244429588317871094e+00,1.244349956512451172e+00,1.244270324707031250e+00,1.244190692901611328e+00,1.244111061096191406e+00,1.244031429290771484e+00,1.243951797485351562e+00,1.243872284889221191e+00,1.243792653083801270e+00,1.243713140487670898e+00,1.243633508682250977e+00,1.243553996086120605e+00,1.243474483489990234e+00,1.243394970893859863e+00,1.243315458297729492e+00,1.243235945701599121e+00,1.243156433105468750e+00,1.243077039718627930e+00,1.242997527122497559e+00,1.242918014526367188e+00,1.242838621139526367e+00,1.242759108543395996e+00,1.242679715156555176e+00,1.242600321769714355e+00,1.242520928382873535e+00,1.242441415786743164e+00
1.162310719490051270e+00,1.162241220474243164e+00,1.162171721458435059e+00,1.162102222442626953e+00,1.162032723426818848e+00,1.161963343620300293e+00,1.161893844604492188e+00,1.161824464797973633e+00,1.161755084991455078e+00,1.161685705184936523e+00,1.161616206169128418e+00,1.161546826362609863e+00,1.161477446556091309e+00,1.161408066749572754e+00,1.161338686943054199e+00,1.161269307136535645e+00,1.161199927330017090e+00,1.161130547523498535e+00,1.161061286926269531e+00,1.160991907119750977e+00,1.160922527313232422e+00,1.160853266716003418e+00,1.160783886909484863e+00,1.160714626312255859e+00,1.160645365715026855e+00,1.160576105117797852e+00,1.160506844520568848e+00,1.160437583923339844e+00,1.160368323326110840e+00,1.160299062728881836e+00,1.160229802131652832e+00,1.160160541534423828e+00,1.160091280937194824e+00,1.160022139549255371e+00,1.159952878952026367e+00,1.159883618354797363e+00,1.159814476966857910e+00,1.159745216369628906e+00,1.159676074981689453e+00,1.159606933593750000e+00,1.159537792205810547e+00,1.159468650817871094e+00,1.159399509429931641e+00,1.159330368041992188e+00,1.159261226654052734e+00,1.159192085266113281e+00,1.159122943878173828e+00,1.159053921699523926e+00,1.158984780311584473e+00,1.158915638923645020e+00,1.158846616744995117e+00,1.158777475357055664e+00,1.158708453178405762e+00,1.158639430999755859e+00,1.158570408821105957e+00,1.158501267433166504e+00,1.158432245254516602e+00,1.158363342285156250e+00,1.158294320106506348e+00,1.158225297927856445e+00,1.158156394958496094e+00,1.158087372779846191e+00,1.158018350601196289e+00,1.157949447631835938e+00,1.157880425453186035e+00,1.157811522483825684e+00,1.157742500305175781e+00,1.157673597335815430e+00,1.157604694366455078e+00,1.157535672187805176e+00,1.157466769218444824e+00,1.157397866249084473e+00,1.157328963279724121e+00,1.157260060310363770e+00,1.157191276550292969e+00,1.157122373580932617e+00,1.157053589820861816e+00,1.156984686851501465e+00,1.156915783882141113e+00,1.156847000122070312e+00
1.087066531181335449e+00,1.087005853652954102e+00,1.086945056915283203e+00,1.086884260177612305e+00,1.086823463439941406e+00,1.086762785911560059e+00,1.086701989173889160e+00,1.086641192436218262e+00,1.086580514907836914e+00,1.086519837379455566e+00,1.086459040641784668e+00,1.086398363113403320e+00,1.086337685585021973e+00,1.086276888847351074e+00,1.086216211318969727e+00,1.086155652999877930e+00,1.086094975471496582e+00,1.086034297943115234e+00,1.085973620414733887e+00,1.085912942886352539e+00,1.085852265357971191e+00,1.085791707038879395e+00,1.085731029510498047e+00,1.085670351982116699e+00,1.085609793663024902e+00,1.085549116134643555e+00,1.085488557815551758e+00,1.085427880287170410e+00,1.085367321968078613e+00,1.085306763648986816e+00,1.085246205329895020e+00,1.085185527801513672e+00,1.085125088691711426e+00,1.085064530372619629e+00,1.085003972053527832e+00,1.084943413734436035e+00,1.084882855415344238e+00,1.084822297096252441e+00,1.084761738777160645e+00,1.084701180458068848e+00,1.084640741348266602e+00,1.084580183029174805e+00,1.084519743919372559e+00,1.084459185600280762e+00,1.084398746490478516e+00,1.084338188171386719e+00,1.084277749061584473e+00,1.084217309951782227e+00,1.084156870841979980e+00,1.084096431732177734e+00,1.084035992622375488e+00,1.083975553512573242e+00,1.083915114402770996e+00,1.083854675292968750e+00,1.083794236183166504e+00,1.083733797073364258e+00,1.083673477172851562e+00,1.083613038063049316e+00,1.083552598953247070e+00,1.083492279052734375e+00,1.083431839942932129e+00,1.083371520042419434e+00,1.083311080932617188e+00,1.083250761032104492e+00,1.083190441131591797e+00,1.083130121231079102e+00,1.083069801330566406e+00,1.083009481430053711e+00,1.082949042320251465e+00,1.082888722419738770e+00,1.082828402519226074e+00,1.082768201828002930e+00,1.082707881927490234e+00,1.082647562026977539e+00,1.082587242126464844e+00,1.082526922225952148e+00,1.082466721534729004e+00,1.082406401634216309e+00,1.082346200942993164e+00,1.082285881042480469e+00
1.020972251892089844e+00,1.020918607711791992e+00,1.020864963531494141e+00,1.020811438560485840e+00,1.020757794380187988e+00,1.020704150199890137e+00,1.020650625228881836e+00,1.020597100257873535e+00,1.020543575286865234e+00,1.020489931106567383e+00,1.020436406135559082e+00,1.020382881164550781e+00,1.020329236984252930e+00,1.020275712013244629e+00,1.020222187042236328e+00,1.020168662071228027e+00,1.020115137100219727e+00,1.020061612129211426e+00,1.020008087158203125e+00,1.019954562187194824e+00,1.019901037216186523e+00,1.019847512245178223e+00,1.019794106483459473e+00,1.019740581512451172e+00,1.019687175750732422e+00,1.019633650779724121e+00,1.019580125808715820e+00,1.019526720046997070e+00,1.019473195075988770e+00,1.019419789314270020e+00,1.019366383552551270e+00,1.019312858581542969e+00,1.019259452819824219e+00,1.019206047058105469e+00,1.019152522087097168e+00,1.019099116325378418e+00,1.019045710563659668e+00,1.018992304801940918e+00,1.018938899040222168e+00,1.018885612487792969e+00,1.018832206726074219e+00,1.018778800964355469e+00,1.018725395202636719e+00,1.018671989440917969e+00,1.018618583679199219e+00,1.018565297126770020e+00,1.018511891365051270e+00,1.018458485603332520e+00,1.018405199050903320e+00,1.018351793289184570e+00,1.018298506736755371e+00,1.018245220184326172e+00,1.018191814422607422e+00,1.018138527870178223e+00,1.018085241317749023e+00,1.018031954765319824e+00,1.017978668212890625e+00,1.017925381660461426e+00,1.017872095108032227e+00,1.017818689346313477e+00,1.017765522003173828e+00,1.017712235450744629e+00,1.017658948898315430e+00,1.017605662345886230e+00,1.017552375793457031e+00,1.017499089241027832e+00,1.017445921897888184e+00,1.017392635345458984e+00,1.017339348793029785e+00,1.017286181449890137e+00,1.017232894897460938e+00,1.017179727554321289e+00,1.017126560211181641e+00,1.017073273658752441e+00,1.017020106315612793e+00,1.016966938972473145e+00,1.016913771629333496e+00,1.016860485076904297e+00,1.016807317733764648e+00,1.016754150390625000e+00
9.624544978141784668e-01,9.624068140983581543e-01,9.623591899871826172e-01,9.623115062713623047e-01,9.622639417648315430e-01,9.622162580490112305e-01,9.621686935424804688e-01,9.621210098266601562e-01,9.620734453201293945e-01,9.620258212089538574e-01,9.619782567024230957e-01,9.619305729866027832e-01,9.618830680847167969e-01,9.618355035781860352e-01,9.617878794670104980e-01,9.617403745651245117e-01,9.616927504539489746e-01,9.616451859474182129e-01,9.615976214408874512e-01,9.615500569343566895e-01,9.615024924278259277e-01,9.614549875259399414e-01,9.614073634147644043e-01,9.613599181175231934e-01,9.613122940063476562e-01,9.612648487091064453e-01,9.612172245979309082e-01,9.611697793006896973e-01,9.611222147941589355e-01,9.610747098922729492e-01,9.610272645950317383e-01,9.609797000885009766e-01,9.609322547912597656e-01,9.608847498893737793e-01,9.608373045921325684e-01,9.607897400856018066e-01,9.607422947883605957e-01,9.606947898864746094e-01,9.606473445892333984e-01,9.605998396873474121e-01,9.605524539947509766e-01,9.605049490928649902e-01,9.604575037956237793e-01,9.604099988937377930e-01,9.603626132011413574e-01,9.603151679039001465e-01,9.602677822113037109e-01,9.602203965187072754e-01,9.601728916168212891e-01,9.601255655288696289e-01,9.600780606269836426e-01,9.600307345390319824e-01,9.599832296371459961e-01,9.599359035491943359e-01,9.598884582519531250e-01,9.598411321640014648e-01,9.597936868667602539e-01,9.597463607788085938e-01,9.596989154815673828e-01,9.596515893936157227e-01,9.596041440963745117e-01,9.595568776130676270e-01,9.595094323158264160e-01,9.594621658325195312e-01,9.594148397445678711e-01,9.593674540519714355e-01,9.593201279640197754e-01,9.592727422714233398e-01,9.592254757881164551e-01,9.591780900955200195e-01,9.591308236122131348e-01,9.590834379196166992e-01,9.590361714363098145e-01,9.589888453483581543e-01,9.589415788650512695e-01,9.588942527770996094e-01,9.588469862937927246e-01,9.587996602058410645e-01,9.587523937225341797e-01,9.587051868438720703e-01
9.102810025215148926e-01,9.102383255958557129e-01,9.101957678794860840e-01,9.101530909538269043e-01,9.101105332374572754e-01,9.100679755210876465e-01,9.100252985954284668e-01,9.099828004837036133e-01,9.099401235580444336e-01,9.098976254463195801e-01,9.098549485206604004e-01,9.098124504089355469e-01,9.097697734832763672e-01,9.097272753715515137e-01,9.096846580505371094e-01,9.096421599388122559e-01,9.095995426177978516e-01,9.095570445060729980e-01,9.095144271850585938e-01,9.094719290733337402e-01,9.094294309616088867e-01,9.093868136405944824e-01,9.093443751335144043e-01,9.093017578125000000e-01,9.092593193054199219e-01,9.092167019844055176e-01,9.091742634773254395e-01,9.091317057609558105e-01,9.090892076492309570e-01,9.090466499328613281e-01,9.090042114257812500e-01,9.089616537094116211e-01,9.089192152023315430e-01,9.088766574859619141e-01,9.088342189788818359e-01,9.087916612625122070e-01,9.087492227554321289e-01,9.087068438529968262e-01,9.086642861366271973e-01,9.086219072341918945e-01,9.085793495178222656e-01,9.085369706153869629e-01,9.084944725036621094e-01,9.084520339965820312e-01,9.084095358848571777e-01,9.083671569824218750e-01,9.083246588706970215e-01,9.082822799682617188e-01,9.082397818565368652e-01,9.081974029541015625e-01,9.081549048423767090e-01,9.081125855445861816e-01,9.080700874328613281e-01,9.080277085304260254e-01,9.079853892326354980e-01,9.079429507255554199e-01,9.079005718231201172e-01,9.078581333160400391e-01,9.078157544136047363e-01,9.077733159065246582e-01,9.077309966087341309e-01,9.076885581016540527e-01,9.076462388038635254e-01,9.076038002967834473e-01,9.075614809989929199e-01,9.075191020965576172e-01,9.074767827987670898e-01,9.074343442916870117e-01,9.073920249938964844e-01,9.073496460914611816e-01,9.073073267936706543e-01,9.072650671005249023e-01,9.072226881980895996e-01,9.071803689002990723e-01,9.071379899978637695e-01,9.070957303047180176e-01,9.070533514022827148e-01,9.070110917091369629e-01,9.069687128067016602e-01,9.069264531135559082e-01
8.634731769561767578e-01,8.634348511695861816e-01,8.633964657783508301e-01,8.633581399917602539e-01,8.633197546005249023e-01,8.632814884185791016e-01,8.632431030273437500e-01,8.632048368453979492e-01,8.631664514541625977e-01,8.631281852722167969e-01,8.630897998809814453e-01,8.630515336990356445e-01,8.630132675170898438e-01,8.629748821258544922e-01,8.629366159439086914e-01,8.628982901573181152e-01,8.628600239753723145e-01,8.628216981887817383e-01,8.627834320068359375e-01,8.627451062202453613e-01,8.627068996429443359e-01,8.626685738563537598e-01,8.626303076744079590e-01,8.625919818878173828e-01,8.625537753105163574e-01,8.625154495239257812e-01,8.624772429466247559e-01,8.624390363693237305e-01,8.624007105827331543e-01,8.623625040054321289e-01,8.623241782188415527e-01,8.622860312461853027e-01,8.622477054595947266e-01,8.622094988822937012e-01,8.621712327003479004e-01,8.621330261230468750e-01,8.620947599411010742e-01,8.620565533638000488e-01,8.620182871818542480e-01,8.619801402091979980e-01,8.619418740272521973e-01,8.619037270545959473e-01,8.618654608726501465e-01,8.618273138999938965e-01,8.617891073226928711e-01,8.617509007453918457e-01,8.617127537727355957e-01,8.616744875907897949e-01,8.616363406181335449e-01,8.615981340408325195e-01,8.615599870681762695e-01,8.615217208862304688e-01,8.614836335182189941e-01,8.614453673362731934e-01,8.614072799682617188e-01,8.613690733909606934e-01,8.613309264183044434e-01,8.612927198410034180e-01,8.612546324729919434e-01,8.612164258956909180e-01,8.611783385276794434e-01,8.611401915550231934e-01,8.611020445823669434e-01,8.610639572143554688e-01,8.610257506370544434e-01,8.609876632690429688e-01,8.609494566917419434e-01,8.609114289283752441e-01,8.608732223510742188e-01,8.608351349830627441e-01,8.607969880104064941e-01,8.607589602470397949e-01,8.607207536697387695e-01,8.606827259063720703e-01,8.606445789337158203e-01,8.606064915657043457e-01,8.605683445930480957e-01,8.605303168296813965e-01,8.604922890663146973e-01,8.604541420936584473e-01
8.212437033653259277e-01,8.212090730667114258e-01,8.211744427680969238e-01,8.211396932601928711e-01,8.211050629615783691e-01,8.210703134536743164e-01,8.210356831550598145e-01,8.210009932518005371e-01,8.209663629531860352e-01,8.209316730499267578e-01,8.208970427513122559e-01,8.208623528480529785e-01,8.208277225494384766e-01,8.207930326461791992e-01,8.207584023475646973e-01,8.207237124443054199e-01,8.206890821456909180e-01,8.206544518470764160e-01,8.206198215484619141e-01,8.205852508544921875e-01,8.205505609512329102e-01,8.205159306526184082e-01,8.204813003540039062e-01,8.204467296600341797e-01,8.204120397567749023e-01,8.203774690628051758e-01,8.203427791595458984e-01,8.203082084655761719e-01,8.202735781669616699e-01,8.202390074729919434e-01,8.202043771743774414e-01,8.201698064804077148e-01,8.201351761817932129e-01,8.201006054878234863e-01,8.200659751892089844e-01,8.200314044952392578e-01,8.199968934059143066e-01,8.199622631072998047e-01,8.199276924133300781e-01,8.198930621147155762e-01,8.198585510253906250e-01,8.198239207267761230e-01,8.197894096374511719e-01,8.197547793388366699e-01,8.197202682495117188e-01,8.196856379508972168e-01,8.196511268615722656e-01,8.196165561676025391e-01,8.195820450782775879e-01,8.195474147796630859e-01,8.195129632949829102e-01,8.194784522056579590e-01,8.194438219070434570e-01,8.194093704223632812e-01,8.193747997283935547e-01,8.193402886390686035e-01,8.193057179450988770e-01,8.192712068557739258e-01,8.192366361618041992e-01,8.192021846771240234e-01,8.191676139831542969e-01,8.191331624984741211e-01,8.190985918045043945e-01,8.190641403198242188e-01,8.190295696258544922e-01,8.189951181411743164e-01,8.189605474472045898e-01,8.189260959625244141e-01,8.188916444778442383e-01,8.188571333885192871e-01,8.188226819038391113e-01,8.187881112098693848e-01,8.187537193298339844e-01,8.187191486358642578e-01,8.186847567558288574e-01,8.186502456665039062e-01,8.186157941818237305e-01,8.185812830924987793e-01,8.185468316078186035e-01,8.185123205184936523e-01
7.829523682594299316e-01,7.829208374023437500e-01,7.828893065452575684e-01,7.828577756881713867e-01,7.828262448310852051e-01,7.827947139739990234e-01,7.827632427215576172e-01,7.827316522598266602e-01,7.827001810073852539e-01,7.826687097549438477e-01,7.826371788978576660e-01,7.826057076454162598e-01,7.825741767883300781e-01,7.825427055358886719e-01,7.825111746788024902e-01,7.824797034263610840e-01,7.824481725692749023e-01,7.824167013168334961e-01,7.823851704597473145e-01,7.823537588119506836e-01,7.823222279548645020e-01,7.822907567024230957e-01,7.822592854499816895e-01,7.822278141975402832e-01,7.821963429450988770e-01,7.821648716926574707e-01,7.821334600448608398e-01,7.821019291877746582e-01,7.820705175399780273e-01,7.820390462875366211e-01,7.820075750350952148e-01,7.819761037826538086e-01,7.819446921348571777e-01,7.819132208824157715e-01,7.818818092346191406e-01,7.818502783775329590e-01,7.818189263343811035e-01,7.817873954772949219e-01,7.817560434341430664e-01,7.817245721817016602e-01,7.816931605339050293e-01,7.816616892814636230e-01,7.816302776336669922e-01,7.815989255905151367e-01,7.815674543380737305e-01,7.815360426902770996e-01,7.815046310424804688e-01,7.814732193946838379e-01,7.814418077468872070e-01,7.814103960990905762e-01,7.813789844512939453e-01,7.813475728034973145e-01,7.813161611557006836e-01,7.812848091125488281e-01,7.812533378601074219e-01,7.812219858169555664e-01,7.811905741691589355e-01,7.811592221260070801e-01,7.811278700828552246e-01,7.810964584350585938e-01,7.810651063919067383e-01,7.810336947441101074e-01,7.810023427009582520e-01,7.809709310531616211e-01,7.809395790100097656e-01,7.809081673622131348e-01,7.808768749237060547e-01,7.808454632759094238e-01,7.808141112327575684e-01,7.807827591896057129e-01,7.807514071464538574e-01,7.807199954986572266e-01,7.806887030601501465e-01,7.806572914123535156e-01,7.806259989738464355e-01,7.805947065353393555e-01,7.805632948875427246e-01,7.805320024490356445e-01,7.805006504058837891e-01,7.804693579673767090e-01
7.480726242065429688e-01,7.480438947677612305e-01,7.480150461196899414e-01,7.479863166809082031e-01,7.479575276374816895e-01,7.479287385940551758e-01,7.478999495506286621e-01,7.478712201118469238e-01,7.478424310684204102e-01,7.478137016296386719e-01,7.477848529815673828e-01,7.477561235427856445e-01,7.477273344993591309e-01,7.476986050605773926e-01,7.476698160171508789e-01,7.476411461830139160e-01,7.476124167442321777e-01,7.475836277008056641e-01,7.475548982620239258e-01,7.475261092185974121e-01,7.474974393844604492e-01,7.474686503410339355e-01,7.474399209022521973e-01,7.474111914634704590e-01,7.473824620246887207e-01,7.473536729812622070e-01,7.473250031471252441e-01,7.472962737083435059e-01,7.472675442695617676e-01,7.472388148307800293e-01,7.472100853919982910e-01,7.471813559532165527e-01,7.471526861190795898e-01,7.471240162849426270e-01,7.470952272415161133e-01,7.470665574073791504e-01,7.470378279685974121e-01,7.470091581344604492e-01,7.469804286956787109e-01,7.469517588615417480e-01,7.469230294227600098e-01,7.468943595886230469e-01,7.468656301498413086e-01,7.468369603157043457e-01,7.468082308769226074e-01,7.467796206474304199e-01,7.467508912086486816e-01,7.467222213745117188e-01,7.466934919357299805e-01,7.466648817062377930e-01,7.466362118721008301e-01,7.466075420379638672e-01,7.465788722038269043e-01,7.465502023696899414e-01,7.465215325355529785e-01,7.464928627014160156e-01,7.464641928672790527e-01,7.464355230331420898e-01,7.464069128036499023e-01,7.463781833648681641e-01,7.463495731353759766e-01,7.463209033012390137e-01,7.462922930717468262e-01,7.462635636329650879e-01,7.462349534034729004e-01,7.462062835693359375e-01,7.461776733398437500e-01,7.461490631103515625e-01,7.461203932762145996e-01,7.460918426513671875e-01,7.460631728172302246e-01,7.460345625877380371e-01,7.460058927536010742e-01,7.459772825241088867e-01,7.459486126899719238e-01,7.459200620651245117e-01,7.458913922309875488e-01,7.458628416061401367e-01,7.458341717720031738e-01,7.458055615425109863e-01
7.161680459976196289e-01,7.161417007446289062e-01,7.161152958869934082e-01,7.160889506340026855e-01,7.160625457763671875e-01,7.160362005233764648e-01,7.160097956657409668e-01,7.159834504127502441e-01,7.159571051597595215e-01,7.159307003021240234e-01,7.159043550491333008e-01,7.158779501914978027e-01,7.158516645431518555e-01,7.158252596855163574e-01,7.157989144325256348e-01,7.157725691795349121e-01,7.157462239265441895e-01,7.157198190689086914e-01,7.156935334205627441e-01,7.156671285629272461e-01,7.156408429145812988e-01,7.156144380569458008e-01,7.155881524085998535e-01,7.155618667602539062e-01,7.155354619026184082e-01,7.155091762542724609e-01,7.154828310012817383e-01,7.154564857482910156e-01,7.154301404953002930e-01,7.154038548469543457e-01,7.153775095939636230e-01,7.153512239456176758e-01,7.153248786926269531e-01,7.152985334396362305e-01,7.152721881866455078e-01,7.152459025382995605e-01,7.152195572853088379e-01,7.151933312416076660e-01,7.151669859886169434e-01,7.151407003402709961e-01,7.151144146919250488e-01,7.150880694389343262e-01,7.150617837905883789e-01,7.150354981422424316e-01,7.150092124938964844e-01,7.149828672409057617e-01,7.149566411972045898e-01,7.149302959442138672e-01,7.149040102958679199e-01,7.148777246475219727e-01,7.148514389991760254e-01,7.148251533508300781e-01,7.147988677024841309e-01,7.147725820541381836e-01,7.147463560104370117e-01,7.147200107574462891e-01,7.146937847137451172e-01,7.146675586700439453e-01,7.146412134170532227e-01,7.146149873733520508e-01,7.145887017250061035e-01,7.145624756813049316e-01,7.145361900329589844e-01,7.145099639892578125e-01,7.144836187362670898e-01,7.144573926925659180e-01,7.144311070442199707e-01,7.144048810005187988e-01,7.143786549568176270e-01,7.143524289131164551e-01,7.143261432647705078e-01,7.142999172210693359e-01,7.142736315727233887e-01,7.142474055290222168e-01,7.142212390899658203e-01,7.141949534416198730e-01,7.141687273979187012e-01,7.141425013542175293e-01,7.141162753105163574e-01,7.140899896621704102e-01
6.868736147880554199e-01,6.868492960929870605e-01,6.868250966072082520e-01,6.868007779121398926e-01,6.867765784263610840e-01,6.867522597312927246e-01,6.867280602455139160e-01,6.867037415504455566e-01,6.866795420646667480e-01,6.866552233695983887e-01,6.866310238838195801e-01,6.866067051887512207e-01,6.865825057029724121e-01,6.865582466125488281e-01,6.865340471267700195e-01,6.865097880363464355e-01,6.864855289459228516e-01,6.864613294601440430e-01,6.864370703697204590e-01,6.864128708839416504e-01,6.863885521888732910e-01,6.863643527030944824e-01,6.863400936126708984e-01,6.863158941268920898e-01,6.862916350364685059e-01,6.862674355506896973e-01,6.862431764602661133e-01,6.862190365791320801e-01,6.861947774887084961e-01,6.861705780029296875e-01,6.861463189125061035e-01,6.861221194267272949e-01,6.860979199409484863e-01,6.860737204551696777e-01,6.860495209693908691e-01,6.860252618789672852e-01,6.860011219978332520e-01,6.859768629074096680e-01,6.859527230262756348e-01,6.859284639358520508e-01,6.859042644500732422e-01,6.858800649642944336e-01,6.858558654785156250e-01,6.858316659927368164e-01,6.858075261116027832e-01,6.857832670211791992e-01,6.857591271400451660e-01,6.857349872589111328e-01,6.857107281684875488e-01,6.856865882873535156e-01,6.856623888015747070e-01,6.856381893157958984e-01,6.856139898300170898e-01,6.855898499488830566e-01,6.855656504631042480e-01,6.855415105819702148e-01,6.855173110961914062e-01,6.854931712150573730e-01,6.854689717292785645e-01,6.854448318481445312e-01,6.854206323623657227e-01,6.853964924812316895e-01,6.853722929954528809e-01,6.853481531143188477e-01,6.853240132331848145e-01,6.852998733520507812e-01,6.852757334709167480e-01,6.852515339851379395e-01,6.852273941040039062e-01,6.852032542228698730e-01,6.851791143417358398e-01,6.851549148559570312e-01,6.851308345794677734e-01,6.851066350936889648e-01,6.850825548171997070e-01,6.850583553314208984e-01,6.850342750549316406e-01,6.850100755691528320e-01,6.849859952926635742e-01,6.849617958068847656e-01
6.598814725875854492e-01,6.598590612411499023e-01,6.598367094993591309e-01,6.598142981529235840e-01,6.597918868064880371e-01,6.597695350646972656e-01,6.597471237182617188e-01,6.597247719764709473e-01,6.597023606300354004e-01,6.596800088882446289e-01,6.596575975418090820e-01,6.596352458000183105e-01,6.596128344535827637e-01,6.595904827117919922e-01,6.595680713653564453e-01,6.595457196235656738e-01,6.595233082771301270e-01,6.595009565353393555e-01,6.594785451889038086e-01,6.594561934471130371e-01,6.594338417053222656e-01,6.594114899635314941e-01,6.593891382217407227e-01,6.593667268753051758e-01,6.593444347381591797e-01,6.593220233917236328e-01,6.592996716499328613e-01,6.592773199081420898e-01,6.592549681663513184e-01,6.592326164245605469e-01,6.592102646827697754e-01,6.591879129409790039e-01,6.591655611991882324e-01,6.591432094573974609e-01,6.591208577156066895e-01,6.590985059738159180e-01,6.590761542320251465e-01,6.590538024902343750e-01,6.590315103530883789e-01,6.590091586112976074e-01,6.589868068695068359e-01,6.589645147323608398e-01,6.589421629905700684e-01,6.589198112487792969e-01,6.588974595069885254e-01,6.588751673698425293e-01,6.588528156280517578e-01,6.588305234909057617e-01,6.588081717491149902e-01,6.587858796119689941e-01,6.587635278701782227e-01,6.587412357330322266e-01,6.587188839912414551e-01,6.586965918540954590e-01,6.586742997169494629e-01,6.586519479751586914e-01,6.586296558380126953e-01,6.586073040962219238e-01,6.585850119590759277e-01,6.585627198219299316e-01,6.585404276847839355e-01,6.585180759429931641e-01,6.584957838058471680e-01,6.584734916687011719e-01,6.584511995315551758e-01,6.584288477897644043e-01,6.584066152572631836e-01,6.583842635154724121e-01,6.583619713783264160e-01,6.583396792411804199e-01,6.583173871040344238e-01,6.582951545715332031e-01,6.582728028297424316e-01,6.582505702972412109e-01,6.582282185554504395e-01,6.582059860229492188e-01,6.581836938858032227e-01,6.581614017486572266e-01,6.581391096115112305e-01,6.581168770790100098e-01
6.349305510520935059e-01,6.349098682403564453e-01,6.348890662193298340e-01,6.348683834075927734e-01,6.348476409912109375e-01,6.348268985748291016e-01,6.348061561584472656e-01,6.347854733467102051e-01,6.347647309303283691e-01,6.347439885139465332e-01,6.347232460975646973e-01,6.347025632858276367e-01,6.346818804740905762e-01,6.346611380577087402e-01,6.346403956413269043e-01,6.346197128295898438e-01,6.345989704132080078e-01,6.345782279968261719e-01,6.345575451850891113e-01,6.345368027687072754e-01,6.345161199569702148e-01,6.344954371452331543e-01,6.344746947288513184e-01,6.344540119171142578e-01,6.344333291053771973e-01,6.344125866889953613e-01,6.343919038772583008e-01,6.343711614608764648e-01,6.343504786491394043e-01,6.343298554420471191e-01,6.343091130256652832e-01,6.342884302139282227e-01,6.342677474021911621e-01,6.342470645904541016e-01,6.342263221740722656e-01,6.342056989669799805e-01,6.341849565505981445e-01,6.341642737388610840e-01,6.341435909271240234e-01,6.341229081153869629e-01,6.341022253036499023e-01,6.340815424919128418e-01,6.340608596801757812e-01,6.340401768684387207e-01,6.340194940567016602e-01,6.339988708496093750e-01,6.339781880378723145e-01,6.339575052261352539e-01,6.339368224143981934e-01,6.339161396026611328e-01,6.338955163955688477e-01,6.338748335838317871e-01,6.338541507720947266e-01,6.338334679603576660e-01,6.338128447532653809e-01,6.337921619415283203e-01,6.337715387344360352e-01,6.337508559226989746e-01,6.337301731109619141e-01,6.337094902992248535e-01,6.336888670921325684e-01,6.336681842803955078e-01,6.336475610733032227e-01,6.336269378662109375e-01,6.336062550544738770e-01,6.335856318473815918e-01,6.335649490356445312e-01,6.335443258285522461e-01,6.335236430168151855e-01,6.335030794143676758e-01,6.334823966026306152e-01,6.334617733955383301e-01,6.334410905838012695e-01,6.334204673767089844e-01,6.333998441696166992e-01,6.333792209625244141e-01,6.333585381507873535e-01,6.333379745483398438e-01,6.333173513412475586e-01,6.332966685295104980e-01
6.117977499961853027e-01,6.117785573005676270e-01,6.117592453956604004e-01,6.117400527000427246e-01,6.117208003997802734e-01,6.117015480995178223e-01,6.116822957992553711e-01,6.116630434989929199e-01,6.116438508033752441e-01,6.116245388984680176e-01,6.116053462028503418e-01,6.115860939025878906e-01,6.115668416023254395e-01,6.115475893020629883e-01,6.115283966064453125e-01,6.115091443061828613e-01,6.114898920059204102e-01,6.114706397056579590e-01,6.114514470100402832e-01,6.114322543144226074e-01,6.114130020141601562e-01,6.113938093185424805e-01,6.113745570182800293e-01,6.113553047180175781e-01,6.113360524177551270e-01,6.113168597221374512e-01,6.112976074218750000e-01,6.112784147262573242e-01,6.112592220306396484e-01,6.112399697303771973e-01,6.112207770347595215e-01,6.112015843391418457e-01,6.111823320388793945e-01,6.111631393432617188e-01,6.111438870429992676e-01,6.111246943473815918e-01,6.111055016517639160e-01,6.110863089561462402e-01,6.110671162605285645e-01,6.110478639602661133e-01,6.110286712646484375e-01,6.110094785690307617e-01,6.109902858734130859e-01,6.109710335731506348e-01,6.109519004821777344e-01,6.109326481819152832e-01,6.109134554862976074e-01,6.108942627906799316e-01,6.108750700950622559e-01,6.108558773994445801e-01,6.108366847038269043e-01,6.108174920082092285e-01,6.107982993125915527e-01,6.107791662216186523e-01,6.107599139213562012e-01,6.107407808303833008e-01,6.107215881347656250e-01,6.107023954391479492e-01,6.106832027435302734e-01,6.106640100479125977e-01,6.106448173522949219e-01,6.106256842613220215e-01,6.106064915657043457e-01,6.105872988700866699e-01,6.105681061744689941e-01,6.105489730834960938e-01,6.105297803878784180e-01,6.105105876922607422e-01,6.104913949966430664e-01,6.104722619056701660e-01,6.104531288146972656e-01,6.104339361190795898e-01,6.104148030281066895e-01,6.103956103324890137e-01,6.103764772415161133e-01,6.103572845458984375e-01,6.103381514549255371e-01,6.103189587593078613e-01,6.102998256683349609e-01,6.102806329727172852e-01
5.902913808822631836e-01,5.902733802795410156e-01,5.902554988861083984e-01,5.902375578880310059e-01,5.902196764945983887e-01,5.902017354965209961e-01,5.901838541030883789e-01,5.901659131050109863e-01,5.901479721069335938e-01,5.901300907135009766e-01,5.901121497154235840e-01,5.900942683219909668e-01,5.900763273239135742e-01,5.900584459304809570e-01,5.900405049324035645e-01,5.900226235389709473e-01,5.900047421455383301e-01,5.899868607521057129e-01,5.899689197540283203e-01,5.899510383605957031e-01,5.899330973625183105e-01,5.899152159690856934e-01,5.898972749710083008e-01,5.898793935775756836e-01,5.898615121841430664e-01,5.898436307907104492e-01,5.898257493972778320e-01,5.898078680038452148e-01,5.897899866104125977e-01,5.897720456123352051e-01,5.897542238235473633e-01,5.897362828254699707e-01,5.897184014320373535e-01,5.897005200386047363e-01,5.896826386451721191e-01,5.896647572517395020e-01,5.896468758583068848e-01,5.896289944648742676e-01,5.896111130714416504e-01,5.895932316780090332e-01,5.895753502845764160e-01,5.895574688911437988e-01,5.895395874977111816e-01,5.895217061042785645e-01,5.895038247108459473e-01,5.894860029220581055e-01,5.894680619239807129e-01,5.894502401351928711e-01,5.894323587417602539e-01,5.894144773483276367e-01,5.893965959548950195e-01,5.893787741661071777e-01,5.893608331680297852e-01,5.893430113792419434e-01,5.893251299858093262e-01,5.893073081970214844e-01,5.892894268035888672e-01,5.892715454101562500e-01,5.892536640167236328e-01,5.892358422279357910e-01,5.892180204391479492e-01,5.892001390457153320e-01,5.891823172569274902e-01,5.891644358634948730e-01,5.891465544700622559e-01,5.891286730766296387e-01,5.891108512878417969e-01,5.890929698944091797e-01,5.890751481056213379e-01,5.890573263168334961e-01,5.890394449234008789e-01,5.890216231346130371e-01,5.890038013458251953e-01,5.889859199523925781e-01,5.889680981636047363e-01,5.889502167701721191e-01,5.889323949813842773e-01,5.889145731925964355e-01,5.888967514038085938e-01,5.888789296150207520e-01
