5.000000000000000000e+00,5.000000000000000000e+00,5.000000000000000000e+00,5.000000000000000000e+00,5.000000000000000000e+00,5.000000000000000000e+00,5.000000000000000000e+00,5.000000000000000000e+00,5.000000000000000000e+00,5.000000000000000000e+00,5.000000000000000000e+00,5.000000000000000000e+00,5.000000000000000000e+00,5.000000000000000000e+00,5.000000000000000000e+00,5.000000000000000000e+00,5.000000000000000000e+00,5.000000000000000000e+00,5.000000000000000000e+00,5.000000000000000000e+00,5.000000000000000000e+00,5.000000000000000000e+00,5.000000000000000000e+00,5.000000000000000000e+00,5.000000000000000000e+00,5.000000000000000000e+00,5.000000000000000000e+00,5.000000000000000000e+00,5.000000000000000000e+00,5.000000000000000000e+00,5.000000000000000000e+00,5.000000000000000000e+00,5.000000000000000000e+00,5.000000000000000000e+00,5.000000000000000000e+00,5.000000000000000000e+00,5.000000000000000000e+00,5.000000000000000000e+00,5.000000000000000000e+00,4.850923061370849609e+00,4.660890102386474609e+00,4.485185146331787109e+00,4.322246074676513672e+00,4.170730590820312500e+00,4.029478073120117188e+00,3.897479772567749023e+00,3.773854970932006836e+00,1.181895971298217773e+00,1.164233326911926270e+00,1.163135051727294922e+00,1.186179399490356445e+00,1.154050707817077637e+00,1.131475687026977539e+00,1.119448781013488770e+00,1.116383790969848633e+00,1.113520145416259766e+00,1.110671162605285645e+00,1.107836723327636719e+00,1.136641263961791992e+00,1.175680518150329590e+00,1.158074021339416504e+00,1.140665769577026367e+00,1.133458018302917480e+00,1.130691766738891602e+00,1.127938866615295410e+00,1.125199317932128906e+00,1.274270176887512207e+00,1.257817387580871582e+00,2.222765207290649414e+00,2.182000398635864258e+00,2.142704248428344727e+00,2.104798078536987305e+00,2.068209886550903320e+00,2.032872200012207031e+00,1.998721718788146973e+00,1.965699553489685059e+00,1.933750629425048828e+00,1.902823805809020996e+00,1.872870683670043945e+00,1.843846082687377930e+00
5.000000000000000000e+00,5.000000000000000000e+00,5.000000000000000000e+00,5.000000000000000000e+00,5.000000000000000000e+00,5.000000000000000000e+00,5.000000000000000000e+00,5.000000000000000000e+00,5.000000000000000000e+00,5.000000000000000000e+00,5.000000000000000000e+00,5.000000000000000000e+00,5.000000000000000000e+00,5.000000000000000000e+00,5.000000000000000000e+00,5.000000000000000000e+00,5.000000000000000000e+00,5.000000000000000000e+00,5.000000000000000000e+00,5.000000000000000000e+00,5.000000000000000000e+00,5.000000000000000000e+00,5.000000000000000000e+00,5.000000000000000000e+00,5.000000000000000000e+00,5.000000000000000000e+00,5.000000000000000000e+00,5.000000000000000000e+00,5.000000000000000000e+00,5.000000000000000000e+00,5.000000000000000000e+00,5.000000000000000000e+00,5.000000000000000000e+00,5.000000000000000000e+00,5.000000000000000000e+00,5.000000000000000000e+00,5.000000000000000000e+00,5.000000000000000000e+00,5.000000000000000000e+00,4.851062297821044922e+00,4.661018371582031250e+00,4.485303878784179688e+00,4.322356224060058594e+00,4.170833110809326172e+00,4.029573440551757812e+00,3.897569417953491211e+00,3.773939132690429688e+00,1.175487041473388672e+00,1.151548862457275391e+00,1.142916798591613770e+00,1.142064690589904785e+00,1.159815549850463867e+00,1.137016534805297852e+00,1.120284914970397949e+00,1.116535186767578125e+00,1.113644957542419434e+00,1.110795259475708008e+00,1.107960224151611328e+00,1.135319352149963379e+00,1.176769137382507324e+00,1.158672094345092773e+00,1.140865206718444824e+00,1.129290223121643066e+00,1.127611160278320312e+00,1.124873280525207520e+00,1.122148633003234863e+00,1.177143216133117676e+00,1.233146548271179199e+00,1.242435336112976074e+00,2.182028532028198242e+00,2.142731189727783203e+00,2.104824304580688477e+00,2.068235158920288086e+00,2.032896518707275391e+00,1.998745203018188477e+00,1.965722322463989258e+00,1.933772683143615723e+00,1.902845263481140137e+00,1.872891306877136230e+00,1.843866109848022461e+00
5.000000000000000000e+00,5.000000000000000000e+00,5.000000000000000000e+00,5.000000000000000000e+00,5.000000000000000000e+00,5.000000000000000000e+00,5.000000000000000000e+00,5.000000000000000000e+00,5.000000000000000000e+00,5.000000000000000000e+00,5.000000000000000000e+00,5.000000000000000000e+00,5.000000000000000000e+00,5.000000000000000000e+00,5.000000000000000000e+00,5.000000000000000000e+00,5.000000000000000000e+00,5.000000000000000000e+00,5.000000000000000000e+00,5.000000000000000000e+00,5.000000000000000000e+00,5.000000000000000000e+00,5.000000000000000000e+00,5.000000000000000000e+00,5.000000000000000000e+00,5.000000000000000000e+00,5.000000000000000000e+00,5.000000000000000000e+00,5.000000000000000000e+00,5.000000000000000000e+00,5.000000000000000000e+00,5.000000000000000000e+00,5.000000000000000000e+00,5.000000000000000000e+00,5.000000000000000000e+00,5.000000000000000000e+00,5.000000000000000000e+00,5.000000000000000000e+00,5.000000000000000000e+00,4.851201057434082031e+00,4.661146640777587891e+00,4.485422611236572266e+00,4.322466373443603516e+00,4.170935630798339844e+00,4.029669284820556641e+00,3.897659063339233398e+00,3.774023056030273438e+00,1.168655395507812500e+00,1.140588641166687012e+00,1.129339814186096191e+00,1.134279727935791016e+00,1.132532119750976562e+00,1.142531394958496094e+00,1.121122360229492188e+00,1.117367029190063477e+00,1.113769650459289551e+00,1.110919356346130371e+00,1.108083724975585938e+00,1.134000658988952637e+00,1.177256226539611816e+00,1.158888578414916992e+00,1.141020536422729492e+00,1.124456644058227539e+00,1.123225331306457520e+00,1.121824264526367188e+00,1.119114398956298828e+00,1.149791479110717773e+00,1.223147988319396973e+00,1.241086602210998535e+00,1.232103705406188965e+00,2.142758369445800781e+00,2.104850292205810547e+00,2.068260431289672852e+00,2.032920837402343750e+00,1.998768806457519531e+00,1.965745210647583008e+00,1.933794856071472168e+00,1.902866601943969727e+00,1.872912049293518066e+00,1.843886256217956543e+00
3.597926616668701172e+00,5.000000000000000000e+00,5.000000000000000000e+00,5.000000000000000000e+00,5.000000000000000000e+00,5.000000000000000000e+00,5.000000000000000000e+00,5.000000000000000000e+00,5.000000000000000000e+00,5.000000000000000000e+00,5.000000000000000000e+00,5.000000000000000000e+00,5.000000000000000000e+00,5.000000000000000000e+00,5.000000000000000000e+00,5.000000000000000000e+00,5.000000000000000000e+00,5.000000000000000000e+00,5.000000000000000000e+00,5.000000000000000000e+00,5.000000000000000000e+00,5.000000000000000000e+00,5.000000000000000000e+00,5.000000000000000000e+00,5.000000000000000000e+00,5.000000000000000000e+00,5.000000000000000000e+00,5.000000000000000000e+00,5.000000000000000000e+00,5.000000000000000000e+00,5.000000000000000000e+00,5.000000000000000000e+00,5.000000000000000000e+00,5.000000000000000000e+00,5.000000000000000000e+00,5.000000000000000000e+00,5.000000000000000000e+00,5.000000000000000000e+00,5.000000000000000000e+00,4.851339817047119141e+00,4.661274909973144531e+00,4.485541343688964844e+00,4.322576522827148438e+00,4.171038150787353516e+00,4.029765129089355469e+00,3.897748708724975586e+00,3.774107217788696289e+00,1.160774946212768555e+00,1.135109901428222656e+00,1.120627164840698242e+00,1.147812843322753906e+00,1.120850205421447754e+00,1.148086309432983398e+00,1.123652696609497070e+00,1.118200063705444336e+00,1.114464163780212402e+00,1.111043572425842285e+00,1.108207225799560547e+00,1.132257461547851562e+00,1.177479743957519531e+00,1.159105181694030762e+00,1.141175746917724609e+00,1.123680830001831055e+00,1.118443489074707031e+00,1.117225289344787598e+00,1.116009712219238281e+00,1.125086188316345215e+00,1.221439838409423828e+00,1.216354250907897949e+00,1.221682429313659668e+00,2.142785549163818359e+00,2.104876518249511719e+00,2.068285703659057617e+00,2.032945394515991211e+00,1.998792409896850586e+00,1.965767979621887207e+00,1.933816909790039062e+00,1.902887940406799316e+00,1.872932791709899902e+00,1.843906283378601074e+00
3.583221673965454102e+00,3.620995044708251953e+00,5.000000000000000000e+00,5.000000000000000000e+00,5.000000000000000000e+00,5.000000000000000000e+00,5.000000000000000000e+00,5.000000000000000000e+00,5.000000000000000000e+00,5.000000000000000000e+00,5.000000000000000000e+00,5.000000000000000000e+00,5.000000000000000000e+00,5.000000000000000000e+00,5.000000000000000000e+00,5.000000000000000000e+00,5.000000000000000000e+00,5.000000000000000000e+00,5.000000000000000000e+00,5.000000000000000000e+00,5.000000000000000000e+00,5.000000000000000000e+00,5.000000000000000000e+00,5.000000000000000000e+00,5.000000000000000000e+00,5.000000000000000000e+00,5.000000000000000000e+00,5.000000000000000000e+00,5.000000000000000000e+00,5.000000000000000000e+00,5.000000000000000000e+00,5.000000000000000000e+00,5.000000000000000000e+00,5.000000000000000000e+00,5.000000000000000000e+00,5.000000000000000000e+00,5.000000000000000000e+00,5.000000000000000000e+00,5.000000000000000000e+00,4.851478576660156250e+00,4.661403179168701172e+00,4.485660076141357422e+00,4.322686672210693359e+00,4.171140670776367188e+00,4.029860973358154297e+00,3.897838354110717773e+00,3.774191141128540039e+00,1.158027172088623047e+00,1.136300802230834961e+00,1.111235141754150391e+00,1.220823764801025391e+00,1.116988062858581543e+00,1.153695344924926758e+00,1.129025101661682129e+00,1.119034290313720703e+00,1.115292787551879883e+00,1.111576318740844727e+00,1.108330726623535156e+00,1.129193782806396484e+00,1.178589701652526855e+00,1.159321904182434082e+00,1.141331195831298828e+00,1.123831391334533691e+00,1.113702058792114258e+00,1.112494230270385742e+00,1.111289024353027344e+00,1.110242843627929688e+00,1.310192465782165527e+00,1.277546525001525879e+00,1.220005393028259277e+00,1.208828806877136230e+00,2.104902744293212891e+00,2.068310976028442383e+00,2.032969713211059570e+00,1.998816013336181641e+00,1.965790748596191406e+00,1.933838963508605957e+00,1.902909278869628906e+00,1.872953414916992188e+00,1.843926310539245605e+00
3.594419956207275391e+00,3.629241943359375000e+00,5.000000000000000000e+00,5.000000000000000000e+00,5.000000000000000000e+00,5.000000000000000000e+00,5.000000000000000000e+00,5.000000000000000000e+00,5.000000000000000000e+00,5.000000000000000000e+00,5.000000000000000000e+00,5.000000000000000000e+00,5.000000000000000000e+00,5.000000000000000000e+00,5.000000000000000000e+00,5.000000000000000000e+00,5.000000000000000000e+00,5.000000000000000000e+00,5.000000000000000000e+00,5.000000000000000000e+00,5.000000000000000000e+00,5.000000000000000000e+00,5.000000000000000000e+00,5.000000000000000000e+00,5.000000000000000000e+00,5.000000000000000000e+00,5.000000000000000000e+00,5.000000000000000000e+00,5.000000000000000000e+00,5.000000000000000000e+00,5.000000000000000000e+00,5.000000000000000000e+00,5.000000000000000000e+00,5.000000000000000000e+00,5.000000000000000000e+00,5.000000000000000000e+00,5.000000000000000000e+00,5.000000000000000000e+00,5.000000000000000000e+00,4.851617813110351562e+00,4.661531448364257812e+00,4.485778808593750000e+00,4.322796821594238281e+00,4.171243667602539062e+00,4.029956817626953125e+00,3.897927999496459961e+00,3.774275302886962891e+00,1.157316565513610840e+00,1.128798484802246094e+00,1.103582859039306641e+00,1.229941368103027344e+00,1.190476059913635254e+00,1.159359574317932129e+00,1.134449005126953125e+00,1.119869828224182129e+00,1.116122722625732422e+00,1.112400770187377930e+00,1.108703494071960449e+00,1.126146554946899414e+00,1.181844711303710938e+00,1.159538626670837402e+00,1.141486525535583496e+00,1.123982071876525879e+00,1.109377980232238770e+00,1.108679771423339844e+00,1.107841134071350098e+00,1.107003688812255859e+00,2.265233278274536133e+00,1.299552917480468750e+00,1.247023820877075195e+00,1.199148058891296387e+00,2.104928731918334961e+00,2.068336248397827148e+00,2.032994031906127930e+00,1.998839259147644043e+00,1.965813636779785156e+00,1.933861017227172852e+00,1.902930736541748047e+00,1.872974157333374023e+00,1.843946456909179688e+00
3.610735177993774414e+00,3.647166252136230469e+00,5.000000000000000000e+00,5.000000000000000000e+00,5.000000000000000000e+00,5.000000000000000000e+00,5.000000000000000000e+00,5.000000000000000000e+00,5.000000000000000000e+00,5.000000000000000000e+00,5.000000000000000000e+00,5.000000000000000000e+00,5.000000000000000000e+00,5.000000000000000000e+00,5.000000000000000000e+00,5.000000000000000000e+00,5.000000000000000000e+00,5.000000000000000000e+00,5.000000000000000000e+00,5.000000000000000000e+00,5.000000000000000000e+00,5.000000000000000000e+00,5.000000000000000000e+00,5.000000000000000000e+00,5.000000000000000000e+00,5.000000000000000000e+00,5.000000000000000000e+00,5.000000000000000000e+00,5.000000000000000000e+00,5.000000000000000000e+00,5.000000000000000000e+00,5.000000000000000000e+00,5.000000000000000000e+00,5.000000000000000000e+00,5.000000000000000000e+00,5.000000000000000000e+00,5.000000000000000000e+00,5.000000000000000000e+00,5.000000000000000000e+00,4.851756572723388672e+00,4.661659717559814453e+00,4.485897064208984375e+00,4.322906970977783203e+00,4.171346187591552734e+00,4.030052661895751953e+00,3.898017644882202148e+00,3.774359226226806641e+00,1.152228474617004395e+00,1.121885180473327637e+00,1.097812771797180176e+00,3.349349260330200195e+00,1.199267864227294922e+00,1.165079593658447266e+00,1.140207052230834961e+00,1.119436502456665039e+00,1.115177273750305176e+00,1.111379742622375488e+00,1.107607960700988770e+00,1.123295903205871582e+00,1.152144789695739746e+00,1.159705162048339844e+00,1.141292214393615723e+00,1.122928619384765625e+00,1.107277393341064453e+00,1.105449676513671875e+00,1.104615807533264160e+00,1.103783249855041504e+00,1.141081094741821289e+00,1.302275896072387695e+00,1.268010377883911133e+00,1.227258324623107910e+00,2.104954957962036133e+00,2.068361282348632812e+00,2.033018350601196289e+00,1.998862862586975098e+00,1.965836405754089355e+00,1.933883070945739746e+00,1.902952075004577637e+00,1.872994899749755859e+00,1.843966484069824219e+00
3.663815021514892578e+00,3.642960309982299805e+00,3.716983795166015625e+00,5.000000000000000000e+00,5.000000000000000000e+00,5.000000000000000000e+00,5.000000000000000000e+00,5.000000000000000000e+00,5.000000000000000000e+00,5.000000000000000000e+00,5.000000000000000000e+00,5.000000000000000000e+00,5.000000000000000000e+00,5.000000000000000000e+00,5.000000000000000000e+00,5.000000000000000000e+00,5.000000000000000000e+00,5.000000000000000000e+00,5.000000000000000000e+00,5.000000000000000000e+00,5.000000000000000000e+00,5.000000000000000000e+00,5.000000000000000000e+00,5.000000000000000000e+00,5.000000000000000000e+00,5.000000000000000000e+00,5.000000000000000000e+00,5.000000000000000000e+00,5.000000000000000000e+00,5.000000000000000000e+00,5.000000000000000000e+00,5.000000000000000000e+00,5.000000000000000000e+00,5.000000000000000000e+00,5.000000000000000000e+00,5.000000000000000000e+00,5.000000000000000000e+00,5.000000000000000000e+00,5.000000000000000000e+00,4.851895332336425781e+00,4.661787986755371094e+00,4.486015796661376953e+00,4.323017597198486328e+00,4.171448707580566406e+00,4.030148506164550781e+00,3.898107290267944336e+00,3.774443387985229492e+00,1.146062612533569336e+00,1.114472270011901855e+00,3.446438550949096680e+00,3.349415540695190430e+00,1.208065152168273926e+00,1.171413183212280273e+00,1.146395444869995117e+00,1.121417999267578125e+00,1.113918781280517578e+00,1.110129714012145996e+00,1.106366395950317383e+00,1.120597243309020996e+00,1.147485733032226562e+00,1.158894300460815430e+00,1.139964699745178223e+00,1.121643543243408203e+00,1.106831073760986328e+00,1.099775671958923340e+00,1.101409435272216797e+00,1.100581645965576172e+00,1.099755167961120605e+00,2.222969293594360352e+00,2.182197093963623047e+00,2.142893791198730469e+00,2.104981184005737305e+00,2.068386554718017578e+00,2.033042907714843750e+00,1.998886466026306152e+00,1.965859174728393555e+00,1.933905124664306641e+00,1.902973413467407227e+00,1.873015522956848145e+00,1.843986511230468750e+00
3.595376729965209961e+00,3.631577730178833008e+00,3.671972990036010742e+00,3.723709821701049805e+00,3.766232252120971680e+00,5.000000000000000000e+00,5.000000000000000000e+00,5.000000000000000000e+00,5.000000000000000000e+00,5.000000000000000000e+00,5.000000000000000000e+00,5.000000000000000000e+00,5.000000000000000000e+00,5.000000000000000000e+00,5.000000000000000000e+00,5.000000000000000000e+00,5.000000000000000000e+00,5.000000000000000000e+00,5.000000000000000000e+00,5.000000000000000000e+00,5.000000000000000000e+00,5.000000000000000000e+00,5.000000000000000000e+00,5.000000000000000000e+00,5.000000000000000000e+00,5.000000000000000000e+00,5.000000000000000000e+00,5.000000000000000000e+00,5.000000000000000000e+00,5.000000000000000000e+00,5.000000000000000000e+00,5.000000000000000000e+00,5.000000000000000000e+00,5.000000000000000000e+00,5.000000000000000000e+00,5.000000000000000000e+00,5.000000000000000000e+00,5.000000000000000000e+00,5.000000000000000000e+00,4.852034568786621094e+00,4.661915779113769531e+00,4.486134529113769531e+00,4.323127746582031250e+00,4.171551704406738281e+00,4.030244350433349609e+00,3.898196935653686523e+00,3.774527311325073242e+00,1.139037370681762695e+00,1.111489534378051758e+00,3.446508646011352539e+00,3.349481821060180664e+00,1.218287467956542969e+00,1.181169033050537109e+00,1.152651309967041016e+00,1.127527475357055664e+00,1.114482283592224121e+00,1.108882546424865723e+00,1.105127573013305664e+00,1.117911815643310547e+00,1.142607092857360840e+00,1.161478281021118164e+00,1.138640284538269043e+00,1.120361328125000000e+00,1.106384992599487305e+00,1.093940019607543945e+00,1.096135497093200684e+00,1.097398519515991211e+00,1.096576809883117676e+00,2.222998380661010742e+00,2.182225227355957031e+00,2.142920970916748047e+00,2.105007171630859375e+00,2.068411827087402344e+00,2.033067226409912109e+00,1.998910069465637207e+00,1.965882062911987305e+00,1.933927178382873535e+00,1.902994751930236816e+00,1.873036265373229980e+00,1.844006657600402832e+00
3.574635505676269531e+00,3.606325149536132812e+00,3.646117925643920898e+00,3.717199087142944336e+00,3.785923957824707031e+00,3.849960327148437500e+00,5.000000000000000000e+00,5.000000000000000000e+00,5.000000000000000000e+00,5.000000000000000000e+00,5.000000000000000000e+00,5.000000000000000000e+00,5.000000000000000000e+00,5.000000000000000000e+00,5.000000000000000000e+00,5.000000000000000000e+00,5.000000000000000000e+00,5.000000000000000000e+00,5.000000000000000000e+00,5.000000000000000000e+00,5.000000000000000000e+00,5.000000000000000000e+00,5.000000000000000000e+00,5.000000000000000000e+00,5.000000000000000000e+00,5.000000000000000000e+00,5.000000000000000000e+00,5.000000000000000000e+00,5.000000000000000000e+00,5.000000000000000000e+00,5.000000000000000000e+00,5.000000000000000000e+00,5.000000000000000000e+00,5.000000000000000000e+00,5.000000000000000000e+00,5.000000000000000000e+00,5.000000000000000000e+00,5.000000000000000000e+00,5.000000000000000000e+00,4.852173328399658203e+00,4.662044048309326172e+00,4.486253261566162109e+00,4.323237895965576172e+00,4.171654224395751953e+00,4.030340194702148438e+00,3.898286581039428711e+00,3.774611473083496094e+00,3.658542871475219727e+00,3.549399137496948242e+00,3.446578741073608398e+00,3.349547863006591797e+00,3.257830858230590820e+00,1.191145539283752441e+00,1.158975839614868164e+00,1.133704066276550293e+00,1.116271972656250000e+00,1.107803344726562500e+00,1.103891611099243164e+00,1.115239024162292480e+00,1.137769699096679688e+00,1.166696071624755859e+00,1.137319087982177734e+00,1.119082093238830566e+00,1.105939388275146484e+00,1.093420028686523438e+00,1.090338230133056641e+00,1.092519283294677734e+00,1.093416810035705566e+00,2.223027706146240234e+00,2.182253360748291016e+00,2.142948150634765625e+00,2.105033397674560547e+00,2.068437099456787109e+00,2.033091545104980469e+00,1.998933672904968262e+00,1.965904831886291504e+00,1.933949232101440430e+00,1.903016209602355957e+00,1.873057007789611816e+00,1.844026684761047363e+00
3.567893743515014648e+00,3.599425554275512695e+00,3.653639316558837891e+00,3.722239732742309570e+00,3.792747259140014648e+00,5.000000000000000000e+00,5.000000000000000000e+00,5.000000000000000000e+00,5.000000000000000000e+00,5.000000000000000000e+00,5.000000000000000000e+00,5.000000000000000000e+00,5.000000000000000000e+00,5.000000000000000000e+00,5.000000000000000000e+00,5.000000000000000000e+00,5.000000000000000000e+00,5.000000000000000000e+00,5.000000000000000000e+00,5.000000000000000000e+00,5.000000000000000000e+00,5.000000000000000000e+00,5.000000000000000000e+00,5.000000000000000000e+00,5.000000000000000000e+00,5.000000000000000000e+00,5.000000000000000000e+00,5.000000000000000000e+00,5.000000000000000000e+00,5.000000000000000000e+00,5.000000000000000000e+00,5.000000000000000000e+00,5.000000000000000000e+00,5.000000000000000000e+00,5.000000000000000000e+00,5.000000000000000000e+00,5.000000000000000000e+00,5.000000000000000000e+00,5.000000000000000000e+00,4.852312088012695312e+00,4.662172317504882812e+00,4.486372470855712891e+00,4.323348522186279297e+00,4.171756744384765625e+00,4.030436038970947266e+00,3.898376226425170898e+00,3.774695634841918945e+00,3.658621549606323242e+00,3.549473524093627930e+00,3.446648836135864258e+00,3.349614143371582031e+00,3.257893562316894531e+00,1.200113534927368164e+00,1.165370225906372070e+00,1.139948606491088867e+00,1.118067383766174316e+00,1.109571695327758789e+00,1.102658390998840332e+00,1.112578988075256348e+00,1.132973074913024902e+00,1.173919081687927246e+00,1.137088060379028320e+00,1.118293166160583496e+00,1.105494141578674316e+00,1.092984795570373535e+00,1.084601998329162598e+00,1.086760044097900391e+00,1.088926792144775391e+00,2.223056793212890625e+00,2.182281494140625000e+00,2.142975091934204102e+00,2.105059623718261719e+00,2.068462133407592773e+00,2.033116102218627930e+00,1.998957157135009766e+00,1.965927600860595703e+00,1.933971405029296875e+00,1.903037548065185547e+00,1.873077630996704102e+00,1.844046473503112793e+00
3.566979169845581055e+00,3.598218441009521484e+00,3.647522211074829102e+00,3.755074739456176758e+00,3.795410633087158203e+00,5.000000000000000000e+00,5.000000000000000000e+00,5.000000000000000000e+00,5.000000000000000000e+00,5.000000000000000000e+00,5.000000000000000000e+00,5.000000000000000000e+00,5.000000000000000000e+00,5.000000000000000000e+00,5.000000000000000000e+00,5.000000000000000000e+00,5.000000000000000000e+00,5.000000000000000000e+00,5.000000000000000000e+00,5.000000000000000000e+00,5.000000000000000000e+00,5.000000000000000000e+00,5.000000000000000000e+00,5.000000000000000000e+00,5.000000000000000000e+00,5.000000000000000000e+00,5.000000000000000000e+00,5.000000000000000000e+00,5.000000000000000000e+00,5.000000000000000000e+00,5.000000000000000000e+00,5.000000000000000000e+00,5.000000000000000000e+00,5.000000000000000000e+00,5.000000000000000000e+00,5.000000000000000000e+00,5.000000000000000000e+00,5.000000000000000000e+00,5.000000000000000000e+00,4.852450847625732422e+00,4.662300586700439453e+00,4.486491203308105469e+00,4.323458671569824219e+00,4.171859741210937500e+00,4.030531883239746094e+00,3.898466110229492188e+00,3.774779558181762695e+00,3.658700466156005859e+00,3.549547672271728516e+00,3.446718931198120117e+00,3.349680423736572266e+00,3.257956027984619141e+00,1.206726312637329102e+00,1.174893617630004883e+00,1.146262288093566895e+00,1.119868636131286621e+00,1.111345648765563965e+00,1.102951407432556152e+00,1.107992291450500488e+00,1.128216862678527832e+00,1.191706895828247070e+00,1.144380927085876465e+00,1.117837905883789062e+00,1.105049252510070801e+00,1.092549920082092285e+00,1.080331563949584961e+00,1.081737279891967773e+00,1.084341168403625488e+00,1.086957454681396484e+00,2.182309627532958984e+00,2.143002271652221680e+00,2.105085611343383789e+00,2.068487405776977539e+00,2.033140420913696289e+00,1.998980760574340820e+00,1.965950369834899902e+00,1.933993458747863770e+00,1.903058886528015137e+00,1.873098373413085938e+00,1.844066619873046875e+00
3.568467617034912109e+00,3.596996307373046875e+00,3.643827438354492188e+00,5.000000000000000000e+00,3.804542779922485352e+00,5.000000000000000000e+00,5.000000000000000000e+00,5.000000000000000000e+00,5.000000000000000000e+00,5.000000000000000000e+00,5.000000000000000000e+00,5.000000000000000000e+00,5.000000000000000000e+00,5.000000000000000000e+00,5.000000000000000000e+00,5.000000000000000000e+00,5.000000000000000000e+00,5.000000000000000000e+00,5.000000000000000000e+00,5.000000000000000000e+00,5.000000000000000000e+00,5.000000000000000000e+00,5.000000000000000000e+00,5.000000000000000000e+00,5.000000000000000000e+00,5.000000000000000000e+00,5.000000000000000000e+00,5.000000000000000000e+00,5.000000000000000000e+00,5.000000000000000000e+00,5.000000000000000000e+00,5.000000000000000000e+00,5.000000000000000000e+00,5.000000000000000000e+00,5.000000000000000000e+00,5.000000000000000000e+00,5.000000000000000000e+00,5.000000000000000000e+00,5.000000000000000000e+00,4.852589607238769531e+00,4.662428855895996094e+00,4.486609935760498047e+00,4.323568820953369141e+00,4.171962261199951172e+00,4.030627727508544922e+00,3.898555755615234375e+00,3.774863719940185547e+00,3.658779382705688477e+00,3.549622058868408203e+00,3.446789026260375977e+00,3.349746465682983398e+00,3.258018732070922852e+00,1.213412284851074219e+00,1.182344675064086914e+00,1.152646303176879883e+00,1.125519156455993652e+00,1.112742543220520020e+00,1.104152441024780273e+00,1.106065750122070312e+00,1.125417590141296387e+00,2.613835096359252930e+00,1.161278486251831055e+00,1.117426037788391113e+00,1.104656338691711426e+00,1.092987179756164551e+00,1.082032442092895508e+00,1.083228230476379395e+00,1.086081624031066895e+00,1.088706493377685547e+00,2.182337760925292969e+00,2.143029212951660156e+00,2.105111837387084961e+00,2.068512678146362305e+00,2.033164739608764648e+00,1.999004364013671875e+00,1.965973258018493652e+00,1.934015512466430664e+00,1.903080224990844727e+00,1.873119115829467773e+00,1.844086647033691406e+00
3.561303853988647461e+00,3.587447404861450195e+00,3.639230966567993164e+00,3.728360176086425781e+00,3.824553251266479492e+00,5.000000000000000000e+00,5.000000000000000000e+00,5.000000000000000000e+00,5.000000000000000000e+00,5.000000000000000000e+00,5.000000000000000000e+00,5.000000000000000000e+00,5.000000000000000000e+00,5.000000000000000000e+00,5.000000000000000000e+00,5.000000000000000000e+00,5.000000000000000000e+00,5.000000000000000000e+00,5.000000000000000000e+00,5.000000000000000000e+00,5.000000000000000000e+00,5.000000000000000000e+00,5.000000000000000000e+00,5.000000000000000000e+00,5.000000000000000000e+00,5.000000000000000000e+00,5.000000000000000000e+00,5.000000000000000000e+00,5.000000000000000000e+00,5.000000000000000000e+00,5.000000000000000000e+00,5.000000000000000000e+00,5.000000000000000000e+00,5.000000000000000000e+00,5.000000000000000000e+00,5.000000000000000000e+00,5.000000000000000000e+00,5.000000000000000000e+00,5.000000000000000000e+00,4.852728843688964844e+00,4.662557125091552734e+00,4.486728668212890625e+00,4.323679447174072266e+00,4.172065258026123047e+00,4.030723571777343750e+00,3.898645401000976562e+00,3.774947881698608398e+00,3.658858537673950195e+00,3.549696445465087891e+00,3.446859121322631836e+00,3.349812746047973633e+00,3.258081436157226562e+00,3.171240091323852539e+00,1.188797950744628906e+00,1.159279346466064453e+00,1.132392525672912598e+00,1.116031646728515625e+00,1.105088114738464355e+00,1.106690883636474609e+00,1.123908281326293945e+00,2.613875389099121094e+00,1.177137136459350586e+00,1.118320465087890625e+00,1.105979561805725098e+00,1.094763994216918945e+00,1.083773732185363770e+00,1.084104895591735840e+00,1.087433218955993652e+00,1.090461134910583496e+00,2.182365894317626953e+00,2.143056392669677734e+00,2.105138063430786133e+00,2.068537950515747070e+00,2.033189296722412109e+00,1.999027967453002930e+00,1.965996026992797852e+00,1.934037566184997559e+00,1.903101682662963867e+00,1.873139739036560059e+00,1.844106674194335938e+00
3.567813873291015625e+00,3.597572565078735352e+00,3.638625621795654297e+00,3.708501577377319336e+00,3.810966014862060547e+00,3.871638774871826172e+00,5.000000000000000000e+00,5.000000000000000000e+00,5.000000000000000000e+00,5.000000000000000000e+00,5.000000000000000000e+00,5.000000000000000000e+00,5.000000000000000000e+00,5.000000000000000000e+00,5.000000000000000000e+00,5.000000000000000000e+00,5.000000000000000000e+00,5.000000000000000000e+00,5.000000000000000000e+00,5.000000000000000000e+00,5.000000000000000000e+00,5.000000000000000000e+00,5.000000000000000000e+00,5.000000000000000000e+00,5.000000000000000000e+00,5.000000000000000000e+00,5.000000000000000000e+00,5.000000000000000000e+00,5.000000000000000000e+00,5.000000000000000000e+00,5.000000000000000000e+00,5.000000000000000000e+00,5.000000000000000000e+00,5.000000000000000000e+00,5.000000000000000000e+00,5.000000000000000000e+00,5.000000000000000000e+00,5.000000000000000000e+00,5.000000000000000000e+00,4.852867603302001953e+00,4.662685394287109375e+00,4.486847400665283203e+00,4.323789596557617188e+00,4.172167778015136719e+00,4.030819416046142578e+00,3.898734569549560547e+00,3.775031805038452148e+00,3.658937454223632812e+00,3.549770832061767578e+00,3.446929216384887695e+00,3.349879026412963867e+00,3.258143901824951172e+00,3.171299457550048828e+00,1.196941256523132324e+00,1.166553139686584473e+00,1.137422561645507812e+00,1.120750665664672852e+00,1.109801292419433594e+00,1.114100456237792969e+00,1.132192015647888184e+00,2.613915681838989258e+00,1.166199564933776855e+00,1.125931262969970703e+00,1.112941622734069824e+00,1.100149512290954590e+00,1.087750792503356934e+00,1.090141654014587402e+00,1.093278288841247559e+00,2.223173379898071289e+00,2.182394027709960938e+00,2.143083333969116211e+00,2.105164289474487305e+00,2.068563222885131836e+00,2.033213615417480469e+00,1.999051451683044434e+00,1.966018795967102051e+00,1.934059619903564453e+00,1.903123021125793457e+00,1.873160481452941895e+00,1.844126820564270020e+00
3.591748952865600586e+00,3.620965719223022461e+00,3.626970529556274414e+00,3.680846214294433594e+00,3.809372186660766602e+00,3.857452869415283203e+00,5.000000000000000000e+00,5.000000000000000000e+00,5.000000000000000000e+00,5.000000000000000000e+00,5.000000000000000000e+00,5.000000000000000000e+00,5.000000000000000000e+00,5.000000000000000000e+00,5.000000000000000000e+00,5.000000000000000000e+00,5.000000000000000000e+00,5.000000000000000000e+00,5.000000000000000000e+00,5.000000000000000000e+00,5.000000000000000000e+00,5.000000000000000000e+00,5.000000000000000000e+00,5.000000000000000000e+00,5.000000000000000000e+00,5.000000000000000000e+00,5.000000000000000000e+00,5.000000000000000000e+00,5.000000000000000000e+00,5.000000000000000000e+00,5.000000000000000000e+00,5.000000000000000000e+00,5.000000000000000000e+00,5.000000000000000000e+00,5.000000000000000000e+00,5.000000000000000000e+00,5.000000000000000000e+00,5.000000000000000000e+00,5.000000000000000000e+00,4.853006839752197266e+00,4.662813663482666016e+00,4.486966133117675781e+00,4.323899745941162109e+00,4.172270298004150391e+00,4.030915260314941406e+00,3.898824214935302734e+00,3.775115966796875000e+00,3.659016370773315430e+00,3.549845218658447266e+00,3.446999311447143555e+00,3.349945306777954102e+00,3.258206605911254883e+00,3.171358585357666016e+00,1.197108626365661621e+00,1.164257645606994629e+00,1.142387628555297852e+00,1.127927422523498535e+00,1.115725755691528320e+00,1.126751542091369629e+00,1.146188974380493164e+00,1.199825525283813477e+00,1.154878735542297363e+00,1.137483000755310059e+00,1.120603442192077637e+00,1.105015039443969727e+00,1.098384022712707520e+00,1.100600957870483398e+00,1.103158235549926758e+00,2.223202466964721680e+00,2.182421922683715820e+00,2.143110513687133789e+00,2.105190277099609375e+00,2.068588495254516602e+00,2.033237934112548828e+00,1.999075055122375488e+00,1.966041684150695801e+00,1.934081673622131348e+00,1.903144359588623047e+00,1.873181223869323730e+00,1.844146847724914551e+00
3.573174953460693359e+00,3.587728977203369141e+00,3.597475767135620117e+00,3.656546592712402344e+00,3.823926448822021484e+00,3.836087465286254883e+00,5.000000000000000000e+00,5.000000000000000000e+00,5.000000000000000000e+00,5.000000000000000000e+00,5.000000000000000000e+00,5.000000000000000000e+00,5.000000000000000000e+00,5.000000000000000000e+00,5.000000000000000000e+00,5.000000000000000000e+00,5.000000000000000000e+00,5.000000000000000000e+00,5.000000000000000000e+00,5.000000000000000000e+00,5.000000000000000000e+00,5.000000000000000000e+00,5.000000000000000000e+00,5.000000000000000000e+00,5.000000000000000000e+00,5.000000000000000000e+00,5.000000000000000000e+00,5.000000000000000000e+00,5.000000000000000000e+00,5.000000000000000000e+00,5.000000000000000000e+00,5.000000000000000000e+00,5.000000000000000000e+00,5.000000000000000000e+00,5.000000000000000000e+00,5.000000000000000000e+00,5.000000000000000000e+00,5.000000000000000000e+00,5.000000000000000000e+00,4.853145599365234375e+00,4.662941932678222656e+00,4.487084865570068359e+00,4.324010372161865234e+00,4.172373294830322266e+00,4.031011104583740234e+00,3.898914098739624023e+00,3.775200128555297852e+00,3.659095525741577148e+00,3.549919605255126953e+00,3.447069406509399414e+00,3.350011348724365234e+00,3.258269309997558594e+00,3.171417951583862305e+00,1.195049762725830078e+00,1.166192650794982910e+00,1.146436333656311035e+00,1.137552261352539062e+00,1.125142693519592285e+00,1.142001867294311523e+00,1.231485247611999512e+00,1.188147187232971191e+00,1.169742584228515625e+00,1.151899814605712891e+00,1.132786989212036133e+00,1.118749260902404785e+00,1.117226600646972656e+00,1.117733240127563477e+00,2.265566349029541016e+00,2.223231554031372070e+00,2.182450056076049805e+00,2.143137693405151367e+00,2.105216503143310547e+00,2.068613767623901367e+00,2.033262491226196289e+00,1.999098658561706543e+00,1.966064453125000000e+00,1.934103846549987793e+00,1.903165817260742188e+00,1.873201847076416016e+00,1.844166874885559082e+00
3.572306394577026367e+00,3.578881263732910156e+00,3.588515520095825195e+00,3.647401332855224609e+00,3.781093358993530273e+00,3.828116655349731445e+00,5.000000000000000000e+00,5.000000000000000000e+00,5.000000000000000000e+00,5.000000000000000000e+00,5.000000000000000000e+00,5.000000000000000000e+00,5.000000000000000000e+00,5.000000000000000000e+00,5.000000000000000000e+00,5.000000000000000000e+00,5.000000000000000000e+00,5.000000000000000000e+00,5.000000000000000000e+00,5.000000000000000000e+00,5.000000000000000000e+00,5.000000000000000000e+00,5.000000000000000000e+00,5.000000000000000000e+00,5.000000000000000000e+00,5.000000000000000000e+00,5.000000000000000000e+00,5.000000000000000000e+00,5.000000000000000000e+00,5.000000000000000000e+00,5.000000000000000000e+00,5.000000000000000000e+00,5.000000000000000000e+00,5.000000000000000000e+00,5.000000000000000000e+00,5.000000000000000000e+00,5.000000000000000000e+00,5.000000000000000000e+00,5.000000000000000000e+00,4.853284358978271484e+00,4.663070201873779297e+00,4.487203598022460938e+00,4.324120521545410156e+00,4.172475814819335938e+00,4.031106948852539062e+00,3.899003744125366211e+00,3.775284290313720703e+00,3.659174442291259766e+00,3.549993991851806641e+00,3.447139501571655273e+00,3.350077629089355469e+00,3.258332014083862305e+00,1.235706090927124023e+00,1.192190289497375488e+00,1.168015480041503906e+00,1.154320240020751953e+00,1.147342801094055176e+00,1.137845158576965332e+00,1.158248305320739746e+00,1.223389267921447754e+00,1.201408743858337402e+00,1.180102944374084473e+00,1.159539580345153809e+00,1.148616790771484375e+00,1.140886306762695312e+00,1.141414642333984375e+00,2.309576272964477539e+00,2.265596628189086914e+00,2.223260879516601562e+00,2.182478189468383789e+00,2.143164634704589844e+00,2.105242729187011719e+00,2.068639039993286133e+00,2.033286809921264648e+00,1.999122262001037598e+00,1.966086983680725098e+00,1.934125900268554688e+00,1.903187155723571777e+00,1.873222589492797852e+00,1.844187021255493164e+00
3.570459365844726562e+00,3.569450616836547852e+00,3.582474708557128906e+00,3.643207788467407227e+00,3.766933917999267578e+00,3.817914485931396484e+00,5.000000000000000000e+00,5.000000000000000000e+00,5.000000000000000000e+00,5.000000000000000000e+00,5.000000000000000000e+00,5.000000000000000000e+00,5.000000000000000000e+00,5.000000000000000000e+00,5.000000000000000000e+00,5.000000000000000000e+00,5.000000000000000000e+00,5.000000000000000000e+00,5.000000000000000000e+00,5.000000000000000000e+00,5.000000000000000000e+00,5.000000000000000000e+00,5.000000000000000000e+00,5.000000000000000000e+00,5.000000000000000000e+00,5.000000000000000000e+00,5.000000000000000000e+00,5.000000000000000000e+00,5.000000000000000000e+00,5.000000000000000000e+00,5.000000000000000000e+00,5.000000000000000000e+00,5.000000000000000000e+00,5.000000000000000000e+00,5.000000000000000000e+00,5.000000000000000000e+00,5.000000000000000000e+00,5.000000000000000000e+00,5.000000000000000000e+00,4.853423595428466797e+00,4.663198471069335938e+00,4.487322807312011719e+00,4.324230670928955078e+00,4.172578334808349609e+00,4.031202793121337891e+00,3.899093389511108398e+00,3.775368213653564453e+00,3.659253358840942383e+00,3.550068378448486328e+00,3.447209596633911133e+00,3.350143909454345703e+00,3.258394479751586914e+00,1.228901743888854980e+00,1.192432641983032227e+00,1.173818945884704590e+00,1.162579417228698730e+00,1.157303452491760254e+00,1.153399348258972168e+00,1.258128404617309570e+00,1.230336189270019531e+00,1.209165811538696289e+00,1.189871072769165039e+00,1.180122852325439453e+00,1.170533061027526855e+00,1.166121244430541992e+00,2.355329751968383789e+00,2.309607744216918945e+00,2.265626907348632812e+00,2.223289966583251953e+00,2.182506322860717773e+00,2.143191814422607422e+00,2.105268716812133789e+00,2.068664312362670898e+00,2.033311128616333008e+00,1.999145865440368652e+00,1.966109871864318848e+00,1.934147953987121582e+00,1.903208494186401367e+00,1.873243331909179688e+00,1.844207048416137695e+00
3.564368724822998047e+00,3.559299707412719727e+00,3.575147151947021484e+00,3.665874481201171875e+00,5.000000000000000000e+00,5.000000000000000000e+00,5.000000000000000000e+00,5.000000000000000000e+00,5.000000000000000000e+00,5.000000000000000000e+00,5.000000000000000000e+00,5.000000000000000000e+00,5.000000000000000000e+00,5.000000000000000000e+00,5.000000000000000000e+00,5.000000000000000000e+00,5.000000000000000000e+00,5.000000000000000000e+00,5.000000000000000000e+00,5.000000000000000000e+00,5.000000000000000000e+00,5.000000000000000000e+00,5.000000000000000000e+00,5.000000000000000000e+00,5.000000000000000000e+00,5.000000000000000000e+00,5.000000000000000000e+00,5.000000000000000000e+00,5.000000000000000000e+00,5.000000000000000000e+00,5.000000000000000000e+00,5.000000000000000000e+00,5.000000000000000000e+00,5.000000000000000000e+00,5.000000000000000000e+00,5.000000000000000000e+00,5.000000000000000000e+00,5.000000000000000000e+00,5.000000000000000000e+00,4.853562355041503906e+00,4.663326740264892578e+00,4.487441539764404297e+00,4.324340820312500000e+00,4.172681331634521484e+00,4.031298637390136719e+00,3.899183034896850586e+00,3.775452375411987305e+00,3.659332513809204102e+00,3.550142765045166016e+00,3.447279691696166992e+00,3.350209712982177734e+00,3.258457183837890625e+00,1.222374677658081055e+00,1.196451425552368164e+00,1.179680466651916504e+00,1.170957565307617188e+00,1.166073203086853027e+00,1.173307418823242188e+00,1.258091092109680176e+00,1.236165046691894531e+00,1.215372323989868164e+00,1.209718227386474609e+00,1.203269958496093750e+00,1.193302035331726074e+00,2.402932643890380859e+00,2.355362415313720703e+00,2.309638977050781250e+00,2.265657186508178711e+00,2.223319053649902344e+00,2.182534456253051758e+00,2.143218994140625000e+00,2.105294942855834961e+00,2.068689584732055664e+00,2.033335447311401367e+00,1.999169468879699707e+00,1.966132640838623047e+00,1.934170007705688477e+00,1.903229832649230957e+00,1.873263955116271973e+00,1.844227194786071777e+00
5.000000000000000000e+00,3.547410726547241211e+00,3.567382812500000000e+00,5.000000000000000000e+00,5.000000000000000000e+00,5.000000000000000000e+00,5.000000000000000000e+00,5.000000000000000000e+00,5.000000000000000000e+00,5.000000000000000000e+00,5.000000000000000000e+00,5.000000000000000000e+00,5.000000000000000000e+00,5.000000000000000000e+00,5.000000000000000000e+00,5.000000000000000000e+00,5.000000000000000000e+00,5.000000000000000000e+00,5.000000000000000000e+00,5.000000000000000000e+00,5.000000000000000000e+00,5.000000000000000000e+00,5.000000000000000000e+00,5.000000000000000000e+00,5.000000000000000000e+00,5.000000000000000000e+00,5.000000000000000000e+00,5.000000000000000000e+00,5.000000000000000000e+00,5.000000000000000000e+00,5.000000000000000000e+00,5.000000000000000000e+00,5.000000000000000000e+00,5.000000000000000000e+00,5.000000000000000000e+00,5.000000000000000000e+00,5.000000000000000000e+00,5.000000000000000000e+00,5.000000000000000000e+00,4.853701591491699219e+00,4.663455009460449219e+00,4.487560272216796875e+00,4.324451446533203125e+00,4.172783851623535156e+00,4.031394481658935547e+00,3.899272918701171875e+00,3.775536537170410156e+00,3.659411430358886719e+00,3.550216913223266602e+00,3.447349786758422852e+00,3.350275993347167969e+00,3.258519887924194336e+00,1.219973564147949219e+00,1.202541589736938477e+00,1.185600757598876953e+00,1.179457426071166992e+00,1.174422502517700195e+00,1.199148535728454590e+00,1.264186501502990723e+00,1.242540359497070312e+00,1.229891896247863770e+00,1.224416136741638184e+00,1.218441843986511230e+00,2.452499389648437500e+00,2.402966737747192383e+00,2.355395317077636719e+00,2.309670448303222656e+00,2.265687465667724609e+00,2.223348379135131836e+00,2.182562589645385742e+00,2.143245935440063477e+00,2.105321168899536133e+00,2.068714618682861328e+00,2.033360004425048828e+00,1.999192953109741211e+00,1.966155529022216797e+00,1.934192061424255371e+00,1.903251290321350098e+00,1.873284697532653809e+00,1.844247221946716309e+00
5.000000000000000000e+00,3.547503232955932617e+00,3.565016508102416992e+00,5.000000000000000000e+00,5.000000000000000000e+00,5.000000000000000000e+00,5.000000000000000000e+00,5.000000000000000000e+00,5.000000000000000000e+00,5.000000000000000000e+00,5.000000000000000000e+00,5.000000000000000000e+00,5.000000000000000000e+00,5.000000000000000000e+00,5.000000000000000000e+00,5.000000000000000000e+00,5.000000000000000000e+00,5.000000000000000000e+00,5.000000000000000000e+00,5.000000000000000000e+00,5.000000000000000000e+00,5.000000000000000000e+00,5.000000000000000000e+00,5.000000000000000000e+00,5.000000000000000000e+00,5.000000000000000000e+00,5.000000000000000000e+00,5.000000000000000000e+00,5.000000000000000000e+00,5.000000000000000000e+00,5.000000000000000000e+00,5.000000000000000000e+00,5.000000000000000000e+00,5.000000000000000000e+00,5.000000000000000000e+00,5.000000000000000000e+00,5.000000000000000000e+00,5.000000000000000000e+00,5.000000000000000000e+00,4.853840351104736328e+00,4.663583278656005859e+00,4.487679004669189453e+00,4.324561595916748047e+00,4.172886848449707031e+00,4.031490325927734375e+00,3.899362564086914062e+00,3.775620698928833008e+00,3.659490585327148438e+00,3.550291299819946289e+00,3.447420120239257812e+00,3.350342273712158203e+00,3.258582592010498047e+00,1.225757122039794922e+00,1.208134770393371582e+00,1.191105365753173828e+00,1.183124661445617676e+00,1.178046345710754395e+00,1.204877257347106934e+00,1.270950555801391602e+00,1.249724626541137695e+00,1.245100975036621094e+00,1.239475488662719727e+00,1.233353734016418457e+00,2.452534914016723633e+00,2.403000831604003906e+00,2.355427980422973633e+00,2.309701919555664062e+00,2.265717744827270508e+00,2.223377466201782227e+00,2.182590723037719727e+00,2.143273115158081055e+00,2.105347156524658203e+00,2.068739891052246094e+00,2.033384323120117188e+00,1.999216556549072266e+00,1.966178297996520996e+00,1.934214115142822266e+00,1.903272628784179688e+00,1.873305439949035645e+00,1.844267249107360840e+00
5.000000000000000000e+00,3.575875043869018555e+00,3.590105772018432617e+00,5.000000000000000000e+00,5.000000000000000000e+00,5.000000000000000000e+00,5.000000000000000000e+00,5.000000000000000000e+00,5.000000000000000000e+00,5.000000000000000000e+00,5.000000000000000000e+00,5.000000000000000000e+00,5.000000000000000000e+00,5.000000000000000000e+00,5.000000000000000000e+00,5.000000000000000000e+00,5.000000000000000000e+00,5.000000000000000000e+00,5.000000000000000000e+00,5.000000000000000000e+00,5.000000000000000000e+00,5.000000000000000000e+00,5.000000000000000000e+00,5.000000000000000000e+00,5.000000000000000000e+00,5.000000000000000000e+00,5.000000000000000000e+00,5.000000000000000000e+00,5.000000000000000000e+00,5.000000000000000000e+00,5.000000000000000000e+00,5.000000000000000000e+00,5.000000000000000000e+00,5.000000000000000000e+00,5.000000000000000000e+00,5.000000000000000000e+00,5.000000000000000000e+00,5.000000000000000000e+00,5.000000000000000000e+00,4.853977680206298828e+00,4.663711547851562500e+00,4.487797737121582031e+00,4.324672222137451172e+00,4.172989368438720703e+00,4.031586170196533203e+00,3.899452209472656250e+00,3.775704860687255859e+00,3.659569501876831055e+00,3.550365447998046875e+00,3.447490215301513672e+00,3.350408554077148438e+00,3.258645296096801758e+00,1.233103275299072266e+00,1.213740110397338867e+00,1.196697235107421875e+00,1.186802506446838379e+00,1.181692600250244141e+00,1.210369825363159180e+00,1.278408885002136230e+00,1.265431404113769531e+00,1.260690927505493164e+00,1.254909992218017578e+00,2.504191160202026367e+00,2.452570438385009766e+00,2.403034687042236328e+00,2.355460643768310547e+00,2.309733390808105469e+00,2.265748023986816406e+00,2.223406553268432617e+00,2.182618856430053711e+00,2.143300294876098633e+00,2.105373382568359375e+00,2.068765163421630859e+00,2.033408641815185547e+00,1.999240159988403320e+00,1.966201066970825195e+00,1.934236288070678711e+00,1.903293967247009277e+00,1.873326063156127930e+00,1.844287395477294922e+00
5.000000000000000000e+00,3.603337287902832031e+00,3.625146627426147461e+00,5.000000000000000000e+00,5.000000000000000000e+00,5.000000000000000000e+00,5.000000000000000000e+00,5.000000000000000000e+00,5.000000000000000000e+00,5.000000000000000000e+00,5.000000000000000000e+00,5.000000000000000000e+00,5.000000000000000000e+00,5.000000000000000000e+00,5.000000000000000000e+00,5.000000000000000000e+00,5.000000000000000000e+00,5.000000000000000000e+00,5.000000000000000000e+00,5.000000000000000000e+00,5.000000000000000000e+00,5.000000000000000000e+00,5.000000000000000000e+00,5.000000000000000000e+00,5.000000000000000000e+00,5.000000000000000000e+00,5.000000000000000000e+00,5.000000000000000000e+00,5.000000000000000000e+00,5.000000000000000000e+00,5.000000000000000000e+00,5.000000000000000000e+00,5.000000000000000000e+00,5.000000000000000000e+00,5.000000000000000000e+00,5.000000000000000000e+00,5.000000000000000000e+00,5.000000000000000000e+00,5.000000000000000000e+00,4.854115009307861328e+00,4.663839817047119141e+00,4.487916469573974609e+00,4.324782371520996094e+00,4.173092365264892578e+00,4.031682014465332031e+00,3.899542093276977539e+00,3.775788784027099609e+00,3.659648656845092773e+00,3.550439834594726562e+00,3.447560310363769531e+00,3.350474834442138672e+00,3.258707761764526367e+00,1.244143128395080566e+00,1.219397544860839844e+00,1.202341914176940918e+00,1.190705537796020508e+00,1.185361504554748535e+00,1.214893937110900879e+00,1.286436796188354492e+00,1.281538009643554688e+00,1.276676297187805176e+00,1.275264382362365723e+00,2.504228353500366211e+00,2.452605962753295898e+00,2.403068780899047852e+00,2.355493545532226562e+00,2.309765100479125977e+00,2.265778303146362305e+00,2.223435878753662109e+00,2.182646989822387695e+00,2.143327236175537109e+00,2.105399608612060547e+00,2.068790435791015625e+00,2.033432960510253906e+00,1.999263763427734375e+00,1.966223955154418945e+00,1.934258341789245605e+00,1.903315424919128418e+00,1.873346805572509766e+00,1.844307422637939453e+00
5.000000000000000000e+00,3.609300851821899414e+00,3.634612321853637695e+00,5.000000000000000000e+00,5.000000000000000000e+00,5.000000000000000000e+00,5.000000000000000000e+00,5.000000000000000000e+00,5.000000000000000000e+00,5.000000000000000000e+00,5.000000000000000000e+00,5.000000000000000000e+00,5.000000000000000000e+00,5.000000000000000000e+00,5.000000000000000000e+00,5.000000000000000000e+00,5.000000000000000000e+00,5.000000000000000000e+00,5.000000000000000000e+00,5.000000000000000000e+00,5.000000000000000000e+00,5.000000000000000000e+00,5.000000000000000000e+00,5.000000000000000000e+00,5.000000000000000000e+00,5.000000000000000000e+00,5.000000000000000000e+00,5.000000000000000000e+00,5.000000000000000000e+00,5.000000000000000000e+00,5.000000000000000000e+00,5.000000000000000000e+00,5.000000000000000000e+00,5.000000000000000000e+00,5.000000000000000000e+00,5.000000000000000000e+00,5.000000000000000000e+00,5.000000000000000000e+00,5.000000000000000000e+00,4.854252338409423828e+00,4.663965225219726562e+00,4.488035202026367188e+00,4.324892520904541016e+00,4.173194885253906250e+00,4.031778335571289062e+00,3.899631738662719727e+00,3.775872945785522461e+00,3.659727573394775391e+00,3.550514221191406250e+00,3.447630405426025391e+00,3.350540876388549805e+00,3.258770465850830078e+00,1.255382418632507324e+00,1.225132346153259277e+00,1.208040118217468262e+00,1.195563077926635742e+00,1.189053297042846680e+00,1.219451785087585449e+00,1.303834438323974609e+00,1.298417448997497559e+00,1.293072342872619629e+00,2.558108806610107422e+00,2.504265308380126953e+00,2.452641487121582031e+00,2.403102874755859375e+00,2.355526208877563477e+00,2.309796571731567383e+00,2.265808582305908203e+00,2.223464965820312500e+00,2.182674884796142578e+00,2.143354415893554688e+00,2.105425596237182617e+00,2.068815708160400391e+00,2.033457517623901367e+00,1.999287366867065430e+00,1.966246724128723145e+00,1.934280395507812500e+00,1.903336763381958008e+00,1.873367547988891602e+00,1.844327449798583984e+00
5.000000000000000000e+00,3.615006923675537109e+00,3.654377222061157227e+00,5.000000000000000000e+00,5.000000000000000000e+00,5.000000000000000000e+00,5.000000000000000000e+00,5.000000000000000000e+00,5.000000000000000000e+00,5.000000000000000000e+00,5.000000000000000000e+00,5.000000000000000000e+00,5.000000000000000000e+00,5.000000000000000000e+00,5.000000000000000000e+00,5.000000000000000000e+00,5.000000000000000000e+00,5.000000000000000000e+00,5.000000000000000000e+00,5.000000000000000000e+00,5.000000000000000000e+00,5.000000000000000000e+00,5.000000000000000000e+00,5.000000000000000000e+00,5.000000000000000000e+00,5.000000000000000000e+00,5.000000000000000000e+00,5.000000000000000000e+00,5.000000000000000000e+00,5.000000000000000000e+00,5.000000000000000000e+00,5.000000000000000000e+00,5.000000000000000000e+00,5.000000000000000000e+00,5.000000000000000000e+00,5.000000000000000000e+00,5.000000000000000000e+00,5.000000000000000000e+00,5.000000000000000000e+00,4.854389667510986328e+00,4.664092540740966797e+00,4.488152027130126953e+00,4.325003147125244141e+00,4.173297882080078125e+00,4.031874179840087891e+00,3.899721622467041016e+00,3.775957107543945312e+00,3.659806728363037109e+00,3.550588607788085938e+00,3.447700500488281250e+00,3.350607156753540039e+00,3.258833169937133789e+00,1.262777924537658691e+00,1.231049180030822754e+00,1.213792562484741211e+00,1.200460433959960938e+00,1.192768096923828125e+00,1.224044203758239746e+00,1.321846008300781250e+00,1.316278815269470215e+00,2.614359140396118164e+00,2.558147430419921875e+00,2.504302263259887695e+00,2.452676773071289062e+00,2.403136968612670898e+00,2.355558872222900391e+00,2.309828042984008789e+00,2.265839099884033203e+00,2.223494052886962891e+00,2.182703018188476562e+00,2.143381595611572266e+00,2.105451822280883789e+00,2.068840980529785156e+00,2.033481836318969727e+00,1.999310970306396484e+00,1.966269493103027344e+00,1.934302449226379395e+00,1.903358101844787598e+00,1.873388290405273438e+00,1.844347596168518066e+00
5.000000000000000000e+00,3.622228145599365234e+00,3.688127756118774414e+00,5.000000000000000000e+00,5.000000000000000000e+00,5.000000000000000000e+00,5.000000000000000000e+00,5.000000000000000000e+00,5.000000000000000000e+00,5.000000000000000000e+00,5.000000000000000000e+00,5.000000000000000000e+00,5.000000000000000000e+00,5.000000000000000000e+00,5.000000000000000000e+00,5.000000000000000000e+00,5.000000000000000000e+00,5.000000000000000000e+00,5.000000000000000000e+00,5.000000000000000000e+00,5.000000000000000000e+00,5.000000000000000000e+00,5.000000000000000000e+00,5.000000000000000000e+00,5.000000000000000000e+00,5.000000000000000000e+00,5.000000000000000000e+00,5.000000000000000000e+00,5.000000000000000000e+00,5.000000000000000000e+00,5.000000000000000000e+00,5.000000000000000000e+00,5.000000000000000000e+00,5.000000000000000000e+00,5.000000000000000000e+00,5.000000000000000000e+00,5.000000000000000000e+00,5.000000000000000000e+00,5.000000000000000000e+00,4.854526996612548828e+00,4.664219379425048828e+00,4.488269805908203125e+00,4.325111865997314453e+00,4.173400402069091797e+00,4.031970024108886719e+00,3.899811267852783203e+00,3.776040792465209961e+00,3.659885644912719727e+00,3.550662994384765625e+00,3.447770595550537109e+00,3.350673437118530273e+00,3.258895874023437500e+00,1.269354581832885742e+00,1.237023353576660156e+00,1.219600200653076172e+00,1.205398082733154297e+00,1.196608185768127441e+00,1.229363441467285156e+00,1.340362310409545898e+00,2.673138856887817383e+00,2.614399671554565430e+00,2.558186054229736328e+00,2.504338979721069336e+00,2.452712297439575195e+00,2.403171062469482422e+00,2.355591773986816406e+00,2.309859514236450195e+00,2.265869379043579102e+00,2.223523378372192383e+00,2.182731151580810547e+00,2.143408775329589844e+00,2.105477809906005859e+00,2.068866252899169922e+00,2.033506155014038086e+00,1.999334573745727539e+00,1.966292381286621094e+00,1.934324502944946289e+00,1.903379559516906738e+00,1.873408913612365723e+00,1.844367623329162598e+00
5.000000000000000000e+00,3.629478216171264648e+00,5.000000000000000000e+00,5.000000000000000000e+00,5.000000000000000000e+00,5.000000000000000000e+00,5.000000000000000000e+00,5.000000000000000000e+00,5.000000000000000000e+00,5.000000000000000000e+00,5.000000000000000000e+00,5.000000000000000000e+00,5.000000000000000000e+00,5.000000000000000000e+00,5.000000000000000000e+00,5.000000000000000000e+00,5.000000000000000000e+00,5.000000000000000000e+00,5.000000000000000000e+00,5.000000000000000000e+00,5.000000000000000000e+00,5.000000000000000000e+00,5.000000000000000000e+00,5.000000000000000000e+00,5.000000000000000000e+00,5.000000000000000000e+00,5.000000000000000000e+00,5.000000000000000000e+00,5.000000000000000000e+00,5.000000000000000000e+00,5.000000000000000000e+00,5.000000000000000000e+00,5.000000000000000000e+00,5.000000000000000000e+00,5.000000000000000000e+00,5.000000000000000000e+00,5.000000000000000000e+00,5.000000000000000000e+00,5.000000000000000000e+00,4.854664325714111328e+00,4.664346218109130859e+00,4.488387107849121094e+00,4.325221061706542969e+00,4.173503398895263672e+00,4.032065868377685547e+00,3.899900913238525391e+00,3.776124954223632812e+00,3.659964799880981445e+00,3.550737380981445312e+00,3.447840929031372070e+00,3.350739717483520508e+00,3.258958578109741211e+00,1.281379938125610352e+00,1.243555545806884766e+00,1.226011395454406738e+00,1.213029265403747559e+00,1.203949332237243652e+00,1.235968112945556641e+00,2.734622478485107422e+00,2.673180818557739258e+00,2.614439964294433594e+00,2.558224678039550781e+00,2.504376173019409180e+00,2.452747821807861328e+00,2.403205156326293945e+00,2.355624437332153320e+00,2.309890985488891602e+00,2.265899658203125000e+00,2.223552465438842773e+00,2.182759284973144531e+00,2.143435716629028320e+00,2.105504035949707031e+00,2.068891525268554688e+00,2.033530712127685547e+00,1.999358057975769043e+00,1.966315150260925293e+00,1.934346675872802734e+00,1.903400897979736328e+00,1.873429656028747559e+00,1.844387769699096680e+00
4.875288486480712891e+00,3.622297286987304688e+00,4.872867584228515625e+00,4.871658325195312500e+00,4.870449542999267578e+00,4.869241237640380859e+00,4.868033885955810547e+00,4.866826534271240234e+00,4.865620136260986328e+00,4.864414691925048828e+00,4.863209724426269531e+00,4.862004756927490234e+00,4.860800743103027344e+00,4.859597682952880859e+00,4.858395099639892578e+00,4.857192516326904297e+00,4.855990886688232422e+00,4.854790210723876953e+00,4.853589534759521484e+00,4.852390289306640625e+00,4.851191043853759766e+00,4.849992275238037109e+00,4.848793983459472656e+00,4.847596645355224609e+00,4.846399784088134766e+00,4.845203876495361328e+00,4.844007968902587891e+00,4.842812538146972656e+00,4.841618061065673828e+00,4.840424537658691406e+00,4.839231014251708984e+00,4.838038444519042969e+00,4.836846351623535156e+00,4.835654735565185547e+00,4.834463596343994141e+00,4.833273410797119141e+00,4.832083225250244141e+00,4.830893993377685547e+00,4.829705238342285156e+00,4.828517913818359375e+00,4.664472579956054688e+00,4.488504409790039062e+00,4.325330257415771484e+00,4.173603534698486328e+00,4.032161712646484375e+00,3.899990797042846680e+00,3.776209115982055664e+00,3.660043716430664062e+00,3.550811767578125000e+00,3.447911024093627930e+00,3.350805997848510742e+00,3.259021282196044922e+00,1.293522715568542480e+00,1.250453472137451172e+00,1.232715487480163574e+00,1.219663619995117188e+00,1.212451100349426270e+00,1.244781494140625000e+00,2.734666585922241211e+00,2.673223018646240234e+00,2.614480257034301758e+00,2.558263301849365234e+00,2.504413127899169922e+00,2.452783346176147461e+00,2.403239250183105469e+00,2.355657100677490234e+00,2.309922456741333008e+00,2.265929937362670898e+00,2.223581790924072266e+00,2.182787418365478516e+00,2.143462896347045898e+00,2.105530261993408203e+00,2.068916797637939453e+00,2.033555030822753906e+00,1.999381661415100098e+00,1.966338038444519043e+00,1.934368729591369629e+00,1.903422236442565918e+00,1.873450398445129395e+00,1.844407796859741211e+00
3.505184412002563477e+00,3.548093080520629883e+00,3.776669025421142578e+00,3.775942802429199219e+00,3.775216579437255859e+00,3.774490356445312500e+00,3.773765087127685547e+00,3.773039340972900391e+00,3.772314548492431641e+00,3.771589756011962891e+00,3.770864963531494141e+00,3.770140886306762695e+00,3.769416809082031250e+00,3.768693208694458008e+00,3.767969846725463867e+00,3.767246484756469727e+00,3.766523838043212891e+00,3.765800952911376953e+00,3.765078783035278320e+00,3.764356851577758789e+00,3.763634920120239258e+00,3.762913703918457031e+00,3.762192249298095703e+00,3.761471509933471680e+00,3.760751008987426758e+00,3.760030269622802734e+00,3.759310483932495117e+00,3.758590459823608398e+00,3.757870912551879883e+00,3.757151842117309570e+00,3.756432533264160156e+00,3.755713939666748047e+00,3.754995346069335938e+00,3.754277229309082031e+00,3.753559589385986328e+00,3.752841711044311523e+00,3.752124547958374023e+00,3.751407146453857422e+00,3.750690460205078125e+00,3.749974250793457031e+00,3.749257564544677734e+00,3.748541831970214844e+00,3.747825860977172852e+00,3.747110605239868164e+00,3.746395587921142578e+00,3.745680570602416992e+00,3.744966030120849609e+00,3.660122871398925781e+00,3.550886154174804688e+00,3.447981119155883789e+00,3.350872278213500977e+00,3.259083986282348633e+00,1.303048253059387207e+00,1.257428407669067383e+00,1.239628672599792480e+00,1.225053668022155762e+00,1.221073865890502930e+00,2.799046993255615234e+00,2.734710693359375000e+00,2.673265218734741211e+00,2.614520549774169922e+00,2.558301925659179688e+00,2.504450082778930664e+00,2.452818870544433594e+00,2.403273344039916992e+00,2.355690002441406250e+00,2.309953927993774414e+00,2.265960216522216797e+00,2.223610877990722656e+00,2.182815313339233398e+00,2.143490076065063477e+00,2.105556488037109375e+00,2.068942070007324219e+00,2.033579349517822266e+00,1.999405264854431152e+00,1.966360807418823242e+00,1.934390783309936523e+00,1.903443694114685059e+00,1.873471140861511230e+00,1.844427824020385742e+00
3.084065675735473633e+00,3.083581209182739258e+00,3.083096981048583984e+00,3.082612514495849609e+00,3.082128763198852539e+00,3.081645011901855469e+00,3.081161022186279297e+00,3.080677509307861328e+00,3.080193996429443359e+00,3.079710960388183594e+00,3.079227924346923828e+00,3.078744649887084961e+00,3.078262090682983398e+00,3.077779293060302734e+00,3.077296733856201172e+00,3.076814651489257812e+00,3.076332330703735352e+00,3.075850248336791992e+00,3.075368165969848633e+00,3.074886560440063477e+00,3.074405193328857422e+00,3.073923349380493164e+00,3.073442220687866211e+00,3.072960853576660156e+00,3.072479963302612305e+00,3.071999311447143555e+00,3.071518421173095703e+00,3.071038007736206055e+00,3.070557355880737305e+00,3.070077419281005859e+00,3.069597482681274414e+00,3.069117307662963867e+00,3.068637609481811523e+00,3.068157672882080078e+00,3.067678451538085938e+00,3.067199230194091797e+00,3.066719770431518555e+00,3.066240787506103516e+00,3.065761804580688477e+00,3.065283298492431641e+00,3.064804792404174805e+00,3.064326286315917969e+00,3.063848018646240234e+00,3.063369750976562500e+00,3.062891721725463867e+00,3.062414169311523438e+00,3.061936140060424805e+00,3.061458826065063477e+00,3.060981273651123047e+00,3.060503959655761719e+00,3.060027122497558594e+00,3.059549808502197266e+00,1.312714934349060059e+00,1.264481544494628906e+00,1.246654748916625977e+00,1.230491518974304199e+00,1.229820132255554199e+00,2.799093246459960938e+00,2.734754800796508789e+00,2.673307418823242188e+00,2.614560604095458984e+00,2.558340549468994141e+00,2.504487037658691406e+00,2.452854394912719727e+00,2.403307437896728516e+00,2.355722665786743164e+00,2.309985399246215820e+00,2.265990495681762695e+00,2.223639965057373047e+00,2.182843446731567383e+00,2.143517017364501953e+00,2.105582475662231445e+00,2.068967342376708984e+00,2.033603906631469727e+00,1.999428868293762207e+00,1.966383576393127441e+00,1.934412598609924316e+00,1.903465032577514648e+00,1.873491764068603516e+00,1.844447970390319824e+00
2.605435848236083984e+00,2.605090141296386719e+00,2.604744434356689453e+00,2.604398965835571289e+00,2.604053497314453125e+00,2.603708028793334961e+00,2.603362798690795898e+00,2.603017330169677734e+00,2.602672338485717773e+00,2.602327346801757812e+00,2.601982355117797852e+00,2.601637363433837891e+00,2.601292610168457031e+00,2.600948095321655273e+00,2.600603580474853516e+00,2.600258827209472656e+00,2.599914550781250000e+00,2.599570035934448242e+00,2.599225997924804688e+00,2.598881959915161133e+00,2.598537683486938477e+00,2.598193883895874023e+00,2.597849845886230469e+00,2.597506284713745117e+00,2.597162485122680664e+00,2.596818923950195312e+00,2.596475362777709961e+00,2.596132040023803711e+00,2.595788717269897461e+00,2.595445632934570312e+00,2.595102310180664062e+00,2.594759464263916016e+00,2.594416379928588867e+00,2.594073534011840820e+00,2.593730926513671875e+00,2.593388080596923828e+00,2.593045473098754883e+00,2.592702865600585938e+00,2.592360496520996094e+00,2.592018365859985352e+00,2.591675996780395508e+00,2.591333866119384766e+00,2.590991735458374023e+00,2.590649843215942383e+00,2.590308189392089844e+00,2.589966297149658203e+00,2.589624643325805664e+00,2.589282989501953125e+00,2.588941574096679688e+00,2.588600158691406250e+00,2.588258743286132812e+00,2.587917566299438477e+00,2.587576389312744141e+00,1.271614313125610352e+00,1.253761172294616699e+00,1.236422419548034668e+00,1.238614320755004883e+00,1.429648041725158691e+00,2.585531473159790039e+00,2.585191011428833008e+00,2.584850549697875977e+00,2.558379173278808594e+00,2.504524230957031250e+00,2.452889919281005859e+00,2.403341531753540039e+00,2.355755329132080078e+00,2.310016870498657227e+00,2.266020536422729492e+00,2.223669290542602539e+00,2.182871580123901367e+00,2.143544197082519531e+00,2.105608701705932617e+00,2.068992614746093750e+00,2.033628225326538086e+00,1.999452471733093262e+00,1.966406464576721191e+00,1.934434771537780762e+00,1.903486371040344238e+00,1.873512506484985352e+00,1.844467997550964355e+00
2.255427837371826172e+00,2.255168199539184570e+00,2.254908084869384766e+00,2.254648447036743164e+00,2.254388570785522461e+00,2.254128932952880859e+00,2.253869295120239258e+00,2.253609657287597656e+00,2.253350257873535156e+00,2.253090858459472656e+00,2.252831459045410156e+00,2.252572059631347656e+00,2.252312660217285156e+00,2.252053737640380859e+00,2.251794338226318359e+00,2.251535415649414062e+00,2.251276254653930664e+00,2.251017332077026367e+00,2.250758409500122070e+00,2.250499486923217773e+00,2.250240802764892578e+00,2.249982118606567383e+00,2.249723434448242188e+00,2.249464750289916992e+00,2.249206781387329102e+00,2.248949050903320312e+00,2.248691320419311523e+00,2.248433828353881836e+00,2.248176336288452148e+00,2.247918844223022461e+00,2.247661590576171875e+00,2.247404098510742188e+00,2.247146844863891602e+00,2.246889591217041016e+00,2.246632575988769531e+00,2.246375322341918945e+00,2.246118307113647461e+00,2.245861291885375977e+00,2.245604276657104492e+00,2.245347499847412109e+00,2.245090723037719727e+00,2.244833946228027344e+00,2.244577169418334961e+00,2.244320631027221680e+00,2.244064092636108398e+00,2.243807554244995117e+00,2.243551015853881836e+00,2.243294715881347656e+00,2.243038177490234375e+00,2.242782115936279297e+00,2.242525815963745117e+00,2.242269515991210938e+00,2.242013692855834961e+00,1.278987288475036621e+00,1.260948896408081055e+00,1.243412256240844727e+00,1.244173526763916016e+00,1.406060695648193359e+00,2.240478038787841797e+00,2.240222454071044922e+00,2.239966869354248047e+00,2.239711284637451172e+00,2.239455699920654297e+00,2.239200115203857422e+00,2.238944768905639648e+00,2.238689422607421875e+00,2.238434076309204102e+00,2.238178968429565430e+00,2.223698377609252930e+00,2.182899713516235352e+00,2.143571376800537109e+00,2.105634927749633789e+00,2.069017887115478516e+00,2.033652544021606445e+00,1.999476075172424316e+00,1.966429233551025391e+00,1.934456825256347656e+00,1.903507828712463379e+00,1.873533248901367188e+00,1.844488024711608887e+00
1.988357186317443848e+00,1.988155126571655273e+00,1.987953186035156250e+00,1.987751126289367676e+00,1.987549304962158203e+00,1.987347483634948730e+00,1.987145543098449707e+00,1.986943840980529785e+00,1.986742258071899414e+00,1.986540436744689941e+00,1.986338853836059570e+00,1.986137151718139648e+00,1.985935688018798828e+00,1.985734224319458008e+00,1.985532522201538086e+00,1.985331177711486816e+00,1.985129952430725098e+00,1.984928369522094727e+00,1.984727144241333008e+00,1.984525799751281738e+00,1.984324574470520020e+00,1.984123468399047852e+00,1.983922123908996582e+00,1.983721137046813965e+00,1.983520150184631348e+00,1.983318924903869629e+00,1.983118057250976562e+00,1.982916951179504395e+00,1.982716083526611328e+00,1.982515335083007812e+00,1.982314348220825195e+00,1.982113599777221680e+00,1.981912970542907715e+00,1.981712102890014648e+00,1.981511473655700684e+00,1.981310725212097168e+00,1.981110215187072754e+00,1.980909824371337891e+00,1.980709075927734375e+00,1.980508685111999512e+00,1.980308413505554199e+00,1.980107903480529785e+00,1.979907631874084473e+00,1.979707121849060059e+00,1.979506969451904297e+00,1.979306817054748535e+00,1.979106426239013672e+00,1.978906393051147461e+00,1.978706121444702148e+00,1.978506207466125488e+00,1.978306293487548828e+00,1.978106141090393066e+00,1.977906227111816406e+00,1.312292337417602539e+00,1.275668621063232422e+00,1.264176487922668457e+00,1.260239839553833008e+00,1.394844293594360352e+00,1.413643240928649902e+00,1.976507663726806641e+00,1.976308107376098633e+00,1.976108670234680176e+00,1.975908994674682617e+00,1.975709557533264160e+00,1.975510001182556152e+00,1.975310564041137695e+00,1.975111365318298340e+00,1.974911808967590332e+00,1.974712610244750977e+00,1.974513411521911621e+00,1.974314093589782715e+00,1.974115014076232910e+00,1.973915696144104004e+00,1.973716735839843750e+00,1.973517775535583496e+00,1.966452121734619141e+00,1.934478878974914551e+00,1.903529167175292969e+00,1.873553991317749023e+00,1.844508171081542969e+00
1.777838826179504395e+00,1.777677416801452637e+00,1.777515769004821777e+00,1.777354359626770020e+00,1.777193069458007812e+00,1.777031540870666504e+00,1.776870250701904297e+00,1.776708960533142090e+00,1.776547551155090332e+00,1.776386380195617676e+00,1.776224970817565918e+00,1.776063919067382812e+00,1.775902748107910156e+00,1.775741457939147949e+00,1.775580406188964844e+00,1.775419354438781738e+00,1.775258183479309082e+00,1.775097250938415527e+00,1.774936079978942871e+00,1.774775147438049316e+00,1.774614334106445312e+00,1.774453282356262207e+00,1.774292469024658203e+00,1.774131655693054199e+00,1.773970723152160645e+00,1.773810029029846191e+00,1.773649096488952637e+00,1.773488402366638184e+00,1.773327708244323730e+00,1.773166894912719727e+00,1.773006319999694824e+00,1.772845745086669922e+00,1.772685050964355469e+00,1.772524595260620117e+00,1.772363901138305664e+00,1.772203445434570312e+00,1.772042989730834961e+00,1.771882414817810059e+00,1.771722078323364258e+00,1.771561741828918457e+00,1.771401286125183105e+00,1.771240949630737305e+00,1.771080613136291504e+00,1.770920395851135254e+00,1.770760178565979004e+00,1.770599842071533203e+00,1.770439743995666504e+00,1.770279407501220703e+00,1.770119309425354004e+00,1.769959330558776855e+00,1.769799113273620605e+00,1.769639134407043457e+00,1.769479155540466309e+00,1.316342711448669434e+00,1.276876568794250488e+00,1.262863516807556152e+00,1.254559040069580078e+00,1.369230031967163086e+00,1.392199039459228516e+00,1.768359780311584473e+00,1.768200039863586426e+00,1.768040180206298828e+00,1.767880439758300781e+00,1.767720580101013184e+00,1.767561078071594238e+00,1.767401456832885742e+00,1.767241716384887695e+00,1.767082214355468750e+00,1.766922712326049805e+00,1.766763091087341309e+00,1.766603589057922363e+00,1.766444087028503418e+00,1.766284704208374023e+00,1.766125321388244629e+00,1.765965819358825684e+00,1.765806555747985840e+00,1.765647292137145996e+00,1.765487909317016602e+00,1.765328645706176758e+00,1.765169382095336914e+00
1.607630252838134766e+00,1.607498049736022949e+00,1.607366085052490234e+00,1.607234120368957520e+00,1.607102036476135254e+00,1.606970071792602539e+00,1.606838226318359375e+00,1.606706142425537109e+00,1.606574296951293945e+00,1.606442332267761230e+00,1.606310486793518066e+00,1.606178760528564453e+00,1.606046795845031738e+00,1.605915069580078125e+00,1.605783343315124512e+00,1.605651497840881348e+00,1.605519771575927734e+00,1.605387926101684570e+00,1.605256319046020508e+00,1.605124711990356445e+00,1.604992985725402832e+00,1.604861378669738770e+00,1.604729890823364258e+00,1.604598164558410645e+00,1.604466676712036133e+00,1.604335069656372070e+00,1.604203581809997559e+00,1.604072093963623047e+00,1.603940486907958984e+00,1.603809118270874023e+00,1.603677749633789062e+00,1.603546261787414551e+00,1.603414893150329590e+00,1.603283405303955078e+00,1.603152155876159668e+00,1.603020906448364258e+00,1.602889418601989746e+00,1.602758169174194336e+00,1.602627038955688477e+00,1.602495670318603516e+00,1.602364540100097656e+00,1.602233171463012695e+00,1.602102041244506836e+00,1.601971030235290527e+00,1.601839780807495117e+00,1.601708650588989258e+00,1.601577520370483398e+00,1.601446509361267090e+00,1.601315498352050781e+00,1.601184368133544922e+00,1.601053476333618164e+00,1.600922465324401855e+00,1.600791454315185547e+00,1.320313334465026855e+00,1.273069977760314941e+00,1.251363635063171387e+00,1.237214446067810059e+00,1.233238697052001953e+00,1.600006103515625000e+00,1.599875330924987793e+00,1.599744439125061035e+00,1.599613785743713379e+00,1.599482893943786621e+00,1.599352240562438965e+00,1.599221587181091309e+00,1.599090814590454102e+00,1.598960161209106445e+00,1.598829627037048340e+00,1.598698854446411133e+00,1.598568320274353027e+00,1.598437666893005371e+00,1.598307132720947266e+00,1.598176717758178711e+00,1.598046064376831055e+00,1.597915649414062500e+00,1.597785234451293945e+00,1.597654700279235840e+00,1.597524285316467285e+00,1.597393751144409180e+00,1.597263455390930176e+00
1.467165112495422363e+00,1.467055201530456543e+00,1.466945171356201172e+00,1.466835141181945801e+00,1.466725230216979980e+00,1.466615438461303711e+00,1.466505408287048340e+00,1.466395497322082520e+00,1.466285586357116699e+00,1.466175794601440430e+00,1.466066002845764160e+00,1.465956091880798340e+00,1.465846300125122070e+00,1.465736508369445801e+00,1.465626716613769531e+00,1.465516924858093262e+00,1.465407133102416992e+00,1.465297460556030273e+00,1.465187788009643555e+00,1.465077996253967285e+00,1.464968323707580566e+00,1.464858770370483398e+00,1.464748978614807129e+00,1.464639425277709961e+00,1.464529752731323242e+00,1.464420199394226074e+00,1.464310646057128906e+00,1.464200973510742188e+00,1.464091420173645020e+00,1.463981986045837402e+00,1.463872432708740234e+00,1.463762879371643066e+00,1.463653326034545898e+00,1.463543891906738281e+00,1.463434576988220215e+00,1.463325023651123047e+00,1.463215589523315430e+00,1.463106274604797363e+00,1.462996840476989746e+00,1.462887525558471680e+00,1.462778091430664062e+00,1.462668776512145996e+00,1.462559461593627930e+00,1.462450146675109863e+00,1.462340831756591797e+00,1.462231516838073730e+00,1.462122321128845215e+00,1.462013125419616699e+00,1.461903810501098633e+00,1.461794614791870117e+00,1.461685538291931152e+00,1.461576223373413086e+00,1.461467146873474121e+00,1.461357951164245605e+00,1.267024040222167969e+00,1.240653038024902344e+00,1.225550532341003418e+00,1.215190887451171875e+00,1.212093830108642578e+00,1.460703492164611816e+00,1.460594415664672852e+00,1.460485339164733887e+00,1.460376381874084473e+00,1.460267543792724609e+00,1.460158467292785645e+00,1.460049510002136230e+00,1.459940671920776367e+00,1.459831714630126953e+00,1.459722876548767090e+00,1.459613919258117676e+00,1.459505081176757812e+00,1.459396243095397949e+00,1.459287285804748535e+00,1.459178566932678223e+00,1.459069848060607910e+00,1.458960890769958496e+00,1.458852171897888184e+00,1.458743333816528320e+00,1.458634734153747559e+00,1.458526015281677246e+00
1.349273681640625000e+00,1.349180698394775391e+00,1.349087595939636230e+00,1.348994612693786621e+00,1.348901748657226562e+00,1.348808646202087402e+00,1.348715782165527344e+00,1.348622679710388184e+00,1.348529815673828125e+00,1.348436951637268066e+00,1.348343968391418457e+00,1.348251104354858398e+00,1.348158240318298340e+00,1.348065257072448730e+00,1.347972512245178223e+00,1.347879528999328613e+00,1.347786784172058105e+00,1.347694039344787598e+00,1.347601056098937988e+00,1.347508311271667480e+00,1.347415566444396973e+00,1.347322821617126465e+00,1.347230076789855957e+00,1.347137212753295898e+00,1.347044587135314941e+00,1.346951842308044434e+00,1.346859097480773926e+00,1.346766471862792969e+00,1.346673846244812012e+00,1.346581101417541504e+00,1.346488475799560547e+00,1.346395730972290039e+00,1.346303105354309082e+00,1.346210598945617676e+00,1.346117854118347168e+00,1.346025347709655762e+00,1.345932841300964355e+00,1.345840215682983398e+00,1.345747590065002441e+00,1.345655083656311035e+00,1.345562577247619629e+00,1.345470070838928223e+00,1.345377445220947266e+00,1.345285058021545410e+00,1.345192432403564453e+00,1.345100045204162598e+00,1.345007658004760742e+00,1.344915151596069336e+00,1.344822764396667480e+00,1.344730377197265625e+00,1.344637870788574219e+00,1.344545602798461914e+00,1.344453096389770508e+00,1.344360828399658203e+00,1.344268441200256348e+00,1.224225401878356934e+00,1.207018852233886719e+00,1.198497772216796875e+00,1.190340638160705566e+00,1.190414071083068848e+00,1.181307673454284668e+00,1.343622326850891113e+00,1.343530058860778809e+00,1.343437790870666504e+00,1.343345642089843750e+00,1.343253374099731445e+00,1.343161106109619141e+00,1.343068957328796387e+00,1.342976689338684082e+00,1.342884659767150879e+00,1.342792510986328125e+00,1.342700242996215820e+00,1.342608213424682617e+00,1.342516183853149414e+00,1.342423915863037109e+00,1.342331886291503906e+00,1.342239737510681152e+00,1.342147707939147949e+00,1.342055797576904297e+00,1.341963648796081543e+00
1.248919010162353516e+00,1.248839259147644043e+00,1.248759627342224121e+00,1.248679995536804199e+00,1.248600244522094727e+00,1.248520612716674805e+00,1.248440980911254883e+00,1.248361349105834961e+00,1.248281717300415039e+00,1.248202085494995117e+00,1.248122453689575195e+00,1.248042941093444824e+00,1.247963309288024902e+00,1.247883677482604980e+00,1.247804045677185059e+00,1.247724533081054688e+00,1.247645020484924316e+00,1.247565388679504395e+00,1.247485876083374023e+00,1.247406482696533203e+00,1.247326850891113281e+00,1.247247338294982910e+00,1.247167825698852539e+00,1.247088432312011719e+00,1.247008919715881348e+00,1.246929407119750977e+00,1.246850013732910156e+00,1.246770620346069336e+00,1.246691107749938965e+00,1.246611714363098145e+00,1.246532201766967773e+00,1.246452927589416504e+00,1.246373534202575684e+00,1.246294140815734863e+00,1.246214747428894043e+00,1.246135473251342773e+00,1.246055960655212402e+00,1.245976686477661133e+00,1.245897293090820312e+00,1.245818018913269043e+00,1.245738744735717773e+00,1.245659351348876953e+00,1.245580196380615234e+00,1.245500922203063965e+00,1.245421528816223145e+00,1.245342373847961426e+00,1.245262980461120605e+00,1.245183825492858887e+00,1.245104670524597168e+00,1.245025396347045898e+00,1.244946122169494629e+00,1.244866967201232910e+00,1.244787812232971191e+00,1.244708657264709473e+00,1.244629383087158203e+00,1.244550228118896484e+00,1.191365361213684082e+00,1.173370361328125000e+00,1.165593624114990234e+00,1.159714579582214355e+00,1.161611318588256836e+00,1.157264828681945801e+00,1.243996381759643555e+00,1.243917346000671387e+00,1.243838310241699219e+00,1.243759155273437500e+00,1.243680238723754883e+00,1.243601083755493164e+00,1.243522047996520996e+00,1.243443131446838379e+00,1.243364095687866211e+00,1.243285059928894043e+00,1.243206143379211426e+00,1.243127107620239258e+00,1.243048191070556641e+00,1.242969155311584473e+00,1.242890238761901855e+00,1.242811322212219238e+00,1.242732405662536621e+00,1.242653489112854004e+00
1.162459135055541992e+00,1.162390112876892090e+00,1.162321090698242188e+00,1.162251949310302734e+00,1.162182927131652832e+00,1.162113904953002930e+00,1.162044882774353027e+00,1.161975979804992676e+00,1.161906838417053223e+00,1.161837935447692871e+00,1.161769032478332520e+00,1.161700010299682617e+00,1.161630988121032715e+00,1.161562085151672363e+00,1.161493062973022461e+00,1.161424160003662109e+00,1.161355257034301758e+00,1.161286354064941406e+00,1.161217451095581055e+00,1.161148548126220703e+00,1.161079645156860352e+00,1.161010742187500000e+00,1.160941839218139648e+00,1.160872936248779297e+00,1.160804033279418945e+00,1.160735249519348145e+00,1.160666465759277344e+00,1.160597562789916992e+00,1.160528779029846191e+00,1.160459876060485840e+00,1.160391092300415039e+00,1.160322308540344238e+00,1.160253405570983887e+00,1.160184741020202637e+00,1.160115957260131836e+00,1.160047054290771484e+00,1.159978389739990234e+00,1.159909605979919434e+00,1.159840822219848633e+00,1.159772157669067383e+00,1.159703373908996582e+00,1.159634590148925781e+00,1.159565925598144531e+00,1.159497141838073730e+00,1.159428477287292480e+00,1.159359812736511230e+00,1.159291148185729980e+00,1.159222483634948730e+00,1.159153699874877930e+00,1.159085154533386230e+00,1.159016370773315430e+00,1.158947825431823730e+00,1.158879160881042480e+00,1.158810496330261230e+00,1.158741950988769531e+00,1.158673286437988281e+00,1.158604621887207031e+00,1.158536076545715332e+00,1.158467531204223633e+00,1.151057958602905273e+00,1.148012280464172363e+00,1.147996664047241211e+00,1.158193230628967285e+00,1.158124804496765137e+00,1.158056139945983887e+00,1.157987713813781738e+00,1.157919049263000488e+00,1.157850623130798340e+00,1.157782196998596191e+00,1.157713651657104492e+00,1.157645106315612793e+00,1.157576680183410645e+00,1.157508134841918945e+00,1.157439708709716797e+00,1.157371163368225098e+00,1.157302856445312500e+00,1.157234430313110352e+00,1.157165884971618652e+00,1.157097458839416504e+00,1.157029151916503906e+00
1.087194919586181641e+00,1.087134599685668945e+00,1.087074160575866699e+00,1.087013721466064453e+00,1.086953282356262207e+00,1.086892962455749512e+00,1.086832642555236816e+00,1.086772203445434570e+00,1.086711883544921875e+00,1.086651563644409180e+00,1.086591243743896484e+00,1.086530923843383789e+00,1.086470484733581543e+00,1.086410284042358398e+00,1.086349964141845703e+00,1.086289644241333008e+00,1.086229324340820312e+00,1.086169123649597168e+00,1.086108684539794922e+00,1.086048483848571777e+00,1.085988163948059082e+00,1.085927963256835938e+00,1.085867643356323242e+00,1.085807442665100098e+00,1.085747122764587402e+00,1.085686922073364258e+00,1.085626721382141113e+00,1.085566520690917969e+00,1.085506200790405273e+00,1.085446000099182129e+00,1.085385918617248535e+00,1.085325598716735840e+00,1.085265398025512695e+00,1.085205316543579102e+00,1.085145115852355957e+00,1.085084915161132812e+00,1.085024714469909668e+00,1.084964632987976074e+00,1.084904432296752930e+00,1.084844231605529785e+00,1.084784150123596191e+00,1.084724068641662598e+00,1.084663867950439453e+00,1.084603786468505859e+00,1.084543585777282715e+00,1.084483504295349121e+00,1.084423422813415527e+00,1.084363341331481934e+00,1.084303259849548340e+00,1.084243178367614746e+00,1.084183096885681152e+00,1.084123015403747559e+00,1.084062933921813965e+00,1.084002971649169922e+00,1.083942890167236328e+00,1.083882808685302734e+00,1.083822846412658691e+00,1.083762764930725098e+00,1.083702802658081055e+00,1.083642721176147461e+00,1.083582758903503418e+00,1.083522796630859375e+00,1.083462834358215332e+00,1.083402752876281738e+00,1.083342790603637695e+00,1.083282828330993652e+00,1.083222866058349609e+00,1.083162903785705566e+00,1.083102941513061523e+00,1.083042979240417480e+00,1.082983016967773438e+00,1.082923054695129395e+00,1.082863211631774902e+00,1.082803249359130859e+00,1.082743287086486816e+00,1.082683444023132324e+00,1.082623481750488281e+00,1.082563638687133789e+00,1.082503795623779297e+00,1.082443833351135254e+00
1.021084189414978027e+00,1.021030902862548828e+00,1.020977616310119629e+00,1.020924329757690430e+00,1.020871043205261230e+00,1.020817875862121582e+00,1.020764589309692383e+00,1.020711302757263184e+00,1.020658135414123535e+00,1.020604848861694336e+00,1.020551681518554688e+00,1.020498394966125488e+00,1.020445227622985840e+00,1.020392060279846191e+00,1.020338773727416992e+00,1.020285606384277344e+00,1.020232439041137695e+00,1.020179152488708496e+00,1.020125985145568848e+00,1.020072817802429199e+00,1.020019650459289551e+00,1.019966483116149902e+00,1.019913315773010254e+00,1.019860148429870605e+00,1.019807100296020508e+00,1.019753932952880859e+00,1.019700765609741211e+00,1.019647598266601562e+00,1.019594430923461914e+00,1.019541382789611816e+00,1.019488215446472168e+00,1.019435167312622070e+00,1.019381999969482422e+00,1.019328951835632324e+00,1.019275903701782227e+00,1.019222736358642578e+00,1.019169688224792480e+00,1.019116640090942383e+00,1.019063472747802734e+00,1.019010424613952637e+00,1.018957376480102539e+00,1.018904328346252441e+00,1.018851280212402344e+00,1.018798232078552246e+00,1.018745183944702148e+00,1.018692135810852051e+00,1.018639087677001953e+00,1.018586158752441406e+00,1.018532991409301758e+00,1.018480062484741211e+00,1.018427133560180664e+00,1.018374085426330566e+00,1.018321037292480469e+00,1.018268108367919922e+00,1.018215060234069824e+00,1.018162131309509277e+00,1.018109083175659180e+00,1.018056154251098633e+00,1.018003225326538086e+00,1.017950177192687988e+00,1.017897248268127441e+00,1.017844319343566895e+00,1.017791390419006348e+00,1.017738461494445801e+00,1.017685532569885254e+00,1.017632603645324707e+00,1.017579674720764160e+00,1.017526745796203613e+00,1.017473936080932617e+00,1.017421007156372070e+00,1.017368078231811523e+00,1.017315149307250977e+00,1.017262220382690430e+00,1.017209410667419434e+00,1.017156600952148438e+00,1.017103672027587891e+00,1.017050862312316895e+00,1.016997933387756348e+00,1.016945123672485352e+00,1.016892313957214355e+00
9.625527858734130859e-01,9.625054001808166504e-01,9.624580740928649902e-01,9.624108076095581055e-01,9.623634219169616699e-01,9.623160362243652344e-01,9.622687697410583496e-01,9.622214436531066895e-01,9.621741175651550293e-01,9.621268510818481445e-01,9.620795249938964844e-01,9.620321989059448242e-01,9.619849920272827148e-01,9.619376659393310547e-01,9.618903398513793945e-01,9.618431329727172852e-01,9.617958068847656250e-01,9.617485404014587402e-01,9.617012143135070801e-01,9.616540074348449707e-01,9.616067409515380859e-01,9.615594744682312012e-01,9.615122675895690918e-01,9.614650011062622070e-01,9.614177346229553223e-01,9.613705873489379883e-01,9.613233208656311035e-01,9.612760543823242188e-01,9.612289071083068848e-01,9.611816406250000000e-01,9.611344337463378906e-01,9.610872864723205566e-01,9.610400795936584473e-01,9.609928131103515625e-01,9.609456062316894531e-01,9.608984589576721191e-01,9.608512520790100098e-01,9.608040452003479004e-01,9.607569575309753418e-01,9.607097506523132324e-01,9.606625437736511230e-01,9.606154561042785645e-01,9.605683088302612305e-01,9.605211019515991211e-01,9.604740142822265625e-01,9.604268670082092285e-01,9.603796601295471191e-01,9.603325128555297852e-01,9.602854847908020020e-01,9.602382779121398926e-01,9.601911306381225586e-01,9.601441025733947754e-01,9.600969552993774414e-01,9.600498080253601074e-01,9.600027799606323242e-01,9.599556922912597656e-01,9.599085450172424316e-01,9.598615169525146484e-01,9.598144292831420898e-01,9.597672820091247559e-01,9.597203135490417480e-01,9.596732258796691895e-01,9.596261382102966309e-01,9.595790505409240723e-01,9.595320224761962891e-01,9.594849348068237305e-01,9.594379067420959473e-01,9.593909382820129395e-01,9.593438506126403809e-01,9.592967629432678223e-01,9.592498540878295898e-01,9.592027664184570312e-01,9.591557383537292480e-01,9.591087698936462402e-01,9.590617418289184570e-01,9.590147137641906738e-01,9.589678049087524414e-01,9.589207768440246582e-01,9.588737487792968750e-01,9.588267207145690918e-01
9.103679060935974121e-01,9.103255271911621094e-01,9.102831482887268066e-01,9.102408885955810547e-01,9.101985096931457520e-01,9.101561307907104492e-01,9.101138710975646973e-01,9.100715517997741699e-01,9.100291728973388672e-01,9.099868535995483398e-01,9.099445939064025879e-01,9.099022150039672852e-01,9.098598957061767578e-01,9.098176360130310059e-01,9.097753167152404785e-01,9.097329974174499512e-01,9.096907973289489746e-01,9.096484780311584473e-01,9.096061587333679199e-01,9.095639586448669434e-01,9.095216393470764160e-01,9.094793200492858887e-01,9.094371199607849121e-01,9.093948006629943848e-01,9.093525409698486328e-01,9.093102216720581055e-01,9.092680811882019043e-01,9.092257618904113770e-01,9.091835021972656250e-01,9.091413617134094238e-01,9.090990424156188965e-01,9.090567827224731445e-01,9.090146422386169434e-01,9.089723825454711914e-01,9.089301228523254395e-01,9.088879823684692383e-01,9.088457226753234863e-01,9.088035225868225098e-01,9.087613821029663086e-01,9.087191224098205566e-01,9.086769223213195801e-01,9.086346626281738281e-01,9.085925817489624023e-01,9.085503220558166504e-01,9.085081219673156738e-01,9.084660410881042480e-01,9.084237813949584961e-01,9.083816409111022949e-01,9.083395004272460938e-01,9.082973003387451172e-01,9.082551002502441406e-01,9.082130193710327148e-01,9.081708788871765137e-01,9.081286787986755371e-01,9.080865383148193359e-01,9.080444574356079102e-01,9.080022573471069336e-01,9.079601168632507324e-01,9.079180359840393066e-01,9.078758955001831055e-01,9.078337550163269043e-01,9.077916741371154785e-01,9.077495336532592773e-01,9.077073931694030762e-01,9.076653718948364258e-01,9.076232314109802246e-01,9.075811505317687988e-01,9.075391292572021484e-01,9.074969887733459473e-01,9.074548482894897461e-01,9.074127674102783203e-01,9.073707461357116699e-01,9.073286652565002441e-01,9.072865247726440430e-01,9.072445631027221680e-01,9.072024822235107422e-01,9.071604013442993164e-01,9.071183800697326660e-01,9.070762991905212402e-01,9.070342183113098145e-01
8.635503649711608887e-01,8.635123372077941895e-01,8.634741902351379395e-01,8.634361028671264648e-01,8.633980751037597656e-01,8.633599281311035156e-01,8.633218407630920410e-01,8.632838129997253418e-01,8.632456660270690918e-01,8.632075786590576172e-01,8.631695508956909180e-01,8.631314635276794434e-01,8.630933761596679688e-01,8.630553483963012695e-01,8.630172610282897949e-01,8.629791736602783203e-01,8.629410862922668457e-01,8.629031181335449219e-01,8.628650307655334473e-01,8.628269433975219727e-01,8.627889752388000488e-01,8.627508878707885742e-01,8.627128005027770996e-01,8.626748323440551758e-01,8.626368045806884766e-01,8.625987172126770020e-01,8.625607490539550781e-01,8.625227212905883789e-01,8.624846935272216797e-01,8.624467253684997559e-01,8.624086976051330566e-01,8.623706698417663574e-01,8.623326420783996582e-01,8.622946739196777344e-01,8.622566461563110352e-01,8.622186183929443359e-01,8.621807098388671875e-01,8.621426820755004883e-01,8.621047139167785645e-01,8.620667457580566406e-01,8.620287775993347168e-01,8.619907498359680176e-01,8.619528412818908691e-01,8.619148731231689453e-01,8.618768453598022461e-01,8.618388772010803223e-01,8.618009686470031738e-01,8.617630004882812500e-01,8.617250323295593262e-01,8.616871237754821777e-01,8.616491556167602539e-01,8.616111874580383301e-01,8.615733385086059570e-01,8.615353703498840332e-01,8.614974021911621094e-01,8.614595532417297363e-01,8.614215850830078125e-01,8.613836765289306641e-01,8.613457679748535156e-01,8.613078594207763672e-01,8.612698912620544434e-01,8.612319827079772949e-01,8.611941337585449219e-01,8.611562252044677734e-01,8.611183166503906250e-01,8.610804677009582520e-01,8.610425591468811035e-01,8.610046505928039551e-01,8.609668016433715820e-01,8.609288930892944336e-01,8.608909845352172852e-01,8.608531951904296875e-01,8.608152866363525391e-01,8.607773780822753906e-01,8.607395887374877930e-01,8.607016801834106445e-01,8.606638312339782715e-01,8.606259226799011230e-01,8.605881333351135254e-01,8.605502843856811523e-01
8.213127851486206055e-01,8.212783932685852051e-01,8.212438821792602539e-01,8.212093710899353027e-01,8.211749792098999023e-01,8.211405277252197266e-01,8.211060166358947754e-01,8.210715651512145996e-01,8.210371732711791992e-01,8.210026621818542480e-01,8.209682106971740723e-01,8.209338188171386719e-01,8.208993673324584961e-01,8.208649158477783203e-01,8.208305239677429199e-01,8.207960724830627441e-01,8.207616209983825684e-01,8.207272291183471680e-01,8.206927776336669922e-01,8.206583857536315918e-01,8.206239938735961914e-01,8.205895423889160156e-01,8.205551505088806152e-01,8.205206990242004395e-01,8.204863667488098145e-01,8.204519152641296387e-01,8.204175233840942383e-01,8.203831315040588379e-01,8.203487396240234375e-01,8.203143477439880371e-01,8.202800154685974121e-01,8.202455639839172363e-01,8.202111721038818359e-01,8.201768398284912109e-01,8.201424479484558105e-01,8.201080560684204102e-01,8.200737237930297852e-01,8.200393319129943848e-01,8.200049400329589844e-01,8.199706077575683594e-01,8.199362754821777344e-01,8.199018836021423340e-01,8.198674917221069336e-01,8.198332190513610840e-01,8.197988271713256836e-01,8.197644948959350586e-01,8.197302222251892090e-01,8.196958303451538086e-01,8.196614980697631836e-01,8.196272253990173340e-01,8.195928335189819336e-01,8.195585012435913086e-01,8.195241689682006836e-01,8.194898962974548340e-01,8.194555640220642090e-01,8.194211721420288086e-01,8.193869590759277344e-01,8.193526268005371094e-01,8.193182945251464844e-01,8.192840218544006348e-01,8.192496895790100098e-01,8.192153573036193848e-01,8.191811442375183105e-01,8.191468119621276855e-01,8.191124796867370605e-01,8.190782666206359863e-01,8.190439343452453613e-01,8.190096616744995117e-01,8.189753293991088867e-01,8.189411163330078125e-01,8.189068436622619629e-01,8.188725113868713379e-01,8.188383579254150391e-01,8.188040256500244141e-01,8.187697529792785645e-01,8.187355399131774902e-01,8.187012672424316406e-01,8.186669945716857910e-01,8.186327815055847168e-01,8.185985088348388672e-01
7.830143570899963379e-01,7.829830050468444824e-01,7.829517126083374023e-01,7.829203605651855469e-01,7.828890085220336914e-01,7.828577756881713867e-01,7.828264236450195312e-01,7.827950716018676758e-01,7.827637791633605957e-01,7.827324867248535156e-01,7.827011346817016602e-01,7.826699018478393555e-01,7.826385498046875000e-01,7.826072573661804199e-01,7.825759053230285645e-01,7.825446724891662598e-01,7.825133800506591797e-01,7.824820280075073242e-01,7.824507951736450195e-01,7.824195027351379395e-01,7.823882102966308594e-01,7.823569774627685547e-01,7.823256254196166992e-01,7.822943329811096191e-01,7.822631597518920898e-01,7.822318077087402344e-01,7.822005152702331543e-01,7.821693420410156250e-01,7.821380496025085449e-01,7.821067571640014648e-01,7.820754647254943848e-01,7.820442914962768555e-01,7.820129990577697754e-01,7.819817066192626953e-01,7.819505333900451660e-01,7.819192409515380859e-01,7.818880081176757812e-01,7.818567752838134766e-01,7.818255424499511719e-01,7.817942500114440918e-01,7.817630767822265625e-01,7.817318439483642578e-01,7.817006111145019531e-01,7.816694378852844238e-01,7.816381454467773438e-01,7.816069126129150391e-01,7.815756797790527344e-01,7.815445065498352051e-01,7.815132737159729004e-01,7.814820408821105957e-01,7.814508676528930664e-01,7.814196348190307617e-01,7.813884019851684570e-01,7.813572883605957031e-01,7.813260555267333984e-01,7.812948226928710938e-01,7.812637090682983398e-01,7.812324762344360352e-01,7.812012434005737305e-01,7.811700701713562012e-01,7.811388969421386719e-01,7.811077237129211426e-01,7.810764908790588379e-01,7.810453772544860840e-01,7.810142040252685547e-01,7.809829711914062500e-01,7.809518575668334961e-01,7.809206843376159668e-01,7.808895111083984375e-01,7.808583974838256836e-01,7.808272242546081543e-01,7.807960510253906250e-01,7.807649374008178711e-01,7.807337641716003418e-01,7.807025909423828125e-01,7.806714177131652832e-01,7.806403040885925293e-01,7.806091308593750000e-01,7.805780172348022461e-01,7.805469036102294922e-01
