5.000000000000000000e+00,5.000000000000000000e+00,5.000000000000000000e+00,5.000000000000000000e+00,5.000000000000000000e+00,5.000000000000000000e+00,5.000000000000000000e+00,5.000000000000000000e+00,5.000000000000000000e+00,5.000000000000000000e+00,5.000000000000000000e+00,5.000000000000000000e+00,5.000000000000000000e+00,5.000000000000000000e+00,5.000000000000000000e+00,5.000000000000000000e+00,5.000000000000000000e+00,5.000000000000000000e+00,5.000000000000000000e+00,5.000000000000000000e+00,5.000000000000000000e+00,5.000000000000000000e+00,5.000000000000000000e+00,5.000000000000000000e+00,5.000000000000000000e+00,5.000000000000000000e+00,5.000000000000000000e+00,5.000000000000000000e+00,5.000000000000000000e+00,5.000000000000000000e+00,5.000000000000000000e+00,5.000000000000000000e+00,5.000000000000000000e+00,5.000000000000000000e+00,5.000000000000000000e+00,5.000000000000000000e+00,5.000000000000000000e+00,5.000000000000000000e+00,5.000000000000000000e+00,4.846752166748046875e+00,4.657068252563476562e+00,4.481671810150146484e+00,4.319008350372314453e+00,4.167738437652587891e+00,4.026706695556640625e+00,3.894906759262084961e+00,3.771461725234985352e+00,3.655601263046264648e+00,3.546647310256958008e+00,3.443999767303466797e+00,3.347126960754394531e+00,3.255554437637329102e+00,3.168859243392944336e+00,3.086661577224731445e+00,3.008620500564575195e+00,2.934428453445434570e+00,2.863807439804077148e+00,2.796505451202392578e+00,2.732294321060180664e+00,2.670965909957885742e+00,2.612329959869384766e+00,2.556213378906250000e+00,2.502456665039062500e+00,2.450914859771728516e+00,2.401452779769897461e+00,2.353948116302490234e+00,2.308286190032958984e+00,2.264362096786499023e+00,2.222078561782836914e+00,2.181345224380493164e+00,2.142078161239624023e+00,2.104199886322021484e+00,2.067637920379638672e+00,2.032325029373168945e+00,1.998197913169860840e+00,1.965198278427124023e+00,1.933270573616027832e+00,1.902363777160644531e+00,1.872429728507995605e+00,1.843423008918762207e+00
5.000000000000000000e+00,5.000000000000000000e+00,5.000000000000000000e+00,5.000000000000000000e+00,5.000000000000000000e+00,5.000000000000000000e+00,5.000000000000000000e+00,5.000000000000000000e+00,5.000000000000000000e+00,5.000000000000000000e+00,5.000000000000000000e+00,5.000000000000000000e+00,5.000000000000000000e+00,5.000000000000000000e+00,5.000000000000000000e+00,5.000000000000000000e+00,5.000000000000000000e+00,5.000000000000000000e+00,5.000000000000000000e+00,5.000000000000000000e+00,5.000000000000000000e+00,5.000000000000000000e+00,5.000000000000000000e+00,5.000000000000000000e+00,5.000000000000000000e+00,5.000000000000000000e+00,5.000000000000000000e+00,5.000000000000000000e+00,5.000000000000000000e+00,5.000000000000000000e+00,5.000000000000000000e+00,5.000000000000000000e+00,5.000000000000000000e+00,5.000000000000000000e+00,5.000000000000000000e+00,5.000000000000000000e+00,5.000000000000000000e+00,5.000000000000000000e+00,5.000000000000000000e+00,4.846890926361083984e+00,4.657196044921875000e+00,4.481790542602539062e+00,4.319118022918701172e+00,4.167840957641601562e+00,4.026802062988281250e+00,3.894996404647827148e+00,3.771545648574829102e+00,3.655680179595947266e+00,3.546721458435058594e+00,3.444069862365722656e+00,3.347193002700805664e+00,3.255616903305053711e+00,3.168918371200561523e+00,3.086717844009399414e+00,3.008673906326293945e+00,2.934479236602783203e+00,2.863855838775634766e+00,2.796551465988159180e+00,2.732338428497314453e+00,2.671007871627807617e+00,2.612370252609252930e+00,2.556251764297485352e+00,2.502493619918823242e+00,2.450950145721435547e+00,2.401486873626708984e+00,2.353980779647827148e+00,2.308317661285400391e+00,2.264392375946044922e+00,2.222107648849487305e+00,2.181373357772827148e+00,2.142105102539062500e+00,2.104226112365722656e+00,2.067663192749023438e+00,2.032349348068237305e+00,1.998221516609191895e+00,1.965221047401428223e+00,1.933292627334594727e+00,1.902385115623474121e+00,1.872450470924377441e+00,1.843443036079406738e+00
5.000000000000000000e+00,5.000000000000000000e+00,5.000000000000000000e+00,5.000000000000000000e+00,5.000000000000000000e+00,5.000000000000000000e+00,5.000000000000000000e+00,5.000000000000000000e+00,5.000000000000000000e+00,5.000000000000000000e+00,5.000000000000000000e+00,5.000000000000000000e+00,5.000000000000000000e+00,5.000000000000000000e+00,5.000000000000000000e+00,5.000000000000000000e+00,5.000000000000000000e+00,5.000000000000000000e+00,5.000000000000000000e+00,5.000000000000000000e+00,5.000000000000000000e+00,5.000000000000000000e+00,5.000000000000000000e+00,5.000000000000000000e+00,5.000000000000000000e+00,5.000000000000000000e+00,5.000000000000000000e+00,5.000000000000000000e+00,5.000000000000000000e+00,5.000000000000000000e+00,5.000000000000000000e+00,5.000000000000000000e+00,5.000000000000000000e+00,5.000000000000000000e+00,5.000000000000000000e+00,5.000000000000000000e+00,5.000000000000000000e+00,5.000000000000000000e+00,5.000000000000000000e+00,4.847029209136962891e+00,4.657324314117431641e+00,4.481908798217773438e+00,4.319228172302246094e+00,4.167943477630615234e+00,4.026897907257080078e+00,3.895085811614990234e+00,3.771629571914672852e+00,3.655759096145629883e+00,3.546795606613159180e+00,3.444139719009399414e+00,3.347258806228637695e+00,3.255679368972778320e+00,3.168977737426757812e+00,3.086774110794067383e+00,3.008727312088012695e+00,2.934530019760131836e+00,2.863904237747192383e+00,2.796597719192504883e+00,2.732382297515869141e+00,2.671050071716308594e+00,2.612410545349121094e+00,2.556290388107299805e+00,2.502530574798583984e+00,2.450985431671142578e+00,2.401520967483520508e+00,2.354013442993164062e+00,2.308349132537841797e+00,2.264422655105590820e+00,2.222136735916137695e+00,2.181401252746582031e+00,2.142132282257080078e+00,2.104252099990844727e+00,2.067688465118408203e+00,2.032373905181884766e+00,1.998245120048522949e+00,1.965243935585021973e+00,1.933314681053161621e+00,1.902406454086303711e+00,1.872471094131469727e+00,1.843463063240051270e+00
5.000000000000000000e+00,5.000000000000000000e+00,5.000000000000000000e+00,5.000000000000000000e+00,5.000000000000000000e+00,5.000000000000000000e+00,5.000000000000000000e+00,5.000000000000000000e+00,5.000000000000000000e+00,5.000000000000000000e+00,5.000000000000000000e+00,5.000000000000000000e+00,5.000000000000000000e+00,5.000000000000000000e+00,5.000000000000000000e+00,5.000000000000000000e+00,5.000000000000000000e+00,5.000000000000000000e+00,5.000000000000000000e+00,5.000000000000000000e+00,5.000000000000000000e+00,5.000000000000000000e+00,5.000000000000000000e+00,5.000000000000000000e+00,5.000000000000000000e+00,5.000000000000000000e+00,5.000000000000000000e+00,5.000000000000000000e+00,5.000000000000000000e+00,5.000000000000000000e+00,5.000000000000000000e+00,5.000000000000000000e+00,5.000000000000000000e+00,5.000000000000000000e+00,5.000000000000000000e+00,5.000000000000000000e+00,5.000000000000000000e+00,5.000000000000000000e+00,5.000000000000000000e+00,4.847167968750000000e+00,4.657451629638671875e+00,4.482027530670166016e+00,4.319338321685791016e+00,4.168045997619628906e+00,4.026993274688720703e+00,3.895175457000732422e+00,3.771713495254516602e+00,3.655838012695312500e+00,3.546869993209838867e+00,3.444209814071655273e+00,3.347324848175048828e+00,3.255742073059082031e+00,3.169036865234375000e+00,3.086830377578735352e+00,3.008780956268310547e+00,2.934581041336059570e+00,2.863952398300170898e+00,2.796643733978271484e+00,2.732426404953002930e+00,2.671092033386230469e+00,2.612450838088989258e+00,2.556329011917114258e+00,2.502567529678344727e+00,2.451020956039428711e+00,2.401554822921752930e+00,2.354046106338500977e+00,2.308380365371704102e+00,2.264452934265136719e+00,2.222166061401367188e+00,2.181429147720336914e+00,2.142159223556518555e+00,2.104278326034545898e+00,2.067713737487792969e+00,2.032398223876953125e+00,1.998268604278564453e+00,1.965266466140747070e+00,1.933336734771728516e+00,1.902427792549133301e+00,1.872491836547851562e+00,1.843483209609985352e+00
5.000000000000000000e+00,5.000000000000000000e+00,5.000000000000000000e+00,5.000000000000000000e+00,5.000000000000000000e+00,5.000000000000000000e+00,5.000000000000000000e+00,5.000000000000000000e+00,5.000000000000000000e+00,5.000000000000000000e+00,5.000000000000000000e+00,5.000000000000000000e+00,5.000000000000000000e+00,5.000000000000000000e+00,5.000000000000000000e+00,5.000000000000000000e+00,5.000000000000000000e+00,5.000000000000000000e+00,5.000000000000000000e+00,5.000000000000000000e+00,5.000000000000000000e+00,5.000000000000000000e+00,5.000000000000000000e+00,5.000000000000000000e+00,5.000000000000000000e+00,5.000000000000000000e+00,5.000000000000000000e+00,5.000000000000000000e+00,5.000000000000000000e+00,5.000000000000000000e+00,5.000000000000000000e+00,5.000000000000000000e+00,5.000000000000000000e+00,5.000000000000000000e+00,5.000000000000000000e+00,5.000000000000000000e+00,5.000000000000000000e+00,5.000000000000000000e+00,5.000000000000000000e+00,4.847306728363037109e+00,4.657579898834228516e+00,4.482146263122558594e+00,4.319448471069335938e+00,4.168148517608642578e+00,4.027089118957519531e+00,3.895264863967895508e+00,3.771797657012939453e+00,3.655916690826416016e+00,3.546944141387939453e+00,3.444279432296752930e+00,3.347391128540039062e+00,3.255804538726806641e+00,3.169096231460571289e+00,3.086886405944824219e+00,3.008834362030029297e+00,2.934631824493408203e+00,2.864000797271728516e+00,2.796689987182617188e+00,2.732470512390136719e+00,2.671134233474731445e+00,2.612491130828857422e+00,2.556367635726928711e+00,2.502604484558105469e+00,2.451056480407714844e+00,2.401588916778564453e+00,2.354078769683837891e+00,2.308411836624145508e+00,2.264483213424682617e+00,2.222195148468017578e+00,2.181457281112670898e+00,2.142186403274536133e+00,2.104304552078247070e+00,2.067738771438598633e+00,2.032422542572021484e+00,1.998292207717895508e+00,1.965289235115051270e+00,1.933358788490295410e+00,1.902449131011962891e+00,1.872512459754943848e+00,1.843503236770629883e+00
5.000000000000000000e+00,5.000000000000000000e+00,5.000000000000000000e+00,5.000000000000000000e+00,5.000000000000000000e+00,5.000000000000000000e+00,5.000000000000000000e+00,5.000000000000000000e+00,5.000000000000000000e+00,5.000000000000000000e+00,5.000000000000000000e+00,5.000000000000000000e+00,5.000000000000000000e+00,5.000000000000000000e+00,5.000000000000000000e+00,5.000000000000000000e+00,5.000000000000000000e+00,5.000000000000000000e+00,5.000000000000000000e+00,5.000000000000000000e+00,5.000000000000000000e+00,5.000000000000000000e+00,5.000000000000000000e+00,5.000000000000000000e+00,5.000000000000000000e+00,5.000000000000000000e+00,5.000000000000000000e+00,5.000000000000000000e+00,5.000000000000000000e+00,5.000000000000000000e+00,5.000000000000000000e+00,5.000000000000000000e+00,5.000000000000000000e+00,5.000000000000000000e+00,5.000000000000000000e+00,5.000000000000000000e+00,5.000000000000000000e+00,5.000000000000000000e+00,5.000000000000000000e+00,4.847445011138916016e+00,4.657707691192626953e+00,4.482264518737792969e+00,4.319558620452880859e+00,4.168251037597656250e+00,4.027184963226318359e+00,3.895354509353637695e+00,3.771881580352783203e+00,3.655995607376098633e+00,3.547018527984619141e+00,3.444349527359008789e+00,3.347457170486450195e+00,3.255867242813110352e+00,3.169155359268188477e+00,3.086942672729492188e+00,3.008887767791748047e+00,2.934682369232177734e+00,2.864049196243286133e+00,2.796736001968383789e+00,2.732514619827270508e+00,2.671176195144653320e+00,2.612531423568725586e+00,2.556406021118164062e+00,2.502641439437866211e+00,2.451091766357421875e+00,2.401623010635375977e+00,2.354111671447753906e+00,2.308443307876586914e+00,2.264513492584228516e+00,2.222223997116088867e+00,2.181485414505004883e+00,2.142213582992553711e+00,2.104330539703369141e+00,2.067764043807983398e+00,2.032446861267089844e+00,1.998315811157226562e+00,1.965312004089355469e+00,1.933380842208862305e+00,1.902470469474792480e+00,1.872533202171325684e+00,1.843523263931274414e+00
5.000000000000000000e+00,5.000000000000000000e+00,5.000000000000000000e+00,5.000000000000000000e+00,5.000000000000000000e+00,5.000000000000000000e+00,5.000000000000000000e+00,5.000000000000000000e+00,5.000000000000000000e+00,5.000000000000000000e+00,5.000000000000000000e+00,5.000000000000000000e+00,5.000000000000000000e+00,5.000000000000000000e+00,5.000000000000000000e+00,5.000000000000000000e+00,5.000000000000000000e+00,5.000000000000000000e+00,5.000000000000000000e+00,5.000000000000000000e+00,5.000000000000000000e+00,5.000000000000000000e+00,5.000000000000000000e+00,5.000000000000000000e+00,5.000000000000000000e+00,5.000000000000000000e+00,4.424640655517578125e+00,5.000000000000000000e+00,5.000000000000000000e+00,5.000000000000000000e+00,5.000000000000000000e+00,5.000000000000000000e+00,5.000000000000000000e+00,5.000000000000000000e+00,5.000000000000000000e+00,5.000000000000000000e+00,5.000000000000000000e+00,5.000000000000000000e+00,5.000000000000000000e+00,4.847583770751953125e+00,4.657835960388183594e+00,4.482383251190185547e+00,4.319668292999267578e+00,4.168353557586669922e+00,4.027280330657958984e+00,3.895444154739379883e+00,3.771965503692626953e+00,3.656074523925781250e+00,3.547092676162719727e+00,3.444419384002685547e+00,3.347523212432861328e+00,3.255929708480834961e+00,3.169214725494384766e+00,3.086998939514160156e+00,3.008941173553466797e+00,2.934733152389526367e+00,2.864097595214843750e+00,2.796782255172729492e+00,2.732558727264404297e+00,2.671218395233154297e+00,2.612571716308593750e+00,2.556444406509399414e+00,2.502678394317626953e+00,2.451127290725708008e+00,2.401657104492187500e+00,2.354144334793090820e+00,2.308474779129028320e+00,2.264543771743774414e+00,2.222253322601318359e+00,2.181513547897338867e+00,2.142240524291992188e+00,2.104356765747070312e+00,2.067789316177368164e+00,2.032471418380737305e+00,1.998339295387268066e+00,1.965334892272949219e+00,1.933402895927429199e+00,1.902491927146911621e+00,1.872553825378417969e+00,1.843543291091918945e+00
5.000000000000000000e+00,5.000000000000000000e+00,5.000000000000000000e+00,5.000000000000000000e+00,5.000000000000000000e+00,5.000000000000000000e+00,5.000000000000000000e+00,5.000000000000000000e+00,5.000000000000000000e+00,5.000000000000000000e+00,5.000000000000000000e+00,5.000000000000000000e+00,5.000000000000000000e+00,5.000000000000000000e+00,5.000000000000000000e+00,5.000000000000000000e+00,5.000000000000000000e+00,5.000000000000000000e+00,5.000000000000000000e+00,5.000000000000000000e+00,5.000000000000000000e+00,5.000000000000000000e+00,5.000000000000000000e+00,5.000000000000000000e+00,5.000000000000000000e+00,4.406908512115478516e+00,4.358899593353271484e+00,5.000000000000000000e+00,5.000000000000000000e+00,5.000000000000000000e+00,5.000000000000000000e+00,5.000000000000000000e+00,5.000000000000000000e+00,5.000000000000000000e+00,5.000000000000000000e+00,5.000000000000000000e+00,5.000000000000000000e+00,5.000000000000000000e+00,5.000000000000000000e+00,4.847722053527832031e+00,4.657963752746582031e+00,4.482501983642578125e+00,4.319778442382812500e+00,4.168456077575683594e+00,4.027376174926757812e+00,3.895533561706542969e+00,3.772049427032470703e+00,3.656153440475463867e+00,3.547166585922241211e+00,3.444489479064941406e+00,3.347589492797851562e+00,3.255992174148559570e+00,3.169274091720581055e+00,3.087055206298828125e+00,3.008994579315185547e+00,2.934783935546875000e+00,2.864145994186401367e+00,2.796828508377075195e+00,2.732602596282958984e+00,2.671260595321655273e+00,2.612612009048461914e+00,2.556483030319213867e+00,2.502715349197387695e+00,2.451162815093994141e+00,2.401690959930419922e+00,2.354176998138427734e+00,2.308506250381469727e+00,2.264573812484741211e+00,2.222282409667968750e+00,2.181541681289672852e+00,2.142267704010009766e+00,2.104382753372192383e+00,2.067814588546752930e+00,2.032495737075805664e+00,1.998362898826599121e+00,1.965357661247253418e+00,1.933424949645996094e+00,1.902513265609741211e+00,1.872574567794799805e+00,1.843563318252563477e+00
5.000000000000000000e+00,5.000000000000000000e+00,5.000000000000000000e+00,5.000000000000000000e+00,5.000000000000000000e+00,5.000000000000000000e+00,5.000000000000000000e+00,5.000000000000000000e+00,5.000000000000000000e+00,5.000000000000000000e+00,5.000000000000000000e+00,5.000000000000000000e+00,5.000000000000000000e+00,5.000000000000000000e+00,5.000000000000000000e+00,5.000000000000000000e+00,5.000000000000000000e+00,5.000000000000000000e+00,5.000000000000000000e+00,5.000000000000000000e+00,5.000000000000000000e+00,5.000000000000000000e+00,5.000000000000000000e+00,5.000000000000000000e+00,5.000000000000000000e+00,5.000000000000000000e+00,4.372470855712890625e+00,5.000000000000000000e+00,5.000000000000000000e+00,5.000000000000000000e+00,5.000000000000000000e+00,5.000000000000000000e+00,5.000000000000000000e+00,5.000000000000000000e+00,5.000000000000000000e+00,5.000000000000000000e+00,5.000000000000000000e+00,5.000000000000000000e+00,5.000000000000000000e+00,4.847860813140869141e+00,4.658092021942138672e+00,4.482620239257812500e+00,4.319888591766357422e+00,4.168558597564697266e+00,4.027472019195556641e+00,3.895623207092285156e+00,3.772133350372314453e+00,3.656232357025146484e+00,3.547240734100341797e+00,3.444559335708618164e+00,3.347655534744262695e+00,3.256054878234863281e+00,3.169333219528198242e+00,3.087111473083496094e+00,3.009047746658325195e+00,2.934834718704223633e+00,2.864194393157958984e+00,2.796874523162841797e+00,2.732646703720092773e+00,2.671302556991577148e+00,2.612652063369750977e+00,2.556521654129028320e+00,2.502752304077148438e+00,2.451198101043701172e+00,2.401725053787231445e+00,2.354209661483764648e+00,2.308537721633911133e+00,2.264604091644287109e+00,2.222311496734619141e+00,2.181569576263427734e+00,2.142294883728027344e+00,2.104408979415893555e+00,2.067839860916137695e+00,2.032520055770874023e+00,1.998386502265930176e+00,1.965380430221557617e+00,1.933447003364562988e+00,1.902534604072570801e+00,1.872595310211181641e+00,1.843583464622497559e+00
5.000000000000000000e+00,5.000000000000000000e+00,5.000000000000000000e+00,5.000000000000000000e+00,5.000000000000000000e+00,5.000000000000000000e+00,5.000000000000000000e+00,5.000000000000000000e+00,5.000000000000000000e+00,5.000000000000000000e+00,5.000000000000000000e+00,5.000000000000000000e+00,5.000000000000000000e+00,5.000000000000000000e+00,5.000000000000000000e+00,5.000000000000000000e+00,5.000000000000000000e+00,5.000000000000000000e+00,5.000000000000000000e+00,5.000000000000000000e+00,5.000000000000000000e+00,5.000000000000000000e+00,5.000000000000000000e+00,5.000000000000000000e+00,5.000000000000000000e+00,5.000000000000000000e+00,4.447512626647949219e+00,4.462174892425537109e+00,5.000000000000000000e+00,5.000000000000000000e+00,5.000000000000000000e+00,5.000000000000000000e+00,5.000000000000000000e+00,5.000000000000000000e+00,5.000000000000000000e+00,5.000000000000000000e+00,5.000000000000000000e+00,5.000000000000000000e+00,5.000000000000000000e+00,4.847999572753906250e+00,4.658219814300537109e+00,4.482738494873046875e+00,4.319998741149902344e+00,4.168661117553710938e+00,4.027567386627197266e+00,3.895712614059448242e+00,3.772217273712158203e+00,3.656310796737670898e+00,3.547315120697021484e+00,3.444629430770874023e+00,3.347721576690673828e+00,3.256117343902587891e+00,3.169392585754394531e+00,3.087167739868164062e+00,3.009101152420043945e+00,2.934885501861572266e+00,2.864242792129516602e+00,2.796920776367187500e+00,2.732690811157226562e+00,2.671344757080078125e+00,2.612692356109619141e+00,2.556560039520263672e+00,2.502789258956909180e+00,2.451233625411987305e+00,2.401759147644042969e+00,2.354242324829101562e+00,2.308569192886352539e+00,2.264634370803833008e+00,2.222340583801269531e+00,2.181597709655761719e+00,2.142321825027465820e+00,2.104435205459594727e+00,2.067865133285522461e+00,2.032544374465942383e+00,1.998409986495971680e+00,1.965403199195861816e+00,1.933469057083129883e+00,1.902555942535400391e+00,1.872615933418273926e+00,1.843603491783142090e+00
5.000000000000000000e+00,5.000000000000000000e+00,5.000000000000000000e+00,5.000000000000000000e+00,5.000000000000000000e+00,5.000000000000000000e+00,5.000000000000000000e+00,5.000000000000000000e+00,5.000000000000000000e+00,5.000000000000000000e+00,5.000000000000000000e+00,5.000000000000000000e+00,5.000000000000000000e+00,5.000000000000000000e+00,5.000000000000000000e+00,5.000000000000000000e+00,5.000000000000000000e+00,5.000000000000000000e+00,5.000000000000000000e+00,5.000000000000000000e+00,5.000000000000000000e+00,5.000000000000000000e+00,5.000000000000000000e+00,4.433358192443847656e+00,4.414455890655517578e+00,4.393461704254150391e+00,4.392571926116943359e+00,4.402353286743164062e+00,4.432454586029052734e+00,4.455119132995605469e+00,5.000000000000000000e+00,5.000000000000000000e+00,5.000000000000000000e+00,5.000000000000000000e+00,5.000000000000000000e+00,5.000000000000000000e+00,5.000000000000000000e+00,5.000000000000000000e+00,5.000000000000000000e+00,4.848138332366943359e+00,4.658348083496093750e+00,4.482857227325439453e+00,4.320108890533447266e+00,4.168763637542724609e+00,4.027663230895996094e+00,3.895802259445190430e+00,3.772301197052001953e+00,3.656389713287353516e+00,3.547389268875122070e+00,3.444699525833129883e+00,3.347787857055664062e+00,3.256179809570312500e+00,3.169451713562011719e+00,3.087223529815673828e+00,3.009154558181762695e+00,2.934936523437500000e+00,2.864291191101074219e+00,2.796966791152954102e+00,2.732734918594360352e+00,2.671386718750000000e+00,2.612732410430908203e+00,2.556598663330078125e+00,2.502826213836669922e+00,2.451269149780273438e+00,2.401793241500854492e+00,2.354274988174438477e+00,2.308600425720214844e+00,2.264664649963378906e+00,2.222369909286499023e+00,2.181625843048095703e+00,2.142349004745483398e+00,2.104461193084716797e+00,2.067890167236328125e+00,2.032568693161010742e+00,1.998433589935302734e+00,1.965425968170166016e+00,1.933491110801696777e+00,1.902577280998229980e+00,1.872636675834655762e+00,1.843623518943786621e+00
5.000000000000000000e+00,5.000000000000000000e+00,5.000000000000000000e+00,5.000000000000000000e+00,5.000000000000000000e+00,5.000000000000000000e+00,5.000000000000000000e+00,5.000000000000000000e+00,5.000000000000000000e+00,5.000000000000000000e+00,5.000000000000000000e+00,5.000000000000000000e+00,5.000000000000000000e+00,5.000000000000000000e+00,5.000000000000000000e+00,5.000000000000000000e+00,5.000000000000000000e+00,5.000000000000000000e+00,5.000000000000000000e+00,5.000000000000000000e+00,5.000000000000000000e+00,5.000000000000000000e+00,5.000000000000000000e+00,4.412785530090332031e+00,4.388813018798828125e+00,4.344234943389892578e+00,4.350732803344726562e+00,4.369894504547119141e+00,4.434324741363525391e+00,4.463250637054443359e+00,5.000000000000000000e+00,5.000000000000000000e+00,5.000000000000000000e+00,5.000000000000000000e+00,5.000000000000000000e+00,5.000000000000000000e+00,5.000000000000000000e+00,5.000000000000000000e+00,5.000000000000000000e+00,4.848277091979980469e+00,4.658475875854492188e+00,4.482975959777832031e+00,4.320219039916992188e+00,4.168865680694580078e+00,4.027759075164794922e+00,3.895891904830932617e+00,3.772385358810424805e+00,3.656468629837036133e+00,3.547463655471801758e+00,3.444769382476806641e+00,3.347853899002075195e+00,3.256242513656616211e+00,3.169511079788208008e+00,3.087279796600341797e+00,3.009207963943481445e+00,2.934987306594848633e+00,2.864339590072631836e+00,2.797013044357299805e+00,2.732779026031494141e+00,2.671428680419921875e+00,2.612772703170776367e+00,2.556637287139892578e+00,2.502863168716430664e+00,2.451304435729980469e+00,2.401827096939086914e+00,2.354307889938354492e+00,2.308631896972656250e+00,2.264694929122924805e+00,2.222398996353149414e+00,2.181653976440429688e+00,2.142375946044921875e+00,2.104487419128417969e+00,2.067915439605712891e+00,2.032593011856079102e+00,1.998457193374633789e+00,1.965448856353759766e+00,1.933513164520263672e+00,1.902598738670349121e+00,1.872657299041748047e+00,1.843643546104431152e+00
5.000000000000000000e+00,5.000000000000000000e+00,5.000000000000000000e+00,5.000000000000000000e+00,5.000000000000000000e+00,5.000000000000000000e+00,5.000000000000000000e+00,5.000000000000000000e+00,5.000000000000000000e+00,5.000000000000000000e+00,5.000000000000000000e+00,5.000000000000000000e+00,5.000000000000000000e+00,5.000000000000000000e+00,5.000000000000000000e+00,5.000000000000000000e+00,5.000000000000000000e+00,5.000000000000000000e+00,5.000000000000000000e+00,5.000000000000000000e+00,5.000000000000000000e+00,5.000000000000000000e+00,5.000000000000000000e+00,5.000000000000000000e+00,4.441964626312255859e+00,4.349700927734375000e+00,4.346697807312011719e+00,4.378589630126953125e+00,4.459664821624755859e+00,4.462905406951904297e+00,5.000000000000000000e+00,5.000000000000000000e+00,5.000000000000000000e+00,5.000000000000000000e+00,5.000000000000000000e+00,5.000000000000000000e+00,5.000000000000000000e+00,5.000000000000000000e+00,5.000000000000000000e+00,4.848415851593017578e+00,4.658603668212890625e+00,4.483094215393066406e+00,4.320329189300537109e+00,4.168968200683593750e+00,4.027854442596435547e+00,3.895981311798095703e+00,3.772468805313110352e+00,3.656547546386718750e+00,3.547537803649902344e+00,3.444839477539062500e+00,3.347919940948486328e+00,3.256304979324340820e+00,3.169570446014404297e+00,3.087336063385009766e+00,3.009261369705200195e+00,2.935038089752197266e+00,2.864387989044189453e+00,2.797059297561645508e+00,2.732823133468627930e+00,2.671470880508422852e+00,2.612812995910644531e+00,2.556675910949707031e+00,2.502900123596191406e+00,2.451339960098266602e+00,2.401861190795898438e+00,2.354340314865112305e+00,2.308663368225097656e+00,2.264725208282470703e+00,2.222428083419799805e+00,2.181682109832763672e+00,2.142403125762939453e+00,2.104513406753540039e+00,2.067940711975097656e+00,2.032617568969726562e+00,1.998480796813964844e+00,1.965471625328063965e+00,1.933535337448120117e+00,1.902620077133178711e+00,1.872677803039550781e+00,1.843663692474365234e+00
5.000000000000000000e+00,5.000000000000000000e+00,5.000000000000000000e+00,5.000000000000000000e+00,5.000000000000000000e+00,5.000000000000000000e+00,5.000000000000000000e+00,5.000000000000000000e+00,5.000000000000000000e+00,5.000000000000000000e+00,5.000000000000000000e+00,5.000000000000000000e+00,5.000000000000000000e+00,5.000000000000000000e+00,5.000000000000000000e+00,5.000000000000000000e+00,5.000000000000000000e+00,5.000000000000000000e+00,5.000000000000000000e+00,5.000000000000000000e+00,5.000000000000000000e+00,5.000000000000000000e+00,5.000000000000000000e+00,5.000000000000000000e+00,4.444086551666259766e+00,4.347464561462402344e+00,4.345936298370361328e+00,4.375281810760498047e+00,5.000000000000000000e+00,4.459203720092773438e+00,5.000000000000000000e+00,5.000000000000000000e+00,5.000000000000000000e+00,5.000000000000000000e+00,5.000000000000000000e+00,5.000000000000000000e+00,5.000000000000000000e+00,5.000000000000000000e+00,5.000000000000000000e+00,4.848554134368896484e+00,4.658731937408447266e+00,4.483212947845458984e+00,4.320439338684082031e+00,4.169070720672607422e+00,4.027950286865234375e+00,3.896070957183837891e+00,3.772552728652954102e+00,3.656626224517822266e+00,3.547611951828002930e+00,3.444909572601318359e+00,3.347986221313476562e+00,3.256367683410644531e+00,3.169629335403442383e+00,3.087392330169677734e+00,3.009314775466918945e+00,2.935088872909545898e+00,2.864436388015747070e+00,2.797105312347412109e+00,2.732867002487182617e+00,2.671512842178344727e+00,2.612853288650512695e+00,2.556714534759521484e+00,2.502937078475952148e+00,2.451375484466552734e+00,2.401895284652709961e+00,2.354372978210449219e+00,2.308694839477539062e+00,2.264755487442016602e+00,2.222457170486450195e+00,2.181710004806518555e+00,2.142430305480957031e+00,2.104539394378662109e+00,2.067965745925903320e+00,2.032641887664794922e+00,1.998504281044006348e+00,1.965494394302368164e+00,1.933557391166687012e+00,1.902641415596008301e+00,1.872698545455932617e+00,1.843683719635009766e+00
5.000000000000000000e+00,5.000000000000000000e+00,5.000000000000000000e+00,5.000000000000000000e+00,5.000000000000000000e+00,5.000000000000000000e+00,5.000000000000000000e+00,5.000000000000000000e+00,5.000000000000000000e+00,5.000000000000000000e+00,5.000000000000000000e+00,5.000000000000000000e+00,5.000000000000000000e+00,5.000000000000000000e+00,5.000000000000000000e+00,5.000000000000000000e+00,5.000000000000000000e+00,5.000000000000000000e+00,5.000000000000000000e+00,5.000000000000000000e+00,5.000000000000000000e+00,5.000000000000000000e+00,5.000000000000000000e+00,5.000000000000000000e+00,4.420777797698974609e+00,4.331172943115234375e+00,4.346053123474121094e+00,4.365925312042236328e+00,5.000000000000000000e+00,4.459795475006103516e+00,5.000000000000000000e+00,5.000000000000000000e+00,5.000000000000000000e+00,5.000000000000000000e+00,5.000000000000000000e+00,5.000000000000000000e+00,5.000000000000000000e+00,5.000000000000000000e+00,5.000000000000000000e+00,4.848692893981933594e+00,4.658859729766845703e+00,4.483331680297851562e+00,4.320549011230468750e+00,4.169173717498779297e+00,4.028046131134033203e+00,3.896160125732421875e+00,3.772636890411376953e+00,3.656705141067504883e+00,3.547686338424682617e+00,3.444979667663574219e+00,3.348052263259887695e+00,3.256430149078369141e+00,3.169688701629638672e+00,3.087448596954345703e+00,3.009368181228637695e+00,2.935139656066894531e+00,2.864484786987304688e+00,2.797151565551757812e+00,2.732910871505737305e+00,2.671555042266845703e+00,2.612893581390380859e+00,2.556752920150756836e+00,2.502974033355712891e+00,2.451411008834838867e+00,2.401929378509521484e+00,2.354405879974365234e+00,2.308726310729980469e+00,2.264785766601562500e+00,2.222486257553100586e+00,2.181738138198852539e+00,2.142457246780395508e+00,2.104565620422363281e+00,2.067991018295288086e+00,2.032666206359863281e+00,1.998527884483337402e+00,1.965517163276672363e+00,1.933579444885253906e+00,1.902662754058837891e+00,1.872719168663024902e+00,1.843703746795654297e+00
5.000000000000000000e+00,5.000000000000000000e+00,5.000000000000000000e+00,5.000000000000000000e+00,5.000000000000000000e+00,5.000000000000000000e+00,5.000000000000000000e+00,5.000000000000000000e+00,5.000000000000000000e+00,5.000000000000000000e+00,5.000000000000000000e+00,5.000000000000000000e+00,5.000000000000000000e+00,5.000000000000000000e+00,5.000000000000000000e+00,5.000000000000000000e+00,5.000000000000000000e+00,5.000000000000000000e+00,5.000000000000000000e+00,5.000000000000000000e+00,5.000000000000000000e+00,5.000000000000000000e+00,5.000000000000000000e+00,5.000000000000000000e+00,4.452871799468994141e+00,4.348144054412841797e+00,4.344068050384521484e+00,4.376934528350830078e+00,4.479816913604736328e+00,4.422169685363769531e+00,5.000000000000000000e+00,5.000000000000000000e+00,5.000000000000000000e+00,5.000000000000000000e+00,5.000000000000000000e+00,5.000000000000000000e+00,5.000000000000000000e+00,5.000000000000000000e+00,5.000000000000000000e+00,4.848831653594970703e+00,4.658987998962402344e+00,4.483450412750244141e+00,4.320659160614013672e+00,4.169276237487792969e+00,4.028141975402832031e+00,3.896249771118164062e+00,3.772720813751220703e+00,3.656784057617187500e+00,3.547760486602783203e+00,3.445049524307250977e+00,3.348118543624877930e+00,3.256492376327514648e+00,3.169747829437255859e+00,3.087504863739013672e+00,3.009421825408935547e+00,2.935190677642822266e+00,2.864533185958862305e+00,2.797197818756103516e+00,2.732954978942871094e+00,2.671597242355346680e+00,2.612933874130249023e+00,2.556791543960571289e+00,2.503010988235473633e+00,2.451446294784545898e+00,2.401963233947753906e+00,2.354438543319702148e+00,2.308757781982421875e+00,2.264816045761108398e+00,2.222515583038330078e+00,2.181766271591186523e+00,2.142484426498413086e+00,2.104591846466064453e+00,2.068016290664672852e+00,2.032690525054931641e+00,1.998551487922668457e+00,1.965539932250976562e+00,1.933601498603820801e+00,1.902684092521667480e+00,1.872739911079406738e+00,1.843723773956298828e+00
5.000000000000000000e+00,5.000000000000000000e+00,5.000000000000000000e+00,5.000000000000000000e+00,5.000000000000000000e+00,5.000000000000000000e+00,5.000000000000000000e+00,5.000000000000000000e+00,5.000000000000000000e+00,5.000000000000000000e+00,5.000000000000000000e+00,5.000000000000000000e+00,5.000000000000000000e+00,5.000000000000000000e+00,5.000000000000000000e+00,5.000000000000000000e+00,5.000000000000000000e+00,5.000000000000000000e+00,5.000000000000000000e+00,5.000000000000000000e+00,5.000000000000000000e+00,5.000000000000000000e+00,5.000000000000000000e+00,5.000000000000000000e+00,4.386088371276855469e+00,4.308946609497070312e+00,4.377822399139404297e+00,4.396120548248291016e+00,4.451727390289306641e+00,5.000000000000000000e+00,4.372781753540039062e+00,5.000000000000000000e+00,5.000000000000000000e+00,5.000000000000000000e+00,5.000000000000000000e+00,5.000000000000000000e+00,5.000000000000000000e+00,5.000000000000000000e+00,5.000000000000000000e+00,4.848970413208007812e+00,4.659116268157958984e+00,4.483568668365478516e+00,4.320769309997558594e+00,4.169378757476806641e+00,4.028237342834472656e+00,3.896339178085327148e+00,3.772804737091064453e+00,3.656862974166870117e+00,3.547834873199462891e+00,3.445119619369506836e+00,3.348184585571289062e+00,3.256555080413818359e+00,3.169807195663452148e+00,3.087561130523681641e+00,3.009475231170654297e+00,2.935241460800170898e+00,2.864581584930419922e+00,2.797243595123291016e+00,2.732999086380004883e+00,2.671639204025268555e+00,2.612974166870117188e+00,2.556830167770385742e+00,2.503047943115234375e+00,2.451481819152832031e+00,2.401997327804565430e+00,2.354471206665039062e+00,2.308789253234863281e+00,2.264846324920654297e+00,2.222544670104980469e+00,2.181794404983520508e+00,2.142511367797851562e+00,2.104617834091186523e+00,2.068041563034057617e+00,2.032715082168579102e+00,1.998574972152709961e+00,1.965562820434570312e+00,1.933623552322387695e+00,1.902705430984497070e+00,1.872760653495788574e+00,1.843743920326232910e+00
5.000000000000000000e+00,5.000000000000000000e+00,5.000000000000000000e+00,5.000000000000000000e+00,5.000000000000000000e+00,5.000000000000000000e+00,5.000000000000000000e+00,5.000000000000000000e+00,5.000000000000000000e+00,5.000000000000000000e+00,5.000000000000000000e+00,5.000000000000000000e+00,5.000000000000000000e+00,5.000000000000000000e+00,5.000000000000000000e+00,5.000000000000000000e+00,5.000000000000000000e+00,5.000000000000000000e+00,5.000000000000000000e+00,5.000000000000000000e+00,5.000000000000000000e+00,5.000000000000000000e+00,5.000000000000000000e+00,5.000000000000000000e+00,4.290755271911621094e+00,4.264869689941406250e+00,4.355603218078613281e+00,4.399740695953369141e+00,4.441110610961914062e+00,5.000000000000000000e+00,4.302568435668945312e+00,5.000000000000000000e+00,5.000000000000000000e+00,5.000000000000000000e+00,5.000000000000000000e+00,5.000000000000000000e+00,5.000000000000000000e+00,5.000000000000000000e+00,5.000000000000000000e+00,4.849109172821044922e+00,4.659244060516357422e+00,4.483686923980712891e+00,4.320879459381103516e+00,4.169481277465820312e+00,4.028333187103271484e+00,3.896428823471069336e+00,3.772888660430908203e+00,3.656941890716552734e+00,3.547909259796142578e+00,3.445189714431762695e+00,3.348250865936279297e+00,3.256617546081542969e+00,3.169866561889648438e+00,3.087617397308349609e+00,3.009528636932373047e+00,2.935292243957519531e+00,2.864629983901977539e+00,2.797289848327636719e+00,2.733043193817138672e+00,2.671681404113769531e+00,2.613014459609985352e+00,2.556868791580200195e+00,2.503084897994995117e+00,2.451517105102539062e+00,2.402031421661376953e+00,2.354503870010375977e+00,2.308820724487304688e+00,2.264876604080200195e+00,2.222573757171630859e+00,2.181822538375854492e+00,2.142538309097290039e+00,2.104644060134887695e+00,2.068066835403442383e+00,2.032739400863647461e+00,1.998598575592041016e+00,1.965585589408874512e+00,1.933645367622375488e+00,1.902726888656616211e+00,1.872781276702880859e+00,1.843763947486877441e+00
5.000000000000000000e+00,5.000000000000000000e+00,5.000000000000000000e+00,5.000000000000000000e+00,5.000000000000000000e+00,5.000000000000000000e+00,5.000000000000000000e+00,5.000000000000000000e+00,5.000000000000000000e+00,5.000000000000000000e+00,5.000000000000000000e+00,5.000000000000000000e+00,5.000000000000000000e+00,5.000000000000000000e+00,5.000000000000000000e+00,5.000000000000000000e+00,5.000000000000000000e+00,5.000000000000000000e+00,5.000000000000000000e+00,5.000000000000000000e+00,5.000000000000000000e+00,5.000000000000000000e+00,5.000000000000000000e+00,5.000000000000000000e+00,4.302770137786865234e+00,4.238454818725585938e+00,4.336193561553955078e+00,4.410462379455566406e+00,4.464121341705322266e+00,5.000000000000000000e+00,5.000000000000000000e+00,5.000000000000000000e+00,5.000000000000000000e+00,5.000000000000000000e+00,5.000000000000000000e+00,5.000000000000000000e+00,5.000000000000000000e+00,5.000000000000000000e+00,5.000000000000000000e+00,4.849247932434082031e+00,4.659372329711914062e+00,4.483805656433105469e+00,4.320989608764648438e+00,4.169583797454833984e+00,4.028429031372070312e+00,3.896518468856811523e+00,3.772972822189331055e+00,3.657020807266235352e+00,3.547983407974243164e+00,3.445259809494018555e+00,3.348316669464111328e+00,3.256680250167846680e+00,3.169925689697265625e+00,3.087673664093017578e+00,3.009582042694091797e+00,2.935343027114868164e+00,2.864678621292114258e+00,2.797336101531982422e+00,2.733087301254272461e+00,2.671723604202270508e+00,2.613054752349853516e+00,2.556907415390014648e+00,2.503121852874755859e+00,2.451552629470825195e+00,2.402065277099609375e+00,2.354536533355712891e+00,2.308851957321166992e+00,2.264906883239746094e+00,2.222603082656860352e+00,2.181850433349609375e+00,2.142565488815307617e+00,2.104670286178588867e+00,2.068092107772827148e+00,2.032763719558715820e+00,1.998622179031372070e+00,1.965608358383178711e+00,1.933667421340942383e+00,1.902748227119445801e+00,1.872802019119262695e+00,1.843783974647521973e+00
5.000000000000000000e+00,5.000000000000000000e+00,5.000000000000000000e+00,5.000000000000000000e+00,5.000000000000000000e+00,5.000000000000000000e+00,5.000000000000000000e+00,5.000000000000000000e+00,5.000000000000000000e+00,5.000000000000000000e+00,5.000000000000000000e+00,5.000000000000000000e+00,5.000000000000000000e+00,5.000000000000000000e+00,5.000000000000000000e+00,5.000000000000000000e+00,5.000000000000000000e+00,5.000000000000000000e+00,5.000000000000000000e+00,5.000000000000000000e+00,5.000000000000000000e+00,5.000000000000000000e+00,5.000000000000000000e+00,5.000000000000000000e+00,4.419335842132568359e+00,4.208413124084472656e+00,4.308987617492675781e+00,4.439526081085205078e+00,5.000000000000000000e+00,5.000000000000000000e+00,5.000000000000000000e+00,5.000000000000000000e+00,5.000000000000000000e+00,5.000000000000000000e+00,5.000000000000000000e+00,5.000000000000000000e+00,5.000000000000000000e+00,5.000000000000000000e+00,5.000000000000000000e+00,4.849386692047119141e+00,4.659500122070312500e+00,4.483924388885498047e+00,4.321099758148193359e+00,4.169686317443847656e+00,4.028524398803710938e+00,3.896608114242553711e+00,3.773056745529174805e+00,3.657099723815917969e+00,3.548057794570922852e+00,3.445329666137695312e+00,3.348382711410522461e+00,3.256742715835571289e+00,3.169985055923461914e+00,3.087729930877685547e+00,3.009635448455810547e+00,2.935394048690795898e+00,2.864726781845092773e+00,2.797382116317749023e+00,2.733131408691406250e+00,2.671765565872192383e+00,2.613095045089721680e+00,2.556945800781250000e+00,2.503158807754516602e+00,2.451588153839111328e+00,2.402099370956420898e+00,2.354569435119628906e+00,2.308883428573608398e+00,2.264937162399291992e+00,2.222632169723510742e+00,2.181878566741943359e+00,2.142592668533325195e+00,2.104696273803710938e+00,2.068117141723632812e+00,2.032788038253784180e+00,1.998645663261413574e+00,1.965631127357482910e+00,1.933689475059509277e+00,1.902769565582275391e+00,1.872822642326354980e+00,1.843804121017456055e+00
5.000000000000000000e+00,5.000000000000000000e+00,5.000000000000000000e+00,5.000000000000000000e+00,5.000000000000000000e+00,5.000000000000000000e+00,5.000000000000000000e+00,5.000000000000000000e+00,5.000000000000000000e+00,5.000000000000000000e+00,5.000000000000000000e+00,5.000000000000000000e+00,5.000000000000000000e+00,5.000000000000000000e+00,5.000000000000000000e+00,5.000000000000000000e+00,5.000000000000000000e+00,5.000000000000000000e+00,5.000000000000000000e+00,5.000000000000000000e+00,5.000000000000000000e+00,5.000000000000000000e+00,5.000000000000000000e+00,5.000000000000000000e+00,5.000000000000000000e+00,4.178784847259521484e+00,4.269478321075439453e+00,4.467458248138427734e+00,5.000000000000000000e+00,5.000000000000000000e+00,5.000000000000000000e+00,5.000000000000000000e+00,5.000000000000000000e+00,5.000000000000000000e+00,5.000000000000000000e+00,5.000000000000000000e+00,5.000000000000000000e+00,5.000000000000000000e+00,5.000000000000000000e+00,4.849525451660156250e+00,4.659628391265869141e+00,4.484043121337890625e+00,4.321209907531738281e+00,4.169788837432861328e+00,4.028620243072509766e+00,3.896697521209716797e+00,3.773140668869018555e+00,3.657178878784179688e+00,3.548131942749023438e+00,3.445399522781372070e+00,3.348448991775512695e+00,3.256805419921875000e+00,3.170044422149658203e+00,3.087786197662353516e+00,3.009688854217529297e+00,2.935444831848144531e+00,2.864775180816650391e+00,2.797428369522094727e+00,2.733175277709960938e+00,2.671807765960693359e+00,2.613135337829589844e+00,2.556984424591064453e+00,2.503195762634277344e+00,2.451623439788818359e+00,2.402133464813232422e+00,2.354602098464965820e+00,2.308914899826049805e+00,2.264967203140258789e+00,2.222661256790161133e+00,2.181906700134277344e+00,2.142619609832763672e+00,2.104722499847412109e+00,2.068142414093017578e+00,2.032812595367431641e+00,1.998669266700744629e+00,1.965654015541076660e+00,1.933711528778076172e+00,1.902790904045104980e+00,1.872843384742736816e+00,1.843824148178100586e+00
5.000000000000000000e+00,5.000000000000000000e+00,5.000000000000000000e+00,5.000000000000000000e+00,5.000000000000000000e+00,5.000000000000000000e+00,5.000000000000000000e+00,5.000000000000000000e+00,5.000000000000000000e+00,5.000000000000000000e+00,5.000000000000000000e+00,5.000000000000000000e+00,5.000000000000000000e+00,5.000000000000000000e+00,5.000000000000000000e+00,5.000000000000000000e+00,5.000000000000000000e+00,5.000000000000000000e+00,5.000000000000000000e+00,5.000000000000000000e+00,5.000000000000000000e+00,5.000000000000000000e+00,5.000000000000000000e+00,5.000000000000000000e+00,5.000000000000000000e+00,4.184323310852050781e+00,5.000000000000000000e+00,4.493281841278076172e+00,5.000000000000000000e+00,5.000000000000000000e+00,5.000000000000000000e+00,5.000000000000000000e+00,5.000000000000000000e+00,5.000000000000000000e+00,5.000000000000000000e+00,5.000000000000000000e+00,5.000000000000000000e+00,5.000000000000000000e+00,5.000000000000000000e+00,4.849663257598876953e+00,4.659756183624267578e+00,4.484161853790283203e+00,4.321320056915283203e+00,4.169891357421875000e+00,4.028716087341308594e+00,3.896787166595458984e+00,3.773224830627441406e+00,3.657257795333862305e+00,3.548206329345703125e+00,3.445469379425048828e+00,3.348515033721923828e+00,3.256867885589599609e+00,3.170103788375854492e+00,3.087842464447021484e+00,3.009742498397827148e+00,2.935495376586914062e+00,2.864823579788208008e+00,2.797474622726440430e+00,2.733219385147094727e+00,2.671849966049194336e+00,2.613175630569458008e+00,2.557023048400878906e+00,2.503232717514038086e+00,2.451658964157104492e+00,2.402167558670043945e+00,2.354634761810302734e+00,2.308946371078491211e+00,2.264997482299804688e+00,2.222690343856811523e+00,2.181934595108032227e+00,2.142646789550781250e+00,2.104748725891113281e+00,2.068167686462402344e+00,2.032836914062500000e+00,1.998692870140075684e+00,1.965676784515380859e+00,1.933733582496643066e+00,1.902812361717224121e+00,1.872864127159118652e+00,1.843844175338745117e+00
5.000000000000000000e+00,5.000000000000000000e+00,5.000000000000000000e+00,5.000000000000000000e+00,5.000000000000000000e+00,5.000000000000000000e+00,5.000000000000000000e+00,5.000000000000000000e+00,5.000000000000000000e+00,5.000000000000000000e+00,5.000000000000000000e+00,5.000000000000000000e+00,5.000000000000000000e+00,5.000000000000000000e+00,5.000000000000000000e+00,5.000000000000000000e+00,5.000000000000000000e+00,5.000000000000000000e+00,5.000000000000000000e+00,5.000000000000000000e+00,5.000000000000000000e+00,5.000000000000000000e+00,5.000000000000000000e+00,5.000000000000000000e+00,5.000000000000000000e+00,4.198349475860595703e+00,5.000000000000000000e+00,4.550515651702880859e+00,5.000000000000000000e+00,5.000000000000000000e+00,5.000000000000000000e+00,5.000000000000000000e+00,5.000000000000000000e+00,5.000000000000000000e+00,5.000000000000000000e+00,5.000000000000000000e+00,5.000000000000000000e+00,5.000000000000000000e+00,5.000000000000000000e+00,4.849800586700439453e+00,4.659884452819824219e+00,4.484280109405517578e+00,4.321430206298828125e+00,4.169993877410888672e+00,4.028811931610107422e+00,3.896876811981201172e+00,3.773308753967285156e+00,3.657336711883544922e+00,3.548280477523803711e+00,3.445539474487304688e+00,3.348581314086914062e+00,3.256930589675903320e+00,3.170162916183471680e+00,3.087898731231689453e+00,3.009795904159545898e+00,2.935546159744262695e+00,2.864871978759765625e+00,2.797520637512207031e+00,2.733263492584228516e+00,2.671891927719116211e+00,2.613215923309326172e+00,2.557061433792114258e+00,2.503269672393798828e+00,2.451694488525390625e+00,2.402201652526855469e+00,2.354667425155639648e+00,2.308977842330932617e+00,2.265027761459350586e+00,2.222719430923461914e+00,2.181962728500366211e+00,2.142673730850219727e+00,2.104774713516235352e+00,2.068192958831787109e+00,2.032861232757568359e+00,1.998716235160827637e+00,1.965699553489685059e+00,1.933755755424499512e+00,1.902833700180053711e+00,1.872884750366210938e+00,1.843864202499389648e+00
5.000000000000000000e+00,5.000000000000000000e+00,5.000000000000000000e+00,5.000000000000000000e+00,5.000000000000000000e+00,5.000000000000000000e+00,5.000000000000000000e+00,5.000000000000000000e+00,5.000000000000000000e+00,5.000000000000000000e+00,5.000000000000000000e+00,5.000000000000000000e+00,5.000000000000000000e+00,5.000000000000000000e+00,5.000000000000000000e+00,5.000000000000000000e+00,5.000000000000000000e+00,5.000000000000000000e+00,5.000000000000000000e+00,5.000000000000000000e+00,5.000000000000000000e+00,5.000000000000000000e+00,5.000000000000000000e+00,5.000000000000000000e+00,5.000000000000000000e+00,4.189988613128662109e+00,5.000000000000000000e+00,4.635439395904541016e+00,5.000000000000000000e+00,5.000000000000000000e+00,5.000000000000000000e+00,5.000000000000000000e+00,5.000000000000000000e+00,5.000000000000000000e+00,5.000000000000000000e+00,5.000000000000000000e+00,5.000000000000000000e+00,5.000000000000000000e+00,5.000000000000000000e+00,4.849937438964843750e+00,4.660010814666748047e+00,4.484398841857910156e+00,4.321540355682373047e+00,4.170096397399902344e+00,4.028907775878906250e+00,3.896966457366943359e+00,3.773392915725708008e+00,3.657415628433227539e+00,3.548354625701904297e+00,3.445609569549560547e+00,3.348647356033325195e+00,3.256993055343627930e+00,3.170222282409667969e+00,3.087954998016357422e+00,3.009849309921264648e+00,2.935597181320190430e+00,2.864920377731323242e+00,2.797566890716552734e+00,2.733307600021362305e+00,2.671934127807617188e+00,2.613256216049194336e+00,2.557100057601928711e+00,2.503306627273559570e+00,2.451730012893676758e+00,2.402235507965087891e+00,2.354700088500976562e+00,2.309009313583374023e+00,2.265058040618896484e+00,2.222748517990112305e+00,2.181990861892700195e+00,2.142700910568237305e+00,2.104800939559936523e+00,2.068218231201171875e+00,2.032885789871215820e+00,1.998739719390869141e+00,1.965722322463989258e+00,1.933777809143066406e+00,1.902855038642883301e+00,1.872905492782592773e+00,1.843884348869323730e+00
5.000000000000000000e+00,5.000000000000000000e+00,5.000000000000000000e+00,5.000000000000000000e+00,5.000000000000000000e+00,5.000000000000000000e+00,5.000000000000000000e+00,5.000000000000000000e+00,5.000000000000000000e+00,5.000000000000000000e+00,5.000000000000000000e+00,5.000000000000000000e+00,5.000000000000000000e+00,5.000000000000000000e+00,5.000000000000000000e+00,5.000000000000000000e+00,5.000000000000000000e+00,5.000000000000000000e+00,5.000000000000000000e+00,5.000000000000000000e+00,5.000000000000000000e+00,5.000000000000000000e+00,5.000000000000000000e+00,5.000000000000000000e+00,5.000000000000000000e+00,4.185447216033935547e+00,5.000000000000000000e+00,4.688239574432373047e+00,5.000000000000000000e+00,5.000000000000000000e+00,5.000000000000000000e+00,5.000000000000000000e+00,5.000000000000000000e+00,5.000000000000000000e+00,5.000000000000000000e+00,5.000000000000000000e+00,5.000000000000000000e+00,5.000000000000000000e+00,5.000000000000000000e+00,4.850074768066406250e+00,4.660137653350830078e+00,4.484516620635986328e+00,4.321650505065917969e+00,4.170199394226074219e+00,4.029003620147705078e+00,3.897056102752685547e+00,3.773476839065551758e+00,3.657494544982910156e+00,3.548428773880004883e+00,3.445679664611816406e+00,3.348713636398315430e+00,3.257055759429931641e+00,3.170281648635864258e+00,3.088011264801025391e+00,3.009902477264404297e+00,2.935647964477539062e+00,2.864968776702880859e+00,2.797613143920898438e+00,2.733351707458496094e+00,2.671976327896118164e+00,2.613296508789062500e+00,2.557138681411743164e+00,2.503343582153320312e+00,2.451765298843383789e+00,2.402269601821899414e+00,2.354732990264892578e+00,2.309040784835815430e+00,2.265088319778442383e+00,2.222777843475341797e+00,2.182018995285034180e+00,2.142728090286254883e+00,2.104826927185058594e+00,2.068243503570556641e+00,2.032909870147705078e+00,1.998763322830200195e+00,1.965745210647583008e+00,1.933799862861633301e+00,1.902876377105712891e+00,1.872926235198974609e+00,1.843904376029968262e+00
5.000000000000000000e+00,5.000000000000000000e+00,5.000000000000000000e+00,5.000000000000000000e+00,5.000000000000000000e+00,5.000000000000000000e+00,5.000000000000000000e+00,5.000000000000000000e+00,5.000000000000000000e+00,5.000000000000000000e+00,5.000000000000000000e+00,5.000000000000000000e+00,5.000000000000000000e+00,5.000000000000000000e+00,5.000000000000000000e+00,5.000000000000000000e+00,5.000000000000000000e+00,5.000000000000000000e+00,5.000000000000000000e+00,5.000000000000000000e+00,5.000000000000000000e+00,5.000000000000000000e+00,5.000000000000000000e+00,5.000000000000000000e+00,5.000000000000000000e+00,4.192470550537109375e+00,5.000000000000000000e+00,4.764364719390869141e+00,5.000000000000000000e+00,5.000000000000000000e+00,5.000000000000000000e+00,5.000000000000000000e+00,5.000000000000000000e+00,5.000000000000000000e+00,5.000000000000000000e+00,5.000000000000000000e+00,5.000000000000000000e+00,5.000000000000000000e+00,5.000000000000000000e+00,4.850212097167968750e+00,4.660264492034912109e+00,4.484633922576904297e+00,4.321760177612304688e+00,4.170301914215087891e+00,4.029098987579345703e+00,3.897145748138427734e+00,3.773560762405395508e+00,3.657572984695434570e+00,3.548503160476684570e+00,3.445749759674072266e+00,3.348779678344726562e+00,3.257118463516235352e+00,3.170341014862060547e+00,3.088067531585693359e+00,3.009955883026123047e+00,2.935698747634887695e+00,2.865017175674438477e+00,2.797659158706665039e+00,2.733395814895629883e+00,2.672018527984619141e+00,2.613336563110351562e+00,2.557177305221557617e+00,2.503380537033081055e+00,2.451800823211669922e+00,2.402303695678710938e+00,2.354765653610229492e+00,2.309072256088256836e+00,2.265118598937988281e+00,2.222806930541992188e+00,2.182047128677368164e+00,2.142755031585693359e+00,2.104853153228759766e+00,2.068268775939941406e+00,2.032934427261352539e+00,1.998786926269531250e+00,1.965767979621887207e+00,1.933821916580200195e+00,1.902897834777832031e+00,1.872946858406066895e+00,1.843924283981323242e+00
5.000000000000000000e+00,5.000000000000000000e+00,5.000000000000000000e+00,5.000000000000000000e+00,5.000000000000000000e+00,5.000000000000000000e+00,5.000000000000000000e+00,5.000000000000000000e+00,5.000000000000000000e+00,5.000000000000000000e+00,5.000000000000000000e+00,5.000000000000000000e+00,5.000000000000000000e+00,5.000000000000000000e+00,5.000000000000000000e+00,5.000000000000000000e+00,5.000000000000000000e+00,5.000000000000000000e+00,5.000000000000000000e+00,5.000000000000000000e+00,5.000000000000000000e+00,5.000000000000000000e+00,5.000000000000000000e+00,5.000000000000000000e+00,5.000000000000000000e+00,4.215246677398681641e+00,5.000000000000000000e+00,4.805448055267333984e+00,5.000000000000000000e+00,5.000000000000000000e+00,5.000000000000000000e+00,5.000000000000000000e+00,5.000000000000000000e+00,5.000000000000000000e+00,5.000000000000000000e+00,5.000000000000000000e+00,5.000000000000000000e+00,5.000000000000000000e+00,5.000000000000000000e+00,4.850349426269531250e+00,4.660390853881835938e+00,4.484751224517822266e+00,4.321869373321533203e+00,4.170404434204101562e+00,4.029194831848144531e+00,3.897235393524169922e+00,3.773644924163818359e+00,3.657651901245117188e+00,3.548577308654785156e+00,3.445819854736328125e+00,3.348845958709716797e+00,3.257180929183959961e+00,3.170400142669677734e+00,3.088123559951782227e+00,3.010009527206420898e+00,2.935749769210815430e+00,2.865065813064575195e+00,2.797705411911010742e+00,2.733439922332763672e+00,2.672060489654541016e+00,2.613377094268798828e+00,2.557215690612792969e+00,2.503417491912841797e+00,2.451836347579956055e+00,2.402337789535522461e+00,2.354798316955566406e+00,2.309103488922119141e+00,2.265148878097534180e+00,2.222836017608642578e+00,2.182075262069702148e+00,2.142782211303710938e+00,2.104879379272460938e+00,2.068294048309326172e+00,2.032958745956420898e+00,1.998810529708862305e+00,1.965790748596191406e+00,1.933843970298767090e+00,1.902919173240661621e+00,1.872967600822448730e+00,1.843944311141967773e+00
4.875195026397705078e+00,4.873984336853027344e+00,4.872774600982666016e+00,4.871565341949462891e+00,4.870357036590576172e+00,4.869148731231689453e+00,4.867941856384277344e+00,4.866734504699707031e+00,4.865528583526611328e+00,4.864323139190673828e+00,4.863118171691894531e+00,4.861913681030273438e+00,4.860710144042968750e+00,4.859506607055664062e+00,4.858304023742675781e+00,4.857101917266845703e+00,4.855900764465332031e+00,4.854700088500976562e+00,4.853499889373779297e+00,4.852300167083740234e+00,4.851101398468017578e+00,4.849902629852294922e+00,4.848705291748046875e+00,4.847507953643798828e+00,4.846311092376708984e+00,4.115457057952880859e+00,4.843919277191162109e+00,4.842724800109863281e+00,4.841530323028564453e+00,4.840336799621582031e+00,4.839143753051757812e+00,4.837951183319091797e+00,4.836759090423583984e+00,4.835567951202392578e+00,4.834376811981201172e+00,4.833186626434326172e+00,4.831997394561767578e+00,4.830807685852050781e+00,4.829619407653808594e+00,4.828432083129882812e+00,4.660517692565917969e+00,4.484868526458740234e+00,4.321978092193603516e+00,4.170506000518798828e+00,4.029290676116943359e+00,3.897325038909912109e+00,3.773728847503662109e+00,3.657731056213378906e+00,3.548651695251464844e+00,3.445889949798583984e+00,3.348912000656127930e+00,3.257243633270263672e+00,3.170459508895874023e+00,3.088179826736450195e+00,3.010062932968139648e+00,2.935800552368164062e+00,2.865114212036132812e+00,2.797751665115356445e+00,2.733484029769897461e+00,2.672102451324462891e+00,2.613417387008666992e+00,2.557254314422607422e+00,2.503454446792602539e+00,2.451871871948242188e+00,2.402371883392333984e+00,2.354830980300903320e+00,2.309134960174560547e+00,2.265179157257080078e+00,2.222865104675292969e+00,2.182103157043457031e+00,2.142809391021728516e+00,2.104905366897583008e+00,2.068319082260131836e+00,2.032983064651489258e+00,1.998834013938903809e+00,1.965813636779785156e+00,1.933866024017333984e+00,1.902940511703491211e+00,1.872988224029541016e+00,1.843964338302612305e+00
3.778040409088134766e+00,3.777313470840454102e+00,3.776587009429931641e+00,3.775860786437988281e+00,3.775134801864624023e+00,3.774408578872680664e+00,3.773683071136474609e+00,3.772957801818847656e+00,3.772233009338378906e+00,3.771508455276489258e+00,3.770784139633178711e+00,3.770059585571289062e+00,3.769335746765136719e+00,3.768612384796142578e+00,3.767889022827148438e+00,3.767166137695312500e+00,3.766443014144897461e+00,3.765720605850219727e+00,3.764998674392700195e+00,3.764276742935180664e+00,3.763555049896240234e+00,3.762833833694458008e+00,3.762112379074096680e+00,3.761391639709472656e+00,3.760671377182006836e+00,3.759951114654541016e+00,3.759231328964233398e+00,3.758511304855346680e+00,3.757791757583618164e+00,3.757072687149047852e+00,3.756353855133056641e+00,3.755635499954223633e+00,3.754916667938232422e+00,3.754198789596557617e+00,3.753481149673461914e+00,3.752763748168945312e+00,3.752046585083007812e+00,3.751329660415649414e+00,3.750612497329711914e+00,3.749896287918090820e+00,3.749180078506469727e+00,3.748464345932006836e+00,3.747748851776123047e+00,3.747033119201660156e+00,3.746318340301513672e+00,3.745603561401367188e+00,3.744889259338378906e+00,3.657809972763061523e+00,3.548726081848144531e+00,3.445960044860839844e+00,3.348978281021118164e+00,3.257306098937988281e+00,3.170518875122070312e+00,3.088236093521118164e+00,3.010116338729858398e+00,2.935851335525512695e+00,2.865162611007690430e+00,2.797797918319702148e+00,2.733528137207031250e+00,2.672144651412963867e+00,2.613457679748535156e+00,2.557292938232421875e+00,2.503491401672363281e+00,2.451907396316528320e+00,2.402405977249145508e+00,2.354863643646240234e+00,2.309166431427001953e+00,2.265209436416625977e+00,2.222894430160522461e+00,2.182131290435791016e+00,2.142836332321166992e+00,2.104931592941284180e+00,2.068344354629516602e+00,2.033007383346557617e+00,1.998857617378234863e+00,1.965836405754089355e+00,1.933888077735900879e+00,1.902961850166320801e+00,1.873008966445922852e+00,1.843984484672546387e+00
3.083993196487426758e+00,3.083508968353271484e+00,3.083024740219116211e+00,3.082540512084960938e+00,3.082056522369384766e+00,3.081572771072387695e+00,3.081089258193969727e+00,3.080605745315551758e+00,3.080122470855712891e+00,3.079639196395874023e+00,3.079156160354614258e+00,3.078673362731933594e+00,3.078190565109252930e+00,3.077708005905151367e+00,3.077225446701049805e+00,3.076743125915527344e+00,3.076261043548583984e+00,3.075779199600219727e+00,3.075297355651855469e+00,3.074815511703491211e+00,3.074334144592285156e+00,3.073852777481079102e+00,3.073371648788452148e+00,3.072890520095825195e+00,3.072409629821777344e+00,3.071928739547729492e+00,3.071448087692260742e+00,3.070967674255371094e+00,3.070487499237060547e+00,3.070007324218750000e+00,3.069527149200439453e+00,3.069047451019287109e+00,3.068567752838134766e+00,3.068088293075561523e+00,3.067608833312988281e+00,3.067129611968994141e+00,3.066650390625000000e+00,3.066171407699584961e+00,3.065692663192749023e+00,3.065214157104492188e+00,3.064735651016235352e+00,3.064257144927978516e+00,3.063778877258300781e+00,3.063300848007202148e+00,3.062823057174682617e+00,3.062345266342163086e+00,3.061867475509643555e+00,3.061389923095703125e+00,3.060912847518920898e+00,3.060435533523559570e+00,3.059958696365356445e+00,3.059481859207153320e+00,3.059004783630371094e+00,3.058528423309326172e+00,3.010169744491577148e+00,2.935902357101440430e+00,2.865211009979248047e+00,2.797844171524047852e+00,2.733572244644165039e+00,2.672186851501464844e+00,2.613497972488403320e+00,2.557331562042236328e+00,2.503528594970703125e+00,2.451942682266235352e+00,2.402439832687377930e+00,2.354896306991577148e+00,2.309197902679443359e+00,2.265239715576171875e+00,2.222923517227172852e+00,2.182159423828125000e+00,2.142863512039184570e+00,2.104957580566406250e+00,2.068369626998901367e+00,2.033031940460205078e+00,1.998881220817565918e+00,1.965859174728393555e+00,1.933910131454467773e+00,1.902983307838439941e+00,1.873029708862304688e+00,1.844004511833190918e+00
2.605371713638305664e+00,2.605026006698608398e+00,2.604680299758911133e+00,2.604334831237792969e+00,2.603989362716674805e+00,2.603644132614135742e+00,2.603298902511596680e+00,2.602953433990478516e+00,2.602608442306518555e+00,2.602263450622558594e+00,2.601918697357177734e+00,2.601573944091796875e+00,2.601228952407836914e+00,2.600884437561035156e+00,2.600539922714233398e+00,2.600195646286010742e+00,2.599851369857788086e+00,2.599506855010986328e+00,2.599162817001342773e+00,2.598818778991699219e+00,2.598474740982055664e+00,2.598130941390991211e+00,2.597787141799926758e+00,2.597443342208862305e+00,2.597099781036376953e+00,2.596756219863891602e+00,2.596412897109985352e+00,2.596069574356079102e+00,2.595726013183593750e+00,2.595382928848266602e+00,2.595039844512939453e+00,2.594696998596191406e+00,2.594354152679443359e+00,2.594011306762695312e+00,2.593668460845947266e+00,2.593325853347778320e+00,2.592983484268188477e+00,2.592640876770019531e+00,2.592298746109008789e+00,2.591956377029418945e+00,2.591614246368408203e+00,2.591272115707397461e+00,2.590930223464965820e+00,2.590588331222534180e+00,2.590246200561523438e+00,2.589904546737670898e+00,2.589563131332397461e+00,2.589221477508544922e+00,2.588880062103271484e+00,2.588538885116577148e+00,2.588197469711303711e+00,2.587856292724609375e+00,2.587515115737915039e+00,2.587174177169799805e+00,2.586833477020263672e+00,2.586492538452148438e+00,2.586151838302612305e+00,2.585811138153076172e+00,2.585470676422119141e+00,2.585130214691162109e+00,2.584789752960205078e+00,2.557370185852050781e+00,2.503565549850463867e+00,2.451978206634521484e+00,2.402473926544189453e+00,2.354928970336914062e+00,2.309229373931884766e+00,2.265269994735717773e+00,2.222952604293823242e+00,2.182187557220458984e+00,2.142890691757202148e+00,2.104983806610107422e+00,2.068394660949707031e+00,2.033056259155273438e+00,1.998904824256896973e+00,1.965882062911987305e+00,1.933932185173034668e+00,1.903004407882690430e+00,1.873050332069396973e+00,1.844024538993835449e+00
2.255373239517211914e+00,2.255113363265991211e+00,2.254853487014770508e+00,2.254593610763549805e+00,2.254333734512329102e+00,2.254074096679687500e+00,2.253814458847045898e+00,2.253554821014404297e+00,2.253295183181762695e+00,2.253035545349121094e+00,2.252776145935058594e+00,2.252516746520996094e+00,2.252257347106933594e+00,2.251998186111450195e+00,2.251739025115966797e+00,2.251479625701904297e+00,2.251220703125000000e+00,2.250961780548095703e+00,2.250702619552612305e+00,2.250443696975708008e+00,2.250184774398803711e+00,2.249926090240478516e+00,2.249667167663574219e+00,2.249408721923828125e+00,2.249150276184082031e+00,2.248892784118652344e+00,2.248635053634643555e+00,2.248377561569213867e+00,2.248120069503784180e+00,2.247862577438354492e+00,2.247605323791503906e+00,2.247348070144653320e+00,2.247090816497802734e+00,2.246833562850952148e+00,2.246576547622680664e+00,2.246319532394409180e+00,2.246062517166137695e+00,2.245805501937866211e+00,2.245548486709594727e+00,2.245291709899902344e+00,2.245034933090209961e+00,2.244778394699096680e+00,2.244521617889404297e+00,2.244265079498291016e+00,2.244008541107177734e+00,2.243752002716064453e+00,2.243495702743530273e+00,2.243239402770996094e+00,2.242982864379882812e+00,2.242726802825927734e+00,2.242470502853393555e+00,2.242214441299438477e+00,2.241958379745483398e+00,2.241702318191528320e+00,2.241446495056152344e+00,2.241190433502197266e+00,2.240934848785400391e+00,2.240679025650024414e+00,2.240423202514648438e+00,2.240167617797851562e+00,2.239912033081054688e+00,2.239656448364257812e+00,2.239401102066040039e+00,2.239145517349243164e+00,2.238890171051025391e+00,2.238634824752807617e+00,2.238379716873168945e+00,2.238124608993530273e+00,2.222981929779052734e+00,2.182215690612792969e+00,2.142917633056640625e+00,2.105010032653808594e+00,2.068419933319091797e+00,2.033080577850341797e+00,1.998928427696228027e+00,1.965904831886291504e+00,1.933954358100891113e+00,1.903025746345520020e+00,1.873071074485778809e+00,1.844044566154479980e+00
1.988314390182495117e+00,1.988112211227416992e+00,1.987910270690917969e+00,1.987708210945129395e+00,1.987506270408630371e+00,1.987304449081420898e+00,1.987102508544921875e+00,1.986900568008422852e+00,1.986698985099792480e+00,1.986497163772583008e+00,1.986295580863952637e+00,1.986093878746032715e+00,1.985892176628112793e+00,1.985690712928771973e+00,1.985489130020141602e+00,1.985287547111511230e+00,1.985086202621459961e+00,1.984884738922119141e+00,1.984683275222778320e+00,1.984482049942016602e+00,1.984280705451965332e+00,1.984079599380493164e+00,1.983878254890441895e+00,1.983677029609680176e+00,1.983476042747497559e+00,1.983274817466735840e+00,1.983073711395263672e+00,1.982872843742370605e+00,1.982671856880187988e+00,1.982470750808715820e+00,1.982270121574401855e+00,1.982069134712219238e+00,1.981868505477905273e+00,1.981667637825012207e+00,1.981466770172119141e+00,1.981266260147094727e+00,1.981065511703491211e+00,1.980864882469177246e+00,1.980664491653442383e+00,1.980463862419128418e+00,1.980263233184814453e+00,1.980062961578369141e+00,1.979862451553344727e+00,1.979662299156188965e+00,1.979461908340454102e+00,1.979261517524719238e+00,1.979061484336853027e+00,1.978861093521118164e+00,1.978660941123962402e+00,1.978460907936096191e+00,1.978260755538940430e+00,1.978060841560363770e+00,1.977860808372497559e+00,1.977660775184631348e+00,1.977460980415344238e+00,1.977261066436767578e+00,1.977061152458190918e+00,1.976861476898193359e+00,1.976661562919616699e+00,1.976461768150329590e+00,1.976262331008911133e+00,1.976062536239624023e+00,1.975863099098205566e+00,1.975663542747497559e+00,1.975463867187500000e+00,1.975264549255371094e+00,1.975064992904663086e+00,1.974865555763244629e+00,1.974666357040405273e+00,1.974466919898986816e+00,1.974267601966857910e+00,1.974068522453308105e+00,1.973869204521179199e+00,1.973670244216918945e+00,1.973471045494079590e+00,1.965927600860595703e+00,1.933976411819458008e+00,1.903047204017639160e+00,1.873091816902160645e+00,1.844064712524414062e+00
1.777804374694824219e+00,1.777642726898193359e+00,1.777481317520141602e+00,1.777319788932800293e+00,1.777158260345458984e+00,1.776996970176696777e+00,1.776835441589355469e+00,1.776674032211303711e+00,1.776512742042541504e+00,1.776351332664489746e+00,1.776190042495727539e+00,1.776028871536254883e+00,1.775867581367492676e+00,1.775706529617309570e+00,1.775545239448547363e+00,1.775384068489074707e+00,1.775223135948181152e+00,1.775061964988708496e+00,1.774900794029235840e+00,1.774739861488342285e+00,1.774578809738159180e+00,1.774417996406555176e+00,1.774256944656372070e+00,1.774096012115478516e+00,1.773935198783874512e+00,1.773774385452270508e+00,1.773613452911376953e+00,1.773452758789062500e+00,1.773291945457458496e+00,1.773131132125854492e+00,1.772970557212829590e+00,1.772809863090515137e+00,1.772649288177490234e+00,1.772488594055175781e+00,1.772327899932861328e+00,1.772167444229125977e+00,1.772006869316101074e+00,1.771846294403076172e+00,1.771685957908630371e+00,1.771525502204895020e+00,1.771364927291870117e+00,1.771204710006713867e+00,1.771044254302978516e+00,1.770884037017822266e+00,1.770723700523376465e+00,1.770563364028930664e+00,1.770403265953063965e+00,1.770242929458618164e+00,1.770082712173461914e+00,1.769922733306884766e+00,1.769762516021728516e+00,1.769602298736572266e+00,1.769442439079284668e+00,1.769282341003417969e+00,1.769122362136840820e+00,1.768962383270263672e+00,1.768802285194396973e+00,1.768642544746398926e+00,1.768482565879821777e+00,1.768322587013244629e+00,1.768162965774536133e+00,1.768002986907958984e+00,1.767843246459960938e+00,1.767683625221252441e+00,1.767523765563964844e+00,1.767364263534545898e+00,1.767204523086547852e+00,1.767044782638549805e+00,1.766885280609130859e+00,1.766725659370422363e+00,1.766566038131713867e+00,1.766406655311584473e+00,1.766247153282165527e+00,1.766087532043457031e+00,1.765928268432617188e+00,1.765768766403198242e+00,1.765609502792358398e+00,1.765450119972229004e+00,1.765290856361389160e+00,1.765131592750549316e+00
1.607601761817932129e+00,1.607469558715820312e+00,1.607337594032287598e+00,1.607205510139465332e+00,1.607073426246643066e+00,1.606941461563110352e+00,1.606809377670288086e+00,1.606677412986755371e+00,1.606545567512512207e+00,1.606413602828979492e+00,1.606281638145446777e+00,1.606149792671203613e+00,1.606017947196960449e+00,1.605886101722717285e+00,1.605754256248474121e+00,1.605622410774230957e+00,1.605490803718566895e+00,1.605358958244323730e+00,1.605227112770080566e+00,1.605095505714416504e+00,1.604963779449462891e+00,1.604832053184509277e+00,1.604700565338134766e+00,1.604568839073181152e+00,1.604437351226806641e+00,1.604305744171142578e+00,1.604174137115478516e+00,1.604042649269104004e+00,1.603911042213439941e+00,1.603779554367065430e+00,1.603648185729980469e+00,1.603516697883605957e+00,1.603385210037231445e+00,1.603253841400146484e+00,1.603122353553771973e+00,1.602991104125976562e+00,1.602859735488891602e+00,1.602728366851806641e+00,1.602597117424011230e+00,1.602465867996215820e+00,1.602334499359130859e+00,1.602203369140625000e+00,1.602072119712829590e+00,1.601940870285034180e+00,1.601809740066528320e+00,1.601678609848022461e+00,1.601547598838806152e+00,1.601416349411010742e+00,1.601285219192504883e+00,1.601154327392578125e+00,1.601023197174072266e+00,1.600892066955566406e+00,1.600761175155639648e+00,1.600630164146423340e+00,1.600499153137207031e+00,1.600368380546569824e+00,1.600237369537353516e+00,1.600106596946716309e+00,1.599975585937500000e+00,1.599844694137573242e+00,1.599713921546936035e+00,1.599583148956298828e+00,1.599452257156372070e+00,1.599321603775024414e+00,1.599190831184387207e+00,1.599060058593750000e+00,1.598929405212402344e+00,1.598798632621765137e+00,1.598668098449707031e+00,1.598537445068359375e+00,1.598406791687011719e+00,1.598276257514953613e+00,1.598145604133605957e+00,1.598015069961547852e+00,1.597884654998779297e+00,1.597754001617431641e+00,1.597623467445373535e+00,1.597493171691894531e+00,1.597362637519836426e+00,1.597232341766357422e+00
1.467141270637512207e+00,1.467031121253967285e+00,1.466921091079711914e+00,1.466811180114746094e+00,1.466701149940490723e+00,1.466591238975524902e+00,1.466481328010559082e+00,1.466371297836303711e+00,1.466261506080627441e+00,1.466151595115661621e+00,1.466041684150695801e+00,1.465931892395019531e+00,1.465821981430053711e+00,1.465712070465087891e+00,1.465602397918701172e+00,1.465492486953735352e+00,1.465382814407348633e+00,1.465273022651672363e+00,1.465163230895996094e+00,1.465053558349609375e+00,1.464943766593933105e+00,1.464834094047546387e+00,1.464724421501159668e+00,1.464614748954772949e+00,1.464505076408386230e+00,1.464395523071289062e+00,1.464285850524902344e+00,1.464176297187805176e+00,1.464066624641418457e+00,1.463957071304321289e+00,1.463847637176513672e+00,1.463737964630126953e+00,1.463628411293029785e+00,1.463519096374511719e+00,1.463409543037414551e+00,1.463299989700317383e+00,1.463190674781799316e+00,1.463081121444702148e+00,1.462971806526184082e+00,1.462862372398376465e+00,1.462752938270568848e+00,1.462643623352050781e+00,1.462534308433532715e+00,1.462424874305725098e+00,1.462315678596496582e+00,1.462206244468688965e+00,1.462096929550170898e+00,1.461987733840942383e+00,1.461878418922424316e+00,1.461769342422485352e+00,1.461660027503967285e+00,1.461550831794738770e+00,1.461441636085510254e+00,1.461332440376281738e+00,1.461223244667053223e+00,1.461114168167114258e+00,1.461005091667175293e+00,1.460896015167236328e+00,1.460786938667297363e+00,1.460677742958068848e+00,1.460568785667419434e+00,1.460459709167480469e+00,1.460350632667541504e+00,1.460241675376892090e+00,1.460132718086242676e+00,1.460023641586303711e+00,1.459914803504943848e+00,1.459805727005004883e+00,1.459696888923645020e+00,1.459587931632995605e+00,1.459478974342346191e+00,1.459370255470275879e+00,1.459261298179626465e+00,1.459152460098266602e+00,1.459043622016906738e+00,1.458934783935546875e+00,1.458825945854187012e+00,1.458717226982116699e+00,1.458608508110046387e+00,1.458499789237976074e+00
1.349253296852111816e+00,1.349160194396972656e+00,1.349067091941833496e+00,1.348974108695983887e+00,1.348881125450134277e+00,1.348788022994995117e+00,1.348695158958435059e+00,1.348602175712585449e+00,1.348509192466735840e+00,1.348416209220886230e+00,1.348323225975036621e+00,1.348230361938476562e+00,1.348137497901916504e+00,1.348044514656066895e+00,1.347951650619506836e+00,1.347858786582946777e+00,1.347765922546386719e+00,1.347673058509826660e+00,1.347580194473266602e+00,1.347487449645996094e+00,1.347394585609436035e+00,1.347301840782165527e+00,1.347209095954895020e+00,1.347116231918334961e+00,1.347023487091064453e+00,1.346930742263793945e+00,1.346837997436523438e+00,1.346745371818542480e+00,1.346652626991271973e+00,1.346559882164001465e+00,1.346467256546020508e+00,1.346374511718750000e+00,1.346281886100769043e+00,1.346189260482788086e+00,1.346096634864807129e+00,1.346004009246826172e+00,1.345911383628845215e+00,1.345818758010864258e+00,1.345726251602172852e+00,1.345633625984191895e+00,1.345541119575500488e+00,1.345448613166809082e+00,1.345355987548828125e+00,1.345263481140136719e+00,1.345170974731445312e+00,1.345078468322753906e+00,1.344985961914062500e+00,1.344893574714660645e+00,1.344801068305969238e+00,1.344708681106567383e+00,1.344616293907165527e+00,1.344523787498474121e+00,1.344431400299072266e+00,1.344339013099670410e+00,1.344246625900268555e+00,1.344154238700866699e+00,1.344061851501464844e+00,1.343969464302062988e+00,1.343877315521240234e+00,1.343784928321838379e+00,1.343692660331726074e+00,1.343600392341613770e+00,1.343508005142211914e+00,1.343415856361389160e+00,1.343323588371276855e+00,1.343231201171875000e+00,1.343139052391052246e+00,1.343046784400939941e+00,1.342954635620117188e+00,1.342862486839294434e+00,1.342770218849182129e+00,1.342678189277648926e+00,1.342585921287536621e+00,1.342493772506713867e+00,1.342401742935180664e+00,1.342309594154357910e+00,1.342217445373535156e+00,1.342125415802001953e+00,1.342033267021179199e+00,1.341941237449645996e+00
1.248901367187500000e+00,1.248821616172790527e+00,1.248741865158081055e+00,1.248662233352661133e+00,1.248582601547241211e+00,1.248502850532531738e+00,1.248423218727111816e+00,1.248343467712402344e+00,1.248263955116271973e+00,1.248184204101562500e+00,1.248104572296142578e+00,1.248024940490722656e+00,1.247945308685302734e+00,1.247865676879882812e+00,1.247786164283752441e+00,1.247706532478332520e+00,1.247626900672912598e+00,1.247547388076782227e+00,1.247467875480651855e+00,1.247388362884521484e+00,1.247308731079101562e+00,1.247229218482971191e+00,1.247149705886840820e+00,1.247070193290710449e+00,1.246990680694580078e+00,1.246911287307739258e+00,1.246831774711608887e+00,1.246752262115478516e+00,1.246672868728637695e+00,1.246593356132507324e+00,1.246513962745666504e+00,1.246434569358825684e+00,1.246355056762695312e+00,1.246275782585144043e+00,1.246196389198303223e+00,1.246116876602172852e+00,1.246037602424621582e+00,1.245958209037780762e+00,1.245878815650939941e+00,1.245799541473388672e+00,1.245720148086547852e+00,1.245640873908996582e+00,1.245561599731445312e+00,1.245482206344604492e+00,1.245402932167053223e+00,1.245323657989501953e+00,1.245244383811950684e+00,1.245165109634399414e+00,1.245085835456848145e+00,1.245006561279296875e+00,1.244927406311035156e+00,1.244848132133483887e+00,1.244768977165222168e+00,1.244689822196960449e+00,1.244610548019409180e+00,1.244531393051147461e+00,1.244452238082885742e+00,1.244373083114624023e+00,1.244293928146362305e+00,1.244214773178100586e+00,1.244135618209838867e+00,1.244056582450866699e+00,1.243977427482604980e+00,1.243898391723632812e+00,1.243819236755371094e+00,1.243740081787109375e+00,1.243661165237426758e+00,1.243582010269165039e+00,1.243502974510192871e+00,1.243423938751220703e+00,1.243344902992248535e+00,1.243265867233276367e+00,1.243186950683593750e+00,1.243107795715332031e+00,1.243028879165649414e+00,1.242949962615966797e+00,1.242870926856994629e+00,1.242792010307312012e+00,1.242713093757629395e+00,1.242634057998657227e+00
1.162443757057189941e+00,1.162374615669250488e+00,1.162305474281311035e+00,1.162236452102661133e+00,1.162167429924011230e+00,1.162098407745361328e+00,1.162029385566711426e+00,1.161960363388061523e+00,1.161891341209411621e+00,1.161822319030761719e+00,1.161753296852111816e+00,1.161684393882751465e+00,1.161615371704101562e+00,1.161546349525451660e+00,1.161477446556091309e+00,1.161408424377441406e+00,1.161339521408081055e+00,1.161270618438720703e+00,1.161201596260070801e+00,1.161132693290710449e+00,1.161063790321350098e+00,1.160994887351989746e+00,1.160925984382629395e+00,1.160857081413269043e+00,1.160788178443908691e+00,1.160719394683837891e+00,1.160650491714477539e+00,1.160581588745117188e+00,1.160512804985046387e+00,1.160443902015686035e+00,1.160374999046325684e+00,1.160306215286254883e+00,1.160237431526184082e+00,1.160168647766113281e+00,1.160099864006042480e+00,1.160030961036682129e+00,1.159962296485900879e+00,1.159893393516540527e+00,1.159824609756469727e+00,1.159755945205688477e+00,1.159687161445617676e+00,1.159618377685546875e+00,1.159549713134765625e+00,1.159480929374694824e+00,1.159412264823913574e+00,1.159343481063842773e+00,1.159274816513061523e+00,1.159206151962280273e+00,1.159137368202209473e+00,1.159068703651428223e+00,1.159000039100646973e+00,1.158931374549865723e+00,1.158862709999084473e+00,1.158794045448303223e+00,1.158725380897521973e+00,1.158656835556030273e+00,1.158588171005249023e+00,1.158519506454467773e+00,1.158450961112976074e+00,1.158382415771484375e+00,1.158313751220703125e+00,1.158245205879211426e+00,1.158176660537719727e+00,1.158108115196228027e+00,1.158039569854736328e+00,1.157971024513244629e+00,1.157902479171752930e+00,1.157833933830261230e+00,1.157765388488769531e+00,1.157696843147277832e+00,1.157628417015075684e+00,1.157559871673583984e+00,1.157491445541381836e+00,1.157422900199890137e+00,1.157354474067687988e+00,1.157285928726196289e+00,1.157217502593994141e+00,1.157149076461791992e+00,1.157080531120300293e+00,1.157012104988098145e+00
1.087181210517883301e+00,1.087120890617370605e+00,1.087060451507568359e+00,1.087000131607055664e+00,1.086939692497253418e+00,1.086879253387451172e+00,1.086818933486938477e+00,1.086758494377136230e+00,1.086698174476623535e+00,1.086637854576110840e+00,1.086577415466308594e+00,1.086517095565795898e+00,1.086456775665283203e+00,1.086396336555480957e+00,1.086336135864257812e+00,1.086275696754455566e+00,1.086215376853942871e+00,1.086155176162719727e+00,1.086094856262207031e+00,1.086034536361694336e+00,1.085974216461181641e+00,1.085913896560668945e+00,1.085853695869445801e+00,1.085793375968933105e+00,1.085733175277709961e+00,1.085672974586486816e+00,1.085612654685974121e+00,1.085552334785461426e+00,1.085492134094238281e+00,1.085431933403015137e+00,1.085371732711791992e+00,1.085311532020568848e+00,1.085251331329345703e+00,1.085191130638122559e+00,1.085130929946899414e+00,1.085070729255676270e+00,1.085010528564453125e+00,1.084950327873229980e+00,1.084890127182006836e+00,1.084830045700073242e+00,1.084769845008850098e+00,1.084709644317626953e+00,1.084649562835693359e+00,1.084589362144470215e+00,1.084529280662536621e+00,1.084469199180603027e+00,1.084408998489379883e+00,1.084348917007446289e+00,1.084288835525512695e+00,1.084228754043579102e+00,1.084168672561645508e+00,1.084108591079711914e+00,1.084048509597778320e+00,1.083988428115844727e+00,1.083928346633911133e+00,1.083868384361267090e+00,1.083808302879333496e+00,1.083748221397399902e+00,1.083688259124755859e+00,1.083628177642822266e+00,1.083568096160888672e+00,1.083508133888244629e+00,1.083448052406311035e+00,1.083388090133666992e+00,1.083328127861022949e+00,1.083268046379089355e+00,1.083208203315734863e+00,1.083148121833801270e+00,1.083088159561157227e+00,1.083028197288513184e+00,1.082968235015869141e+00,1.082908272743225098e+00,1.082848429679870605e+00,1.082788467407226562e+00,1.082728505134582520e+00,1.082668542861938477e+00,1.082608580589294434e+00,1.082548737525939941e+00,1.082488894462585449e+00,1.082428932189941406e+00
1.021072030067443848e+00,1.021018743515014648e+00,1.020965456962585449e+00,1.020912170410156250e+00,1.020858883857727051e+00,1.020805597305297852e+00,1.020752429962158203e+00,1.020699143409729004e+00,1.020645856857299805e+00,1.020592570304870605e+00,1.020539402961730957e+00,1.020486116409301758e+00,1.020432949066162109e+00,1.020379662513732910e+00,1.020326495170593262e+00,1.020273208618164062e+00,1.020220041275024414e+00,1.020166873931884766e+00,1.020113587379455566e+00,1.020060420036315918e+00,1.020007252693176270e+00,1.019954085350036621e+00,1.019900798797607422e+00,1.019847750663757324e+00,1.019794583320617676e+00,1.019741415977478027e+00,1.019688248634338379e+00,1.019635081291198730e+00,1.019581913948059082e+00,1.019528865814208984e+00,1.019475698471069336e+00,1.019422531127929688e+00,1.019369482994079590e+00,1.019316315650939941e+00,1.019263267517089844e+00,1.019210100173950195e+00,1.019157052040100098e+00,1.019103884696960449e+00,1.019050836563110352e+00,1.018997788429260254e+00,1.018944621086120605e+00,1.018891572952270508e+00,1.018838524818420410e+00,1.018785476684570312e+00,1.018732428550720215e+00,1.018679380416870117e+00,1.018626332283020020e+00,1.018573284149169922e+00,1.018520236015319824e+00,1.018467187881469727e+00,1.018414258956909180e+00,1.018361210823059082e+00,1.018308162689208984e+00,1.018255233764648438e+00,1.018202185630798340e+00,1.018149137496948242e+00,1.018096208572387695e+00,1.018043160438537598e+00,1.017990231513977051e+00,1.017937302589416504e+00,1.017884254455566406e+00,1.017831325531005859e+00,1.017778396606445312e+00,1.017725348472595215e+00,1.017672538757324219e+00,1.017619490623474121e+00,1.017566561698913574e+00,1.017513632774353027e+00,1.017460703849792480e+00,1.017407894134521484e+00,1.017354965209960938e+00,1.017302036285400391e+00,1.017249107360839844e+00,1.017196178436279297e+00,1.017143249511718750e+00,1.017090439796447754e+00,1.017037510871887207e+00,1.016984701156616211e+00,1.016931891441345215e+00,1.016878962516784668e+00
9.625418782234191895e-01,9.624946117401123047e-01,9.624472260475158691e-01,9.623998403549194336e-01,9.623524546623229980e-01,9.623051285743713379e-01,9.622578620910644531e-01,9.622105360031127930e-01,9.621631503105163574e-01,9.621158242225646973e-01,9.620684981346130371e-01,9.620211720466613770e-01,9.619739651679992676e-01,9.619266390800476074e-01,9.618793129920959473e-01,9.618319869041442871e-01,9.617846608161926270e-01,9.617375135421752930e-01,9.616901874542236328e-01,9.616429209709167480e-01,9.615955948829650879e-01,9.615483283996582031e-01,9.615010619163513184e-01,9.614538550376892090e-01,9.614065885543823242e-01,9.613593220710754395e-01,9.613120555877685547e-01,9.612648487091064453e-01,9.612177014350891113e-01,9.611704349517822266e-01,9.611231684684753418e-01,9.610759615898132324e-01,9.610286951065063477e-01,9.609814882278442383e-01,9.609343409538269043e-01,9.608871340751647949e-01,9.608399271965026855e-01,9.607927203178405762e-01,9.607455134391784668e-01,9.606984257698059082e-01,9.606512188911437988e-01,9.606040120124816895e-01,9.605568647384643555e-01,9.605096578598022461e-01,9.604624509811401367e-01,9.604154229164123535e-01,9.603682160377502441e-01,9.603210687637329102e-01,9.602739214897155762e-01,9.602267742156982422e-01,9.601797461509704590e-01,9.601325988769531250e-01,9.600854516029357910e-01,9.600383043289184570e-01,9.599911570549011230e-01,9.599440097808837891e-01,9.598970413208007812e-01,9.598498940467834473e-01,9.598028063774108887e-01,9.597556591033935547e-01,9.597085714340209961e-01,9.596616029739379883e-01,9.596144556999206543e-01,9.595673680305480957e-01,9.595202803611755371e-01,9.594731926918029785e-01,9.594261646270751953e-01,9.593791961669921875e-01,9.593321084976196289e-01,9.592850208282470703e-01,9.592379927635192871e-01,9.591909050941467285e-01,9.591439962387084961e-01,9.590969681739807129e-01,9.590498805046081543e-01,9.590028524398803711e-01,9.589558243751525879e-01,9.589087963104248047e-01,9.588618874549865723e-01,9.588148593902587891e-01
9.103580713272094727e-01,9.103157520294189453e-01,9.102733731269836426e-01,9.102309942245483398e-01,9.101886749267578125e-01,9.101462960243225098e-01,9.101039171218872070e-01,9.100616574287414551e-01,9.100192785263061523e-01,9.099769592285156250e-01,9.099345803260803223e-01,9.098922610282897949e-01,9.098500013351440430e-01,9.098076820373535156e-01,9.097653627395629883e-01,9.097230434417724609e-01,9.096807241439819336e-01,9.096384048461914062e-01,9.095962047576904297e-01,9.095538854598999023e-01,9.095115661621093750e-01,9.094692468643188477e-01,9.094269871711730957e-01,9.093847870826721191e-01,9.093424677848815918e-01,9.093002080917358398e-01,9.092578887939453125e-01,9.092156291007995605e-01,9.091733694076538086e-01,9.091311693191528320e-01,9.090889096260070801e-01,9.090466499328613281e-01,9.090043902397155762e-01,9.089621305465698242e-01,9.089199900627136230e-01,9.088777303695678711e-01,9.088354706764221191e-01,9.087932705879211426e-01,9.087510108947753906e-01,9.087088704109191895e-01,9.086666703224182129e-01,9.086244106292724609e-01,9.085822105407714844e-01,9.085400104522705078e-01,9.084978103637695312e-01,9.084556698799133301e-01,9.084134697914123535e-01,9.083712697029113770e-01,9.083290696144104004e-01,9.082868695259094238e-01,9.082447886466979980e-01,9.082026481628417969e-01,9.081604480743408203e-01,9.081182479858398438e-01,9.080761075019836426e-01,9.080339074134826660e-01,9.079918861389160156e-01,9.079496860504150391e-01,9.079075455665588379e-01,9.078654050827026367e-01,9.078232645988464355e-01,9.077811837196350098e-01,9.077390432357788086e-01,9.076969027519226074e-01,9.076547622680664062e-01,9.076126217842102051e-01,9.075705409049987793e-01,9.075285196304321289e-01,9.074863791465759277e-01,9.074442386627197266e-01,9.074021577835083008e-01,9.073600769042968750e-01,9.073180556297302246e-01,9.072759747505187988e-01,9.072338342666625977e-01,9.071917533874511719e-01,9.071496725082397461e-01,9.071075916290283203e-01,9.070656299591064453e-01,9.070235490798950195e-01
8.635414838790893555e-01,8.635034561157226562e-01,8.634653091430664062e-01,8.634272217750549316e-01,8.633890748023986816e-01,8.633509874343872070e-01,8.633128404617309570e-01,8.632748126983642578e-01,8.632367253303527832e-01,8.631985783576965332e-01,8.631604909896850586e-01,8.631224036216735840e-01,8.630843758583068848e-01,8.630462884902954102e-01,8.630082011222839355e-01,8.629701137542724609e-01,8.629320263862609863e-01,8.628939390182495117e-01,8.628559708595275879e-01,8.628178834915161133e-01,8.627797961235046387e-01,8.627417683601379395e-01,8.627036809921264648e-01,8.626657128334045410e-01,8.626276850700378418e-01,8.625895977020263672e-01,8.625515699386596680e-01,8.625134825706481934e-01,8.624754548072814941e-01,8.624374866485595703e-01,8.623994588851928711e-01,8.623614311218261719e-01,8.623234033584594727e-01,8.622853755950927734e-01,8.622474670410156250e-01,8.622094392776489258e-01,8.621714115142822266e-01,8.621333837509155273e-01,8.620953559875488281e-01,8.620573878288269043e-01,8.620194792747497559e-01,8.619814515113830566e-01,8.619434833526611328e-01,8.619054555892944336e-01,8.618674874305725098e-01,8.618295788764953613e-01,8.617916107177734375e-01,8.617536425590515137e-01,8.617156744003295898e-01,8.616776466369628906e-01,8.616396784782409668e-01,8.616018295288085938e-01,8.615638613700866699e-01,8.615258932113647461e-01,8.614879250526428223e-01,8.614500164985656738e-01,8.614121079444885254e-01,8.613741993904113770e-01,8.613362312316894531e-01,8.612983226776123047e-01,8.612603545188903809e-01,8.612224459648132324e-01,8.611845970153808594e-01,8.611466884613037109e-01,8.611087203025817871e-01,8.610708117485046387e-01,8.610329031944274902e-01,8.609950542449951172e-01,8.609571456909179688e-01,8.609192371368408203e-01,8.608813881874084473e-01,8.608434796333312988e-01,8.608055710792541504e-01,8.607677817344665527e-01,8.607298731803894043e-01,8.606919646263122559e-01,8.606541156768798828e-01,8.606162071228027344e-01,8.605784177780151367e-01,8.605405688285827637e-01
8.213046789169311523e-01,8.212702274322509766e-01,8.212357759475708008e-01,8.212012648582458496e-01,8.211668133735656738e-01,8.211323022842407227e-01,8.210978507995605469e-01,8.210633993148803711e-01,8.210289478302001953e-01,8.209944963455200195e-01,8.209599852561950684e-01,8.209255337715148926e-01,8.208911418914794922e-01,8.208566904067993164e-01,8.208222389221191406e-01,8.207877874374389648e-01,8.207533359527587891e-01,8.207188844680786133e-01,8.206845521926879883e-01,8.206501007080078125e-01,8.206156492233276367e-01,8.205811977386474609e-01,8.205468058586120605e-01,8.205124139785766602e-01,8.204780220985412598e-01,8.204435706138610840e-01,8.204091787338256836e-01,8.203747272491455078e-01,8.203403353691101074e-01,8.203060030937194824e-01,8.202715516090393066e-01,8.202371597290039062e-01,8.202027678489685059e-01,8.201683759689331055e-01,8.201340436935424805e-01,8.200996518135070801e-01,8.200652599334716797e-01,8.200308680534362793e-01,8.199964761734008789e-01,8.199620842933654785e-01,8.199277520179748535e-01,8.198934197425842285e-01,8.198590278625488281e-01,8.198246359825134277e-01,8.197903037071228027e-01,8.197559714317321777e-01,8.197216391563415527e-01,8.196872472763061523e-01,8.196529150009155273e-01,8.196185231208801270e-01,8.195841908454895020e-01,8.195499181747436523e-01,8.195155858993530273e-01,8.194812536239624023e-01,8.194468617439270020e-01,8.194125294685363770e-01,8.193783164024353027e-01,8.193439841270446777e-01,8.193096518516540527e-01,8.192753195762634277e-01,8.192409873008728027e-01,8.192066550254821777e-01,8.191724419593811035e-01,8.191381096839904785e-01,8.191037774085998535e-01,8.190695047378540039e-01,8.190351724624633789e-01,8.190009593963623047e-01,8.189666271209716797e-01,8.189323544502258301e-01,8.188980221748352051e-01,8.188637495040893555e-01,8.188294768333435059e-01,8.187952637672424316e-01,8.187609910964965820e-01,8.187266588211059570e-01,8.186923861503601074e-01,8.186581134796142578e-01,8.186239600181579590e-01,8.185896873474121094e-01
7.830069065093994141e-01,7.829755544662475586e-01,7.829442620277404785e-01,7.829129099845886230e-01,7.828815579414367676e-01,7.828502058982849121e-01,7.828189134597778320e-01,7.827876210212707520e-01,7.827562689781188965e-01,7.827249765396118164e-01,7.826936244964599609e-01,7.826622724533081055e-01,7.826309800148010254e-01,7.825996875762939453e-01,7.825683951377868652e-01,7.825371026992797852e-01,7.825057506561279297e-01,7.824744582176208496e-01,7.824432253837585449e-01,7.824118733406066895e-01,7.823805809020996094e-01,7.823492884635925293e-01,7.823179960250854492e-01,7.822867035865783691e-01,7.822554707527160645e-01,7.822241783142089844e-01,7.821928858757019043e-01,7.821615934371948242e-01,7.821303009986877441e-01,7.820991277694702148e-01,7.820678353309631348e-01,7.820365428924560547e-01,7.820052504539489746e-01,7.819740176200866699e-01,7.819427251815795898e-01,7.819115519523620605e-01,7.818802595138549805e-01,7.818489670753479004e-01,7.818177342414855957e-01,7.817865014076232910e-01,7.817552685737609863e-01,7.817240357398986816e-01,7.816928029060363770e-01,7.816615700721740723e-01,7.816302776336669922e-01,7.815991044044494629e-01,7.815678715705871582e-01,7.815366387367248535e-01,7.815054059028625488e-01,7.814741730690002441e-01,7.814429402351379395e-01,7.814117670059204102e-01,7.813805937767028809e-01,7.813493609428405762e-01,7.813181281089782715e-01,7.812868952751159668e-01,7.812557816505432129e-01,7.812245488166809082e-01,7.811933159828186035e-01,7.811621427536010742e-01,7.811309099197387695e-01,7.810997366905212402e-01,7.810685634613037109e-01,7.810373902320861816e-01,7.810062170028686523e-01,7.809749841690063477e-01,7.809438109397888184e-01,7.809126973152160645e-01,7.808815240859985352e-01,7.808503508567810059e-01,7.808191180229187012e-01,7.807879447937011719e-01,7.807567715644836426e-01,7.807257175445556641e-01,7.806945443153381348e-01,7.806633710861206055e-01,7.806321978569030762e-01,7.806010246276855469e-01,7.805699110031127930e-01,7.805387973785400391e-01
7.481216788291931152e-01,7.480930089950561523e-01,7.480644583702087402e-01,7.480358481407165527e-01,7.480072379112243652e-01,7.479786276817321777e-01,7.479500174522399902e-01,7.479214668273925781e-01,7.478928565979003906e-01,7.478643059730529785e-01,7.478356957435607910e-01,7.478070855140686035e-01,7.477784752845764160e-01,7.477499246597290039e-01,7.477213740348815918e-01,7.476927638053894043e-01,7.476641535758972168e-01,7.476356029510498047e-01,7.476070523262023926e-01,7.475785017013549805e-01,7.475498914718627930e-01,7.475213408470153809e-01,7.474927306175231934e-01,7.474641799926757812e-01,7.474356889724731445e-01,7.474070787429809570e-01,7.473785281181335449e-01,7.473499774932861328e-01,7.473214268684387207e-01,7.472929358482360840e-01,7.472643852233886719e-01,7.472357749938964844e-01,7.472072243690490723e-01,7.471786737442016602e-01,7.471501231193542480e-01,7.471216917037963867e-01,7.470931410789489746e-01,7.470645904541015625e-01,7.470360398292541504e-01,7.470074892044067383e-01,7.469789981842041016e-01,7.469505071640014648e-01,7.469219565391540527e-01,7.468934059143066406e-01,7.468649148941040039e-01,7.468363642692565918e-01,7.468079328536987305e-01,7.467793822288513184e-01,7.467508912086486816e-01,7.467223405838012695e-01,7.466938495635986328e-01,7.466654181480407715e-01,7.466368675231933594e-01,7.466083765029907227e-01,7.465798854827880859e-01,7.465513944625854492e-01,7.465228438377380371e-01,7.464944124221801758e-01,7.464659214019775391e-01,7.464374303817749023e-01,7.464089393615722656e-01,7.463804483413696289e-01,7.463520169258117676e-01,7.463235259056091309e-01,7.462950348854064941e-01,7.462666034698486328e-01,7.462381124496459961e-01,7.462096214294433594e-01,7.461811900138854980e-01,7.461527585983276367e-01,7.461242675781250000e-01,7.460957765579223633e-01,7.460673451423645020e-01,7.460389137268066406e-01,7.460104823112487793e-01,7.459819912910461426e-01,7.459535598754882812e-01,7.459250688552856445e-01,7.458966374397277832e-01,7.458682656288146973e-01
