5.000000000000000000e+00,5.000000000000000000e+00,5.000000000000000000e+00,5.000000000000000000e+00,5.000000000000000000e+00,5.000000000000000000e+00,5.000000000000000000e+00,5.000000000000000000e+00,5.000000000000000000e+00,5.000000000000000000e+00,5.000000000000000000e+00,5.000000000000000000e+00,5.000000000000000000e+00,5.000000000000000000e+00,5.000000000000000000e+00,5.000000000000000000e+00,5.000000000000000000e+00,5.000000000000000000e+00,5.000000000000000000e+00,5.000000000000000000e+00,5.000000000000000000e+00,5.000000000000000000e+00,5.000000000000000000e+00,5.000000000000000000e+00,5.000000000000000000e+00,5.000000000000000000e+00,5.000000000000000000e+00,5.000000000000000000e+00,5.000000000000000000e+00,5.000000000000000000e+00,5.000000000000000000e+00,5.000000000000000000e+00,2.591134309768676758e+00,2.579565763473510742e+00,5.000000000000000000e+00,5.000000000000000000e+00,5.000000000000000000e+00,5.000000000000000000e+00,5.000000000000000000e+00,5.000000000000000000e+00,5.000000000000000000e+00,5.000000000000000000e+00,5.000000000000000000e+00,4.178518295288085938e+00,4.036687850952148438e+00,3.904170036315917969e+00,3.780075788497924805e+00,3.663627624511718750e+00,3.554139137268066406e+00,3.451005220413208008e+00,3.353687763214111328e+00,3.261708498001098633e+00,3.174640178680419922e+00,3.092098951339721680e+00,3.013741493225097656e+00,2.939257144927978516e+00,2.868365764617919922e+00,2.800813198089599609e+00,2.736369371414184570e+00,2.674824714660644531e+00,2.615987300872802734e+00,2.559682846069335938e+00,2.505750894546508789e+00,2.454044818878173828e+00,2.404429435729980469e+00,2.356780529022216797e+00,2.310983419418334961e+00,2.266932249069213867e+00,2.224529027938842773e+00,2.183683156967163086e+00,2.144309997558593750e+00,2.106331825256347656e+00,2.069675207138061523e+00,2.034272909164428711e+00,2.000061035156250000e+00,1.966981172561645508e+00,1.934977531433105469e+00,1.903998851776123047e+00,1.873996138572692871e+00,1.844924569129943848e+00
5.000000000000000000e+00,5.000000000000000000e+00,5.000000000000000000e+00,5.000000000000000000e+00,5.000000000000000000e+00,5.000000000000000000e+00,5.000000000000000000e+00,5.000000000000000000e+00,5.000000000000000000e+00,5.000000000000000000e+00,5.000000000000000000e+00,5.000000000000000000e+00,5.000000000000000000e+00,5.000000000000000000e+00,5.000000000000000000e+00,5.000000000000000000e+00,5.000000000000000000e+00,5.000000000000000000e+00,5.000000000000000000e+00,5.000000000000000000e+00,5.000000000000000000e+00,5.000000000000000000e+00,5.000000000000000000e+00,5.000000000000000000e+00,5.000000000000000000e+00,5.000000000000000000e+00,5.000000000000000000e+00,5.000000000000000000e+00,5.000000000000000000e+00,5.000000000000000000e+00,5.000000000000000000e+00,2.621646165847778320e+00,2.555593729019165039e+00,2.556196451187133789e+00,2.594109535217285156e+00,5.000000000000000000e+00,5.000000000000000000e+00,5.000000000000000000e+00,5.000000000000000000e+00,5.000000000000000000e+00,5.000000000000000000e+00,5.000000000000000000e+00,4.330789089202880859e+00,4.178621768951416016e+00,4.036784172058105469e+00,3.904259920120239258e+00,3.780159950256347656e+00,3.663706779479980469e+00,3.554213762283325195e+00,3.451075553894042969e+00,3.353754281997680664e+00,3.261771678924560547e+00,3.174699544906616211e+00,3.092155694961547852e+00,3.013795137405395508e+00,2.939308166503906250e+00,2.868414402008056641e+00,2.800859689712524414e+00,2.736413717269897461e+00,2.674866914749145508e+00,2.616027832031250000e+00,2.559721469879150391e+00,2.505787849426269531e+00,2.454080343246459961e+00,2.404463529586791992e+00,2.356813430786132812e+00,2.311014890670776367e+00,2.266962528228759766e+00,2.224558353424072266e+00,2.183711290359497070e+00,2.144337177276611328e+00,2.106357812881469727e+00,2.069700479507446289e+00,2.034297227859497070e+00,2.000084877014160156e+00,1.967003941535949707e+00,1.934999704360961914e+00,1.904020190238952637e+00,1.874016880989074707e+00,1.844944715499877930e+00
5.000000000000000000e+00,5.000000000000000000e+00,5.000000000000000000e+00,5.000000000000000000e+00,5.000000000000000000e+00,5.000000000000000000e+00,5.000000000000000000e+00,5.000000000000000000e+00,5.000000000000000000e+00,5.000000000000000000e+00,5.000000000000000000e+00,5.000000000000000000e+00,5.000000000000000000e+00,5.000000000000000000e+00,5.000000000000000000e+00,5.000000000000000000e+00,5.000000000000000000e+00,5.000000000000000000e+00,5.000000000000000000e+00,5.000000000000000000e+00,5.000000000000000000e+00,5.000000000000000000e+00,5.000000000000000000e+00,5.000000000000000000e+00,5.000000000000000000e+00,5.000000000000000000e+00,5.000000000000000000e+00,5.000000000000000000e+00,5.000000000000000000e+00,5.000000000000000000e+00,5.000000000000000000e+00,2.624171495437622070e+00,2.564971208572387695e+00,2.568314790725708008e+00,2.590097427368164062e+00,5.000000000000000000e+00,5.000000000000000000e+00,5.000000000000000000e+00,5.000000000000000000e+00,5.000000000000000000e+00,5.000000000000000000e+00,4.494577407836914062e+00,4.330899715423583984e+00,4.178724765777587891e+00,4.036880493164062500e+00,3.904350042343139648e+00,3.780244827270507812e+00,3.663785934448242188e+00,3.554288625717163086e+00,3.451145887374877930e+00,3.353820562362670898e+00,3.261834383010864258e+00,3.174759149551391602e+00,3.092212200164794922e+00,3.013848781585693359e+00,2.939359426498413086e+00,2.868462800979614258e+00,2.800906181335449219e+00,2.736458063125610352e+00,2.674909114837646484e+00,2.616068363189697266e+00,2.559760093688964844e+00,2.505825281143188477e+00,2.454115867614746094e+00,2.404497861862182617e+00,2.356846094131469727e+00,2.311046361923217773e+00,2.266993045806884766e+00,2.224587440490722656e+00,2.183739423751831055e+00,2.144364356994628906e+00,2.106384277343750000e+00,2.069725751876831055e+00,2.034321784973144531e+00,2.000108480453491211e+00,1.967026829719543457e+00,1.935021877288818359e+00,1.904041767120361328e+00,1.874037742614746094e+00,1.844964742660522461e+00
5.000000000000000000e+00,5.000000000000000000e+00,5.000000000000000000e+00,5.000000000000000000e+00,5.000000000000000000e+00,5.000000000000000000e+00,5.000000000000000000e+00,5.000000000000000000e+00,5.000000000000000000e+00,5.000000000000000000e+00,5.000000000000000000e+00,5.000000000000000000e+00,5.000000000000000000e+00,5.000000000000000000e+00,5.000000000000000000e+00,5.000000000000000000e+00,5.000000000000000000e+00,5.000000000000000000e+00,5.000000000000000000e+00,5.000000000000000000e+00,5.000000000000000000e+00,5.000000000000000000e+00,5.000000000000000000e+00,5.000000000000000000e+00,5.000000000000000000e+00,5.000000000000000000e+00,5.000000000000000000e+00,5.000000000000000000e+00,5.000000000000000000e+00,5.000000000000000000e+00,5.000000000000000000e+00,2.626964330673217773e+00,2.575957298278808594e+00,2.565505027770996094e+00,2.603451013565063477e+00,5.000000000000000000e+00,5.000000000000000000e+00,5.000000000000000000e+00,5.000000000000000000e+00,5.000000000000000000e+00,4.671241283416748047e+00,4.494696617126464844e+00,4.331010818481445312e+00,4.178827762603759766e+00,4.036976814270019531e+00,3.904440402984619141e+00,3.780329227447509766e+00,3.663865089416503906e+00,3.554363250732421875e+00,3.451216220855712891e+00,3.353887319564819336e+00,3.261897325515747070e+00,3.174818992614746094e+00,3.092268466949462891e+00,3.013902425765991211e+00,2.939410209655761719e+00,2.868511438369750977e+00,2.800952434539794922e+00,2.736502170562744141e+00,2.674951553344726562e+00,2.616108655929565430e+00,2.559798955917358398e+00,2.505862236022949219e+00,2.454151391983032227e+00,2.404531955718994141e+00,2.356878995895385742e+00,2.311078071594238281e+00,2.267023324966430664e+00,2.224616765975952148e+00,2.183767557144165039e+00,2.144391536712646484e+00,2.106410503387451172e+00,2.069751024246215820e+00,2.034346103668212891e+00,2.000132083892822266e+00,1.967049837112426758e+00,1.935043931007385254e+00,1.904063105583190918e+00,1.874058485031127930e+00,1.844984889030456543e+00
5.000000000000000000e+00,5.000000000000000000e+00,5.000000000000000000e+00,5.000000000000000000e+00,5.000000000000000000e+00,5.000000000000000000e+00,5.000000000000000000e+00,5.000000000000000000e+00,5.000000000000000000e+00,5.000000000000000000e+00,5.000000000000000000e+00,5.000000000000000000e+00,5.000000000000000000e+00,5.000000000000000000e+00,5.000000000000000000e+00,5.000000000000000000e+00,5.000000000000000000e+00,5.000000000000000000e+00,5.000000000000000000e+00,5.000000000000000000e+00,5.000000000000000000e+00,5.000000000000000000e+00,5.000000000000000000e+00,5.000000000000000000e+00,5.000000000000000000e+00,5.000000000000000000e+00,5.000000000000000000e+00,5.000000000000000000e+00,5.000000000000000000e+00,5.000000000000000000e+00,5.000000000000000000e+00,5.000000000000000000e+00,2.600216150283813477e+00,2.583235025405883789e+00,5.000000000000000000e+00,5.000000000000000000e+00,5.000000000000000000e+00,5.000000000000000000e+00,5.000000000000000000e+00,4.862361431121826172e+00,4.671370506286621094e+00,4.494816303253173828e+00,4.331121444702148438e+00,4.178930759429931641e+00,4.037073135375976562e+00,3.904530286788940430e+00,3.780413389205932617e+00,3.663944721221923828e+00,3.554437637329101562e+00,3.451286792755126953e+00,3.353953599929809570e+00,3.261960029602050781e+00,3.174878358840942383e+00,3.092324972152709961e+00,3.013956308364868164e+00,2.939461231231689453e+00,2.868560314178466797e+00,2.800998687744140625e+00,2.736546277999877930e+00,2.674993753433227539e+00,2.616149187088012695e+00,2.559837818145751953e+00,2.505899190902709961e+00,2.454187154769897461e+00,2.404566049575805664e+00,2.356911897659301758e+00,2.311109542846679688e+00,2.267053604125976562e+00,2.224646091461181641e+00,2.183795690536499023e+00,2.144418716430664062e+00,2.106436491012573242e+00,2.069776296615600586e+00,2.034370660781860352e+00,2.000155687332153320e+00,1.967072725296020508e+00,1.935065984725952148e+00,1.904084563255310059e+00,1.874079346656799316e+00,1.845005273818969727e+00
5.000000000000000000e+00,5.000000000000000000e+00,5.000000000000000000e+00,5.000000000000000000e+00,5.000000000000000000e+00,5.000000000000000000e+00,5.000000000000000000e+00,5.000000000000000000e+00,5.000000000000000000e+00,5.000000000000000000e+00,5.000000000000000000e+00,5.000000000000000000e+00,5.000000000000000000e+00,5.000000000000000000e+00,5.000000000000000000e+00,5.000000000000000000e+00,5.000000000000000000e+00,5.000000000000000000e+00,5.000000000000000000e+00,5.000000000000000000e+00,5.000000000000000000e+00,5.000000000000000000e+00,5.000000000000000000e+00,5.000000000000000000e+00,5.000000000000000000e+00,5.000000000000000000e+00,5.000000000000000000e+00,5.000000000000000000e+00,5.000000000000000000e+00,5.000000000000000000e+00,5.000000000000000000e+00,5.000000000000000000e+00,2.643034934997558594e+00,2.649916887283325195e+00,5.000000000000000000e+00,5.000000000000000000e+00,5.000000000000000000e+00,5.000000000000000000e+00,5.000000000000000000e+00,4.862501144409179688e+00,4.671499252319335938e+00,4.494935512542724609e+00,4.331232547760009766e+00,4.179034233093261719e+00,4.037169456481933594e+00,3.904620170593261719e+00,3.780497789382934570e+00,3.664023876190185547e+00,3.554512262344360352e+00,3.451357126235961914e+00,3.354020118713378906e+00,3.262023210525512695e+00,3.174937963485717773e+00,3.092381715774536133e+00,3.014009714126586914e+00,2.939512252807617188e+00,2.868608713150024414e+00,2.801044940948486328e+00,2.736590862274169922e+00,2.675036191940307617e+00,2.616189718246459961e+00,2.559876441955566406e+00,2.505936384201049805e+00,2.454222679138183594e+00,2.404600143432617188e+00,2.356944799423217773e+00,2.311141252517700195e+00,2.267084121704101562e+00,2.224675178527832031e+00,2.183824062347412109e+00,2.144445896148681641e+00,2.106462717056274414e+00,2.069801568984985352e+00,2.034394979476928711e+00,2.000179290771484375e+00,1.967095613479614258e+00,1.935088396072387695e+00,1.904105901718139648e+00,1.874100089073181152e+00,1.845025300979614258e+00
5.000000000000000000e+00,5.000000000000000000e+00,5.000000000000000000e+00,5.000000000000000000e+00,5.000000000000000000e+00,5.000000000000000000e+00,5.000000000000000000e+00,5.000000000000000000e+00,5.000000000000000000e+00,5.000000000000000000e+00,5.000000000000000000e+00,5.000000000000000000e+00,5.000000000000000000e+00,5.000000000000000000e+00,5.000000000000000000e+00,5.000000000000000000e+00,5.000000000000000000e+00,5.000000000000000000e+00,5.000000000000000000e+00,5.000000000000000000e+00,5.000000000000000000e+00,5.000000000000000000e+00,5.000000000000000000e+00,5.000000000000000000e+00,5.000000000000000000e+00,5.000000000000000000e+00,5.000000000000000000e+00,5.000000000000000000e+00,2.536404132843017578e+00,2.551400423049926758e+00,2.579182386398315430e+00,2.582417488098144531e+00,2.562480688095092773e+00,2.662866592407226562e+00,2.613178730010986328e+00,5.000000000000000000e+00,5.000000000000000000e+00,5.000000000000000000e+00,5.000000000000000000e+00,4.862640857696533203e+00,4.671627998352050781e+00,4.495055198669433594e+00,4.331343173980712891e+00,4.179137229919433594e+00,4.037265777587890625e+00,3.904710292816162109e+00,3.780582666397094727e+00,3.664103269577026367e+00,3.554587125778198242e+00,3.451427459716796875e+00,3.354086399078369141e+00,3.262085914611816406e+00,3.174997329711914062e+00,3.092438220977783203e+00,3.014063358306884766e+00,2.939563512802124023e+00,2.868657350540161133e+00,2.801091432571411133e+00,2.736634969711303711e+00,2.675078392028808594e+00,2.616230010986328125e+00,2.559915065765380859e+00,2.505973577499389648e+00,2.454258203506469727e+00,2.404634475708007812e+00,2.356977462768554688e+00,2.311172723770141602e+00,2.267114400863647461e+00,2.224704504013061523e+00,2.183852195739746094e+00,2.144473075866699219e+00,2.106489181518554688e+00,2.069827079772949219e+00,2.034419536590576172e+00,2.000202894210815430e+00,1.967118382453918457e+00,1.935110449790954590e+00,1.904127240180969238e+00,1.874120831489562988e+00,1.845045447349548340e+00
5.000000000000000000e+00,5.000000000000000000e+00,5.000000000000000000e+00,5.000000000000000000e+00,5.000000000000000000e+00,5.000000000000000000e+00,5.000000000000000000e+00,5.000000000000000000e+00,5.000000000000000000e+00,5.000000000000000000e+00,5.000000000000000000e+00,5.000000000000000000e+00,5.000000000000000000e+00,5.000000000000000000e+00,5.000000000000000000e+00,5.000000000000000000e+00,5.000000000000000000e+00,5.000000000000000000e+00,5.000000000000000000e+00,5.000000000000000000e+00,5.000000000000000000e+00,5.000000000000000000e+00,5.000000000000000000e+00,5.000000000000000000e+00,5.000000000000000000e+00,5.000000000000000000e+00,5.000000000000000000e+00,2.554245710372924805e+00,2.521069049835205078e+00,2.536922931671142578e+00,2.535933256149291992e+00,2.546366930007934570e+00,2.563278675079345703e+00,2.583788394927978516e+00,2.612162351608276367e+00,2.644524574279785156e+00,2.699879169464111328e+00,2.726840019226074219e+00,5.000000000000000000e+00,4.862780570983886719e+00,4.671757221221923828e+00,4.495174407958984375e+00,4.331454277038574219e+00,4.179240703582763672e+00,4.037362098693847656e+00,3.904800653457641602e+00,3.780666828155517578e+00,3.664182424545288086e+00,3.554661750793457031e+00,3.451497793197631836e+00,3.354153156280517578e+00,3.262148618698120117e+00,3.175057172775268555e+00,3.092494487762451172e+00,3.014117002487182617e+00,2.939614534378051758e+00,2.868705987930297852e+00,2.801137924194335938e+00,2.736679077148437500e+00,2.675120830535888672e+00,2.616270542144775391e+00,2.559953927993774414e+00,2.506010532379150391e+00,2.454293727874755859e+00,2.404668569564819336e+00,2.357010364532470703e+00,2.311204433441162109e+00,2.267144680023193359e+00,2.224733829498291016e+00,2.183880329132080078e+00,2.144500255584716797e+00,2.106515169143676758e+00,2.069852352142333984e+00,2.034444093704223633e+00,2.000226497650146484e+00,1.967141270637512207e+00,1.935132503509521484e+00,1.904148936271667480e+00,1.874141573905944824e+00,1.845065474510192871e+00
5.000000000000000000e+00,5.000000000000000000e+00,5.000000000000000000e+00,5.000000000000000000e+00,5.000000000000000000e+00,5.000000000000000000e+00,5.000000000000000000e+00,5.000000000000000000e+00,5.000000000000000000e+00,5.000000000000000000e+00,5.000000000000000000e+00,5.000000000000000000e+00,5.000000000000000000e+00,5.000000000000000000e+00,5.000000000000000000e+00,5.000000000000000000e+00,5.000000000000000000e+00,5.000000000000000000e+00,5.000000000000000000e+00,5.000000000000000000e+00,5.000000000000000000e+00,5.000000000000000000e+00,5.000000000000000000e+00,5.000000000000000000e+00,5.000000000000000000e+00,5.000000000000000000e+00,5.000000000000000000e+00,2.567523956298828125e+00,2.537837266921997070e+00,2.551427125930786133e+00,2.539027690887451172e+00,2.527388811111450195e+00,2.530154228210449219e+00,2.545751094818115234e+00,2.566501855850219727e+00,2.603090286254882812e+00,2.689276695251464844e+00,2.729338645935058594e+00,5.000000000000000000e+00,4.862920284271240234e+00,4.671885967254638672e+00,4.495293617248535156e+00,4.331565380096435547e+00,4.179343700408935547e+00,4.037458419799804688e+00,3.904890537261962891e+00,3.780751228332519531e+00,3.664262056350708008e+00,3.554736375808715820e+00,3.451568365097045898e+00,3.354219675064086914e+00,3.262211561203002930e+00,3.175116539001464844e+00,3.092550992965698242e+00,3.014170885086059570e+00,2.939665555953979492e+00,2.868754625320434570e+00,2.801184177398681641e+00,2.736723661422729492e+00,2.675163030624389648e+00,2.616310834884643555e+00,2.559992551803588867e+00,2.506047725677490234e+00,2.454329490661621094e+00,2.404702663421630859e+00,2.357043266296386719e+00,2.311235904693603516e+00,2.267175197601318359e+00,2.224762916564941406e+00,2.183908462524414062e+00,2.144527435302734375e+00,2.106541395187377930e+00,2.069877624511718750e+00,2.034468412399291992e+00,2.000250339508056641e+00,1.967164039611816406e+00,1.935154676437377930e+00,1.904170274734497070e+00,1.874162316322326660e+00,1.845085620880126953e+00
5.000000000000000000e+00,5.000000000000000000e+00,5.000000000000000000e+00,5.000000000000000000e+00,5.000000000000000000e+00,5.000000000000000000e+00,5.000000000000000000e+00,5.000000000000000000e+00,5.000000000000000000e+00,5.000000000000000000e+00,5.000000000000000000e+00,5.000000000000000000e+00,5.000000000000000000e+00,5.000000000000000000e+00,5.000000000000000000e+00,5.000000000000000000e+00,5.000000000000000000e+00,5.000000000000000000e+00,5.000000000000000000e+00,5.000000000000000000e+00,5.000000000000000000e+00,5.000000000000000000e+00,5.000000000000000000e+00,5.000000000000000000e+00,5.000000000000000000e+00,5.000000000000000000e+00,5.000000000000000000e+00,5.000000000000000000e+00,2.557914018630981445e+00,2.571505546569824219e+00,2.544363737106323242e+00,2.529767274856567383e+00,2.533700942993164062e+00,2.549535512924194336e+00,2.577007055282592773e+00,2.603291273117065430e+00,2.692245721817016602e+00,2.738946914672851562e+00,5.000000000000000000e+00,4.863059997558593750e+00,4.672014713287353516e+00,4.495413303375244141e+00,4.331676006317138672e+00,4.179447174072265625e+00,4.037554740905761719e+00,3.904980659484863281e+00,3.780836105346679688e+00,3.664341211318969727e+00,3.554810762405395508e+00,3.451638698577880859e+00,3.354285955429077148e+00,3.262274742126464844e+00,3.175176143646240234e+00,3.092607736587524414e+00,3.014224529266357422e+00,2.939716577529907227e+00,2.868803262710571289e+00,2.801230430603027344e+00,2.736767768859863281e+00,2.675205230712890625e+00,2.616351366043090820e+00,2.560031175613403320e+00,2.506084918975830078e+00,2.454365015029907227e+00,2.404736757278442383e+00,2.357075929641723633e+00,2.311267375946044922e+00,2.267205476760864258e+00,2.224792242050170898e+00,2.183936834335327148e+00,2.144554615020751953e+00,2.106567621231079102e+00,2.069902896881103516e+00,2.034492731094360352e+00,2.000273942947387695e+00,1.967186927795410156e+00,1.935176730155944824e+00,1.904191732406616211e+00,1.874183177947998047e+00,1.845105648040771484e+00
5.000000000000000000e+00,5.000000000000000000e+00,5.000000000000000000e+00,5.000000000000000000e+00,5.000000000000000000e+00,5.000000000000000000e+00,5.000000000000000000e+00,5.000000000000000000e+00,5.000000000000000000e+00,5.000000000000000000e+00,5.000000000000000000e+00,5.000000000000000000e+00,5.000000000000000000e+00,5.000000000000000000e+00,5.000000000000000000e+00,5.000000000000000000e+00,5.000000000000000000e+00,5.000000000000000000e+00,5.000000000000000000e+00,5.000000000000000000e+00,5.000000000000000000e+00,5.000000000000000000e+00,5.000000000000000000e+00,5.000000000000000000e+00,5.000000000000000000e+00,5.000000000000000000e+00,5.000000000000000000e+00,5.000000000000000000e+00,2.575288057327270508e+00,2.575408697128295898e+00,2.555212259292602539e+00,2.540196657180786133e+00,2.535268068313598633e+00,2.540102005004882812e+00,2.567632198333740234e+00,2.617038965225219727e+00,2.736137151718139648e+00,2.737885236740112305e+00,5.000000000000000000e+00,4.863199710845947266e+00,4.672143936157226562e+00,4.495532512664794922e+00,4.331787109375000000e+00,4.179550170898437500e+00,4.037651062011718750e+00,3.905070543289184570e+00,3.780920505523681641e+00,3.664420604705810547e+00,3.554885864257812500e+00,3.451709032058715820e+00,3.354352712631225586e+00,3.262337446212768555e+00,3.175235509872436523e+00,3.092664241790771484e+00,3.014278173446655273e+00,2.939767837524414062e+00,2.868851900100708008e+00,2.801276922225952148e+00,2.736811876296997070e+00,2.675247430801391602e+00,2.616391897201538086e+00,2.560070037841796875e+00,2.506122112274169922e+00,2.454400539398193359e+00,2.404771089553833008e+00,2.357108831405639648e+00,2.311299085617065430e+00,2.267235994338989258e+00,2.224821329116821289e+00,2.183964967727661133e+00,2.144581794738769531e+00,2.106593847274780273e+00,2.069928169250488281e+00,2.034517288208007812e+00,2.000297546386718750e+00,1.967209696769714355e+00,1.935198903083801270e+00,1.904213070869445801e+00,1.874203920364379883e+00,1.845125794410705566e+00
5.000000000000000000e+00,5.000000000000000000e+00,5.000000000000000000e+00,5.000000000000000000e+00,5.000000000000000000e+00,5.000000000000000000e+00,5.000000000000000000e+00,5.000000000000000000e+00,5.000000000000000000e+00,5.000000000000000000e+00,5.000000000000000000e+00,5.000000000000000000e+00,5.000000000000000000e+00,5.000000000000000000e+00,5.000000000000000000e+00,5.000000000000000000e+00,5.000000000000000000e+00,5.000000000000000000e+00,5.000000000000000000e+00,5.000000000000000000e+00,5.000000000000000000e+00,5.000000000000000000e+00,5.000000000000000000e+00,5.000000000000000000e+00,5.000000000000000000e+00,5.000000000000000000e+00,5.000000000000000000e+00,5.000000000000000000e+00,2.585212945938110352e+00,2.577764272689819336e+00,2.564901351928710938e+00,2.536828517913818359e+00,2.532299995422363281e+00,2.542115926742553711e+00,2.565993547439575195e+00,2.610418081283569336e+00,2.735021352767944336e+00,2.730588912963867188e+00,5.000000000000000000e+00,4.863339424133300781e+00,4.672272682189941406e+00,4.495651721954345703e+00,4.331897735595703125e+00,4.179653644561767578e+00,4.037747383117675781e+00,3.905160903930664062e+00,3.781004667282104492e+00,3.664499759674072266e+00,3.554960250854492188e+00,3.451779365539550781e+00,3.354418992996215820e+00,3.262400150299072266e+00,3.175295352935791016e+00,3.092720508575439453e+00,3.014332056045532227e+00,2.939818859100341797e+00,2.868900299072265625e+00,2.801323175430297852e+00,2.736856222152709961e+00,2.675289869308471680e+00,2.616432189941406250e+00,2.560108900070190430e+00,2.506159067153930664e+00,2.454436063766479492e+00,2.404805183410644531e+00,2.357141494750976562e+00,2.311330556869506836e+00,2.267266273498535156e+00,2.224850893020629883e+00,2.183993101119995117e+00,2.144608974456787109e+00,2.106620073318481445e+00,2.069953441619873047e+00,2.034541845321655273e+00,2.000321149826049805e+00,1.967232823371887207e+00,1.935220956802368164e+00,1.904234528541564941e+00,1.874224662780761719e+00,1.845145821571350098e+00
5.000000000000000000e+00,5.000000000000000000e+00,5.000000000000000000e+00,5.000000000000000000e+00,5.000000000000000000e+00,5.000000000000000000e+00,5.000000000000000000e+00,5.000000000000000000e+00,5.000000000000000000e+00,5.000000000000000000e+00,5.000000000000000000e+00,5.000000000000000000e+00,5.000000000000000000e+00,5.000000000000000000e+00,5.000000000000000000e+00,5.000000000000000000e+00,5.000000000000000000e+00,5.000000000000000000e+00,5.000000000000000000e+00,5.000000000000000000e+00,5.000000000000000000e+00,5.000000000000000000e+00,5.000000000000000000e+00,5.000000000000000000e+00,5.000000000000000000e+00,5.000000000000000000e+00,5.000000000000000000e+00,5.000000000000000000e+00,2.595546007156372070e+00,2.582243919372558594e+00,2.572192907333374023e+00,2.538341045379638672e+00,2.533303260803222656e+00,2.546028137207031250e+00,2.569658517837524414e+00,2.611846923828125000e+00,2.760730028152465820e+00,2.728904962539672852e+00,2.777618885040283203e+00,4.863479137420654297e+00,4.672401905059814453e+00,4.495771408081054688e+00,4.332008838653564453e+00,4.179756641387939453e+00,4.037843704223632812e+00,3.905251026153564453e+00,3.781089067459106445e+00,3.664579391479492188e+00,3.555034875869750977e+00,3.451849937438964844e+00,3.354485511779785156e+00,3.262463092803955078e+00,3.175354957580566406e+00,3.092777013778686523e+00,3.014385700225830078e+00,2.939869642257690430e+00,2.868949174880981445e+00,2.801369667053222656e+00,2.736900568008422852e+00,2.675332069396972656e+00,2.616472721099853516e+00,2.560147523880004883e+00,2.506196022033691406e+00,2.454471826553344727e+00,2.404839277267456055e+00,2.357174396514892578e+00,2.311362028121948242e+00,2.267296552658081055e+00,2.224879980087280273e+00,2.184021234512329102e+00,2.144636154174804688e+00,2.106646299362182617e+00,2.069978952407836914e+00,2.034566164016723633e+00,2.000344753265380859e+00,1.967255592346191406e+00,1.935243010520935059e+00,1.904255867004394531e+00,1.874245405197143555e+00,1.845166087150573730e+00
5.000000000000000000e+00,5.000000000000000000e+00,5.000000000000000000e+00,5.000000000000000000e+00,5.000000000000000000e+00,5.000000000000000000e+00,5.000000000000000000e+00,5.000000000000000000e+00,5.000000000000000000e+00,5.000000000000000000e+00,5.000000000000000000e+00,5.000000000000000000e+00,5.000000000000000000e+00,5.000000000000000000e+00,5.000000000000000000e+00,5.000000000000000000e+00,5.000000000000000000e+00,5.000000000000000000e+00,5.000000000000000000e+00,5.000000000000000000e+00,5.000000000000000000e+00,5.000000000000000000e+00,5.000000000000000000e+00,5.000000000000000000e+00,5.000000000000000000e+00,5.000000000000000000e+00,5.000000000000000000e+00,5.000000000000000000e+00,2.608878135681152344e+00,2.597979545593261719e+00,2.550230026245117188e+00,2.527144193649291992e+00,2.522503614425659180e+00,2.537423133850097656e+00,2.570761203765869141e+00,2.604770660400390625e+00,5.000000000000000000e+00,2.742242097854614258e+00,2.775848865509033203e+00,4.863618850708007812e+00,4.672530651092529297e+00,4.495890617370605469e+00,4.332119464874267578e+00,4.179860115051269531e+00,4.037940025329589844e+00,3.905340909957885742e+00,3.781173944473266602e+00,3.664658546447753906e+00,3.555109500885009766e+00,3.451920270919799805e+00,3.354551792144775391e+00,3.262526035308837891e+00,3.175414323806762695e+00,3.092833757400512695e+00,3.014439344406127930e+00,2.939920663833618164e+00,2.868997812271118164e+00,2.801415920257568359e+00,2.736944913864135742e+00,2.675374269485473633e+00,2.616513252258300781e+00,2.560186147689819336e+00,2.506233453750610352e+00,2.454507350921630859e+00,2.404873371124267578e+00,2.357207298278808594e+00,2.311393737792968750e+00,2.267327070236206055e+00,2.224909305572509766e+00,2.184049606323242188e+00,2.144663333892822266e+00,2.106672525405883789e+00,2.070004224777221680e+00,2.034590721130371094e+00,2.000368356704711914e+00,1.967278480529785156e+00,1.935265421867370605e+00,1.904277324676513672e+00,1.874266147613525391e+00,1.845186233520507812e+00
5.000000000000000000e+00,5.000000000000000000e+00,5.000000000000000000e+00,5.000000000000000000e+00,5.000000000000000000e+00,5.000000000000000000e+00,5.000000000000000000e+00,5.000000000000000000e+00,5.000000000000000000e+00,5.000000000000000000e+00,5.000000000000000000e+00,5.000000000000000000e+00,5.000000000000000000e+00,5.000000000000000000e+00,5.000000000000000000e+00,5.000000000000000000e+00,5.000000000000000000e+00,5.000000000000000000e+00,5.000000000000000000e+00,5.000000000000000000e+00,5.000000000000000000e+00,5.000000000000000000e+00,5.000000000000000000e+00,5.000000000000000000e+00,5.000000000000000000e+00,5.000000000000000000e+00,5.000000000000000000e+00,5.000000000000000000e+00,2.620736360549926758e+00,2.615338563919067383e+00,2.552256107330322266e+00,2.526351451873779297e+00,2.525834798812866211e+00,2.534353256225585938e+00,2.560456991195678711e+00,2.595585346221923828e+00,5.000000000000000000e+00,2.751541852951049805e+00,2.746887445449829102e+00,4.863758563995361328e+00,4.672659873962402344e+00,4.496010303497314453e+00,4.332230567932128906e+00,4.179963111877441406e+00,4.038036346435546875e+00,3.905431032180786133e+00,3.781258344650268555e+00,3.664737939834594727e+00,3.555184364318847656e+00,3.451990604400634766e+00,3.354618549346923828e+00,3.262588977813720703e+00,3.175473928451538086e+00,3.092890262603759766e+00,3.014492988586425781e+00,2.939971923828125000e+00,2.869046449661254883e+00,2.801462411880493164e+00,2.736989021301269531e+00,2.675416469573974609e+00,2.616553544998168945e+00,2.560224771499633789e+00,2.506270408630371094e+00,2.454542875289916992e+00,2.404907703399658203e+00,2.357239961624145508e+00,2.311425209045410156e+00,2.267357349395751953e+00,2.224938392639160156e+00,2.184077739715576172e+00,2.144690513610839844e+00,2.106698751449584961e+00,2.070029497146606445e+00,2.034615278244018555e+00,2.000392198562622070e+00,1.967301368713378906e+00,1.935287475585937500e+00,1.904298663139343262e+00,1.874286890029907227e+00,1.845206379890441895e+00
5.000000000000000000e+00,5.000000000000000000e+00,5.000000000000000000e+00,5.000000000000000000e+00,5.000000000000000000e+00,5.000000000000000000e+00,5.000000000000000000e+00,5.000000000000000000e+00,5.000000000000000000e+00,5.000000000000000000e+00,5.000000000000000000e+00,5.000000000000000000e+00,5.000000000000000000e+00,5.000000000000000000e+00,5.000000000000000000e+00,5.000000000000000000e+00,5.000000000000000000e+00,5.000000000000000000e+00,5.000000000000000000e+00,5.000000000000000000e+00,5.000000000000000000e+00,5.000000000000000000e+00,5.000000000000000000e+00,5.000000000000000000e+00,5.000000000000000000e+00,5.000000000000000000e+00,5.000000000000000000e+00,5.000000000000000000e+00,2.614027976989746094e+00,2.608588218688964844e+00,2.561043024063110352e+00,2.541857719421386719e+00,2.537329196929931641e+00,2.551271677017211914e+00,2.569816350936889648e+00,2.610878705978393555e+00,5.000000000000000000e+00,2.731882572174072266e+00,2.709721088409423828e+00,4.863898277282714844e+00,4.672788619995117188e+00,4.496129512786865234e+00,4.332341194152832031e+00,4.180066585540771484e+00,4.038132667541503906e+00,3.905521392822265625e+00,3.781342744827270508e+00,3.664817094802856445e+00,3.555258989334106445e+00,3.452060937881469727e+00,3.354685068130493164e+00,3.262651681900024414e+00,3.175533771514892578e+00,3.092946767807006836e+00,3.014546871185302734e+00,2.940022945404052734e+00,2.869094848632812500e+00,2.801508665084838867e+00,2.737033128738403320e+00,2.675459146499633789e+00,2.616594076156616211e+00,2.560263633728027344e+00,2.506307601928710938e+00,2.454578638076782227e+00,2.404941797256469727e+00,2.357272863388061523e+00,2.311456918716430664e+00,2.267387628555297852e+00,2.224967718124389648e+00,2.184105873107910156e+00,2.144717693328857422e+00,2.106724977493286133e+00,2.070054769515991211e+00,2.034639596939086914e+00,2.000415802001953125e+00,1.967324137687683105e+00,1.935309529304504395e+00,1.904320359230041504e+00,1.874307632446289062e+00,1.845226407051086426e+00
5.000000000000000000e+00,5.000000000000000000e+00,5.000000000000000000e+00,5.000000000000000000e+00,5.000000000000000000e+00,5.000000000000000000e+00,5.000000000000000000e+00,5.000000000000000000e+00,5.000000000000000000e+00,5.000000000000000000e+00,5.000000000000000000e+00,5.000000000000000000e+00,5.000000000000000000e+00,5.000000000000000000e+00,5.000000000000000000e+00,5.000000000000000000e+00,5.000000000000000000e+00,5.000000000000000000e+00,5.000000000000000000e+00,5.000000000000000000e+00,5.000000000000000000e+00,5.000000000000000000e+00,5.000000000000000000e+00,5.000000000000000000e+00,5.000000000000000000e+00,5.000000000000000000e+00,5.000000000000000000e+00,5.000000000000000000e+00,2.602559566497802734e+00,2.597193717956542969e+00,2.552955150604248047e+00,2.530778884887695312e+00,2.532579898834228516e+00,2.566474437713623047e+00,2.585272073745727539e+00,2.617784023284912109e+00,5.000000000000000000e+00,5.000000000000000000e+00,2.700393676757812500e+00,2.682549476623535156e+00,4.672917842864990234e+00,4.496249198913574219e+00,4.332452297210693359e+00,4.180169582366943359e+00,4.038228988647460938e+00,3.905611515045166016e+00,3.781427145004272461e+00,3.664896726608276367e+00,3.555333614349365234e+00,3.452131509780883789e+00,3.354751348495483398e+00,3.262714624404907227e+00,3.175593137741088867e+00,3.093003034591674805e+00,3.014600515365600586e+00,2.940073966979980469e+00,2.869143724441528320e+00,2.801555156707763672e+00,2.737077713012695312e+00,2.675501346588134766e+00,2.616634368896484375e+00,2.560302495956420898e+00,2.506344556808471680e+00,2.454614162445068359e+00,2.404975891113281250e+00,2.357305765151977539e+00,2.311488389968872070e+00,2.267418146133422852e+00,2.224997043609619141e+00,2.184134006500244141e+00,2.144744873046875000e+00,2.106751203536987305e+00,2.070080280303955078e+00,2.034664154052734375e+00,2.000439405441284180e+00,1.967347025871276855e+00,1.935331702232360840e+00,1.904341697692871094e+00,1.874328255653381348e+00,1.845246553421020508e+00
5.000000000000000000e+00,5.000000000000000000e+00,5.000000000000000000e+00,5.000000000000000000e+00,5.000000000000000000e+00,5.000000000000000000e+00,5.000000000000000000e+00,5.000000000000000000e+00,5.000000000000000000e+00,5.000000000000000000e+00,5.000000000000000000e+00,5.000000000000000000e+00,5.000000000000000000e+00,5.000000000000000000e+00,5.000000000000000000e+00,5.000000000000000000e+00,5.000000000000000000e+00,5.000000000000000000e+00,5.000000000000000000e+00,5.000000000000000000e+00,5.000000000000000000e+00,5.000000000000000000e+00,5.000000000000000000e+00,5.000000000000000000e+00,5.000000000000000000e+00,5.000000000000000000e+00,5.000000000000000000e+00,5.000000000000000000e+00,2.598555803298950195e+00,2.588378906250000000e+00,2.526375532150268555e+00,2.482524633407592773e+00,2.482384204864501953e+00,2.538638830184936523e+00,2.617470741271972656e+00,2.631060600280761719e+00,5.000000000000000000e+00,5.000000000000000000e+00,2.723881244659423828e+00,2.675548076629638672e+00,4.673047065734863281e+00,4.496368408203125000e+00,4.332562923431396484e+00,4.180273056030273438e+00,4.038325309753417969e+00,3.905701398849487305e+00,3.781511783599853516e+00,3.664976119995117188e+00,3.555408239364624023e+00,3.452201843261718750e+00,3.354817867279052734e+00,3.262777805328369141e+00,3.175652742385864258e+00,3.093059778213500977e+00,3.014653921127319336e+00,2.940124988555908203e+00,2.869192361831665039e+00,2.801601409912109375e+00,2.737121820449829102e+00,2.675543546676635742e+00,2.616675138473510742e+00,2.560341119766235352e+00,2.506381750106811523e+00,2.454649925231933594e+00,2.405010223388671875e+00,2.357338666915893555e+00,2.311519861221313477e+00,2.267448663711547852e+00,2.225026130676269531e+00,2.184162139892578125e+00,2.144772052764892578e+00,2.106777429580688477e+00,2.070105552673339844e+00,2.034688472747802734e+00,2.000463008880615234e+00,1.967369794845581055e+00,1.935353755950927734e+00,1.904363155364990234e+00,1.874349236488342285e+00,1.845266580581665039e+00
5.000000000000000000e+00,5.000000000000000000e+00,5.000000000000000000e+00,5.000000000000000000e+00,5.000000000000000000e+00,5.000000000000000000e+00,5.000000000000000000e+00,5.000000000000000000e+00,5.000000000000000000e+00,5.000000000000000000e+00,5.000000000000000000e+00,5.000000000000000000e+00,5.000000000000000000e+00,5.000000000000000000e+00,5.000000000000000000e+00,5.000000000000000000e+00,5.000000000000000000e+00,5.000000000000000000e+00,5.000000000000000000e+00,5.000000000000000000e+00,5.000000000000000000e+00,5.000000000000000000e+00,5.000000000000000000e+00,5.000000000000000000e+00,5.000000000000000000e+00,5.000000000000000000e+00,5.000000000000000000e+00,5.000000000000000000e+00,2.588499546051025391e+00,2.576943159103393555e+00,2.509512424468994141e+00,2.463337182998657227e+00,2.463136196136474609e+00,2.478221893310546875e+00,2.626840829849243164e+00,2.632611989974975586e+00,2.693118810653686523e+00,5.000000000000000000e+00,5.000000000000000000e+00,2.620347023010253906e+00,2.621359825134277344e+00,4.496488094329833984e+00,4.332674026489257812e+00,4.180376052856445312e+00,4.038421630859375000e+00,3.905791521072387695e+00,3.781596183776855469e+00,3.665055274963378906e+00,3.555483102798461914e+00,3.452272176742553711e+00,3.354884624481201172e+00,3.262840509414672852e+00,3.175712108612060547e+00,3.093116283416748047e+00,3.014707565307617188e+00,2.940176248550415039e+00,2.869240999221801758e+00,2.801647901535034180e+00,2.737166166305541992e+00,2.675585746765136719e+00,2.616715431213378906e+00,2.560379743576049805e+00,2.506418943405151367e+00,2.454685449600219727e+00,2.405044317245483398e+00,2.357371330261230469e+00,2.311551570892333984e+00,2.267478942871093750e+00,2.225055456161499023e+00,2.184190511703491211e+00,2.144799232482910156e+00,2.106803655624389648e+00,2.070130825042724609e+00,2.034713029861450195e+00,2.000486612319946289e+00,1.967392683029174805e+00,1.935375928878784180e+00,1.904384493827819824e+00,1.874369978904724121e+00,1.845286726951599121e+00
5.000000000000000000e+00,5.000000000000000000e+00,5.000000000000000000e+00,5.000000000000000000e+00,5.000000000000000000e+00,5.000000000000000000e+00,5.000000000000000000e+00,5.000000000000000000e+00,5.000000000000000000e+00,5.000000000000000000e+00,5.000000000000000000e+00,5.000000000000000000e+00,5.000000000000000000e+00,5.000000000000000000e+00,5.000000000000000000e+00,5.000000000000000000e+00,5.000000000000000000e+00,5.000000000000000000e+00,5.000000000000000000e+00,5.000000000000000000e+00,5.000000000000000000e+00,5.000000000000000000e+00,5.000000000000000000e+00,5.000000000000000000e+00,5.000000000000000000e+00,5.000000000000000000e+00,5.000000000000000000e+00,5.000000000000000000e+00,2.592462539672851562e+00,5.000000000000000000e+00,2.513048648834228516e+00,2.449154853820800781e+00,2.446997404098510742e+00,2.452009916305541992e+00,2.627869129180908203e+00,2.631605863571166992e+00,2.697938203811645508e+00,5.000000000000000000e+00,5.000000000000000000e+00,4.864457607269287109e+00,2.678472518920898438e+00,4.496607303619384766e+00,4.332784652709960938e+00,4.180479526519775391e+00,4.038517951965332031e+00,3.905881881713867188e+00,3.781680583953857422e+00,3.665134668350219727e+00,3.555557727813720703e+00,3.452342510223388672e+00,3.354950904846191406e+00,3.262903451919555664e+00,3.175771951675415039e+00,3.093172788619995117e+00,3.014761447906494141e+00,2.940227270126342773e+00,2.869289398193359375e+00,2.801694154739379883e+00,2.737210273742675781e+00,2.675628185272216797e+00,2.616755962371826172e+00,2.560418605804443359e+00,2.506455898284912109e+00,2.454720973968505859e+00,2.405078649520874023e+00,2.357404232025146484e+00,2.311583042144775391e+00,2.267509222030639648e+00,2.225084781646728516e+00,2.184218645095825195e+00,2.144826412200927734e+00,2.106829881668090820e+00,2.070156097412109375e+00,2.034737586975097656e+00,2.000510215759277344e+00,1.967415690422058105e+00,1.935397982597351074e+00,1.904405951499938965e+00,1.874390721321105957e+00,1.845306754112243652e+00
5.000000000000000000e+00,5.000000000000000000e+00,5.000000000000000000e+00,5.000000000000000000e+00,5.000000000000000000e+00,5.000000000000000000e+00,5.000000000000000000e+00,5.000000000000000000e+00,5.000000000000000000e+00,5.000000000000000000e+00,5.000000000000000000e+00,5.000000000000000000e+00,5.000000000000000000e+00,5.000000000000000000e+00,5.000000000000000000e+00,5.000000000000000000e+00,5.000000000000000000e+00,5.000000000000000000e+00,5.000000000000000000e+00,5.000000000000000000e+00,5.000000000000000000e+00,5.000000000000000000e+00,5.000000000000000000e+00,5.000000000000000000e+00,5.000000000000000000e+00,5.000000000000000000e+00,5.000000000000000000e+00,5.000000000000000000e+00,2.580953598022460938e+00,2.562183380126953125e+00,2.538686990737915039e+00,2.455073356628417969e+00,2.433129072189331055e+00,2.430872917175292969e+00,2.488474130630493164e+00,2.644953012466430664e+00,2.716889142990112305e+00,5.000000000000000000e+00,5.000000000000000000e+00,4.864597320556640625e+00,4.673434257507324219e+00,2.632463693618774414e+00,4.332895755767822266e+00,4.180582523345947266e+00,4.038614273071289062e+00,3.905972003936767578e+00,3.781764984130859375e+00,3.665214300155639648e+00,3.555632352828979492e+00,3.452413082122802734e+00,3.355017423629760742e+00,3.262966156005859375e+00,3.175831556320190430e+00,3.093229293823242188e+00,3.014815092086791992e+00,2.940278291702270508e+00,2.869338274002075195e+00,2.801740646362304688e+00,2.737254619598388672e+00,2.675670385360717773e+00,2.616796255111694336e+00,2.560457229614257812e+00,2.506493091583251953e+00,2.454756736755371094e+00,2.405112743377685547e+00,2.357437133789062500e+00,2.311614751815795898e+00,2.267539501190185547e+00,2.225113868713378906e+00,2.184246778488159180e+00,2.144853591918945312e+00,2.106856107711791992e+00,2.070181369781494141e+00,2.034761905670166016e+00,2.000534057617187500e+00,1.967438578605651855e+00,1.935420036315917969e+00,1.904427289962768555e+00,1.874411463737487793e+00,1.845327138900756836e+00
5.000000000000000000e+00,5.000000000000000000e+00,5.000000000000000000e+00,5.000000000000000000e+00,5.000000000000000000e+00,5.000000000000000000e+00,5.000000000000000000e+00,5.000000000000000000e+00,5.000000000000000000e+00,5.000000000000000000e+00,5.000000000000000000e+00,5.000000000000000000e+00,5.000000000000000000e+00,5.000000000000000000e+00,5.000000000000000000e+00,5.000000000000000000e+00,5.000000000000000000e+00,5.000000000000000000e+00,5.000000000000000000e+00,5.000000000000000000e+00,5.000000000000000000e+00,5.000000000000000000e+00,5.000000000000000000e+00,5.000000000000000000e+00,5.000000000000000000e+00,5.000000000000000000e+00,5.000000000000000000e+00,5.000000000000000000e+00,2.562275648117065430e+00,5.000000000000000000e+00,5.000000000000000000e+00,2.462407112121582031e+00,2.415375947952270508e+00,2.412056446075439453e+00,2.459318399429321289e+00,2.667325019836425781e+00,5.000000000000000000e+00,5.000000000000000000e+00,5.000000000000000000e+00,4.864737033843994141e+00,4.673563003540039062e+00,4.496846199035644531e+00,4.333006858825683594e+00,4.180685997009277344e+00,4.038711071014404297e+00,3.906062126159667969e+00,3.781849861145019531e+00,3.665293455123901367e+00,3.555706977844238281e+00,3.452483415603637695e+00,3.355083942413330078e+00,3.263029336929321289e+00,3.175891160964965820e+00,3.093286037445068359e+00,3.014868736267089844e+00,2.940329313278198242e+00,2.869386911392211914e+00,2.801786899566650391e+00,2.737298965454101562e+00,2.675712585449218750e+00,2.616836786270141602e+00,2.560496091842651367e+00,2.506530284881591797e+00,2.454792261123657227e+00,2.405146837234497070e+00,2.357470035552978516e+00,2.311646223068237305e+00,2.267570018768310547e+00,2.225143194198608398e+00,2.184274911880493164e+00,2.144880771636962891e+00,2.106882333755493164e+00,2.070206642150878906e+00,2.034786462783813477e+00,2.000557661056518555e+00,1.967461466789245605e+00,1.935442447662353516e+00,1.904448747634887695e+00,1.874432206153869629e+00,1.845347166061401367e+00
5.000000000000000000e+00,5.000000000000000000e+00,5.000000000000000000e+00,5.000000000000000000e+00,5.000000000000000000e+00,5.000000000000000000e+00,5.000000000000000000e+00,5.000000000000000000e+00,5.000000000000000000e+00,5.000000000000000000e+00,5.000000000000000000e+00,5.000000000000000000e+00,5.000000000000000000e+00,5.000000000000000000e+00,5.000000000000000000e+00,5.000000000000000000e+00,5.000000000000000000e+00,5.000000000000000000e+00,5.000000000000000000e+00,5.000000000000000000e+00,5.000000000000000000e+00,5.000000000000000000e+00,5.000000000000000000e+00,5.000000000000000000e+00,5.000000000000000000e+00,5.000000000000000000e+00,5.000000000000000000e+00,5.000000000000000000e+00,2.558264493942260742e+00,5.000000000000000000e+00,5.000000000000000000e+00,2.480753421783447266e+00,2.409019470214843750e+00,2.392937898635864258e+00,2.427561998367309570e+00,2.692080259323120117e+00,5.000000000000000000e+00,5.000000000000000000e+00,5.000000000000000000e+00,4.864877223968505859e+00,4.673692226409912109e+00,4.496965885162353516e+00,4.333117485046386719e+00,4.180788993835449219e+00,4.038806915283203125e+00,3.906152009963989258e+00,3.781934261322021484e+00,3.665372848510742188e+00,3.555782079696655273e+00,3.452553749084472656e+00,3.355150699615478516e+00,3.263092041015625000e+00,3.175950527191162109e+00,3.093342542648315430e+00,3.014922380447387695e+00,2.940380573272705078e+00,2.869435548782348633e+00,2.801833391189575195e+00,2.737343072891235352e+00,2.675755023956298828e+00,2.616877317428588867e+00,2.560534715652465820e+00,2.506567478179931641e+00,2.454827785491943359e+00,2.405181169509887695e+00,2.357502698898315430e+00,2.311677932739257812e+00,2.267600536346435547e+00,2.225172519683837891e+00,2.184303045272827148e+00,2.144907951354980469e+00,2.106908559799194336e+00,2.070232152938842773e+00,2.034811019897460938e+00,2.000581264495849609e+00,1.967484235763549805e+00,1.935464501380920410e+00,1.904470086097717285e+00,1.874452948570251465e+00,1.845367312431335449e+00
5.000000000000000000e+00,5.000000000000000000e+00,5.000000000000000000e+00,5.000000000000000000e+00,5.000000000000000000e+00,5.000000000000000000e+00,5.000000000000000000e+00,5.000000000000000000e+00,5.000000000000000000e+00,5.000000000000000000e+00,5.000000000000000000e+00,5.000000000000000000e+00,5.000000000000000000e+00,5.000000000000000000e+00,5.000000000000000000e+00,5.000000000000000000e+00,5.000000000000000000e+00,5.000000000000000000e+00,5.000000000000000000e+00,5.000000000000000000e+00,5.000000000000000000e+00,5.000000000000000000e+00,5.000000000000000000e+00,5.000000000000000000e+00,5.000000000000000000e+00,5.000000000000000000e+00,5.000000000000000000e+00,5.000000000000000000e+00,2.566382169723510742e+00,5.000000000000000000e+00,5.000000000000000000e+00,5.000000000000000000e+00,2.419421672821044922e+00,2.381569147109985352e+00,2.398858308792114258e+00,2.718807220458984375e+00,5.000000000000000000e+00,5.000000000000000000e+00,5.000000000000000000e+00,4.865016937255859375e+00,4.673820972442626953e+00,4.497085094451904297e+00,4.333228588104248047e+00,4.180892467498779297e+00,4.038903713226318359e+00,3.906242609024047852e+00,3.782018661499023438e+00,3.665452003479003906e+00,3.555856704711914062e+00,3.452624320983886719e+00,3.355216979980468750e+00,3.263154983520507812e+00,3.176010370254516602e+00,3.093398809432983398e+00,3.014976263046264648e+00,2.940431594848632812e+00,2.869483947753906250e+00,2.801879882812500000e+00,2.737387418746948242e+00,2.675797462463378906e+00,2.616917610168457031e+00,2.560573577880859375e+00,2.506604433059692383e+00,2.454863309860229492e+00,2.405215263366699219e+00,2.357535600662231445e+00,2.311709403991699219e+00,2.267630815505981445e+00,2.225201845169067383e+00,2.184331417083740234e+00,2.144935131072998047e+00,2.106934785842895508e+00,2.070257425308227539e+00,2.034835338592529297e+00,2.000604867935180664e+00,1.967507123947143555e+00,1.935486674308776855e+00,1.904491782188415527e+00,1.874473690986633301e+00,1.845387339591979980e+00
5.000000000000000000e+00,5.000000000000000000e+00,5.000000000000000000e+00,5.000000000000000000e+00,5.000000000000000000e+00,5.000000000000000000e+00,5.000000000000000000e+00,5.000000000000000000e+00,5.000000000000000000e+00,5.000000000000000000e+00,5.000000000000000000e+00,5.000000000000000000e+00,5.000000000000000000e+00,5.000000000000000000e+00,5.000000000000000000e+00,5.000000000000000000e+00,5.000000000000000000e+00,5.000000000000000000e+00,5.000000000000000000e+00,5.000000000000000000e+00,5.000000000000000000e+00,5.000000000000000000e+00,5.000000000000000000e+00,5.000000000000000000e+00,5.000000000000000000e+00,5.000000000000000000e+00,5.000000000000000000e+00,5.000000000000000000e+00,5.000000000000000000e+00,5.000000000000000000e+00,5.000000000000000000e+00,5.000000000000000000e+00,2.430886745452880859e+00,2.379126310348510742e+00,2.389685869216918945e+00,5.000000000000000000e+00,5.000000000000000000e+00,5.000000000000000000e+00,5.000000000000000000e+00,4.865156650543212891e+00,4.673950195312500000e+00,4.497204780578613281e+00,4.333339691162109375e+00,4.180995941162109375e+00,4.039000034332275391e+00,3.906332492828369141e+00,3.782103061676025391e+00,3.665531873703002930e+00,3.555931329727172852e+00,3.452694892883300781e+00,3.355283498764038086e+00,3.263218164443969727e+00,3.176069974899291992e+00,3.093455314636230469e+00,3.015029907226562500e+00,2.940482616424560547e+00,2.869532823562622070e+00,2.801926136016845703e+00,2.737431764602661133e+00,2.675839662551879883e+00,2.616958141326904297e+00,2.560612201690673828e+00,2.506641626358032227e+00,2.454899072647094727e+00,2.405249357223510742e+00,2.357568502426147461e+00,2.311740875244140625e+00,2.267661333084106445e+00,2.225230932235717773e+00,2.184359550476074219e+00,2.144962310791015625e+00,2.106961011886596680e+00,2.070282697677612305e+00,2.034859657287597656e+00,2.000628471374511719e+00,1.967529892921447754e+00,1.935508728027343750e+00,1.904513120651245117e+00,1.874494314193725586e+00,1.845407485961914062e+00
5.000000000000000000e+00,5.000000000000000000e+00,5.000000000000000000e+00,5.000000000000000000e+00,5.000000000000000000e+00,5.000000000000000000e+00,5.000000000000000000e+00,5.000000000000000000e+00,5.000000000000000000e+00,5.000000000000000000e+00,5.000000000000000000e+00,5.000000000000000000e+00,5.000000000000000000e+00,5.000000000000000000e+00,5.000000000000000000e+00,5.000000000000000000e+00,5.000000000000000000e+00,5.000000000000000000e+00,5.000000000000000000e+00,5.000000000000000000e+00,5.000000000000000000e+00,5.000000000000000000e+00,5.000000000000000000e+00,5.000000000000000000e+00,5.000000000000000000e+00,5.000000000000000000e+00,5.000000000000000000e+00,5.000000000000000000e+00,5.000000000000000000e+00,5.000000000000000000e+00,5.000000000000000000e+00,5.000000000000000000e+00,2.427777767181396484e+00,2.387349605560302734e+00,2.394381046295166016e+00,5.000000000000000000e+00,5.000000000000000000e+00,5.000000000000000000e+00,5.000000000000000000e+00,4.865296840667724609e+00,4.674079418182373047e+00,4.497324466705322266e+00,4.333450317382812500e+00,4.181098937988281250e+00,4.039096355438232422e+00,3.906422615051269531e+00,3.782187938690185547e+00,3.665611028671264648e+00,3.556005954742431641e+00,3.452765226364135742e+00,3.355350017547607422e+00,3.263280868530273438e+00,3.176129341125488281e+00,3.093512058258056641e+00,3.015083551406860352e+00,2.940533876419067383e+00,2.869581460952758789e+00,2.801972389221191406e+00,2.737476110458374023e+00,2.675881862640380859e+00,2.616998672485351562e+00,2.560651063919067383e+00,2.506678819656372070e+00,2.454934597015380859e+00,2.405283451080322266e+00,2.357601404190063477e+00,2.311772584915161133e+00,2.267691612243652344e+00,2.225260257720947266e+00,2.184387683868408203e+00,2.144989490509033203e+00,2.106987237930297852e+00,2.070307970046997070e+00,2.034884214401245117e+00,2.000652313232421875e+00,1.967552781105041504e+00,1.935530781745910645e+00,1.904534578323364258e+00,1.874515295028686523e+00,1.845427513122558594e+00
5.000000000000000000e+00,5.000000000000000000e+00,5.000000000000000000e+00,5.000000000000000000e+00,5.000000000000000000e+00,5.000000000000000000e+00,5.000000000000000000e+00,5.000000000000000000e+00,5.000000000000000000e+00,5.000000000000000000e+00,5.000000000000000000e+00,5.000000000000000000e+00,5.000000000000000000e+00,5.000000000000000000e+00,5.000000000000000000e+00,5.000000000000000000e+00,5.000000000000000000e+00,5.000000000000000000e+00,5.000000000000000000e+00,5.000000000000000000e+00,5.000000000000000000e+00,5.000000000000000000e+00,5.000000000000000000e+00,5.000000000000000000e+00,5.000000000000000000e+00,5.000000000000000000e+00,5.000000000000000000e+00,5.000000000000000000e+00,5.000000000000000000e+00,5.000000000000000000e+00,5.000000000000000000e+00,5.000000000000000000e+00,2.414855241775512695e+00,2.390332221984863281e+00,2.400915861129760742e+00,5.000000000000000000e+00,5.000000000000000000e+00,5.000000000000000000e+00,5.000000000000000000e+00,4.865436553955078125e+00,4.674208641052246094e+00,4.497444152832031250e+00,4.333561420440673828e+00,4.181202411651611328e+00,4.039192676544189453e+00,3.906512737274169922e+00,3.782272338867187500e+00,3.665690422058105469e+00,3.556080818176269531e+00,3.452835559844970703e+00,3.355416774749755859e+00,3.263343811035156250e+00,3.176188945770263672e+00,3.093568563461303711e+00,3.015137195587158203e+00,2.940584897994995117e+00,2.869630098342895508e+00,2.802018880844116211e+00,2.737520217895507812e+00,2.675924301147460938e+00,2.617039203643798828e+00,2.560689687728881836e+00,2.506715774536132812e+00,2.454970121383666992e+00,2.405317783355712891e+00,2.357634067535400391e+00,2.311804294586181641e+00,2.267721891403198242e+00,2.225289344787597656e+00,2.184415817260742188e+00,2.145016670227050781e+00,2.107013463973999023e+00,2.070333242416381836e+00,2.034908771514892578e+00,2.000675916671752930e+00,1.967575907707214355e+00,1.935552954673767090e+00,1.904555916786193848e+00,1.874536037445068359e+00,1.845447659492492676e+00
5.000000000000000000e+00,5.000000000000000000e+00,5.000000000000000000e+00,5.000000000000000000e+00,5.000000000000000000e+00,5.000000000000000000e+00,5.000000000000000000e+00,5.000000000000000000e+00,5.000000000000000000e+00,5.000000000000000000e+00,5.000000000000000000e+00,5.000000000000000000e+00,5.000000000000000000e+00,5.000000000000000000e+00,5.000000000000000000e+00,5.000000000000000000e+00,5.000000000000000000e+00,5.000000000000000000e+00,5.000000000000000000e+00,5.000000000000000000e+00,5.000000000000000000e+00,5.000000000000000000e+00,5.000000000000000000e+00,5.000000000000000000e+00,5.000000000000000000e+00,5.000000000000000000e+00,5.000000000000000000e+00,5.000000000000000000e+00,5.000000000000000000e+00,5.000000000000000000e+00,5.000000000000000000e+00,5.000000000000000000e+00,2.412065744400024414e+00,2.391000032424926758e+00,2.408350944519042969e+00,5.000000000000000000e+00,5.000000000000000000e+00,5.000000000000000000e+00,5.000000000000000000e+00,4.865575790405273438e+00,4.674337387084960938e+00,4.497563362121582031e+00,4.333672523498535156e+00,4.181305885314941406e+00,4.039288997650146484e+00,3.906603097915649414e+00,3.782356739044189453e+00,3.665770053863525391e+00,3.556155443191528320e+00,3.452905893325805664e+00,3.355483055114746094e+00,3.263406753540039062e+00,3.176248788833618164e+00,3.093625068664550781e+00,3.015191316604614258e+00,2.940635919570922852e+00,2.869678735733032227e+00,2.802065372467041016e+00,2.737564563751220703e+00,2.675966739654541016e+00,2.617079496383666992e+00,2.560728549957275391e+00,2.506752967834472656e+00,2.455005884170532227e+00,2.405352115631103516e+00,2.357666969299316406e+00,2.311835765838623047e+00,2.267752408981323242e+00,2.225318908691406250e+00,2.184444189071655273e+00,2.145043849945068359e+00,2.107039690017700195e+00,2.070358514785766602e+00,2.034933090209960938e+00,2.000699520111083984e+00,1.967598676681518555e+00,1.935575008392333984e+00,1.904577374458312988e+00,1.874556779861450195e+00,1.845467925071716309e+00
5.000000000000000000e+00,5.000000000000000000e+00,5.000000000000000000e+00,5.000000000000000000e+00,5.000000000000000000e+00,5.000000000000000000e+00,5.000000000000000000e+00,5.000000000000000000e+00,5.000000000000000000e+00,5.000000000000000000e+00,5.000000000000000000e+00,5.000000000000000000e+00,5.000000000000000000e+00,5.000000000000000000e+00,5.000000000000000000e+00,5.000000000000000000e+00,5.000000000000000000e+00,5.000000000000000000e+00,5.000000000000000000e+00,5.000000000000000000e+00,5.000000000000000000e+00,5.000000000000000000e+00,5.000000000000000000e+00,5.000000000000000000e+00,5.000000000000000000e+00,5.000000000000000000e+00,5.000000000000000000e+00,5.000000000000000000e+00,5.000000000000000000e+00,5.000000000000000000e+00,5.000000000000000000e+00,2.819281816482543945e+00,2.412456035614013672e+00,2.383928060531616211e+00,2.391072273254394531e+00,5.000000000000000000e+00,5.000000000000000000e+00,5.000000000000000000e+00,5.000000000000000000e+00,4.865714073181152344e+00,4.674466609954833984e+00,4.497683048248291016e+00,4.333783626556396484e+00,4.181408882141113281e+00,4.039385318756103516e+00,3.906693220138549805e+00,3.782441139221191406e+00,3.665849447250366211e+00,3.556230068206787109e+00,3.452976703643798828e+00,3.355549573898315430e+00,3.263469696044921875e+00,3.176308393478393555e+00,3.093681573867797852e+00,3.015244960784912109e+00,2.940686941146850586e+00,2.869727611541748047e+00,2.802111625671386719e+00,2.737608909606933594e+00,2.676008939743041992e+00,2.617120027542114258e+00,2.560767173767089844e+00,2.506789922714233398e+00,2.455041408538818359e+00,2.405386209487915039e+00,2.357699871063232422e+00,2.311867237091064453e+00,2.267782926559448242e+00,2.225347995758056641e+00,2.184472322463989258e+00,2.145071029663085938e+00,2.107065916061401367e+00,2.070384025573730469e+00,2.034957647323608398e+00,2.000723123550415039e+00,1.967621564865112305e+00,1.935597181320190430e+00,1.904598712921142578e+00,1.874577522277832031e+00,1.845488071441650391e+00
5.000000000000000000e+00,5.000000000000000000e+00,5.000000000000000000e+00,5.000000000000000000e+00,5.000000000000000000e+00,5.000000000000000000e+00,5.000000000000000000e+00,5.000000000000000000e+00,5.000000000000000000e+00,5.000000000000000000e+00,5.000000000000000000e+00,5.000000000000000000e+00,5.000000000000000000e+00,5.000000000000000000e+00,5.000000000000000000e+00,5.000000000000000000e+00,5.000000000000000000e+00,5.000000000000000000e+00,5.000000000000000000e+00,5.000000000000000000e+00,5.000000000000000000e+00,5.000000000000000000e+00,5.000000000000000000e+00,5.000000000000000000e+00,5.000000000000000000e+00,5.000000000000000000e+00,5.000000000000000000e+00,5.000000000000000000e+00,5.000000000000000000e+00,5.000000000000000000e+00,5.000000000000000000e+00,2.824040412902832031e+00,2.438491106033325195e+00,2.381957054138183594e+00,2.374039649963378906e+00,5.000000000000000000e+00,5.000000000000000000e+00,5.000000000000000000e+00,5.000000000000000000e+00,4.865852832794189453e+00,4.674594402313232422e+00,4.497802257537841797e+00,4.333894252777099609e+00,4.181512355804443359e+00,4.039482116699218750e+00,3.906783342361450195e+00,3.782526016235351562e+00,3.665928602218627930e+00,3.556304693222045898e+00,3.453047037124633789e+00,3.355616092681884766e+00,3.263532638549804688e+00,3.176367759704589844e+00,3.093738317489624023e+00,3.015298604965209961e+00,2.940738201141357422e+00,2.869776010513305664e+00,2.802157878875732422e+00,2.737653017044067383e+00,2.676051139831542969e+00,2.617160558700561523e+00,2.560805797576904297e+00,2.506827354431152344e+00,2.455077171325683594e+00,2.405420303344726562e+00,2.357732772827148438e+00,2.311898708343505859e+00,2.267813205718994141e+00,2.225377321243286133e+00,2.184500455856323242e+00,2.145098209381103516e+00,2.107092142105102539e+00,2.070409297943115234e+00,2.034981966018676758e+00,2.000746726989746094e+00,1.967644333839416504e+00,1.935619473457336426e+00,1.904620170593261719e+00,1.874598264694213867e+00,1.845508098602294922e+00
5.000000000000000000e+00,5.000000000000000000e+00,5.000000000000000000e+00,5.000000000000000000e+00,5.000000000000000000e+00,5.000000000000000000e+00,5.000000000000000000e+00,5.000000000000000000e+00,5.000000000000000000e+00,5.000000000000000000e+00,5.000000000000000000e+00,5.000000000000000000e+00,5.000000000000000000e+00,5.000000000000000000e+00,5.000000000000000000e+00,5.000000000000000000e+00,5.000000000000000000e+00,5.000000000000000000e+00,5.000000000000000000e+00,5.000000000000000000e+00,5.000000000000000000e+00,5.000000000000000000e+00,5.000000000000000000e+00,5.000000000000000000e+00,5.000000000000000000e+00,5.000000000000000000e+00,5.000000000000000000e+00,5.000000000000000000e+00,5.000000000000000000e+00,5.000000000000000000e+00,5.000000000000000000e+00,2.831218004226684570e+00,2.828421354293823242e+00,2.382102489471435547e+00,2.364825248718261719e+00,5.000000000000000000e+00,5.000000000000000000e+00,5.000000000000000000e+00,5.000000000000000000e+00,4.865991592407226562e+00,4.674722194671630859e+00,4.497920989990234375e+00,4.334005355834960938e+00,4.181615829467773438e+00,4.039578437805175781e+00,3.906873464584350586e+00,3.782610416412353516e+00,3.666007995605468750e+00,3.556379795074462891e+00,3.453117370605468750e+00,3.355682849884033203e+00,3.263595581054687500e+00,3.176427364349365234e+00,3.093794822692871094e+00,3.015352249145507812e+00,2.940789222717285156e+00,2.869824647903442383e+00,2.802204608917236328e+00,2.737697362899780273e+00,2.676093578338623047e+00,2.617201089859008789e+00,2.560844659805297852e+00,2.506864309310913086e+00,2.455112695693969727e+00,2.405454635620117188e+00,2.357765436172485352e+00,2.311930418014526367e+00,2.267843484878540039e+00,2.225406408309936523e+00,2.184528589248657227e+00,2.145125389099121094e+00,2.107118368148803711e+00,2.070434570312500000e+00,2.035006523132324219e+00,2.000770330429077148e+00,1.967667222023010254e+00,1.935641646385192871e+00,1.904641628265380859e+00,1.874619007110595703e+00,1.845528244972229004e+00
5.000000000000000000e+00,5.000000000000000000e+00,5.000000000000000000e+00,5.000000000000000000e+00,5.000000000000000000e+00,5.000000000000000000e+00,5.000000000000000000e+00,5.000000000000000000e+00,5.000000000000000000e+00,5.000000000000000000e+00,5.000000000000000000e+00,5.000000000000000000e+00,5.000000000000000000e+00,5.000000000000000000e+00,5.000000000000000000e+00,5.000000000000000000e+00,5.000000000000000000e+00,5.000000000000000000e+00,5.000000000000000000e+00,5.000000000000000000e+00,5.000000000000000000e+00,5.000000000000000000e+00,5.000000000000000000e+00,5.000000000000000000e+00,5.000000000000000000e+00,5.000000000000000000e+00,5.000000000000000000e+00,5.000000000000000000e+00,5.000000000000000000e+00,5.000000000000000000e+00,5.000000000000000000e+00,2.847858190536499023e+00,2.857270479202270508e+00,2.383394002914428711e+00,2.366887331008911133e+00,5.000000000000000000e+00,5.000000000000000000e+00,5.000000000000000000e+00,5.000000000000000000e+00,4.866129875183105469e+00,4.674849987030029297e+00,4.498039245605468750e+00,4.334115505218505859e+00,4.181718826293945312e+00,4.039674758911132812e+00,3.906963825225830078e+00,3.782694816589355469e+00,3.666087627410888672e+00,3.556454420089721680e+00,3.453187704086303711e+00,3.355749130249023438e+00,3.263658285140991211e+00,3.176487207412719727e+00,3.093851327896118164e+00,3.015406131744384766e+00,2.940840244293212891e+00,2.869873285293579102e+00,2.802250862121582031e+00,2.737741470336914062e+00,2.676135778427124023e+00,2.617241382598876953e+00,2.560883522033691406e+00,2.506901502609252930e+00,2.455148458480834961e+00,2.405488729476928711e+00,2.357798337936401367e+00,2.311962127685546875e+00,2.267873764038085938e+00,2.225435733795166016e+00,2.184556961059570312e+00,2.145152568817138672e+00,2.107144594192504883e+00,2.070459842681884766e+00,2.035031080245971680e+00,2.000793933868408203e+00,1.967690110206604004e+00,1.935663700103759766e+00,1.904663205146789551e+00,1.874639749526977539e+00,1.845548391342163086e+00
5.000000000000000000e+00,5.000000000000000000e+00,5.000000000000000000e+00,5.000000000000000000e+00,5.000000000000000000e+00,5.000000000000000000e+00,5.000000000000000000e+00,5.000000000000000000e+00,5.000000000000000000e+00,5.000000000000000000e+00,5.000000000000000000e+00,5.000000000000000000e+00,5.000000000000000000e+00,5.000000000000000000e+00,5.000000000000000000e+00,5.000000000000000000e+00,5.000000000000000000e+00,5.000000000000000000e+00,5.000000000000000000e+00,5.000000000000000000e+00,5.000000000000000000e+00,5.000000000000000000e+00,5.000000000000000000e+00,5.000000000000000000e+00,5.000000000000000000e+00,5.000000000000000000e+00,5.000000000000000000e+00,5.000000000000000000e+00,5.000000000000000000e+00,5.000000000000000000e+00,5.000000000000000000e+00,2.868807315826416016e+00,5.000000000000000000e+00,2.385006666183471680e+00,2.362495660781860352e+00,2.394921779632568359e+00,5.000000000000000000e+00,5.000000000000000000e+00,5.000000000000000000e+00,4.866268634796142578e+00,4.674977779388427734e+00,4.498157978057861328e+00,4.334225654602050781e+00,4.181822299957275391e+00,4.039771080017089844e+00,3.907053947448730469e+00,3.782779216766357422e+00,3.666167020797729492e+00,3.556529045104980469e+00,3.453258514404296875e+00,3.355815649032592773e+00,3.263721466064453125e+00,3.176546812057495117e+00,3.093907833099365234e+00,3.015459775924682617e+00,2.940891265869140625e+00,2.869922161102294922e+00,2.802297115325927734e+00,2.737786054611206055e+00,2.676178216934204102e+00,2.617281913757324219e+00,2.560922145843505859e+00,2.506938457489013672e+00,2.455183982849121094e+00,2.405522823333740234e+00,2.357831239700317383e+00,2.311993598937988281e+00,2.267904281616210938e+00,2.225465059280395508e+00,2.184585094451904297e+00,2.145179748535156250e+00,2.107170820236206055e+00,2.070485353469848633e+00,2.035055398941040039e+00,2.000817775726318359e+00,1.967712879180908203e+00,1.935685873031616211e+00,1.904684543609619141e+00,1.874660491943359375e+00,1.845568418502807617e+00
4.874922275543212891e+00,4.873710632324218750e+00,4.872499942779541016e+00,4.871289730072021484e+00,4.870080471038818359e+00,4.868871212005615234e+00,4.867662906646728516e+00,4.866455078125000000e+00,4.865248203277587891e+00,4.864041328430175781e+00,4.862835884094238281e+00,4.861629962921142578e+00,4.860425472259521484e+00,4.859221458435058594e+00,4.858017444610595703e+00,4.856814861297607422e+00,4.855612277984619141e+00,4.854410648345947266e+00,4.853209495544433594e+00,4.852009296417236328e+00,4.850809097290039062e+00,4.849609851837158203e+00,4.848410606384277344e+00,4.847212791442871094e+00,4.846014976501464844e+00,4.844818115234375000e+00,4.843621730804443359e+00,4.842425346374511719e+00,4.841230392456054688e+00,4.840035438537597656e+00,2.922655105590820312e+00,2.916792869567871094e+00,4.836455345153808594e+00,2.386621713638305664e+00,2.359292268753051758e+00,2.379173040390014648e+00,4.831689834594726562e+00,4.830499649047851562e+00,4.829310417175292969e+00,4.828121185302734375e+00,4.675106048583984375e+00,4.498276233673095703e+00,4.334335803985595703e+00,4.181924343109130859e+00,4.039867877960205078e+00,3.907144069671630859e+00,3.782864093780517578e+00,3.666246175765991211e+00,3.556603670120239258e+00,3.453328847885131836e+00,3.355882167816162109e+00,3.263784408569335938e+00,3.176606416702270508e+00,3.093964576721191406e+00,3.015513420104980469e+00,2.940942764282226562e+00,2.869970798492431641e+00,2.802343606948852539e+00,2.737830162048339844e+00,2.676220417022705078e+00,2.617322444915771484e+00,2.560961008071899414e+00,2.506975889205932617e+00,2.455219507217407227e+00,2.405557155609130859e+00,2.357864141464233398e+00,2.312025070190429688e+00,2.267934799194335938e+00,2.225494384765625000e+00,2.184613227844238281e+00,2.145206928253173828e+00,2.107197046279907227e+00,2.070510625839233398e+00,2.035079956054687500e+00,2.000841379165649414e+00,1.967735767364501953e+00,1.935707926750183105e+00,1.904706001281738281e+00,1.874681472778320312e+00,1.845588564872741699e+00
3.777682781219482422e+00,3.776955127716064453e+00,3.776227951049804688e+00,3.775500774383544922e+00,3.774774551391601562e+00,3.774048089981079102e+00,3.773321866989135742e+00,3.772596120834350586e+00,3.771870374679565430e+00,3.771145582199096680e+00,3.770420551300048828e+00,3.769695758819580078e+00,3.768971204757690430e+00,3.768247604370117188e+00,3.767523527145385742e+00,3.766799926757812500e+00,3.766076564788818359e+00,3.765353918075561523e+00,3.764631032943725586e+00,3.763908386230468750e+00,3.763186216354370117e+00,3.762464284896850586e+00,3.761743068695068359e+00,3.761021614074707031e+00,3.760300397872924805e+00,3.759579658508300781e+00,3.758859395980834961e+00,3.758139133453369141e+00,3.757419109344482422e+00,3.756699323654174805e+00,2.913370132446289062e+00,2.875768423080444336e+00,3.754541873931884766e+00,3.753823280334472656e+00,2.370073556900024414e+00,2.371275424957275391e+00,3.751669406890869141e+00,3.750951766967773438e+00,3.750234365463256836e+00,3.749517917633056641e+00,3.748800992965698242e+00,3.748084545135498047e+00,3.747368335723876953e+00,3.746652841567993164e+00,3.745937347412109375e+00,3.745221853256225586e+00,3.744506835937500000e+00,3.666325569152832031e+00,3.556678771972656250e+00,3.453399181365966797e+00,3.355948925018310547e+00,3.263847351074218750e+00,3.176665782928466797e+00,3.094021081924438477e+00,3.015567064285278320e+00,2.940993785858154297e+00,2.870019435882568359e+00,2.802390098571777344e+00,2.737874507904052734e+00,2.676262855529785156e+00,2.617362976074218750e+00,2.560999631881713867e+00,2.507012844085693359e+00,2.455255031585693359e+00,2.405591249465942383e+00,2.357896804809570312e+00,2.312056779861450195e+00,2.267965078353881836e+00,2.225523471832275391e+00,2.184641599655151367e+00,2.145234107971191406e+00,2.107223272323608398e+00,2.070535898208618164e+00,2.035104513168334961e+00,2.000864982604980469e+00,1.967758893966674805e+00,1.935729980468750000e+00,1.904727458953857422e+00,1.874702215194702148e+00,1.845608592033386230e+00
3.083625078201293945e+00,3.083140611648559570e+00,3.082655906677246094e+00,3.082171440124511719e+00,3.081687211990356445e+00,3.081203222274780273e+00,3.080719232559204102e+00,3.080235242843627930e+00,3.079751491546630859e+00,3.079268217086791992e+00,3.078784942626953125e+00,3.078301668167114258e+00,3.077818393707275391e+00,3.077335596084594727e+00,3.076853036880493164e+00,3.076370239257812500e+00,3.075887680053710938e+00,3.075405359268188477e+00,3.074923515319824219e+00,3.074441432952880859e+00,3.073959589004516602e+00,3.073477745056152344e+00,3.072996377944946289e+00,3.072515010833740234e+00,3.072033643722534180e+00,3.071552515029907227e+00,3.071071386337280273e+00,3.070590972900390625e+00,3.070110321044921875e+00,3.069629669189453125e+00,3.069149255752563477e+00,2.785042762756347656e+00,3.068189144134521484e+00,3.067709207534790039e+00,2.346294879913330078e+00,2.286795616149902344e+00,2.243117094039916992e+00,2.235897779464721680e+00,3.065312147140502930e+00,3.064833402633666992e+00,3.064354419708251953e+00,3.063875675201416016e+00,3.063397169113159180e+00,3.062918663024902344e+00,3.062440633773803711e+00,3.061962366104125977e+00,3.061484336853027344e+00,3.061006546020507812e+00,3.060529232025146484e+00,3.060051679611206055e+00,3.059574127197265625e+00,3.059096813201904297e+00,3.058619976043701172e+00,3.058143138885498047e+00,3.015620946884155273e+00,2.941044807434082031e+00,2.870067834854125977e+00,2.802436590194702148e+00,2.737918615341186523e+00,2.676305055618286133e+00,2.617403268814086914e+00,2.561038494110107422e+00,2.507050037384033203e+00,2.455290794372558594e+00,2.405625581741333008e+00,2.357929706573486328e+00,2.312088489532470703e+00,2.267995357513427734e+00,2.225552797317504883e+00,2.184669733047485352e+00,2.145261287689208984e+00,2.107249498367309570e+00,2.070561170578002930e+00,2.035128831863403320e+00,2.000888586044311523e+00,1.967781662940979004e+00,1.935752153396606445e+00,1.904748797416687012e+00,1.874722838401794434e+00,1.845628976821899414e+00
2.605016708374023438e+00,2.604670763015747070e+00,2.604324817657470703e+00,2.603979110717773438e+00,2.603633403778076172e+00,2.603287935256958008e+00,2.602942466735839844e+00,2.602596998214721680e+00,2.602251768112182617e+00,2.601906299591064453e+00,2.601561546325683594e+00,2.601216316223144531e+00,2.600871324539184570e+00,2.600526571273803711e+00,2.600181818008422852e+00,2.599837064743041992e+00,2.599492549896240234e+00,2.599148035049438477e+00,2.598803758621215820e+00,2.598459482192993164e+00,2.598115205764770508e+00,2.597770929336547852e+00,2.597426891326904297e+00,2.597083091735839844e+00,2.596739292144775391e+00,2.596395492553710938e+00,2.596051692962646484e+00,2.595708370208740234e+00,2.595364809036254883e+00,2.595021486282348633e+00,2.594678163528442383e+00,2.594335079193115234e+00,2.593991994857788086e+00,2.593648910522460938e+00,2.356699943542480469e+00,2.592962980270385742e+00,2.592620372772216797e+00,2.592277765274047852e+00,2.591935157775878906e+00,2.591592550277709961e+00,2.591250181198120117e+00,2.590908050537109375e+00,2.590565681457519531e+00,2.590223550796508789e+00,2.589881658554077148e+00,2.589539766311645508e+00,2.589197874069213867e+00,2.588855981826782227e+00,2.588514328002929688e+00,2.588172912597656250e+00,2.587831258773803711e+00,2.587489843368530273e+00,2.587148427963256836e+00,2.586807489395141602e+00,2.586466312408447266e+00,2.586125135421752930e+00,2.585784196853637695e+00,2.585443496704101562e+00,2.585102796554565430e+00,2.584762096405029297e+00,2.584421396255493164e+00,2.561077117919921875e+00,2.507086992263793945e+00,2.455326318740844727e+00,2.405659675598144531e+00,2.357962608337402344e+00,2.312119960784912109e+00,2.268025875091552734e+00,2.225582122802734375e+00,2.184697866439819336e+00,2.145288467407226562e+00,2.107275724411010742e+00,2.070586681365966797e+00,2.035153388977050781e+00,2.000912427902221680e+00,1.967804551124572754e+00,1.935774207115173340e+00,1.904770255088806152e+00,1.874743580818176270e+00,1.845649003982543945e+00
2.255058050155639648e+00,2.254796981811523438e+00,2.254535913467407227e+00,2.254275083541870117e+00,2.254014015197753906e+00,2.253753185272216797e+00,2.253492355346679688e+00,2.253231763839721680e+00,2.252970933914184570e+00,2.252710342407226562e+00,2.252449750900268555e+00,2.252189397811889648e+00,2.251929044723510742e+00,2.251668691635131836e+00,2.251408338546752930e+00,2.251147985458374023e+00,2.250887870788574219e+00,2.250627756118774414e+00,2.250367641448974609e+00,2.250107526779174805e+00,2.249847650527954102e+00,2.249588012695312500e+00,2.249328136444091797e+00,2.249068975448608398e+00,2.248811244964599609e+00,2.248553276062011719e+00,2.248295545578002930e+00,2.248037815093994141e+00,2.247780323028564453e+00,2.247522830963134766e+00,2.247265100479125977e+00,2.247007608413696289e+00,2.246750354766845703e+00,2.246493101119995117e+00,2.246235609054565430e+00,2.245978593826293945e+00,2.245721340179443359e+00,2.245464324951171875e+00,2.245207071304321289e+00,2.244950056076049805e+00,2.244693279266357422e+00,2.244436502456665039e+00,2.244179487228393555e+00,2.243922710418701172e+00,2.243666172027587891e+00,2.243409633636474609e+00,2.243153095245361328e+00,2.242896318435668945e+00,2.242640018463134766e+00,2.242383718490600586e+00,2.242127180099487305e+00,2.241870880126953125e+00,2.241614818572998047e+00,2.241358757019042969e+00,2.241102457046508789e+00,2.240846395492553711e+00,2.240590333938598633e+00,2.240334510803222656e+00,2.240078687667846680e+00,2.239822864532470703e+00,2.239567041397094727e+00,2.239311456680297852e+00,2.239055871963500977e+00,2.238800287246704102e+00,2.238544702529907227e+00,2.238289117813110352e+00,2.238033771514892578e+00,2.237778425216674805e+00,2.225611448287963867e+00,2.184726238250732422e+00,2.145315647125244141e+00,2.107302188873291016e+00,2.070611953735351562e+00,2.035177946090698242e+00,2.000936031341552734e+00,1.967827439308166504e+00,1.935796618461608887e+00,1.904791593551635742e+00,1.874764323234558105e+00,1.845669150352478027e+00
1.988072395324707031e+00,1.987869381904602051e+00,1.987666606903076172e+00,1.987463593482971191e+00,1.987260937690734863e+00,1.987058043479919434e+00,1.986855387687683105e+00,1.986652612686157227e+00,1.986450076103210449e+00,1.986247420310974121e+00,1.986044883728027344e+00,1.985842347145080566e+00,1.985639929771423340e+00,1.985437393188476562e+00,1.985235095024108887e+00,1.985032677650451660e+00,1.984830498695373535e+00,1.984628081321716309e+00,1.984425902366638184e+00,1.984223604202270508e+00,1.984021544456481934e+00,1.983819603919982910e+00,1.983617424964904785e+00,1.983415484428405762e+00,1.983213424682617188e+00,1.983011603355407715e+00,1.982809543609619141e+00,1.982607841491699219e+00,1.982405900955200195e+00,1.982204198837280273e+00,1.982002377510070801e+00,1.981800794601440430e+00,1.981599092483520508e+00,1.981397509574890137e+00,1.981195807456970215e+00,1.980994462966918945e+00,1.980792880058288574e+00,1.980591535568237305e+00,1.980389952659606934e+00,1.980188727378845215e+00,1.979987263679504395e+00,1.979786157608032227e+00,1.979584693908691406e+00,1.979383707046508789e+00,1.979182362556457520e+00,1.978981375694274902e+00,1.978780150413513184e+00,1.978579282760620117e+00,1.978378057479858398e+00,1.978177309036254883e+00,1.977976441383361816e+00,1.977775454521179199e+00,1.977574706077575684e+00,1.977373838424682617e+00,1.977173209190368652e+00,1.976972341537475586e+00,1.976771831512451172e+00,1.976571083068847656e+00,1.976370573043823242e+00,1.976169824600219727e+00,1.975969433784484863e+00,1.975768923759460449e+00,1.975568532943725586e+00,1.975368022918701172e+00,1.975167870521545410e+00,1.974967360496520996e+00,1.974767208099365234e+00,1.974566936492919922e+00,1.974366784095764160e+00,1.974166512489318848e+00,1.973966598510742188e+00,1.973766446113586426e+00,1.973566532135009766e+00,1.973366379737854004e+00,1.973166584968566895e+00,1.967850208282470703e+00,1.935818672180175781e+00,1.904813051223754883e+00,1.874785065650939941e+00,1.845689296722412109e+00
1.777613282203674316e+00,1.777451038360595703e+00,1.777288913726806641e+00,1.777126550674438477e+00,1.776964545249938965e+00,1.776802301406860352e+00,1.776640295982360840e+00,1.776478171348571777e+00,1.776316165924072266e+00,1.776154160499572754e+00,1.775992274284362793e+00,1.775830149650573730e+00,1.775668382644653320e+00,1.775506377220153809e+00,1.775344610214233398e+00,1.775182723999023438e+00,1.775020956993103027e+00,1.774859070777893066e+00,1.774697422981262207e+00,1.774535655975341797e+00,1.774374127388000488e+00,1.774212479591369629e+00,1.774050831794738770e+00,1.773889303207397461e+00,1.773727655410766602e+00,1.773566246032714844e+00,1.773404598236083984e+00,1.773243188858032227e+00,1.773081660270690918e+00,1.772920370101928711e+00,1.772758841514587402e+00,1.772597551345825195e+00,1.772436141967773438e+00,1.772274971008300781e+00,1.772113561630249023e+00,1.771952390670776367e+00,1.771791100502014160e+00,1.771630048751831055e+00,1.771468758583068848e+00,1.771307706832885742e+00,1.771146535873413086e+00,1.770985603332519531e+00,1.770824432373046875e+00,1.770663499832153320e+00,1.770502448081970215e+00,1.770341634750366211e+00,1.770180583000183105e+00,1.770019769668579102e+00,1.769858837127685547e+00,1.769698143005371094e+00,1.769537329673767090e+00,1.769376516342163086e+00,1.769215822219848633e+00,1.769055008888244629e+00,1.768894433975219727e+00,1.768733739852905273e+00,1.768573164939880371e+00,1.768412470817565918e+00,1.768252015113830566e+00,1.768091320991516113e+00,1.767930984497070312e+00,1.767770409584045410e+00,1.767609953880310059e+00,1.767449498176574707e+00,1.767289161682128906e+00,1.767128705978393555e+00,1.766968488693237305e+00,1.766808032989501953e+00,1.766647934913635254e+00,1.766487598419189453e+00,1.766327381134033203e+00,1.766167163848876953e+00,1.766007065773010254e+00,1.765846848487854004e+00,1.765686869621276855e+00,1.765526652336120605e+00,1.765366792678833008e+00,1.765206694602966309e+00,1.765046715736389160e+00,1.764886856079101562e+00
1.607447504997253418e+00,1.607314825057983398e+00,1.607182264328002930e+00,1.607049584388732910e+00,1.606917023658752441e+00,1.606784343719482422e+00,1.606651902198791504e+00,1.606519222259521484e+00,1.606386780738830566e+00,1.606254220008850098e+00,1.606121778488159180e+00,1.605989336967468262e+00,1.605857014656066895e+00,1.605724453926086426e+00,1.605592131614685059e+00,1.605459690093994141e+00,1.605327486991882324e+00,1.605195045471191406e+00,1.605062842369079590e+00,1.604930520057678223e+00,1.604798316955566406e+00,1.604666113853454590e+00,1.604533910751342773e+00,1.604401707649230957e+00,1.604269504547119141e+00,1.604137420654296875e+00,1.604005217552185059e+00,1.603873252868652344e+00,1.603741049766540527e+00,1.603609085083007812e+00,1.603477001190185547e+00,1.603345036506652832e+00,1.603212952613830566e+00,1.603080987930297852e+00,1.602949023246765137e+00,1.602817177772521973e+00,1.602685213088989258e+00,1.602553367614746094e+00,1.602421402931213379e+00,1.602289676666259766e+00,1.602157831192016602e+00,1.602026104927062988e+00,1.601894259452819824e+00,1.601762533187866211e+00,1.601630687713623047e+00,1.601499080657958984e+00,1.601367354393005371e+00,1.601235747337341309e+00,1.601104021072387695e+00,1.600972414016723633e+00,1.600840926170349121e+00,1.600709319114685059e+00,1.600577831268310547e+00,1.600446224212646484e+00,1.600314736366271973e+00,1.600183129310607910e+00,1.600051760673522949e+00,1.599920153617858887e+00,1.599788904190063477e+00,1.599657416343688965e+00,1.599526047706604004e+00,1.599394679069519043e+00,1.599263310432434082e+00,1.599131941795349121e+00,1.599000692367553711e+00,1.598869323730468750e+00,1.598738193511962891e+00,1.598606944084167480e+00,1.598475694656372070e+00,1.598344445228576660e+00,1.598213434219360352e+00,1.598082184791564941e+00,1.597951054573059082e+00,1.597819924354553223e+00,1.597688913345336914e+00,1.597557783126831055e+00,1.597426772117614746e+00,1.597295761108398438e+00,1.597164750099182129e+00,1.597033858299255371e+00
1.467014431953430176e+00,1.466903924942016602e+00,1.466793537139892578e+00,1.466682910919189453e+00,1.466572523117065430e+00,1.466462016105651855e+00,1.466351747512817383e+00,1.466241240501403809e+00,1.466130971908569336e+00,1.466020464897155762e+00,1.465910196304321289e+00,1.465799808502197266e+00,1.465689539909362793e+00,1.465579152107238770e+00,1.465469002723693848e+00,1.465358614921569824e+00,1.465248465538024902e+00,1.465138077735900879e+00,1.465027928352355957e+00,1.464917659759521484e+00,1.464807629585266113e+00,1.464697480201721191e+00,1.464587211608886719e+00,1.464477181434631348e+00,1.464367032051086426e+00,1.464257001876831055e+00,1.464146852493286133e+00,1.464036822319030762e+00,1.463926672935485840e+00,1.463816642761230469e+00,1.463706612586975098e+00,1.463596701622009277e+00,1.463486552238464355e+00,1.463376760482788086e+00,1.463266730308532715e+00,1.463156819343566895e+00,1.463046789169311523e+00,1.462936997413635254e+00,1.462827086448669434e+00,1.462717175483703613e+00,1.462607264518737793e+00,1.462497591972351074e+00,1.462387681007385254e+00,1.462277889251708984e+00,1.462168097496032715e+00,1.462058305740356445e+00,1.461948513984680176e+00,1.461838841438293457e+00,1.461729049682617188e+00,1.461619377136230469e+00,1.461509823799133301e+00,1.461400032043457031e+00,1.461290478706359863e+00,1.461180806159973145e+00,1.461071252822875977e+00,1.460961580276489258e+00,1.460852026939392090e+00,1.460742354393005371e+00,1.460632920265197754e+00,1.460523247718811035e+00,1.460413813591003418e+00,1.460304260253906250e+00,1.460194826126098633e+00,1.460085272789001465e+00,1.459975838661193848e+00,1.459866404533386230e+00,1.459756970405578613e+00,1.459647536277770996e+00,1.459538221359252930e+00,1.459428787231445312e+00,1.459319472312927246e+00,1.459210038185119629e+00,1.459100723266601562e+00,1.458991408348083496e+00,1.458882212638854980e+00,1.458772778511047363e+00,1.458663582801818848e+00,1.458554267883300781e+00,1.458445191383361816e+00,1.458335995674133301e+00
1.349147558212280273e+00,1.349053978919982910e+00,1.348960638046264648e+00,1.348867058753967285e+00,1.348773717880249023e+00,1.348680257797241211e+00,1.348586916923522949e+00,1.348493456840515137e+00,1.348400235176086426e+00,1.348306775093078613e+00,1.348213434219360352e+00,1.348120093345642090e+00,1.348026871681213379e+00,1.347933530807495117e+00,1.347840309143066406e+00,1.347746968269348145e+00,1.347653746604919434e+00,1.347560405731201172e+00,1.347467184066772461e+00,1.347373962402343750e+00,1.347280859947204590e+00,1.347187638282775879e+00,1.347094416618347168e+00,1.347001314163208008e+00,1.346908092498779297e+00,1.346814990043640137e+00,1.346721768379211426e+00,1.346628785133361816e+00,1.346535563468933105e+00,1.346442580223083496e+00,1.346349358558654785e+00,1.346256375312805176e+00,1.346163272857666016e+00,1.346070289611816406e+00,1.345977187156677246e+00,1.345884203910827637e+00,1.345791101455688477e+00,1.345698237419128418e+00,1.345605134963989258e+00,1.345512270927429199e+00,1.345419287681579590e+00,1.345326304435729980e+00,1.345233321189880371e+00,1.345140457153320312e+00,1.345047593116760254e+00,1.344954729080200195e+00,1.344861745834350586e+00,1.344769001007080078e+00,1.344676017761230469e+00,1.344583272933959961e+00,1.344490528106689453e+00,1.344397664070129395e+00,1.344304919242858887e+00,1.344212055206298828e+00,1.344119310379028320e+00,1.344026446342468262e+00,1.343933820724487305e+00,1.343840956687927246e+00,1.343748331069946289e+00,1.343655586242675781e+00,1.343562841415405273e+00,1.343470096588134766e+00,1.343377590179443359e+00,1.343284845352172852e+00,1.343192219734191895e+00,1.343099474906921387e+00,1.343006968498229980e+00,1.342914342880249023e+00,1.342821717262268066e+00,1.342729091644287109e+00,1.342636585235595703e+00,1.342543959617614746e+00,1.342451453208923340e+00,1.342358827590942383e+00,1.342266440391540527e+00,1.342173814773559570e+00,1.342081427574157715e+00,1.341988921165466309e+00,1.341896414756774902e+00,1.341804027557373047e+00
1.248811960220336914e+00,1.248731851577758789e+00,1.248651862144470215e+00,1.248571753501892090e+00,1.248491764068603516e+00,1.248411655426025391e+00,1.248331665992736816e+00,1.248251676559448242e+00,1.248171687126159668e+00,1.248091697692871094e+00,1.248011708259582520e+00,1.247931718826293945e+00,1.247851729393005371e+00,1.247771739959716797e+00,1.247691869735717773e+00,1.247611880302429199e+00,1.247532010078430176e+00,1.247452020645141602e+00,1.247372150421142578e+00,1.247292280197143555e+00,1.247212409973144531e+00,1.247132658958435059e+00,1.247052669525146484e+00,1.246972918510437012e+00,1.246893048286437988e+00,1.246813178062438965e+00,1.246733307838439941e+00,1.246653556823730469e+00,1.246573805809020996e+00,1.246494054794311523e+00,1.246414184570312500e+00,1.246334433555603027e+00,1.246254682540893555e+00,1.246174931526184082e+00,1.246095180511474609e+00,1.246015429496765137e+00,1.245935678482055664e+00,1.245856046676635742e+00,1.245776295661926270e+00,1.245696663856506348e+00,1.245616912841796875e+00,1.245537281036376953e+00,1.245457649230957031e+00,1.245378017425537109e+00,1.245298385620117188e+00,1.245218753814697266e+00,1.245139122009277344e+00,1.245059490203857422e+00,1.244979858398437500e+00,1.244900345802307129e+00,1.244820833206176758e+00,1.244741201400756836e+00,1.244661688804626465e+00,1.244582176208496094e+00,1.244502663612365723e+00,1.244423031806945801e+00,1.244343638420104980e+00,1.244264006614685059e+00,1.244184613227844238e+00,1.244105100631713867e+00,1.244025588035583496e+00,1.243946075439453125e+00,1.243866682052612305e+00,1.243787288665771484e+00,1.243707895278930664e+00,1.243628382682800293e+00,1.243548989295959473e+00,1.243469595909118652e+00,1.243390202522277832e+00,1.243310809135437012e+00,1.243231534957885742e+00,1.243152022361755371e+00,1.243072748184204102e+00,1.242993354797363281e+00,1.242914080619812012e+00,1.242834687232971191e+00,1.242755413055419922e+00,1.242676138877868652e+00,1.242596864700317383e+00,1.242517590522766113e+00
1.162367224693298340e+00,1.162297844886779785e+00,1.162228584289550781e+00,1.162159085273742676e+00,1.162089824676513672e+00,1.162020444869995117e+00,1.161951184272766113e+00,1.161881804466247559e+00,1.161812543869018555e+00,1.161743164062500000e+00,1.161673903465270996e+00,1.161604523658752441e+00,1.161535382270812988e+00,1.161466002464294434e+00,1.161396741867065430e+00,1.161327481269836426e+00,1.161258339881896973e+00,1.161188960075378418e+00,1.161119818687438965e+00,1.161050558090209961e+00,1.160981416702270508e+00,1.160912156105041504e+00,1.160842895507812500e+00,1.160773754119873047e+00,1.160704612731933594e+00,1.160635471343994141e+00,1.160566210746765137e+00,1.160497069358825684e+00,1.160427927970886230e+00,1.160358786582946777e+00,1.160289645195007324e+00,1.160220503807067871e+00,1.160151362419128418e+00,1.160082340240478516e+00,1.160013198852539062e+00,1.159944176673889160e+00,1.159875035285949707e+00,1.159806013107299805e+00,1.159736871719360352e+00,1.159667849540710449e+00,1.159598708152770996e+00,1.159529685974121094e+00,1.159460663795471191e+00,1.159391641616821289e+00,1.159322619438171387e+00,1.159253597259521484e+00,1.159184575080871582e+00,1.159115672111511230e+00,1.159046649932861328e+00,1.158977627754211426e+00,1.158908724784851074e+00,1.158839702606201172e+00,1.158770799636840820e+00,1.158701777458190918e+00,1.158632874488830566e+00,1.158563971519470215e+00,1.158495068550109863e+00,1.158426165580749512e+00,1.158357262611389160e+00,1.158288359642028809e+00,1.158219456672668457e+00,1.158150553703308105e+00,1.158081769943237305e+00,1.158012866973876953e+00,1.157944083213806152e+00,1.157875180244445801e+00,1.157806396484375000e+00,1.157737493515014648e+00,1.157668709754943848e+00,1.157599806785583496e+00,1.157531023025512695e+00,1.157462239265441895e+00,1.157393455505371094e+00,1.157324671745300293e+00,1.157255887985229492e+00,1.157187104225158691e+00,1.157118439674377441e+00,1.157049655914306641e+00,1.156980872154235840e+00,1.156912207603454590e+00
1.087115406990051270e+00,1.087054729461669922e+00,1.086994051933288574e+00,1.086933374404907227e+00,1.086872696876525879e+00,1.086812019348144531e+00,1.086751461029052734e+00,1.086690783500671387e+00,1.086630105972290039e+00,1.086569428443908691e+00,1.086508870124816895e+00,1.086448192596435547e+00,1.086387634277343750e+00,1.086327075958251953e+00,1.086266517639160156e+00,1.086205840110778809e+00,1.086145281791687012e+00,1.086084723472595215e+00,1.086024165153503418e+00,1.085963606834411621e+00,1.085903048515319824e+00,1.085842490196228027e+00,1.085781931877136230e+00,1.085721492767333984e+00,1.085660934448242188e+00,1.085600376129150391e+00,1.085539817810058594e+00,1.085479378700256348e+00,1.085418820381164551e+00,1.085358381271362305e+00,1.085297942161560059e+00,1.085237503051757812e+00,1.085176944732666016e+00,1.085116505622863770e+00,1.085056066513061523e+00,1.084995627403259277e+00,1.084935069084167480e+00,1.084874749183654785e+00,1.084814310073852539e+00,1.084753870964050293e+00,1.084693431854248047e+00,1.084632992744445801e+00,1.084572553634643555e+00,1.084512233734130859e+00,1.084451794624328613e+00,1.084391474723815918e+00,1.084331035614013672e+00,1.084270715713500977e+00,1.084210276603698730e+00,1.084149956703186035e+00,1.084089636802673340e+00,1.084029316902160645e+00,1.083968997001647949e+00,1.083908557891845703e+00,1.083848357200622559e+00,1.083787918090820312e+00,1.083727717399597168e+00,1.083667397499084473e+00,1.083607077598571777e+00,1.083546757698059082e+00,1.083486557006835938e+00,1.083426237106323242e+00,1.083365917205810547e+00,1.083305716514587402e+00,1.083245396614074707e+00,1.083185195922851562e+00,1.083124995231628418e+00,1.083064675331115723e+00,1.083004474639892578e+00,1.082944154739379883e+00,1.082884073257446289e+00,1.082823753356933594e+00,1.082763552665710449e+00,1.082703351974487305e+00,1.082643270492553711e+00,1.082582950592041016e+00,1.082522869110107422e+00,1.082462668418884277e+00,1.082402467727661133e+00,1.082342386245727539e+00
1.021014690399169922e+00,1.020961165428161621e+00,1.020907640457153320e+00,1.020854115486145020e+00,1.020800709724426270e+00,1.020747065544128418e+00,1.020693659782409668e+00,1.020640134811401367e+00,1.020586609840393066e+00,1.020533204078674316e+00,1.020479679107666016e+00,1.020426154136657715e+00,1.020372748374938965e+00,1.020319223403930664e+00,1.020265817642211914e+00,1.020212411880493164e+00,1.020159006118774414e+00,1.020105481147766113e+00,1.020052075386047363e+00,1.019998669624328613e+00,1.019945263862609863e+00,1.019891858100891113e+00,1.019838452339172363e+00,1.019785046577453613e+00,1.019731640815734863e+00,1.019678235054016113e+00,1.019624829292297363e+00,1.019571542739868164e+00,1.019518136978149414e+00,1.019464731216430664e+00,1.019411325454711914e+00,1.019358038902282715e+00,1.019304633140563965e+00,1.019251346588134766e+00,1.019197940826416016e+00,1.019144654273986816e+00,1.019091248512268066e+00,1.019037961959838867e+00,1.018984675407409668e+00,1.018931388854980469e+00,1.018877983093261719e+00,1.018824696540832520e+00,1.018771409988403320e+00,1.018718123435974121e+00,1.018664836883544922e+00,1.018611550331115723e+00,1.018558263778686523e+00,1.018505096435546875e+00,1.018451690673828125e+00,1.018398523330688477e+00,1.018345236778259277e+00,1.018292069435119629e+00,1.018238782882690430e+00,1.018185496330261230e+00,1.018132328987121582e+00,1.018079042434692383e+00,1.018025875091552734e+00,1.017972588539123535e+00,1.017919421195983887e+00,1.017866253852844238e+00,1.017813086509704590e+00,1.017759799957275391e+00,1.017706632614135742e+00,1.017653465270996094e+00,1.017600297927856445e+00,1.017547130584716797e+00,1.017493963241577148e+00,1.017440795898437500e+00,1.017387628555297852e+00,1.017334461212158203e+00,1.017281413078308105e+00,1.017228245735168457e+00,1.017175078392028809e+00,1.017122030258178711e+00,1.017068862915039062e+00,1.017015695571899414e+00,1.016962647438049316e+00,1.016909480094909668e+00,1.016856431961059570e+00,1.016803383827209473e+00
