5.000000000000000000e+00,5.000000000000000000e+00,5.000000000000000000e+00,5.000000000000000000e+00,5.000000000000000000e+00,5.000000000000000000e+00,5.000000000000000000e+00,5.000000000000000000e+00,5.000000000000000000e+00,5.000000000000000000e+00,5.000000000000000000e+00,5.000000000000000000e+00,5.000000000000000000e+00,5.000000000000000000e+00,5.000000000000000000e+00,5.000000000000000000e+00,5.000000000000000000e+00,5.000000000000000000e+00,5.000000000000000000e+00,5.000000000000000000e+00,5.000000000000000000e+00,5.000000000000000000e+00,5.000000000000000000e+00,5.000000000000000000e+00,5.000000000000000000e+00,5.000000000000000000e+00,5.000000000000000000e+00,5.000000000000000000e+00,5.000000000000000000e+00,5.000000000000000000e+00,5.000000000000000000e+00,5.000000000000000000e+00,5.000000000000000000e+00,5.000000000000000000e+00,5.000000000000000000e+00,5.000000000000000000e+00,5.000000000000000000e+00,5.000000000000000000e+00,5.000000000000000000e+00,4.867009639739990234e+00,4.675629615783691406e+00,4.498731613159179688e+00,4.334730625152587891e+00,4.182266712188720703e+00,4.040163040161132812e+00,3.907399177551269531e+00,3.783083438873291016e+00,3.666433811187744141e+00,3.556762456893920898e+00,3.453461647033691406e+00,3.355992317199707031e+00,3.263873577117919922e+00,3.176676750183105469e+00,3.094017982482910156e+00,3.015551567077636719e+00,2.940966844558715820e+00,2.869982242584228516e+00,2.802343845367431641e+00,2.737819910049438477e+00,2.676200866699218750e+00,2.617293834686279297e+00,2.560924530029296875e+00,2.506932258605957031e+00,2.455169439315795898e+00,2.405500888824462891e+00,2.357802152633666992e+00,2.311958312988281250e+00,2.267863273620605469e+00,2.225418567657470703e+00,2.184533596038818359e+00,2.145123481750488281e+00,2.107110500335693359e+00,2.070420980453491211e+00,2.034987688064575195e+00,2.000746488571166992e+00,1.967638969421386719e+00,1.935608863830566406e+00,1.904604911804199219e+00,1.874578714370727539e+00,1.845484256744384766e+00
5.000000000000000000e+00,5.000000000000000000e+00,5.000000000000000000e+00,5.000000000000000000e+00,5.000000000000000000e+00,5.000000000000000000e+00,5.000000000000000000e+00,5.000000000000000000e+00,5.000000000000000000e+00,5.000000000000000000e+00,5.000000000000000000e+00,5.000000000000000000e+00,5.000000000000000000e+00,5.000000000000000000e+00,5.000000000000000000e+00,5.000000000000000000e+00,5.000000000000000000e+00,5.000000000000000000e+00,5.000000000000000000e+00,5.000000000000000000e+00,5.000000000000000000e+00,5.000000000000000000e+00,5.000000000000000000e+00,5.000000000000000000e+00,5.000000000000000000e+00,5.000000000000000000e+00,5.000000000000000000e+00,5.000000000000000000e+00,5.000000000000000000e+00,5.000000000000000000e+00,5.000000000000000000e+00,5.000000000000000000e+00,5.000000000000000000e+00,5.000000000000000000e+00,5.000000000000000000e+00,5.000000000000000000e+00,5.000000000000000000e+00,5.000000000000000000e+00,5.000000000000000000e+00,4.867148876190185547e+00,4.675758361816406250e+00,4.498850345611572266e+00,4.334841251373291016e+00,4.182369232177734375e+00,4.040259361267089844e+00,3.907488822937011719e+00,3.783167362213134766e+00,3.666512727737426758e+00,3.556837081909179688e+00,3.453531742095947266e+00,3.356058359146118164e+00,3.263936042785644531e+00,3.176736354827880859e+00,3.094074010848999023e+00,3.015604972839355469e+00,2.941017627716064453e+00,2.870030879974365234e+00,2.802389860153198242e+00,2.737864017486572266e+00,2.676242828369140625e+00,2.617334365844726562e+00,2.560963153839111328e+00,2.506968975067138672e+00,2.455204725265502930e+00,2.405534982681274414e+00,2.357834815979003906e+00,2.311989784240722656e+00,2.267893552780151367e+00,2.225447893142700195e+00,2.184561491012573242e+00,2.145150661468505859e+00,2.107136487960815430e+00,2.070446252822875977e+00,2.035012006759643555e+00,2.000770092010498047e+00,1.967661619186401367e+00,1.935631036758422852e+00,1.904626369476318359e+00,1.874599218368530273e+00,1.845504403114318848e+00
5.000000000000000000e+00,5.000000000000000000e+00,5.000000000000000000e+00,5.000000000000000000e+00,5.000000000000000000e+00,5.000000000000000000e+00,5.000000000000000000e+00,5.000000000000000000e+00,5.000000000000000000e+00,5.000000000000000000e+00,5.000000000000000000e+00,5.000000000000000000e+00,5.000000000000000000e+00,5.000000000000000000e+00,5.000000000000000000e+00,5.000000000000000000e+00,5.000000000000000000e+00,5.000000000000000000e+00,5.000000000000000000e+00,5.000000000000000000e+00,5.000000000000000000e+00,5.000000000000000000e+00,5.000000000000000000e+00,5.000000000000000000e+00,5.000000000000000000e+00,5.000000000000000000e+00,5.000000000000000000e+00,5.000000000000000000e+00,5.000000000000000000e+00,5.000000000000000000e+00,5.000000000000000000e+00,5.000000000000000000e+00,5.000000000000000000e+00,5.000000000000000000e+00,5.000000000000000000e+00,5.000000000000000000e+00,5.000000000000000000e+00,5.000000000000000000e+00,5.000000000000000000e+00,4.867288112640380859e+00,4.675886631011962891e+00,4.498969554901123047e+00,4.334951400756835938e+00,4.182472229003906250e+00,4.040355205535888672e+00,3.907578945159912109e+00,3.783251523971557617e+00,3.666591644287109375e+00,3.556911230087280273e+00,3.453602075576782227e+00,3.356124401092529297e+00,3.263998746871948242e+00,3.176795482635498047e+00,3.094130516052246094e+00,3.015658378601074219e+00,2.941068410873413086e+00,2.870079278945922852e+00,2.802436351776123047e+00,2.737907886505126953e+00,2.676284790039062500e+00,2.617374420166015625e+00,2.561001777648925781e+00,2.507005929946899414e+00,2.455240249633789062e+00,2.405568838119506836e+00,2.357867717742919922e+00,2.312021255493164062e+00,2.267923593521118164e+00,2.225476741790771484e+00,2.184589624404907227e+00,2.145177602767944336e+00,2.107162714004516602e+00,2.070471525192260742e+00,2.035036325454711914e+00,2.000793457031250000e+00,1.967684388160705566e+00,1.935652852058410645e+00,1.904647707939147949e+00,1.874619960784912109e+00,1.845524311065673828e+00
5.000000000000000000e+00,5.000000000000000000e+00,5.000000000000000000e+00,5.000000000000000000e+00,5.000000000000000000e+00,5.000000000000000000e+00,5.000000000000000000e+00,5.000000000000000000e+00,5.000000000000000000e+00,5.000000000000000000e+00,5.000000000000000000e+00,5.000000000000000000e+00,5.000000000000000000e+00,5.000000000000000000e+00,5.000000000000000000e+00,5.000000000000000000e+00,5.000000000000000000e+00,5.000000000000000000e+00,5.000000000000000000e+00,5.000000000000000000e+00,5.000000000000000000e+00,5.000000000000000000e+00,5.000000000000000000e+00,5.000000000000000000e+00,5.000000000000000000e+00,5.000000000000000000e+00,5.000000000000000000e+00,5.000000000000000000e+00,5.000000000000000000e+00,5.000000000000000000e+00,5.000000000000000000e+00,5.000000000000000000e+00,5.000000000000000000e+00,5.000000000000000000e+00,5.000000000000000000e+00,5.000000000000000000e+00,5.000000000000000000e+00,5.000000000000000000e+00,5.000000000000000000e+00,4.867427349090576172e+00,4.676015377044677734e+00,4.499088287353515625e+00,4.335062026977539062e+00,4.182575225830078125e+00,4.040451049804687500e+00,3.907668590545654297e+00,3.783335924148559570e+00,3.666670560836791992e+00,3.556985616683959961e+00,3.453672170639038086e+00,3.356190919876098633e+00,3.264061212539672852e+00,3.176854848861694336e+00,3.094186782836914062e+00,3.015712022781372070e+00,2.941119194030761719e+00,2.870127677917480469e+00,2.802482366561889648e+00,2.737952232360839844e+00,2.676326990127563477e+00,2.617414712905883789e+00,2.561040163040161133e+00,2.507043123245239258e+00,2.455275535583496094e+00,2.405602931976318359e+00,2.357900381088256836e+00,2.312052726745605469e+00,2.267953634262084961e+00,2.225505828857421875e+00,2.184617519378662109e+00,2.145204782485961914e+00,2.107188701629638672e+00,2.070496559143066406e+00,2.035060644149780273e+00,2.000817298889160156e+00,1.967707037925720215e+00,1.935675024986267090e+00,1.904668927192687988e+00,1.874640703201293945e+00,1.845544338226318359e+00
5.000000000000000000e+00,5.000000000000000000e+00,5.000000000000000000e+00,5.000000000000000000e+00,5.000000000000000000e+00,5.000000000000000000e+00,5.000000000000000000e+00,5.000000000000000000e+00,5.000000000000000000e+00,5.000000000000000000e+00,5.000000000000000000e+00,5.000000000000000000e+00,5.000000000000000000e+00,5.000000000000000000e+00,5.000000000000000000e+00,5.000000000000000000e+00,5.000000000000000000e+00,5.000000000000000000e+00,5.000000000000000000e+00,5.000000000000000000e+00,5.000000000000000000e+00,5.000000000000000000e+00,5.000000000000000000e+00,5.000000000000000000e+00,5.000000000000000000e+00,5.000000000000000000e+00,5.000000000000000000e+00,5.000000000000000000e+00,5.000000000000000000e+00,5.000000000000000000e+00,5.000000000000000000e+00,5.000000000000000000e+00,5.000000000000000000e+00,5.000000000000000000e+00,5.000000000000000000e+00,5.000000000000000000e+00,5.000000000000000000e+00,5.000000000000000000e+00,5.000000000000000000e+00,4.867566585540771484e+00,4.676143646240234375e+00,4.499207496643066406e+00,4.335172653198242188e+00,4.182678222656250000e+00,4.040546894073486328e+00,3.907758235931396484e+00,3.783419847488403320e+00,3.666749954223632812e+00,3.557059764862060547e+00,3.453742265701293945e+00,3.356257200241088867e+00,3.264124155044555664e+00,3.176913976669311523e+00,3.094243049621582031e+00,3.015765428543090820e+00,2.941170215606689453e+00,2.870176076889038086e+00,2.802528381347656250e+00,2.737996339797973633e+00,2.676369190216064453e+00,2.617455005645751953e+00,2.561078786849975586e+00,2.507080078125000000e+00,2.455311059951782227e+00,2.405636787414550781e+00,2.357933044433593750e+00,2.312083721160888672e+00,2.267983913421630859e+00,2.225534677505493164e+00,2.184645652770996094e+00,2.145231723785400391e+00,2.107214927673339844e+00,2.070521831512451172e+00,2.035084962844848633e+00,2.000840663909912109e+00,1.967729926109313965e+00,1.935696840286254883e+00,1.904690265655517578e+00,1.874661207199096680e+00,1.845564484596252441e+00
5.000000000000000000e+00,5.000000000000000000e+00,5.000000000000000000e+00,5.000000000000000000e+00,5.000000000000000000e+00,5.000000000000000000e+00,5.000000000000000000e+00,5.000000000000000000e+00,5.000000000000000000e+00,5.000000000000000000e+00,5.000000000000000000e+00,5.000000000000000000e+00,5.000000000000000000e+00,5.000000000000000000e+00,5.000000000000000000e+00,5.000000000000000000e+00,5.000000000000000000e+00,5.000000000000000000e+00,5.000000000000000000e+00,5.000000000000000000e+00,5.000000000000000000e+00,5.000000000000000000e+00,5.000000000000000000e+00,5.000000000000000000e+00,5.000000000000000000e+00,5.000000000000000000e+00,5.000000000000000000e+00,5.000000000000000000e+00,5.000000000000000000e+00,5.000000000000000000e+00,5.000000000000000000e+00,5.000000000000000000e+00,5.000000000000000000e+00,5.000000000000000000e+00,5.000000000000000000e+00,5.000000000000000000e+00,5.000000000000000000e+00,5.000000000000000000e+00,5.000000000000000000e+00,4.867706298828125000e+00,4.676272392272949219e+00,4.499326705932617188e+00,4.335283279418945312e+00,4.182781219482421875e+00,4.040643215179443359e+00,3.907848358154296875e+00,3.783504009246826172e+00,3.666828870773315430e+00,3.557134389877319336e+00,3.453812599182128906e+00,3.356323242187500000e+00,3.264186620712280273e+00,3.176973581314086914e+00,3.094299554824829102e+00,3.015818834304809570e+00,2.941220998764038086e+00,2.870224475860595703e+00,2.802574872970581055e+00,2.738040447235107422e+00,2.676411151885986328e+00,2.617495298385620117e+00,2.561117410659790039e+00,2.507116794586181641e+00,2.455346584320068359e+00,2.405671119689941406e+00,2.357965469360351562e+00,2.312115192413330078e+00,2.268014192581176758e+00,2.225564002990722656e+00,2.184673786163330078e+00,2.145258903503417969e+00,2.107240915298461914e+00,2.070547103881835938e+00,2.035109519958496094e+00,2.000864267349243164e+00,1.967752695083618164e+00,1.935719013214111328e+00,1.904711723327636719e+00,1.874681949615478516e+00,1.845584392547607422e+00
5.000000000000000000e+00,5.000000000000000000e+00,5.000000000000000000e+00,5.000000000000000000e+00,5.000000000000000000e+00,5.000000000000000000e+00,5.000000000000000000e+00,5.000000000000000000e+00,5.000000000000000000e+00,5.000000000000000000e+00,5.000000000000000000e+00,5.000000000000000000e+00,5.000000000000000000e+00,5.000000000000000000e+00,5.000000000000000000e+00,5.000000000000000000e+00,5.000000000000000000e+00,5.000000000000000000e+00,5.000000000000000000e+00,5.000000000000000000e+00,5.000000000000000000e+00,5.000000000000000000e+00,5.000000000000000000e+00,5.000000000000000000e+00,5.000000000000000000e+00,5.000000000000000000e+00,5.000000000000000000e+00,5.000000000000000000e+00,5.000000000000000000e+00,5.000000000000000000e+00,5.000000000000000000e+00,5.000000000000000000e+00,5.000000000000000000e+00,5.000000000000000000e+00,5.000000000000000000e+00,5.000000000000000000e+00,5.000000000000000000e+00,5.000000000000000000e+00,5.000000000000000000e+00,4.867845058441162109e+00,4.676401138305664062e+00,4.499445438385009766e+00,4.335393905639648438e+00,4.182883739471435547e+00,4.040739059448242188e+00,3.907938003540039062e+00,3.783588409423828125e+00,3.666907787322998047e+00,3.557208776473999023e+00,3.453882694244384766e+00,3.356389760971069336e+00,3.264249324798583984e+00,3.177032709121704102e+00,3.094355821609497070e+00,3.015872478485107422e+00,2.941271781921386719e+00,2.870272874832153320e+00,2.802620887756347656e+00,2.738084554672241211e+00,2.676453351974487305e+00,2.617535591125488281e+00,2.561156034469604492e+00,2.507153987884521484e+00,2.455381870269775391e+00,2.405704736709594727e+00,2.357998132705688477e+00,2.312146663665771484e+00,2.268044471740722656e+00,2.225593090057373047e+00,2.184701919555664062e+00,2.145285844802856445e+00,2.107267141342163086e+00,2.070572376251220703e+00,2.035133838653564453e+00,2.000887870788574219e+00,1.967775344848632812e+00,1.935741066932678223e+00,1.904732942581176758e+00,1.874702692031860352e+00,1.845604419708251953e+00
5.000000000000000000e+00,5.000000000000000000e+00,5.000000000000000000e+00,5.000000000000000000e+00,5.000000000000000000e+00,5.000000000000000000e+00,5.000000000000000000e+00,5.000000000000000000e+00,5.000000000000000000e+00,5.000000000000000000e+00,5.000000000000000000e+00,5.000000000000000000e+00,5.000000000000000000e+00,5.000000000000000000e+00,5.000000000000000000e+00,5.000000000000000000e+00,5.000000000000000000e+00,5.000000000000000000e+00,5.000000000000000000e+00,5.000000000000000000e+00,5.000000000000000000e+00,5.000000000000000000e+00,5.000000000000000000e+00,5.000000000000000000e+00,5.000000000000000000e+00,5.000000000000000000e+00,5.000000000000000000e+00,5.000000000000000000e+00,5.000000000000000000e+00,5.000000000000000000e+00,5.000000000000000000e+00,5.000000000000000000e+00,5.000000000000000000e+00,5.000000000000000000e+00,5.000000000000000000e+00,5.000000000000000000e+00,5.000000000000000000e+00,5.000000000000000000e+00,5.000000000000000000e+00,4.867984771728515625e+00,4.676529407501220703e+00,4.499564647674560547e+00,4.335504055023193359e+00,4.182986736297607422e+00,4.040834903717041016e+00,3.908027648925781250e+00,3.783672571182250977e+00,3.666987180709838867e+00,3.557283163070678711e+00,3.453952789306640625e+00,3.356455802917480469e+00,3.264312028884887695e+00,3.177092075347900391e+00,3.094411849975585938e+00,3.015925884246826172e+00,2.941322803497314453e+00,2.870321273803710938e+00,2.802667140960693359e+00,2.738128662109375000e+00,2.676495552062988281e+00,2.617575883865356445e+00,2.561194419860839844e+00,2.507190942764282227e+00,2.455417394638061523e+00,2.405738830566406250e+00,2.358030796051025391e+00,2.312178134918212891e+00,2.268074750900268555e+00,2.225622177124023438e+00,2.184729814529418945e+00,2.145313024520874023e+00,2.107293367385864258e+00,2.070597410202026367e+00,2.035158157348632812e+00,2.000911235809326172e+00,1.967798233032226562e+00,1.935763001441955566e+00,1.904754281044006348e+00,1.874723196029663086e+00,1.845624566078186035e+00
5.000000000000000000e+00,5.000000000000000000e+00,5.000000000000000000e+00,5.000000000000000000e+00,5.000000000000000000e+00,5.000000000000000000e+00,5.000000000000000000e+00,5.000000000000000000e+00,5.000000000000000000e+00,5.000000000000000000e+00,5.000000000000000000e+00,5.000000000000000000e+00,5.000000000000000000e+00,5.000000000000000000e+00,5.000000000000000000e+00,5.000000000000000000e+00,5.000000000000000000e+00,5.000000000000000000e+00,5.000000000000000000e+00,5.000000000000000000e+00,5.000000000000000000e+00,5.000000000000000000e+00,5.000000000000000000e+00,5.000000000000000000e+00,5.000000000000000000e+00,5.000000000000000000e+00,5.000000000000000000e+00,5.000000000000000000e+00,5.000000000000000000e+00,5.000000000000000000e+00,5.000000000000000000e+00,5.000000000000000000e+00,5.000000000000000000e+00,5.000000000000000000e+00,5.000000000000000000e+00,5.000000000000000000e+00,5.000000000000000000e+00,5.000000000000000000e+00,5.000000000000000000e+00,4.868124008178710938e+00,4.676658153533935547e+00,4.499683380126953125e+00,4.335614681243896484e+00,4.183089256286621094e+00,4.040931224822998047e+00,3.908117532730102539e+00,3.783756494522094727e+00,3.667066097259521484e+00,3.557357788085937500e+00,3.454022645950317383e+00,3.356522083282470703e+00,3.264374732971191406e+00,3.177151679992675781e+00,3.094468116760253906e+00,3.015979290008544922e+00,2.941373586654663086e+00,2.870369911193847656e+00,2.802713155746459961e+00,2.738172531127929688e+00,2.676537513732910156e+00,2.617616176605224609e+00,2.561233043670654297e+00,2.507227659225463867e+00,2.455452680587768555e+00,2.405772924423217773e+00,2.358063459396362305e+00,2.312209606170654297e+00,2.268105030059814453e+00,2.225651502609252930e+00,2.184757947921752930e+00,2.145339965820312500e+00,2.107319355010986328e+00,2.070622682571411133e+00,2.035182476043701172e+00,2.000934839248657227e+00,1.967821002006530762e+00,1.935785055160522461e+00,1.904775500297546387e+00,1.874743938446044922e+00,1.845644474029541016e+00
5.000000000000000000e+00,5.000000000000000000e+00,5.000000000000000000e+00,5.000000000000000000e+00,5.000000000000000000e+00,5.000000000000000000e+00,5.000000000000000000e+00,5.000000000000000000e+00,5.000000000000000000e+00,5.000000000000000000e+00,5.000000000000000000e+00,5.000000000000000000e+00,5.000000000000000000e+00,5.000000000000000000e+00,5.000000000000000000e+00,5.000000000000000000e+00,5.000000000000000000e+00,5.000000000000000000e+00,5.000000000000000000e+00,5.000000000000000000e+00,5.000000000000000000e+00,5.000000000000000000e+00,5.000000000000000000e+00,5.000000000000000000e+00,5.000000000000000000e+00,5.000000000000000000e+00,5.000000000000000000e+00,5.000000000000000000e+00,5.000000000000000000e+00,5.000000000000000000e+00,5.000000000000000000e+00,5.000000000000000000e+00,5.000000000000000000e+00,5.000000000000000000e+00,5.000000000000000000e+00,5.000000000000000000e+00,5.000000000000000000e+00,5.000000000000000000e+00,5.000000000000000000e+00,4.868263244628906250e+00,4.676786899566650391e+00,4.499802589416503906e+00,4.335725307464599609e+00,4.183192253112792969e+00,4.041027069091796875e+00,3.908207654953002930e+00,3.783840656280517578e+00,3.667145013809204102e+00,3.557431936264038086e+00,3.454093217849731445e+00,3.356588125228881836e+00,3.264437198638916016e+00,3.177210807800292969e+00,3.094524621963500977e+00,3.016032695770263672e+00,2.941424608230590820e+00,2.870418310165405273e+00,2.802759408950805664e+00,2.738216638565063477e+00,2.676579713821411133e+00,2.617656469345092773e+00,2.561271667480468750e+00,2.507264375686645508e+00,2.455488204956054688e+00,2.405806779861450195e+00,2.358096361160278320e+00,2.312240839004516602e+00,2.268135070800781250e+00,2.225680589675903320e+00,2.184786081314086914e+00,2.145366907119750977e+00,2.107345342636108398e+00,2.070647954940795898e+00,2.035206794738769531e+00,2.000958442687988281e+00,1.967843651771545410e+00,1.935807228088378906e+00,1.904796957969665527e+00,1.874764442443847656e+00,1.845664620399475098e+00
5.000000000000000000e+00,5.000000000000000000e+00,5.000000000000000000e+00,5.000000000000000000e+00,5.000000000000000000e+00,5.000000000000000000e+00,5.000000000000000000e+00,5.000000000000000000e+00,5.000000000000000000e+00,5.000000000000000000e+00,5.000000000000000000e+00,5.000000000000000000e+00,5.000000000000000000e+00,5.000000000000000000e+00,5.000000000000000000e+00,5.000000000000000000e+00,5.000000000000000000e+00,5.000000000000000000e+00,5.000000000000000000e+00,5.000000000000000000e+00,5.000000000000000000e+00,5.000000000000000000e+00,5.000000000000000000e+00,5.000000000000000000e+00,5.000000000000000000e+00,5.000000000000000000e+00,5.000000000000000000e+00,5.000000000000000000e+00,5.000000000000000000e+00,5.000000000000000000e+00,5.000000000000000000e+00,5.000000000000000000e+00,5.000000000000000000e+00,5.000000000000000000e+00,5.000000000000000000e+00,5.000000000000000000e+00,5.000000000000000000e+00,5.000000000000000000e+00,5.000000000000000000e+00,4.868402957916259766e+00,4.676915645599365234e+00,4.499921798706054688e+00,4.335835933685302734e+00,4.183295249938964844e+00,4.041123390197753906e+00,3.908297300338745117e+00,3.783925056457519531e+00,3.667224407196044922e+00,3.557506322860717773e+00,3.454163074493408203e+00,3.356654644012451172e+00,3.264500141143798828e+00,3.177270174026489258e+00,3.094580888748168945e+00,3.016086339950561523e+00,2.941475629806518555e+00,2.870466709136962891e+00,2.802805662155151367e+00,2.738260984420776367e+00,2.676621913909912109e+00,2.617696523666381836e+00,2.561310052871704102e+00,2.507301568984985352e+00,2.455523729324340820e+00,2.405840873718261719e+00,2.358129024505615234e+00,2.312272548675537109e+00,2.268165588378906250e+00,2.225709676742553711e+00,2.184813976287841797e+00,2.145394086837768555e+00,2.107371568679809570e+00,2.070672988891601562e+00,2.035231113433837891e+00,2.000982046127319336e+00,1.967866539955139160e+00,1.935829043388366699e+00,1.904818296432495117e+00,1.874785184860229492e+00,1.140243411064147949e+00
5.000000000000000000e+00,5.000000000000000000e+00,5.000000000000000000e+00,5.000000000000000000e+00,5.000000000000000000e+00,5.000000000000000000e+00,5.000000000000000000e+00,5.000000000000000000e+00,5.000000000000000000e+00,5.000000000000000000e+00,5.000000000000000000e+00,5.000000000000000000e+00,5.000000000000000000e+00,5.000000000000000000e+00,5.000000000000000000e+00,5.000000000000000000e+00,5.000000000000000000e+00,5.000000000000000000e+00,5.000000000000000000e+00,5.000000000000000000e+00,5.000000000000000000e+00,5.000000000000000000e+00,5.000000000000000000e+00,5.000000000000000000e+00,5.000000000000000000e+00,5.000000000000000000e+00,5.000000000000000000e+00,5.000000000000000000e+00,5.000000000000000000e+00,5.000000000000000000e+00,5.000000000000000000e+00,5.000000000000000000e+00,5.000000000000000000e+00,5.000000000000000000e+00,5.000000000000000000e+00,5.000000000000000000e+00,5.000000000000000000e+00,5.000000000000000000e+00,5.000000000000000000e+00,4.868542194366455078e+00,4.677044391632080078e+00,4.500041007995605469e+00,4.335946559906005859e+00,4.183398246765136719e+00,4.041219234466552734e+00,3.908386945724487305e+00,3.784009218215942383e+00,3.667303323745727539e+00,3.557580947875976562e+00,3.454233169555664062e+00,3.356720685958862305e+00,3.264562606811523438e+00,3.177329778671264648e+00,3.094637155532836914e+00,3.016139745712280273e+00,2.941526412963867188e+00,2.870515346527099609e+00,2.802851676940917969e+00,2.738304853439331055e+00,2.676664113998413086e+00,2.617737054824829102e+00,2.561348438262939453e+00,2.507338523864746094e+00,2.455559015274047852e+00,2.405874967575073242e+00,2.358161687850952148e+00,2.312303781509399414e+00,2.268195629119873047e+00,2.225738763809204102e+00,2.184842109680175781e+00,2.145421266555786133e+00,2.107397794723510742e+00,2.070698261260986328e+00,2.035255432128906250e+00,2.001005411148071289e+00,1.967889428138732910e+00,1.935851216316223145e+00,1.904839515686035156e+00,1.874805927276611328e+00,1.137017726898193359e+00
5.000000000000000000e+00,5.000000000000000000e+00,5.000000000000000000e+00,5.000000000000000000e+00,5.000000000000000000e+00,5.000000000000000000e+00,5.000000000000000000e+00,5.000000000000000000e+00,5.000000000000000000e+00,5.000000000000000000e+00,5.000000000000000000e+00,5.000000000000000000e+00,5.000000000000000000e+00,5.000000000000000000e+00,5.000000000000000000e+00,5.000000000000000000e+00,5.000000000000000000e+00,5.000000000000000000e+00,5.000000000000000000e+00,5.000000000000000000e+00,5.000000000000000000e+00,5.000000000000000000e+00,5.000000000000000000e+00,5.000000000000000000e+00,5.000000000000000000e+00,5.000000000000000000e+00,5.000000000000000000e+00,5.000000000000000000e+00,5.000000000000000000e+00,5.000000000000000000e+00,5.000000000000000000e+00,5.000000000000000000e+00,5.000000000000000000e+00,5.000000000000000000e+00,5.000000000000000000e+00,5.000000000000000000e+00,5.000000000000000000e+00,5.000000000000000000e+00,5.000000000000000000e+00,4.868681430816650391e+00,4.677172660827636719e+00,4.500160217285156250e+00,4.336056709289550781e+00,4.183501243591308594e+00,4.041315078735351562e+00,3.908477067947387695e+00,3.784093141555786133e+00,3.667382240295410156e+00,3.557655334472656250e+00,3.454303741455078125e+00,3.356786966323852539e+00,3.264625310897827148e+00,3.177388906478881836e+00,3.094693660736083984e+00,3.016193151473999023e+00,2.941577196121215820e+00,2.870563745498657227e+00,2.802898168563842773e+00,2.738348722457885742e+00,2.676705837249755859e+00,2.617777109146118164e+00,2.561387300491333008e+00,2.507375478744506836e+00,2.455594539642333984e+00,2.405909061431884766e+00,2.358194351196289062e+00,2.312335252761840820e+00,2.268225908279418945e+00,2.225767850875854492e+00,2.184870243072509766e+00,2.145448207855224609e+00,2.107423782348632812e+00,2.070723533630371094e+00,2.035279989242553711e+00,2.001029014587402344e+00,1.967911958694458008e+00,1.935873270034790039e+00,1.904860973358154297e+00,1.874826431274414062e+00,1.130195736885070801e+00
5.000000000000000000e+00,5.000000000000000000e+00,5.000000000000000000e+00,5.000000000000000000e+00,5.000000000000000000e+00,5.000000000000000000e+00,5.000000000000000000e+00,5.000000000000000000e+00,5.000000000000000000e+00,5.000000000000000000e+00,5.000000000000000000e+00,5.000000000000000000e+00,5.000000000000000000e+00,5.000000000000000000e+00,5.000000000000000000e+00,5.000000000000000000e+00,5.000000000000000000e+00,5.000000000000000000e+00,5.000000000000000000e+00,5.000000000000000000e+00,5.000000000000000000e+00,5.000000000000000000e+00,5.000000000000000000e+00,5.000000000000000000e+00,5.000000000000000000e+00,5.000000000000000000e+00,5.000000000000000000e+00,5.000000000000000000e+00,5.000000000000000000e+00,5.000000000000000000e+00,5.000000000000000000e+00,5.000000000000000000e+00,5.000000000000000000e+00,5.000000000000000000e+00,5.000000000000000000e+00,5.000000000000000000e+00,5.000000000000000000e+00,5.000000000000000000e+00,5.000000000000000000e+00,4.868820667266845703e+00,4.677301406860351562e+00,4.500278949737548828e+00,4.336167335510253906e+00,4.183603763580322266e+00,4.041411399841308594e+00,3.908566713333129883e+00,3.784177780151367188e+00,3.667461156845092773e+00,3.557729721069335938e+00,3.454373598098754883e+00,3.356853485107421875e+00,3.264687776565551758e+00,3.177448272705078125e+00,3.094749927520751953e+00,3.016246795654296875e+00,2.941627979278564453e+00,2.870612144470214844e+00,2.802944183349609375e+00,2.738393068313598633e+00,2.676747798919677734e+00,2.617817401885986328e+00,2.561425685882568359e+00,2.507412433624267578e+00,2.455629825592041016e+00,2.405942916870117188e+00,2.358227014541625977e+00,2.312366724014282227e+00,2.268256187438964844e+00,2.225796937942504883e+00,2.184898376464843750e+00,2.145475387573242188e+00,2.107449769973754883e+00,2.070748805999755859e+00,2.035304307937622070e+00,2.001052618026733398e+00,1.967934846878051758e+00,1.935895204544067383e+00,1.904882311820983887e+00,1.139606356620788574e+00,1.112868905067443848e+00
5.000000000000000000e+00,5.000000000000000000e+00,5.000000000000000000e+00,5.000000000000000000e+00,5.000000000000000000e+00,5.000000000000000000e+00,5.000000000000000000e+00,5.000000000000000000e+00,5.000000000000000000e+00,5.000000000000000000e+00,5.000000000000000000e+00,5.000000000000000000e+00,5.000000000000000000e+00,5.000000000000000000e+00,5.000000000000000000e+00,5.000000000000000000e+00,5.000000000000000000e+00,5.000000000000000000e+00,5.000000000000000000e+00,5.000000000000000000e+00,5.000000000000000000e+00,5.000000000000000000e+00,5.000000000000000000e+00,5.000000000000000000e+00,5.000000000000000000e+00,5.000000000000000000e+00,5.000000000000000000e+00,5.000000000000000000e+00,5.000000000000000000e+00,5.000000000000000000e+00,5.000000000000000000e+00,5.000000000000000000e+00,5.000000000000000000e+00,5.000000000000000000e+00,5.000000000000000000e+00,5.000000000000000000e+00,5.000000000000000000e+00,5.000000000000000000e+00,5.000000000000000000e+00,4.868960380554199219e+00,4.677429676055908203e+00,4.500398159027099609e+00,4.336277961730957031e+00,4.183706760406494141e+00,4.041507244110107422e+00,3.908656358718872070e+00,3.784261703491210938e+00,3.667540550231933594e+00,3.557803869247436523e+00,3.454443693161010742e+00,3.356919527053833008e+00,3.264750719070434570e+00,3.177507638931274414e+00,3.094806194305419922e+00,3.016300201416015625e+00,2.941679000854492188e+00,2.870660543441772461e+00,2.802990198135375977e+00,2.738436937332153320e+00,2.676790237426757812e+00,2.617857694625854492e+00,2.561464309692382812e+00,2.507449388504028320e+00,2.455665349960327148e+00,2.405977010726928711e+00,2.358259677886962891e+00,2.312398195266723633e+00,2.268286466598510742e+00,2.225826025009155273e+00,2.184926271438598633e+00,2.145502328872680664e+00,2.107475996017456055e+00,2.070773839950561523e+00,2.035328626632690430e+00,2.001076221466064453e+00,1.967957735061645508e+00,1.180484890937805176e+00,1.140558481216430664e+00,1.123668909072875977e+00,1.111329674720764160e+00
5.000000000000000000e+00,5.000000000000000000e+00,5.000000000000000000e+00,5.000000000000000000e+00,5.000000000000000000e+00,5.000000000000000000e+00,5.000000000000000000e+00,5.000000000000000000e+00,5.000000000000000000e+00,5.000000000000000000e+00,5.000000000000000000e+00,5.000000000000000000e+00,5.000000000000000000e+00,5.000000000000000000e+00,5.000000000000000000e+00,5.000000000000000000e+00,5.000000000000000000e+00,5.000000000000000000e+00,5.000000000000000000e+00,5.000000000000000000e+00,5.000000000000000000e+00,5.000000000000000000e+00,5.000000000000000000e+00,5.000000000000000000e+00,5.000000000000000000e+00,5.000000000000000000e+00,5.000000000000000000e+00,5.000000000000000000e+00,5.000000000000000000e+00,5.000000000000000000e+00,5.000000000000000000e+00,5.000000000000000000e+00,5.000000000000000000e+00,5.000000000000000000e+00,5.000000000000000000e+00,5.000000000000000000e+00,5.000000000000000000e+00,5.000000000000000000e+00,5.000000000000000000e+00,4.869099617004394531e+00,4.677558422088623047e+00,4.500517368316650391e+00,4.336388587951660156e+00,4.183810234069824219e+00,4.041603565216064453e+00,3.908746719360351562e+00,3.784345865249633789e+00,3.667619705200195312e+00,3.557878732681274414e+00,3.454514265060424805e+00,3.356985807418823242e+00,3.264813184738159180e+00,3.177567243576049805e+00,3.094862699508666992e+00,3.016353845596313477e+00,2.941729784011840820e+00,2.870708942413330078e+00,2.803036451339721680e+00,2.738481044769287109e+00,2.676832199096679688e+00,2.617897987365722656e+00,2.561502933502197266e+00,2.507486343383789062e+00,2.455700874328613281e+00,2.406011104583740234e+00,2.358292579650878906e+00,2.312429666519165039e+00,2.268316745758056641e+00,2.225855350494384766e+00,2.184954404830932617e+00,2.145529508590698242e+00,2.107502222061157227e+00,2.070799112319946289e+00,2.035352945327758789e+00,2.001099586486816406e+00,1.178779006004333496e+00,1.151306867599487305e+00,1.134140014648437500e+00,1.121571063995361328e+00,1.109277725219726562e+00
5.000000000000000000e+00,5.000000000000000000e+00,5.000000000000000000e+00,5.000000000000000000e+00,5.000000000000000000e+00,5.000000000000000000e+00,5.000000000000000000e+00,5.000000000000000000e+00,5.000000000000000000e+00,5.000000000000000000e+00,5.000000000000000000e+00,5.000000000000000000e+00,5.000000000000000000e+00,5.000000000000000000e+00,5.000000000000000000e+00,5.000000000000000000e+00,5.000000000000000000e+00,5.000000000000000000e+00,5.000000000000000000e+00,5.000000000000000000e+00,5.000000000000000000e+00,5.000000000000000000e+00,5.000000000000000000e+00,5.000000000000000000e+00,5.000000000000000000e+00,5.000000000000000000e+00,5.000000000000000000e+00,5.000000000000000000e+00,5.000000000000000000e+00,5.000000000000000000e+00,5.000000000000000000e+00,5.000000000000000000e+00,5.000000000000000000e+00,5.000000000000000000e+00,5.000000000000000000e+00,5.000000000000000000e+00,5.000000000000000000e+00,5.000000000000000000e+00,5.000000000000000000e+00,4.869238853454589844e+00,4.677687644958496094e+00,4.500636100769042969e+00,4.336499214172363281e+00,4.183912754058837891e+00,4.041699409484863281e+00,3.908836364746093750e+00,3.784430265426635742e+00,3.667698621749877930e+00,3.557952880859375000e+00,3.454584121704101562e+00,3.357052326202392578e+00,3.264875888824462891e+00,3.177626371383666992e+00,3.094918727874755859e+00,3.016407489776611328e+00,2.941780328750610352e+00,2.870757102966308594e+00,2.803082704544067383e+00,2.738525152206420898e+00,2.676874399185180664e+00,2.617938280105590820e+00,2.561541557312011719e+00,2.507523298263549805e+00,2.455736160278320312e+00,2.406045198440551758e+00,2.358325242996215820e+00,2.312461137771606445e+00,2.268347024917602539e+00,2.225884437561035156e+00,2.184982538223266602e+00,2.145556688308715820e+00,2.107528209686279297e+00,2.070824384689331055e+00,2.035377264022827148e+00,1.181594729423522949e+00,1.163108587265014648e+00,1.145191788673400879e+00,1.132003068923950195e+00,1.119481205940246582e+00,1.108719944953918457e+00
5.000000000000000000e+00,5.000000000000000000e+00,5.000000000000000000e+00,5.000000000000000000e+00,5.000000000000000000e+00,5.000000000000000000e+00,5.000000000000000000e+00,5.000000000000000000e+00,5.000000000000000000e+00,5.000000000000000000e+00,5.000000000000000000e+00,5.000000000000000000e+00,5.000000000000000000e+00,5.000000000000000000e+00,5.000000000000000000e+00,5.000000000000000000e+00,5.000000000000000000e+00,5.000000000000000000e+00,5.000000000000000000e+00,5.000000000000000000e+00,5.000000000000000000e+00,5.000000000000000000e+00,5.000000000000000000e+00,5.000000000000000000e+00,5.000000000000000000e+00,5.000000000000000000e+00,5.000000000000000000e+00,5.000000000000000000e+00,5.000000000000000000e+00,5.000000000000000000e+00,5.000000000000000000e+00,5.000000000000000000e+00,5.000000000000000000e+00,5.000000000000000000e+00,5.000000000000000000e+00,5.000000000000000000e+00,5.000000000000000000e+00,5.000000000000000000e+00,5.000000000000000000e+00,4.869378566741943359e+00,4.677815914154052734e+00,4.500755310058593750e+00,4.336609840393066406e+00,4.184015750885009766e+00,4.041795253753662109e+00,3.908926010131835938e+00,3.784514427185058594e+00,3.667778015136718750e+00,3.558027267456054688e+00,3.454654216766357422e+00,3.357118368148803711e+00,3.264938831329345703e+00,3.177685737609863281e+00,3.094974994659423828e+00,3.016460657119750977e+00,2.941831350326538086e+00,2.870805501937866211e+00,2.803128719329833984e+00,2.738569259643554688e+00,2.676916599273681641e+00,2.617978572845458984e+00,2.561579942703247070e+00,2.507560253143310547e+00,2.455771923065185547e+00,2.406079053878784180e+00,2.358357906341552734e+00,2.312492609024047852e+00,2.268377304077148438e+00,2.225913524627685547e+00,2.185010671615600586e+00,2.145583629608154297e+00,2.107554435729980469e+00,2.070849657058715820e+00,1.198874592781066895e+00,1.176763534545898438e+00,1.156867861747741699e+00,1.142711997032165527e+00,1.131776809692382812e+00,1.122084736824035645e+00,1.112587571144104004e+00
5.000000000000000000e+00,5.000000000000000000e+00,5.000000000000000000e+00,5.000000000000000000e+00,5.000000000000000000e+00,5.000000000000000000e+00,5.000000000000000000e+00,5.000000000000000000e+00,5.000000000000000000e+00,5.000000000000000000e+00,5.000000000000000000e+00,5.000000000000000000e+00,5.000000000000000000e+00,5.000000000000000000e+00,5.000000000000000000e+00,5.000000000000000000e+00,5.000000000000000000e+00,5.000000000000000000e+00,5.000000000000000000e+00,5.000000000000000000e+00,5.000000000000000000e+00,5.000000000000000000e+00,5.000000000000000000e+00,5.000000000000000000e+00,5.000000000000000000e+00,5.000000000000000000e+00,5.000000000000000000e+00,5.000000000000000000e+00,5.000000000000000000e+00,5.000000000000000000e+00,5.000000000000000000e+00,5.000000000000000000e+00,5.000000000000000000e+00,5.000000000000000000e+00,5.000000000000000000e+00,5.000000000000000000e+00,5.000000000000000000e+00,5.000000000000000000e+00,5.000000000000000000e+00,4.869517803192138672e+00,4.677944660186767578e+00,4.500874519348144531e+00,4.336720466613769531e+00,4.184118747711181641e+00,4.041891574859619141e+00,3.909015655517578125e+00,3.784598588943481445e+00,3.667856931686401367e+00,3.558101892471313477e+00,3.454724311828613281e+00,3.357184648513793945e+00,3.265001296997070312e+00,3.177745342254638672e+00,3.095031023025512695e+00,3.016514062881469727e+00,2.941882371902465820e+00,2.870854139328002930e+00,2.803174972534179688e+00,2.738613367080688477e+00,2.676958799362182617e+00,2.618019104003906250e+00,2.561618566513061523e+00,2.507597208023071289e+00,2.455807209014892578e+00,2.406113386154174805e+00,2.358390569686889648e+00,2.312523841857910156e+00,2.268407583236694336e+00,2.225942611694335938e+00,2.185038566589355469e+00,2.145610570907592773e+00,2.107580423355102539e+00,1.216546177864074707e+00,1.194997906684875488e+00,1.172664523124694824e+00,1.158243656158447266e+00,1.148225665092468262e+00,1.138282656669616699e+00,1.128510594367980957e+00,1.119147300720214844e+00
5.000000000000000000e+00,5.000000000000000000e+00,5.000000000000000000e+00,5.000000000000000000e+00,5.000000000000000000e+00,5.000000000000000000e+00,5.000000000000000000e+00,5.000000000000000000e+00,5.000000000000000000e+00,5.000000000000000000e+00,5.000000000000000000e+00,5.000000000000000000e+00,5.000000000000000000e+00,5.000000000000000000e+00,5.000000000000000000e+00,5.000000000000000000e+00,5.000000000000000000e+00,5.000000000000000000e+00,5.000000000000000000e+00,5.000000000000000000e+00,5.000000000000000000e+00,5.000000000000000000e+00,5.000000000000000000e+00,5.000000000000000000e+00,5.000000000000000000e+00,5.000000000000000000e+00,5.000000000000000000e+00,5.000000000000000000e+00,5.000000000000000000e+00,5.000000000000000000e+00,5.000000000000000000e+00,5.000000000000000000e+00,5.000000000000000000e+00,5.000000000000000000e+00,5.000000000000000000e+00,5.000000000000000000e+00,5.000000000000000000e+00,5.000000000000000000e+00,5.000000000000000000e+00,4.869657516479492188e+00,4.678072929382324219e+00,4.500993728637695312e+00,4.336830615997314453e+00,4.184221744537353516e+00,4.041987419128417969e+00,3.909105777740478516e+00,3.784682750701904297e+00,3.667935848236083984e+00,3.558176279067993164e+00,3.454794883728027344e+00,3.357250690460205078e+00,3.265064001083374023e+00,3.177804470062255859e+00,3.095087528228759766e+00,3.016567468643188477e+00,2.941933155059814453e+00,2.870902538299560547e+00,2.803221225738525391e+00,2.738657236099243164e+00,2.677000761032104492e+00,2.618059158325195312e+00,2.561657190322875977e+00,2.507634162902832031e+00,2.455842733383178711e+00,2.406147241592407227e+00,2.358423233032226562e+00,2.312555313110351562e+00,2.268437623977661133e+00,2.225971698760986328e+00,2.185066699981689453e+00,2.145637750625610352e+00,1.234746456146240234e+00,1.213640332221984863e+00,1.190771102905273438e+00,1.175096511840820312e+00,1.164826035499572754e+00,1.154733657836914062e+00,1.144814610481262207e+00,1.139792203903198242e+00,1.135910987854003906e+00
5.000000000000000000e+00,5.000000000000000000e+00,5.000000000000000000e+00,5.000000000000000000e+00,5.000000000000000000e+00,5.000000000000000000e+00,5.000000000000000000e+00,5.000000000000000000e+00,5.000000000000000000e+00,5.000000000000000000e+00,5.000000000000000000e+00,5.000000000000000000e+00,5.000000000000000000e+00,5.000000000000000000e+00,5.000000000000000000e+00,5.000000000000000000e+00,5.000000000000000000e+00,5.000000000000000000e+00,5.000000000000000000e+00,5.000000000000000000e+00,5.000000000000000000e+00,5.000000000000000000e+00,5.000000000000000000e+00,5.000000000000000000e+00,5.000000000000000000e+00,5.000000000000000000e+00,5.000000000000000000e+00,5.000000000000000000e+00,5.000000000000000000e+00,5.000000000000000000e+00,5.000000000000000000e+00,5.000000000000000000e+00,5.000000000000000000e+00,5.000000000000000000e+00,5.000000000000000000e+00,5.000000000000000000e+00,5.000000000000000000e+00,5.000000000000000000e+00,5.000000000000000000e+00,4.869796752929687500e+00,4.678202152252197266e+00,4.501112461090087891e+00,4.336941242218017578e+00,4.184324264526367188e+00,4.042083740234375000e+00,3.909195661544799805e+00,3.784767150878906250e+00,3.668015003204345703e+00,3.558250665664672852e+00,3.454864978790283203e+00,3.357317209243774414e+00,3.265126228332519531e+00,3.177863597869873047e+00,3.095143795013427734e+00,3.016621112823486328e+00,2.941983938217163086e+00,2.870950937271118164e+00,2.803267478942871094e+00,2.738701581954956055e+00,2.677042722702026367e+00,2.618099451065063477e+00,2.561695814132690430e+00,2.507671356201171875e+00,2.455878019332885742e+00,2.406181335449218750e+00,2.358455896377563477e+00,2.312586784362792969e+00,2.268467903137207031e+00,2.226000785827636719e+00,2.185094833374023438e+00,1.253499388694763184e+00,1.231753110885620117e+00,1.209445595741271973e+00,1.192446947097778320e+00,1.181872367858886719e+00,1.171483755111694336e+00,1.161411881446838379e+00,1.155141592025756836e+00,1.153326988220214844e+00,1.845884919166564941e+00
5.000000000000000000e+00,5.000000000000000000e+00,5.000000000000000000e+00,5.000000000000000000e+00,5.000000000000000000e+00,5.000000000000000000e+00,5.000000000000000000e+00,5.000000000000000000e+00,5.000000000000000000e+00,5.000000000000000000e+00,5.000000000000000000e+00,5.000000000000000000e+00,5.000000000000000000e+00,5.000000000000000000e+00,5.000000000000000000e+00,5.000000000000000000e+00,5.000000000000000000e+00,5.000000000000000000e+00,5.000000000000000000e+00,5.000000000000000000e+00,5.000000000000000000e+00,5.000000000000000000e+00,5.000000000000000000e+00,5.000000000000000000e+00,5.000000000000000000e+00,5.000000000000000000e+00,5.000000000000000000e+00,5.000000000000000000e+00,5.000000000000000000e+00,5.000000000000000000e+00,5.000000000000000000e+00,5.000000000000000000e+00,5.000000000000000000e+00,5.000000000000000000e+00,5.000000000000000000e+00,5.000000000000000000e+00,5.000000000000000000e+00,5.000000000000000000e+00,5.000000000000000000e+00,4.869935512542724609e+00,4.678330898284912109e+00,4.501231670379638672e+00,4.337052345275878906e+00,4.184427261352539062e+00,4.042180061340332031e+00,3.909285306930541992e+00,3.784851312637329102e+00,3.668094396591186523e+00,3.558325290679931641e+00,3.454934835433959961e+00,3.357383251190185547e+00,3.265189170837402344e+00,3.177923202514648438e+00,3.095200061798095703e+00,3.016674518585205078e+00,2.942034959793090820e+00,2.870999574661254883e+00,2.803313493728637695e+00,2.738745689392089844e+00,2.677085161209106445e+00,2.618139982223510742e+00,2.561734437942504883e+00,2.507708072662353516e+00,2.455913782119750977e+00,2.406215429306030273e+00,2.358488559722900391e+00,2.312618255615234375e+00,2.268498182296752930e+00,2.226030111312866211e+00,1.275066733360290527e+00,1.250414609909057617e+00,1.228715181350708008e+00,1.210317492485046387e+00,1.199425101280212402e+00,1.188866972923278809e+00,1.178527235984802246e+00,1.170717358589172363e+00,1.168207764625549316e+00,1.875012516975402832e+00,1.845904946327209473e+00
5.000000000000000000e+00,5.000000000000000000e+00,5.000000000000000000e+00,5.000000000000000000e+00,5.000000000000000000e+00,5.000000000000000000e+00,5.000000000000000000e+00,5.000000000000000000e+00,5.000000000000000000e+00,5.000000000000000000e+00,5.000000000000000000e+00,5.000000000000000000e+00,5.000000000000000000e+00,5.000000000000000000e+00,5.000000000000000000e+00,5.000000000000000000e+00,5.000000000000000000e+00,5.000000000000000000e+00,5.000000000000000000e+00,5.000000000000000000e+00,5.000000000000000000e+00,5.000000000000000000e+00,5.000000000000000000e+00,5.000000000000000000e+00,5.000000000000000000e+00,5.000000000000000000e+00,5.000000000000000000e+00,5.000000000000000000e+00,5.000000000000000000e+00,5.000000000000000000e+00,5.000000000000000000e+00,5.000000000000000000e+00,5.000000000000000000e+00,5.000000000000000000e+00,5.000000000000000000e+00,5.000000000000000000e+00,5.000000000000000000e+00,5.000000000000000000e+00,5.000000000000000000e+00,4.870074272155761719e+00,4.678458690643310547e+00,4.501350879669189453e+00,4.337162494659423828e+00,4.184530735015869141e+00,4.042275905609130859e+00,3.909375429153442383e+00,3.784935474395751953e+00,3.668173313140869141e+00,3.558399677276611328e+00,3.455005168914794922e+00,3.357449293136596680e+00,3.265251874923706055e+00,3.177982568740844727e+00,3.095256567001342773e+00,3.016727924346923828e+00,2.942085742950439453e+00,2.871047973632812500e+00,2.803359985351562500e+00,2.738789796829223633e+00,2.677127122879028320e+00,2.618180274963378906e+00,2.561773061752319336e+00,2.507745027542114258e+00,2.455949068069458008e+00,2.406249523162841797e+00,2.358521461486816406e+00,2.312649726867675781e+00,2.268528461456298828e+00,1.300975561141967773e+00,1.270978093147277832e+00,1.247345089912414551e+00,1.228731870651245117e+00,1.217651486396789551e+00,1.206807374954223633e+00,1.196154475212097168e+00,1.187592864036560059e+00,1.183477640151977539e+00,1.905074477195739746e+00,1.875033259391784668e+00,1.845924854278564453e+00
5.000000000000000000e+00,5.000000000000000000e+00,5.000000000000000000e+00,5.000000000000000000e+00,5.000000000000000000e+00,5.000000000000000000e+00,5.000000000000000000e+00,5.000000000000000000e+00,5.000000000000000000e+00,5.000000000000000000e+00,5.000000000000000000e+00,5.000000000000000000e+00,5.000000000000000000e+00,5.000000000000000000e+00,5.000000000000000000e+00,5.000000000000000000e+00,5.000000000000000000e+00,5.000000000000000000e+00,5.000000000000000000e+00,5.000000000000000000e+00,5.000000000000000000e+00,5.000000000000000000e+00,5.000000000000000000e+00,5.000000000000000000e+00,5.000000000000000000e+00,5.000000000000000000e+00,5.000000000000000000e+00,5.000000000000000000e+00,5.000000000000000000e+00,5.000000000000000000e+00,5.000000000000000000e+00,5.000000000000000000e+00,5.000000000000000000e+00,5.000000000000000000e+00,5.000000000000000000e+00,5.000000000000000000e+00,5.000000000000000000e+00,5.000000000000000000e+00,5.000000000000000000e+00,4.870213031768798828e+00,4.678586959838867188e+00,4.501470088958740234e+00,4.337273120880126953e+00,4.184633255004882812e+00,4.042371749877929688e+00,3.909465312957763672e+00,3.785019874572753906e+00,3.668252229690551758e+00,3.558473825454711914e+00,3.455075263977050781e+00,3.357515811920166016e+00,3.265314340591430664e+00,3.178041934967041016e+00,3.095312833786010742e+00,3.016781806945800781e+00,2.942136526107788086e+00,2.871096372604370117e+00,2.803406000137329102e+00,2.738833904266357422e+00,2.677169322967529297e+00,2.618220329284667969e+00,2.561811685562133789e+00,2.507782220840454102e+00,2.455984592437744141e+00,2.406283378601074219e+00,2.358554124832153320e+00,2.312681198120117188e+00,1.327959060668945312e+00,1.293055891990661621e+00,1.268663883209228516e+00,1.248195290565490723e+00,1.236530184745788574e+00,1.225297451019287109e+00,1.214317202568054199e+00,1.204961895942687988e+00,1.199308872222900391e+00,1.936115741729736328e+00,1.905095696449279785e+00,1.875054001808166504e+00,1.845945000648498535e+00
5.000000000000000000e+00,5.000000000000000000e+00,5.000000000000000000e+00,5.000000000000000000e+00,5.000000000000000000e+00,5.000000000000000000e+00,5.000000000000000000e+00,5.000000000000000000e+00,5.000000000000000000e+00,5.000000000000000000e+00,5.000000000000000000e+00,5.000000000000000000e+00,5.000000000000000000e+00,5.000000000000000000e+00,5.000000000000000000e+00,5.000000000000000000e+00,5.000000000000000000e+00,5.000000000000000000e+00,5.000000000000000000e+00,5.000000000000000000e+00,5.000000000000000000e+00,5.000000000000000000e+00,5.000000000000000000e+00,5.000000000000000000e+00,5.000000000000000000e+00,5.000000000000000000e+00,5.000000000000000000e+00,5.000000000000000000e+00,5.000000000000000000e+00,5.000000000000000000e+00,5.000000000000000000e+00,5.000000000000000000e+00,5.000000000000000000e+00,5.000000000000000000e+00,5.000000000000000000e+00,5.000000000000000000e+00,5.000000000000000000e+00,5.000000000000000000e+00,5.000000000000000000e+00,4.870351791381835938e+00,4.678715229034423828e+00,4.501588344573974609e+00,4.337383747100830078e+00,4.184736251831054688e+00,4.042468070983886719e+00,3.909554958343505859e+00,3.785104036331176758e+00,3.668331384658813477e+00,3.558548212051391602e+00,3.455145359039306641e+00,3.357582092285156250e+00,3.265377283096313477e+00,3.178101062774658203e+00,3.095369100570678711e+00,3.016835212707519531e+00,2.942187786102294922e+00,2.871144771575927734e+00,2.803452253341674805e+00,2.738878011703491211e+00,2.677211523056030273e+00,2.618260622024536133e+00,2.561850070953369141e+00,2.507819175720214844e+00,2.456020116806030273e+00,2.406317472457885742e+00,2.358586788177490234e+00,1.356085777282714844e+00,1.315074324607849121e+00,1.290960669517517090e+00,1.268916010856628418e+00,1.256862282752990723e+00,1.245035290718078613e+00,1.233428835868835449e+00,1.223495244979858398e+00,1.217024922370910645e+00,1.968185305595397949e+00,1.936137557029724121e+00,1.905117034912109375e+00,1.875074625015258789e+00,1.845965147018432617e+00
5.000000000000000000e+00,5.000000000000000000e+00,5.000000000000000000e+00,5.000000000000000000e+00,5.000000000000000000e+00,5.000000000000000000e+00,5.000000000000000000e+00,5.000000000000000000e+00,5.000000000000000000e+00,5.000000000000000000e+00,5.000000000000000000e+00,5.000000000000000000e+00,5.000000000000000000e+00,5.000000000000000000e+00,5.000000000000000000e+00,5.000000000000000000e+00,5.000000000000000000e+00,5.000000000000000000e+00,5.000000000000000000e+00,5.000000000000000000e+00,5.000000000000000000e+00,5.000000000000000000e+00,5.000000000000000000e+00,5.000000000000000000e+00,5.000000000000000000e+00,5.000000000000000000e+00,5.000000000000000000e+00,5.000000000000000000e+00,5.000000000000000000e+00,5.000000000000000000e+00,5.000000000000000000e+00,5.000000000000000000e+00,5.000000000000000000e+00,5.000000000000000000e+00,5.000000000000000000e+00,5.000000000000000000e+00,5.000000000000000000e+00,5.000000000000000000e+00,5.000000000000000000e+00,4.870491027832031250e+00,4.678843021392822266e+00,4.501707077026367188e+00,4.337493896484375000e+00,4.184839248657226562e+00,4.042563915252685547e+00,3.909644603729248047e+00,3.785187959671020508e+00,3.668410539627075195e+00,3.558622837066650391e+00,3.455215454101562500e+00,3.357648372650146484e+00,3.265439987182617188e+00,3.178160667419433594e+00,3.095425367355346680e+00,3.016888618469238281e+00,2.942238569259643555e+00,2.871193408966064453e+00,2.803498268127441406e+00,2.738922119140625000e+00,2.677253723144531250e+00,2.618301153182983398e+00,2.561888694763183594e+00,2.507856130599975586e+00,2.456055402755737305e+00,2.406351566314697266e+00,2.358619451522827148e+00,1.337855577468872070e+00,1.313679099082946777e+00,1.290336370468139648e+00,1.277874112129211426e+00,1.265650391578674316e+00,1.253792881965637207e+00,1.246338605880737305e+00,1.239370584487915039e+00,2.001335144042968750e+00,1.968208193778991699e+00,1.936159729957580566e+00,1.905138254165649414e+00,1.875095367431640625e+00,1.845985054969787598e+00
5.000000000000000000e+00,5.000000000000000000e+00,5.000000000000000000e+00,5.000000000000000000e+00,5.000000000000000000e+00,5.000000000000000000e+00,5.000000000000000000e+00,5.000000000000000000e+00,5.000000000000000000e+00,5.000000000000000000e+00,5.000000000000000000e+00,5.000000000000000000e+00,5.000000000000000000e+00,5.000000000000000000e+00,5.000000000000000000e+00,5.000000000000000000e+00,5.000000000000000000e+00,5.000000000000000000e+00,5.000000000000000000e+00,5.000000000000000000e+00,5.000000000000000000e+00,5.000000000000000000e+00,5.000000000000000000e+00,5.000000000000000000e+00,5.000000000000000000e+00,5.000000000000000000e+00,5.000000000000000000e+00,5.000000000000000000e+00,5.000000000000000000e+00,5.000000000000000000e+00,5.000000000000000000e+00,5.000000000000000000e+00,5.000000000000000000e+00,5.000000000000000000e+00,5.000000000000000000e+00,5.000000000000000000e+00,5.000000000000000000e+00,5.000000000000000000e+00,5.000000000000000000e+00,4.870629787445068359e+00,4.678971290588378906e+00,4.501825809478759766e+00,4.337604045867919922e+00,4.184941768646240234e+00,4.042660236358642578e+00,3.909734725952148438e+00,3.785272359848022461e+00,3.668489456176757812e+00,3.558697223663330078e+00,3.455285787582397461e+00,3.357714891433715820e+00,3.265502452850341797e+00,3.178220033645629883e+00,3.095481872558593750e+00,3.016942262649536133e+00,2.942289352416992188e+00,2.871241807937622070e+00,2.803544759750366211e+00,2.738966226577758789e+00,2.677295684814453125e+00,2.618341445922851562e+00,2.561927318572998047e+00,2.507893085479736328e+00,2.456090927124023438e+00,2.406385660171508789e+00,2.358652353286743164e+00,1.361942768096923828e+00,1.312492251396179199e+00,1.299643754959106445e+00,1.287166118621826172e+00,1.274925589561462402e+00,1.267198443412780762e+00,1.263753414154052734e+00,2.035620927810668945e+00,2.001358747482299805e+00,1.968230843544006348e+00,1.936181783676147461e+00,1.905159711837768555e+00,1.875116109848022461e+00,1.846005082130432129e+00
4.875531196594238281e+00,4.874320030212402344e+00,4.873109340667724609e+00,4.871899604797363281e+00,4.870689868927001953e+00,4.869481086730957031e+00,4.868272304534912109e+00,4.867064952850341797e+00,4.865857601165771484e+00,4.864651679992675781e+00,4.863445281982421875e+00,4.862240314483642578e+00,4.861035823822021484e+00,4.859831333160400391e+00,4.858628273010253906e+00,4.857425212860107422e+00,4.856223106384277344e+00,4.855020999908447266e+00,4.853820323944091797e+00,4.852619647979736328e+00,4.851419925689697266e+00,4.850220203399658203e+00,4.849021911621093750e+00,4.847823619842529297e+00,4.846626281738281250e+00,4.845428943634033203e+00,4.844232559204101562e+00,4.843036651611328125e+00,4.841841697692871094e+00,4.840646743774414062e+00,4.839453220367431641e+00,4.838259696960449219e+00,4.837066650390625000e+00,4.835874557495117188e+00,4.834682941436767578e+00,4.833491802215576172e+00,4.832301139831542969e+00,4.831110954284667969e+00,4.829922199249267578e+00,4.828732967376708984e+00,4.679099559783935547e+00,4.501944065093994141e+00,4.337714195251464844e+00,4.185044288635253906e+00,4.042756080627441406e+00,3.909824371337890625e+00,3.785356521606445312e+00,3.668568849563598633e+00,3.558771610260009766e+00,3.455355882644653320e+00,3.357780933380126953e+00,3.265565395355224609e+00,3.178279399871826172e+00,3.095538139343261719e+00,3.016995668411254883e+00,2.942340373992919922e+00,2.871290206909179688e+00,2.803590774536132812e+00,2.739010334014892578e+00,2.677338123321533203e+00,2.618381738662719727e+00,2.561965942382812500e+00,2.507930040359497070e+00,2.456126451492309570e+00,1.405691027641296387e+00,1.377287387847900391e+00,1.350169062614440918e+00,1.330487608909606934e+00,1.309448838233947754e+00,1.296782970428466797e+00,1.288768410682678223e+00,1.289114832878112793e+00,2.071101665496826172e+00,2.035645246505737305e+00,2.001382350921630859e+00,1.968253731727600098e+00,1.936203718185424805e+00,1.905181050300598145e+00,1.875136613845825195e+00,1.846025228500366211e+00
3.778325080871582031e+00,3.777597665786743164e+00,3.776870012283325195e+00,3.776143312454223633e+00,3.775416851043701172e+00,3.774690389633178711e+00,3.773964166641235352e+00,3.773238420486450195e+00,3.772512912750244141e+00,3.771787881851196289e+00,3.771062612533569336e+00,3.770337820053100586e+00,3.769613504409790039e+00,3.768889665603637695e+00,3.768165349960327148e+00,3.767441987991333008e+00,3.766718864440917969e+00,3.765995979309082031e+00,3.765272855758666992e+00,3.764550447463989258e+00,3.763828277587890625e+00,3.763106584548950195e+00,3.762384653091430664e+00,3.761663198471069336e+00,3.760942220687866211e+00,3.760221719741821289e+00,3.759500741958618164e+00,3.758780717849731445e+00,3.758060693740844727e+00,3.757341146469116211e+00,3.756621360778808594e+00,3.755902290344238281e+00,3.755183696746826172e+00,3.754465103149414062e+00,3.753746509552001953e+00,3.753028392791748047e+00,3.752310752868652344e+00,3.751593351364135742e+00,3.750876188278198242e+00,3.750159025192260742e+00,3.749442338943481445e+00,3.748726129531860352e+00,3.748010158538818359e+00,3.747293949127197266e+00,3.746578454971313477e+00,3.745863199234008789e+00,3.745148181915283203e+00,3.668648004531860352e+00,3.558846235275268555e+00,3.455425977706909180e+00,3.357847213745117188e+00,3.265628099441528320e+00,3.178339004516601562e+00,3.095594406127929688e+00,3.017049074172973633e+00,2.942391157150268555e+00,2.871338844299316406e+00,2.803637027740478516e+00,2.739054441452026367e+00,2.677380084991455078e+00,2.618422031402587891e+00,2.562004327774047852e+00,2.507966995239257812e+00,2.456161975860595703e+00,1.395405530929565430e+00,1.371073603630065918e+00,1.351412415504455566e+00,1.338896512985229492e+00,1.331927537918090820e+00,1.311085581779479980e+00,2.145881414413452148e+00,2.107841730117797852e+00,2.071127176284790039e+00,2.035669565200805664e+00,2.001405715942382812e+00,1.968276500701904297e+00,1.936225891113281250e+00,1.905202269554138184e+00,1.875157356262207031e+00,1.846045136451721191e+00
3.084237575531005859e+00,3.083752632141113281e+00,3.083268165588378906e+00,3.082783699035644531e+00,3.082299470901489258e+00,3.081815004348754883e+00,3.081331014633178711e+00,3.080847263336181641e+00,3.080363750457763672e+00,3.079880237579345703e+00,3.079396486282348633e+00,3.078913450241088867e+00,3.078430414199829102e+00,3.077947616577148438e+00,3.077464580535888672e+00,3.076982021331787109e+00,3.076499462127685547e+00,3.076017141342163086e+00,3.075534820556640625e+00,3.075052738189697266e+00,3.074570894241333008e+00,3.074089288711547852e+00,3.073607444763183594e+00,3.073126077651977539e+00,3.072644948959350586e+00,3.072163820266723633e+00,3.071682691574096680e+00,3.071201801300048828e+00,3.070721387863159180e+00,3.070240736007690430e+00,3.069760322570800781e+00,3.069280147552490234e+00,3.068799972534179688e+00,3.068320274353027344e+00,3.067840337753295898e+00,3.067360639572143555e+00,3.066881179809570312e+00,3.066401958465576172e+00,3.065922498703002930e+00,3.065443754196166992e+00,3.064965009689331055e+00,3.064486265182495117e+00,3.064007520675659180e+00,3.063529014587402344e+00,3.063050985336303711e+00,3.062572717666625977e+00,3.062094688415527344e+00,3.061616897583007812e+00,3.061139345169067383e+00,3.060661792755126953e+00,3.060184240341186523e+00,3.059706926345825195e+00,3.059229850769042969e+00,3.058753013610839844e+00,3.017102718353271484e+00,2.942441940307617188e+00,2.871387243270874023e+00,2.803683280944824219e+00,2.739098310470581055e+00,2.677422285079956055e+00,2.618462324142456055e+00,2.562043190002441406e+00,2.508003950119018555e+00,2.456197261810302734e+00,1.390298485755920410e+00,1.369429707527160645e+00,1.352488160133361816e+00,1.343535184860229492e+00,1.344290614128112793e+00,2.185347557067871094e+00,2.145908355712890625e+00,2.107867717742919922e+00,2.071152210235595703e+00,2.035694122314453125e+00,2.001429319381713867e+00,1.968299150466918945e+00,1.936247944831848145e+00,1.905223727226257324e+00,1.875177860260009766e+00,1.846065282821655273e+00
2.605585336685180664e+00,2.605239152908325195e+00,2.604893207550048828e+00,2.604547500610351562e+00,2.604201793670654297e+00,2.603856086730957031e+00,2.603510618209838867e+00,2.603165149688720703e+00,2.602819919586181641e+00,2.602474451065063477e+00,2.602129459381103516e+00,2.601784229278564453e+00,2.601439476013183594e+00,2.601094245910644531e+00,2.600749731063842773e+00,2.600404977798461914e+00,2.600060462951660156e+00,2.599715709686279297e+00,2.599371433258056641e+00,2.599027156829833984e+00,2.598682880401611328e+00,2.598338603973388672e+00,2.597994565963745117e+00,2.597650527954101562e+00,2.597306728363037109e+00,2.596962690353393555e+00,2.596619129180908203e+00,2.596275568008422852e+00,2.595932006835937500e+00,2.595588445663452148e+00,2.595245122909545898e+00,2.594902038574218750e+00,2.594558954238891602e+00,2.594215869903564453e+00,2.593872785568237305e+00,2.593529939651489258e+00,2.593187093734741211e+00,2.592844486236572266e+00,2.592501878738403320e+00,2.592159271240234375e+00,2.591816902160644531e+00,2.591474533081054688e+00,2.591132164001464844e+00,2.590790033340454102e+00,2.590448141098022461e+00,2.590106248855590820e+00,2.589764118194580078e+00,2.589422464370727539e+00,2.589080810546875000e+00,2.588739156723022461e+00,2.588397502899169922e+00,2.588056087493896484e+00,2.587714672088623047e+00,2.587373495101928711e+00,2.587032318115234375e+00,2.586691141128540039e+00,2.586350202560424805e+00,2.586009502410888672e+00,2.585668563842773438e+00,2.585327863693237305e+00,2.584987163543701172e+00,2.562081813812255859e+00,2.508041143417358398e+00,2.456232786178588867e+00,2.406521797180175781e+00,1.365015864372253418e+00,1.350092053413391113e+00,1.341242074966430664e+00,1.338691949844360352e+00,2.185375452041625977e+00,2.145935535430908203e+00,2.107893943786621094e+00,2.071177482604980469e+00,2.035718441009521484e+00,2.001452922821044922e+00,1.968322038650512695e+00,1.936269879341125488e+00,1.905245184898376465e+00,1.875198602676391602e+00,1.846085190773010254e+00
2.255553007125854492e+00,2.255293130874633789e+00,2.255033493041992188e+00,2.254773855209350586e+00,2.254514217376708984e+00,2.254254579544067383e+00,2.253994941711425781e+00,2.253735542297363281e+00,2.253476142883300781e+00,2.253216981887817383e+00,2.252957582473754883e+00,2.252698421478271484e+00,2.252439022064208984e+00,2.252180099487304688e+00,2.251920938491821289e+00,2.251662015914916992e+00,2.251403093338012695e+00,2.251144170761108398e+00,2.250885486602783203e+00,2.250626564025878906e+00,2.250367879867553711e+00,2.250109195709228516e+00,2.249850749969482422e+00,2.249592542648315430e+00,2.249334812164306641e+00,2.249076843261718750e+00,2.248819112777709961e+00,2.248561382293701172e+00,2.248303651809692383e+00,2.248045921325683594e+00,2.247788429260253906e+00,2.247530937194824219e+00,2.247273683547973633e+00,2.247016191482543945e+00,2.246758937835693359e+00,2.246501684188842773e+00,2.246244430541992188e+00,2.245987176895141602e+00,2.245730161666870117e+00,2.245473146438598633e+00,2.245216131210327148e+00,2.244959115982055664e+00,2.244702339172363281e+00,2.244445562362670898e+00,2.244189023971557617e+00,2.243932008743286133e+00,2.243675470352172852e+00,2.243418931961059570e+00,2.243162631988525391e+00,2.242906093597412109e+00,2.242649793624877930e+00,2.242393493652343750e+00,2.242137193679809570e+00,2.241880893707275391e+00,2.241624832153320312e+00,2.241368770599365234e+00,2.241112709045410156e+00,2.240856885910034180e+00,2.240600824356079102e+00,2.240345001220703125e+00,2.240089178085327148e+00,2.239833593368530273e+00,2.239577770233154297e+00,2.239322185516357422e+00,2.239066600799560547e+00,1.369094491004943848e+00,1.343842387199401855e+00,1.337938785552978516e+00,1.336406946182250977e+00,2.185403585433959961e+00,2.145962715148925781e+00,2.107920169830322266e+00,2.071202754974365234e+00,2.035742759704589844e+00,2.001476526260375977e+00,1.968344926834106445e+00,1.936292052268981934e+00,1.905266284942626953e+00,1.875219345092773438e+00,1.846105217933654785e+00
1.988453149795532227e+00,1.988251447677612305e+00,1.988049507141113281e+00,1.987847685813903809e+00,1.987645864486694336e+00,1.987444043159484863e+00,1.987242341041564941e+00,1.987040638923645020e+00,1.986838936805725098e+00,1.986637353897094727e+00,1.986435770988464355e+00,1.986234188079833984e+00,1.986032724380493164e+00,1.985831260681152344e+00,1.985630035400390625e+00,1.985428690910339355e+00,1.985227346420288086e+00,1.985026121139526367e+00,1.984824895858764648e+00,1.984623670578002930e+00,1.984422445297241211e+00,1.984221339225769043e+00,1.984020233154296875e+00,1.983819127082824707e+00,1.983618140220642090e+00,1.983417153358459473e+00,1.983216285705566406e+00,1.983015656471252441e+00,1.982814788818359375e+00,1.982613921165466309e+00,1.982413172721862793e+00,1.982212424278259277e+00,1.982011795043945312e+00,1.981811165809631348e+00,1.981610536575317383e+00,1.981409907341003418e+00,1.981209397315979004e+00,1.981009006500244141e+00,1.980808496475219727e+00,1.980608105659484863e+00,1.980407953262329102e+00,1.980207681655883789e+00,1.980007410049438477e+00,1.979807138442993164e+00,1.979606986045837402e+00,1.979406714439392090e+00,1.979206681251525879e+00,1.979006528854370117e+00,1.978806495666503906e+00,1.978606581687927246e+00,1.978406548500061035e+00,1.978206634521484375e+00,1.978006720542907715e+00,1.977807164192199707e+00,1.977607369422912598e+00,1.977407574653625488e+00,1.977207899093627930e+00,1.977008223533630371e+00,1.976808547973632812e+00,1.976608991622924805e+00,1.976409435272216797e+00,1.976209878921508789e+00,1.976010441780090332e+00,1.975811004638671875e+00,1.975611567497253418e+00,1.975412249565124512e+00,1.337016820907592773e+00,1.330216884613037109e+00,1.331973314285278320e+00,1.339300990104675293e+00,1.974416375160217285e+00,1.974217176437377930e+00,1.974018096923828125e+00,1.973819136619567871e+00,1.973620057106018066e+00,1.968367576599121094e+00,1.936314105987548828e+00,1.905287742614746094e+00,1.875239968299865723e+00,1.846125364303588867e+00
1.777914881706237793e+00,1.777753472328186035e+00,1.777592062950134277e+00,1.777430653572082520e+00,1.777269244194030762e+00,1.777107954025268555e+00,1.776946663856506348e+00,1.776785373687744141e+00,1.776624083518981934e+00,1.776462912559509277e+00,1.776301741600036621e+00,1.776140570640563965e+00,1.775979638099670410e+00,1.775818586349487305e+00,1.775657534599304199e+00,1.775496482849121094e+00,1.775335431098937988e+00,1.775174498558044434e+00,1.775013446807861328e+00,1.774852514266967773e+00,1.774691700935363770e+00,1.774530768394470215e+00,1.774369955062866211e+00,1.774209141731262207e+00,1.774048328399658203e+00,1.773887753486633301e+00,1.773727059364318848e+00,1.773566365242004395e+00,1.773405671119689941e+00,1.773245096206665039e+00,1.773084521293640137e+00,1.772923946380615234e+00,1.772763371467590332e+00,1.772602796554565430e+00,1.772442340850830078e+00,1.772281885147094727e+00,1.772121429443359375e+00,1.771961092948913574e+00,1.771800875663757324e+00,1.771640539169311523e+00,1.771480202674865723e+00,1.771319866180419922e+00,1.771159648895263672e+00,1.770999431610107422e+00,1.770839214324951172e+00,1.770678997039794922e+00,1.770518898963928223e+00,1.770358800888061523e+00,1.770198702812194824e+00,1.770038604736328125e+00,1.769878625869750977e+00,1.769718766212463379e+00,1.769558787345886230e+00,1.769398927688598633e+00,1.769238948822021484e+00,1.769079089164733887e+00,1.768919229507446289e+00,1.768759369850158691e+00,1.768599629402160645e+00,1.768439888954162598e+00,1.768280148506164551e+00,1.768120408058166504e+00,1.767960786819458008e+00,1.767801046371459961e+00,1.767641663551330566e+00,1.767482042312622070e+00,1.767322540283203125e+00,1.322033882141113281e+00,1.324182868003845215e+00,1.332533717155456543e+00,1.766684532165527344e+00,1.766525149345397949e+00,1.766365766525268555e+00,1.766206383705139160e+00,1.766047000885009766e+00,1.765887737274169922e+00,1.765728473663330078e+00,1.765569448471069336e+00,1.765410184860229492e+00,1.765251040458679199e+00
1.607691645622253418e+00,1.607559680938720703e+00,1.607427716255187988e+00,1.607295751571655273e+00,1.607163786888122559e+00,1.607031822204589844e+00,1.606899976730346680e+00,1.606768012046813965e+00,1.606636166572570801e+00,1.606504321098327637e+00,1.606372475624084473e+00,1.606240868568420410e+00,1.606109023094177246e+00,1.605977296829223633e+00,1.605845570564270020e+00,1.605713844299316406e+00,1.605582237243652344e+00,1.605450510978698730e+00,1.605318903923034668e+00,1.605187177658081055e+00,1.605055570602416992e+00,1.604924082756042480e+00,1.604792475700378418e+00,1.604661107063293457e+00,1.604529619216918945e+00,1.604398012161254883e+00,1.604266643524169922e+00,1.604135155677795410e+00,1.604003667831420898e+00,1.603872299194335938e+00,1.603740930557250977e+00,1.603609561920166016e+00,1.603478193283081055e+00,1.603346824645996094e+00,1.603215575218200684e+00,1.603084325790405273e+00,1.602953195571899414e+00,1.602821946144104004e+00,1.602690696716308594e+00,1.602559447288513184e+00,1.602428317070007324e+00,1.602297186851501465e+00,1.602166056632995605e+00,1.602034926414489746e+00,1.601903796195983887e+00,1.601772785186767578e+00,1.601641774177551270e+00,1.601510643959045410e+00,1.601379752159118652e+00,1.601248860359191895e+00,1.601117849349975586e+00,1.600986957550048828e+00,1.600856065750122070e+00,1.600725173950195312e+00,1.600594282150268555e+00,1.600463390350341797e+00,1.600332617759704590e+00,1.600201845169067383e+00,1.600070953369140625e+00,1.599940180778503418e+00,1.599809408187866211e+00,1.599678754806518555e+00,1.599548220634460449e+00,1.599417448043823242e+00,1.599286794662475586e+00,1.599156141281127930e+00,1.599025607109069824e+00,1.598894953727722168e+00,1.320842981338500977e+00,1.317161798477172852e+00,1.332282543182373047e+00,1.598372817039489746e+00,1.598242282867431641e+00,1.598111867904663086e+00,1.597981333732604980e+00,1.597851157188415527e+00,1.597720742225646973e+00,1.597590327262878418e+00,1.597459912300109863e+00,1.597329616546630859e+00
1.467215776443481445e+00,1.467105865478515625e+00,1.466995835304260254e+00,1.466885924339294434e+00,1.466776013374328613e+00,1.466666221618652344e+00,1.466556310653686523e+00,1.466446399688720703e+00,1.466336607933044434e+00,1.466226935386657715e+00,1.466117143630981445e+00,1.466007351875305176e+00,1.465897560119628906e+00,1.465787768363952637e+00,1.465677976608276367e+00,1.465568304061889648e+00,1.465458631515502930e+00,1.465348839759826660e+00,1.465239167213439941e+00,1.465129494667053223e+00,1.465019941329956055e+00,1.464910268783569336e+00,1.464800834655761719e+00,1.464691162109375000e+00,1.464581608772277832e+00,1.464472055435180664e+00,1.464362502098083496e+00,1.464252948760986328e+00,1.464143514633178711e+00,1.464033961296081543e+00,1.463924527168273926e+00,1.463814973831176758e+00,1.463705539703369141e+00,1.463596105575561523e+00,1.463486790657043457e+00,1.463377475738525391e+00,1.463268041610717773e+00,1.463158726692199707e+00,1.463049411773681641e+00,1.462940096855163574e+00,1.462830781936645508e+00,1.462721467018127441e+00,1.462612152099609375e+00,1.462502837181091309e+00,1.462393641471862793e+00,1.462284445762634277e+00,1.462175250053405762e+00,1.462066054344177246e+00,1.461956977844238281e+00,1.461847782135009766e+00,1.461738586425781250e+00,1.461629509925842285e+00,1.461520314216613770e+00,1.461411237716674805e+00,1.461302161216735840e+00,1.461193084716796875e+00,1.461084008216857910e+00,1.460975050926208496e+00,1.460865974426269531e+00,1.460757017135620117e+00,1.460648059844970703e+00,1.460539221763610840e+00,1.460430264472961426e+00,1.460321307182312012e+00,1.460212349891662598e+00,1.460103392601013184e+00,1.459994554519653320e+00,1.459885716438293457e+00,1.312772274017333984e+00,1.309858202934265137e+00,1.313434243202209473e+00,1.316216349601745605e+00,1.459341526031494141e+00,1.459232807159423828e+00,1.459124088287353516e+00,1.459015369415283203e+00,1.458906650543212891e+00,1.458797931671142578e+00,1.458689212799072266e+00,1.458580493927001953e+00
1.349316000938415527e+00,1.349223017692565918e+00,1.349130034446716309e+00,1.349037051200866699e+00,1.348944067955017090e+00,1.348851203918457031e+00,1.348758220672607422e+00,1.348665475845336914e+00,1.348572492599487305e+00,1.348479628562927246e+00,1.348386764526367188e+00,1.348293900489807129e+00,1.348201036453247070e+00,1.348108172416687012e+00,1.348015427589416504e+00,1.347922563552856445e+00,1.347829699516296387e+00,1.347736954689025879e+00,1.347644209861755371e+00,1.347551465034484863e+00,1.347458720207214355e+00,1.347366094589233398e+00,1.347273349761962891e+00,1.347180604934692383e+00,1.347087979316711426e+00,1.346995234489440918e+00,1.346902608871459961e+00,1.346809864044189453e+00,1.346717238426208496e+00,1.346624612808227539e+00,1.346531987190246582e+00,1.346439361572265625e+00,1.346346855163574219e+00,1.346254348754882812e+00,1.346161723136901855e+00,1.346069216728210449e+00,1.345976591110229492e+00,1.345884084701538086e+00,1.345791578292846680e+00,1.345699071884155273e+00,1.345606565475463867e+00,1.345514059066772461e+00,1.345421671867370605e+00,1.345329165458679199e+00,1.345236659049987793e+00,1.345144271850585938e+00,1.345052003860473633e+00,1.344959616661071777e+00,1.344867110252380371e+00,1.344774723052978516e+00,1.344682455062866211e+00,1.344590067863464355e+00,1.344497680664062500e+00,1.344405412673950195e+00,1.344313025474548340e+00,1.344220757484436035e+00,1.344128489494323730e+00,1.344036221504211426e+00,1.343943953514099121e+00,1.343851804733276367e+00,1.343759536743164062e+00,1.343667268753051758e+00,1.343575000762939453e+00,1.343482851982116699e+00,1.343390703201293945e+00,1.343298435211181641e+00,1.343206286430358887e+00,1.343114137649536133e+00,1.343021988868713379e+00,1.342929840087890625e+00,1.342837810516357422e+00,1.342745661735534668e+00,1.342653632164001465e+00,1.342561602592468262e+00,1.342469573020935059e+00,1.342377424240112305e+00,1.342285394668579102e+00,1.342193365097045898e+00,1.342101335525512695e+00,1.342009425163269043e+00
1.248954892158508301e+00,1.248875141143798828e+00,1.248795509338378906e+00,1.248715877532958984e+00,1.248636245727539062e+00,1.248556613922119141e+00,1.248477101325988770e+00,1.248397469520568848e+00,1.248317837715148926e+00,1.248238325119018555e+00,1.248158693313598633e+00,1.248079061508178711e+00,1.247999548912048340e+00,1.247920036315917969e+00,1.247840404510498047e+00,1.247760891914367676e+00,1.247681379318237305e+00,1.247601866722106934e+00,1.247522354125976562e+00,1.247442960739135742e+00,1.247363448143005371e+00,1.247284054756164551e+00,1.247204542160034180e+00,1.247125148773193359e+00,1.247045636177062988e+00,1.246966242790222168e+00,1.246886849403381348e+00,1.246807336807250977e+00,1.246727943420410156e+00,1.246648550033569336e+00,1.246569156646728516e+00,1.246489882469177246e+00,1.246410608291625977e+00,1.246331214904785156e+00,1.246251821517944336e+00,1.246172547340393066e+00,1.246093273162841797e+00,1.246013879776000977e+00,1.245934605598449707e+00,1.245855331420898438e+00,1.245776057243347168e+00,1.245696783065795898e+00,1.245617508888244629e+00,1.245538234710693359e+00,1.245458960533142090e+00,1.245379924774169922e+00,1.245300650596618652e+00,1.245221495628356934e+00,1.245142221450805664e+00,1.245063066482543945e+00,1.244983911514282227e+00,1.244904756546020508e+00,1.244825601577758789e+00,1.244746446609497070e+00,1.244667291641235352e+00,1.244588136672973633e+00,1.244508981704711914e+00,1.244429945945739746e+00,1.244350910186767578e+00,1.244271755218505859e+00,1.244192719459533691e+00,1.244113683700561523e+00,1.244034647941589355e+00,1.243955492973327637e+00,1.243876457214355469e+00,1.243797421455383301e+00,1.243718504905700684e+00,1.243639469146728516e+00,1.243560433387756348e+00,1.243481516838073730e+00,1.243402600288391113e+00,1.243323564529418945e+00,1.243244647979736328e+00,1.243165731430053711e+00,1.243086814880371094e+00,1.243007779121398926e+00,1.242928862571716309e+00,1.242850065231323242e+00,1.242771148681640625e+00,1.242692232131958008e+00
1.162489771842956543e+00,1.162420749664306641e+00,1.162351727485656738e+00,1.162282705307006836e+00,1.162213802337646484e+00,1.162144780158996582e+00,1.162075877189636230e+00,1.162006855010986328e+00,1.161937832832336426e+00,1.161868929862976074e+00,1.161799907684326172e+00,1.161731004714965820e+00,1.161662101745605469e+00,1.161593198776245117e+00,1.161524295806884766e+00,1.161455273628234863e+00,1.161386370658874512e+00,1.161317586898803711e+00,1.161248683929443359e+00,1.161179780960083008e+00,1.161110997200012207e+00,1.161042094230651855e+00,1.160973191261291504e+00,1.160904407501220703e+00,1.160835504531860352e+00,1.160766720771789551e+00,1.160697937011718750e+00,1.160629153251647949e+00,1.160560250282287598e+00,1.160491466522216797e+00,1.160422801971435547e+00,1.160354018211364746e+00,1.160285234451293945e+00,1.160216450691223145e+00,1.160147666931152344e+00,1.160079002380371094e+00,1.160010218620300293e+00,1.159941434860229492e+00,1.159872770309448242e+00,1.159803986549377441e+00,1.159735321998596191e+00,1.159666657447814941e+00,1.159597992897033691e+00,1.159529328346252441e+00,1.159460663795471191e+00,1.159391999244689941e+00,1.159323334693908691e+00,1.159254670143127441e+00,1.159186005592346191e+00,1.159117341041564941e+00,1.159048795700073242e+00,1.158980131149291992e+00,1.158911585807800293e+00,1.158842921257019043e+00,1.158774375915527344e+00,1.158705711364746094e+00,1.158637285232543945e+00,1.158568620681762695e+00,1.158500075340270996e+00,1.158431529998779297e+00,1.158362984657287598e+00,1.158294558525085449e+00,1.158226013183593750e+00,1.158157467842102051e+00,1.158088922500610352e+00,1.158020496368408203e+00,1.157951951026916504e+00,1.157883405685424805e+00,1.157814979553222656e+00,1.157746553421020508e+00,1.157678127288818359e+00,1.157609701156616211e+00,1.157541275024414062e+00,1.157472729682922363e+00,1.157404303550720215e+00,1.157335877418518066e+00,1.157267570495605469e+00,1.157199144363403320e+00,1.157130718231201172e+00,1.157062292098999023e+00
1.087221384048461914e+00,1.087161064147949219e+00,1.087100744247436523e+00,1.087040424346923828e+00,1.086979985237121582e+00,1.086919665336608887e+00,1.086859345436096191e+00,1.086799025535583496e+00,1.086738705635070801e+00,1.086678385734558105e+00,1.086618065834045410e+00,1.086557745933532715e+00,1.086497426033020020e+00,1.086437106132507324e+00,1.086376786231994629e+00,1.086316585540771484e+00,1.086256384849548340e+00,1.086196064949035645e+00,1.086135864257812500e+00,1.086075544357299805e+00,1.086015343666076660e+00,1.085955023765563965e+00,1.085894823074340820e+00,1.085834622383117676e+00,1.085774421691894531e+00,1.085714101791381836e+00,1.085653901100158691e+00,1.085593700408935547e+00,1.085533618927001953e+00,1.085473418235778809e+00,1.085413217544555664e+00,1.085353016853332520e+00,1.085292935371398926e+00,1.085232734680175781e+00,1.085172533988952637e+00,1.085112452507019043e+00,1.085052251815795898e+00,1.084992170333862305e+00,1.084932088851928711e+00,1.084871888160705566e+00,1.084811806678771973e+00,1.084751725196838379e+00,1.084691643714904785e+00,1.084631562232971191e+00,1.084571480751037598e+00,1.084511399269104004e+00,1.084451317787170410e+00,1.084391236305236816e+00,1.084331154823303223e+00,1.084271073341369629e+00,1.084211111068725586e+00,1.084151029586791992e+00,1.084090948104858398e+00,1.084030985832214355e+00,1.083971023559570312e+00,1.083910942077636719e+00,1.083850979804992676e+00,1.083791017532348633e+00,1.083730936050415039e+00,1.083670973777770996e+00,1.083611011505126953e+00,1.083551049232482910e+00,1.083491086959838867e+00,1.083431124687194824e+00,1.083371162414550781e+00,1.083311200141906738e+00,1.083251237869262695e+00,1.083191394805908203e+00,1.083131432533264160e+00,1.083071470260620117e+00,1.083011627197265625e+00,1.082951664924621582e+00,1.082891821861267090e+00,1.082831859588623047e+00,1.082772016525268555e+00,1.082712054252624512e+00,1.082652211189270020e+00,1.082592368125915527e+00,1.082532525062561035e+00,1.082472681999206543e+00
1.021107316017150879e+00,1.021054029464721680e+00,1.021000862121582031e+00,1.020947575569152832e+00,1.020894289016723633e+00,1.020841121673583984e+00,1.020787835121154785e+00,1.020734667778015137e+00,1.020681381225585938e+00,1.020628213882446289e+00,1.020575046539306641e+00,1.020521759986877441e+00,1.020468592643737793e+00,1.020415425300598145e+00,1.020362257957458496e+00,1.020309090614318848e+00,1.020255923271179199e+00,1.020202755928039551e+00,1.020149588584899902e+00,1.020096421241760254e+00,1.020043253898620605e+00,1.019990086555480957e+00,1.019937038421630859e+00,1.019883871078491211e+00,1.019830703735351562e+00,1.019777655601501465e+00,1.019724488258361816e+00,1.019671440124511719e+00,1.019618391990661621e+00,1.019565224647521973e+00,1.019512176513671875e+00,1.019459009170532227e+00,1.019405961036682129e+00,1.019352912902832031e+00,1.019299864768981934e+00,1.019246697425842285e+00,1.019193649291992188e+00,1.019140601158142090e+00,1.019087553024291992e+00,1.019034504890441895e+00,1.018981575965881348e+00,1.018928527832031250e+00,1.018875479698181152e+00,1.018822431564331055e+00,1.018769383430480957e+00,1.018716454505920410e+00,1.018663406372070312e+00,1.018610358238220215e+00,1.018557429313659668e+00,1.018504381179809570e+00,1.018451452255249023e+00,1.018398404121398926e+00,1.018345475196838379e+00,1.018292546272277832e+00,1.018239617347717285e+00,1.018186688423156738e+00,1.018133640289306641e+00,1.018080711364746094e+00,1.018027782440185547e+00,1.017974853515625000e+00,1.017921924591064453e+00,1.017868995666503906e+00,1.017816066741943359e+00,1.017763137817382812e+00,1.017710328102111816e+00,1.017657399177551270e+00,1.017604470252990723e+00,1.017551660537719727e+00,1.017498731613159180e+00,1.017445921897888184e+00,1.017392992973327637e+00,1.017340064048767090e+00,1.017287254333496094e+00,1.017234444618225098e+00,1.017181515693664551e+00,1.017128705978393555e+00,1.017075896263122559e+00,1.017022967338562012e+00,1.016970157623291016e+00,1.016917467117309570e+00
9.625731110572814941e-01,9.625257253646850586e-01,9.624784588813781738e-01,9.624310731887817383e-01,9.623838067054748535e-01,9.623364806175231934e-01,9.622892141342163086e-01,9.622418284416198730e-01,9.621946215629577637e-01,9.621472954750061035e-01,9.621000289916992188e-01,9.620527029037475586e-01,9.620054960250854492e-01,9.619582891464233398e-01,9.619109630584716797e-01,9.618637561798095703e-01,9.618164300918579102e-01,9.617692232131958008e-01,9.617219567298889160e-01,9.616747498512268066e-01,9.616274833679199219e-01,9.615802764892578125e-01,9.615330100059509277e-01,9.614858627319335938e-01,9.614385366439819336e-01,9.613913893699645996e-01,9.613442420959472656e-01,9.612969756126403809e-01,9.612498283386230469e-01,9.612025618553161621e-01,9.611554741859436035e-01,9.611082077026367188e-01,9.610610604286193848e-01,9.610138535499572754e-01,9.609667062759399414e-01,9.609194993972778320e-01,9.608724117279052734e-01,9.608252048492431641e-01,9.607780575752258301e-01,9.607309699058532715e-01,9.606837630271911621e-01,9.606366753578186035e-01,9.605895280838012695e-01,9.605424404144287109e-01,9.604952335357666016e-01,9.604482054710388184e-01,9.604009985923767090e-01,9.603539705276489258e-01,9.603067636489868164e-01,9.602597355842590332e-01,9.602125883102416992e-01,9.601655602455139160e-01,9.601185321807861328e-01,9.600713849067687988e-01,9.600243568420410156e-01,9.599772095680236816e-01,9.599301815032958984e-01,9.598830938339233398e-01,9.598360657691955566e-01,9.597889184951782227e-01,9.597419500350952148e-01,9.596948623657226562e-01,9.596478343009948730e-01,9.596007466316223145e-01,9.595537781715393066e-01,9.595068097114562988e-01,9.594597220420837402e-01,9.594127535820007324e-01,9.593656659126281738e-01,9.593186974525451660e-01,9.592716693878173828e-01,9.592247009277343750e-01,9.591776728630065918e-01,9.591307044029235840e-01,9.590836763381958008e-01,9.590367674827575684e-01,9.589897394180297852e-01,9.589427709579467773e-01,9.588958621025085449e-01,9.588488340377807617e-01
9.103857874870300293e-01,9.103435277938842773e-01,9.103011488914489746e-01,9.102588891983032227e-01,9.102165102958679199e-01,9.101742506027221680e-01,9.101318717002868652e-01,9.100896120071411133e-01,9.100472331047058105e-01,9.100049734115600586e-01,9.099626541137695312e-01,9.099203944206237793e-01,9.098781347274780273e-01,9.098358154296875000e-01,9.097935557365417480e-01,9.097512364387512207e-01,9.097090363502502441e-01,9.096667170524597168e-01,9.096245169639587402e-01,9.095821976661682129e-01,9.095399975776672363e-01,9.094976782798767090e-01,9.094554781913757324e-01,9.094132781028747559e-01,9.093709588050842285e-01,9.093287587165832520e-01,9.092864990234375000e-01,9.092442989349365234e-01,9.092020392417907715e-01,9.091598391532897949e-01,9.091175794601440430e-01,9.090754389762878418e-01,9.090331792831420898e-01,9.089909791946411133e-01,9.089487195014953613e-01,9.089065790176391602e-01,9.088644385337829590e-01,9.088221788406372070e-01,9.087800383567810059e-01,9.087378382682800293e-01,9.086956977844238281e-01,9.086534976959228516e-01,9.086113572120666504e-01,9.085691571235656738e-01,9.085270166397094727e-01,9.084848165512084961e-01,9.084426760673522949e-01,9.084004759788513184e-01,9.083583950996398926e-01,9.083163142204284668e-01,9.082741141319274902e-01,9.082320332527160645e-01,9.081898331642150879e-01,9.081477522850036621e-01,9.081056118011474609e-01,9.080635309219360352e-01,9.080213308334350586e-01,9.079793095588684082e-01,9.079371094703674316e-01,9.078950881958007812e-01,9.078528881072998047e-01,9.078108668327331543e-01,9.077687859535217285e-01,9.077266454696655273e-01,9.076846241950988770e-01,9.076424837112426758e-01,9.076004624366760254e-01,9.075583219528198242e-01,9.075163006782531738e-01,9.074742197990417480e-01,9.074321985244750977e-01,9.073900580406188965e-01,9.073480963706970215e-01,9.073059558868408203e-01,9.072639942169189453e-01,9.072219729423522949e-01,9.071798920631408691e-01,9.071379303932189941e-01,9.070958495140075684e-01,9.070538282394409180e-01
8.635663986206054688e-01,8.635282516479492188e-01,8.634902238845825195e-01,8.634520769119262695e-01,8.634140491485595703e-01,8.633759021759033203e-01,8.633378744125366211e-01,8.632997870445251465e-01,8.632617592811584473e-01,8.632237315177917480e-01,8.631856441497802734e-01,8.631476163864135742e-01,8.631095290184020996e-01,8.630715012550354004e-01,8.630334138870239258e-01,8.629953861236572266e-01,8.629573583602905273e-01,8.629193305969238281e-01,8.628812432289123535e-01,8.628432750701904297e-01,8.628051877021789551e-01,8.627672195434570312e-01,8.627292513847351074e-01,8.626911640167236328e-01,8.626531958580017090e-01,8.626151680946350098e-01,8.625771999359130859e-01,8.625391125679016113e-01,8.625012040138244629e-01,8.624631166458129883e-01,8.624252080917358398e-01,8.623871207237243652e-01,8.623492121696472168e-01,8.623111844062805176e-01,8.622732162475585938e-01,8.622353076934814453e-01,8.621972799301147461e-01,8.621593713760375977e-01,8.621213436126708984e-01,8.620834350585937500e-01,8.620454072952270508e-01,8.620074987411499023e-01,8.619695305824279785e-01,8.619316220283508301e-01,8.618935942649841309e-01,8.618556857109069824e-01,8.618177175521850586e-01,8.617798089981079102e-01,8.617419600486755371e-01,8.617039918899536133e-01,8.616660833358764648e-01,8.616281151771545410e-01,8.615902066230773926e-01,8.615522980690002441e-01,8.615143895149230957e-01,8.614764213562011719e-01,8.614385724067687988e-01,8.614006042480468750e-01,8.613627552986145020e-01,8.613248467445373535e-01,8.612869977951049805e-01,8.612491488456726074e-01,8.612111806869506836e-01,8.611733913421630859e-01,8.611354231834411621e-01,8.610976338386535645e-01,8.610596656799316406e-01,8.610218763351440430e-01,8.609839677810668945e-01,8.609461188316345215e-01,8.609082102775573730e-01,8.608704209327697754e-01,8.608325123786926270e-01,8.607947230339050293e-01,8.607568740844726562e-01,8.607190251350402832e-01,8.606812357902526855e-01,8.606433272361755371e-01,8.606055378913879395e-01,8.605676889419555664e-01
8.213270306587219238e-01,8.212925791740417480e-01,8.212581276893615723e-01,8.212236762046813965e-01,8.211892247200012207e-01,8.211548328399658203e-01,8.211203217506408691e-01,8.210859298706054688e-01,8.210515379905700684e-01,8.210170865058898926e-01,8.209826946258544922e-01,8.209481835365295410e-01,8.209137916564941406e-01,8.208793401718139648e-01,8.208449482917785645e-01,8.208104968070983887e-01,8.207761645317077637e-01,8.207417130470275879e-01,8.207073211669921875e-01,8.206728696823120117e-01,8.206385374069213867e-01,8.206041455268859863e-01,8.205697536468505859e-01,8.205353617668151855e-01,8.205009698867797852e-01,8.204666376113891602e-01,8.204321861267089844e-01,8.203978538513183594e-01,8.203634023666381836e-01,8.203290700912475586e-01,8.202946782112121582e-01,8.202603459358215332e-01,8.202259540557861328e-01,8.201916217803955078e-01,8.201572895050048828e-01,8.201228976249694824e-01,8.200885653495788574e-01,8.200541734695434570e-01,8.200199007987976074e-01,8.199855089187622070e-01,8.199511766433715820e-01,8.199167847633361816e-01,8.198825120925903320e-01,8.198481202125549316e-01,8.198138475418090820e-01,8.197794556617736816e-01,8.197451829910278320e-01,8.197109103202819824e-01,8.196765184402465820e-01,8.196422457695007324e-01,8.196079134941101074e-01,8.195736408233642578e-01,8.195392489433288574e-01,8.195050358772277832e-01,8.194706439971923828e-01,8.194364309310913086e-01,8.194020390510559082e-01,8.193678259849548340e-01,8.193334937095642090e-01,8.192992210388183594e-01,8.192650079727172852e-01,8.192306756973266602e-01,8.191964030265808105e-01,8.191620707511901855e-01,8.191278576850891113e-01,8.190935254096984863e-01,8.190593123435974121e-01,8.190250396728515625e-01,8.189907670021057129e-01,8.189564943313598633e-01,8.189222812652587891e-01,8.188879489898681641e-01,8.188537359237670898e-01,8.188195228576660156e-01,8.187852501869201660e-01,8.187510371208190918e-01,8.187167644500732422e-01,8.186825513839721680e-01,8.186482787132263184e-01,8.186141252517700195e-01
7.830271124839782715e-01,7.829957604408264160e-01,7.829645276069641113e-01,7.829331755638122559e-01,7.829018831253051758e-01,7.828705310821533203e-01,7.828392982482910156e-01,7.828080058097839355e-01,7.827766537666320801e-01,7.827454209327697754e-01,7.827140688896179199e-01,7.826828360557556152e-01,7.826514840126037598e-01,7.826202511787414551e-01,7.825888991355895996e-01,7.825576663017272949e-01,7.825263738632202148e-01,7.824950814247131348e-01,7.824637889862060547e-01,7.824325561523437500e-01,7.824013233184814453e-01,7.823700308799743652e-01,7.823387980461120605e-01,7.823075056076049805e-01,7.822762727737426758e-01,7.822449803352355957e-01,7.822137475013732910e-01,7.821824550628662109e-01,7.821512222290039062e-01,7.821199297904968262e-01,7.820887565612792969e-01,7.820574641227722168e-01,7.820262908935546875e-01,7.819950580596923828e-01,7.819637656211853027e-01,7.819325923919677734e-01,7.819012999534606934e-01,7.818701267242431641e-01,7.818388938903808594e-01,7.818076610565185547e-01,7.817764282226562500e-01,7.817452549934387207e-01,7.817139625549316406e-01,7.816827893257141113e-01,7.816515564918518066e-01,7.816203832626342773e-01,7.815892100334167480e-01,7.815579771995544434e-01,7.815268039703369141e-01,7.814955711364746094e-01,7.814643979072570801e-01,7.814331650733947754e-01,7.814020514488220215e-01,7.813708186149597168e-01,7.813396453857421875e-01,7.813084125518798828e-01,7.812772989273071289e-01,7.812460660934448242e-01,7.812149524688720703e-01,7.811837792396545410e-01,7.811526060104370117e-01,7.811214327812194824e-01,7.810902595520019531e-01,7.810591459274291992e-01,7.810279130935668945e-01,7.809967994689941406e-01,7.809656262397766113e-01,7.809345126152038574e-01,7.809033393859863281e-01,7.808722257614135742e-01,7.808411121368408203e-01,7.808099389076232910e-01,7.807788252830505371e-01,7.807476520538330078e-01,7.807165384292602539e-01,7.806853652000427246e-01,7.806542515754699707e-01,7.806230783462524414e-01,7.805920243263244629e-01,7.805608510971069336e-01
7.481400370597839355e-01,7.481114268302917480e-01,7.480828166007995605e-01,7.480542659759521484e-01,7.480257153511047363e-01,7.479971051216125488e-01,7.479685544967651367e-01,7.479399442672729492e-01,7.479113936424255371e-01,7.478827834129333496e-01,7.478542923927307129e-01,7.478256821632385254e-01,7.477971315383911133e-01,7.477685213088989258e-01,7.477400302886962891e-01,7.477114200592041016e-01,7.476829290390014648e-01,7.476543784141540527e-01,7.476257681846618652e-01,7.475972771644592285e-01,7.475686669349670410e-01,7.475401759147644043e-01,7.475116252899169922e-01,7.474830746650695801e-01,7.474545240402221680e-01,7.474260330200195312e-01,7.473974227905273438e-01,7.473689317703247070e-01,7.473403811454772949e-01,7.473118901252746582e-01,7.472833991050720215e-01,7.472548484802246094e-01,7.472263574600219727e-01,7.471978068351745605e-01,7.471693158149719238e-01,7.471407651901245117e-01,7.471122741699218750e-01,7.470837235450744629e-01,7.470552325248718262e-01,7.470267415046691895e-01,7.469982504844665527e-01,7.469696998596191406e-01,7.469412684440612793e-01,7.469127774238586426e-01,7.468842267990112305e-01,7.468557953834533691e-01,7.468272447586059570e-01,7.467988133430480957e-01,7.467702627182006836e-01,7.467418313026428223e-01,7.467133402824401855e-01,7.466848492622375488e-01,7.466563582420349121e-01,7.466279268264770508e-01,7.465994358062744141e-01,7.465709447860717773e-01,7.465425133705139160e-01,7.465140223503112793e-01,7.464855909347534180e-01,7.464570999145507812e-01,7.464286684989929199e-01,7.464001774787902832e-01,7.463717460632324219e-01,7.463432550430297852e-01,7.463148236274719238e-01,7.462863922119140625e-01,7.462579607963562012e-01,7.462294697761535645e-01,7.462010383605957031e-01,7.461726665496826172e-01,7.461441755294799805e-01,7.461157441139221191e-01,7.460873126983642578e-01,7.460588812828063965e-01,7.460304498672485352e-01,7.460020184516906738e-01,7.459735870361328125e-01,7.459452152252197266e-01,7.459167242050170898e-01,7.458883523941040039e-01
