5.000000000000000000e+00,5.000000000000000000e+00,5.000000000000000000e+00,5.000000000000000000e+00,5.000000000000000000e+00,5.000000000000000000e+00,5.000000000000000000e+00,5.000000000000000000e+00,5.000000000000000000e+00,5.000000000000000000e+00,5.000000000000000000e+00,5.000000000000000000e+00,5.000000000000000000e+00,5.000000000000000000e+00,5.000000000000000000e+00,5.000000000000000000e+00,5.000000000000000000e+00,5.000000000000000000e+00,5.000000000000000000e+00,5.000000000000000000e+00,5.000000000000000000e+00,5.000000000000000000e+00,5.000000000000000000e+00,5.000000000000000000e+00,5.000000000000000000e+00,3.032454729080200195e+00,3.044381856918334961e+00,3.041721105575561523e+00,3.039133548736572266e+00,3.055858850479125977e+00,3.092702865600585938e+00,3.133929729461669922e+00,3.289339780807495117e+00,5.000000000000000000e+00,5.000000000000000000e+00,5.000000000000000000e+00,5.000000000000000000e+00,5.000000000000000000e+00,5.000000000000000000e+00,4.863446235656738281e+00,4.672370910644531250e+00,4.495741844177246094e+00,4.331979751586914062e+00,4.179729461669921875e+00,4.037817478179931641e+00,3.905225515365600586e+00,3.781064748764038086e+00,3.664555311203002930e+00,3.555011987686157227e+00,3.451827526092529297e+00,3.354464054107666016e+00,3.262442350387573242e+00,3.175334692001342773e+00,3.092757463455200195e+00,3.014366388320922852e+00,2.939851284027099609e+00,2.868931055068969727e+00,2.801352024078369141e+00,2.736883163452148438e+00,2.675315141677856445e+00,2.616456270217895508e+00,2.560131549835205078e+00,2.506180524826049805e+00,2.454456329345703125e+00,2.404824256896972656e+00,2.357159852981567383e+00,2.311347723007202148e+00,2.267282724380493164e+00,2.224866390228271484e+00,2.184007644653320312e+00,2.144622802734375000e+00,2.106633424758911133e+00,2.069966077804565430e+00,2.034553766250610352e+00,2.000332355499267578e+00,1.967243432998657227e+00,1.935231208801269531e+00,1.904244184494018555e+00,1.874233841896057129e+00,1.845154762268066406e+00
5.000000000000000000e+00,5.000000000000000000e+00,5.000000000000000000e+00,5.000000000000000000e+00,5.000000000000000000e+00,5.000000000000000000e+00,5.000000000000000000e+00,5.000000000000000000e+00,5.000000000000000000e+00,5.000000000000000000e+00,5.000000000000000000e+00,5.000000000000000000e+00,5.000000000000000000e+00,5.000000000000000000e+00,5.000000000000000000e+00,5.000000000000000000e+00,5.000000000000000000e+00,5.000000000000000000e+00,5.000000000000000000e+00,5.000000000000000000e+00,5.000000000000000000e+00,5.000000000000000000e+00,5.000000000000000000e+00,5.000000000000000000e+00,5.000000000000000000e+00,3.034667491912841797e+00,3.042116403579711914e+00,3.052610635757446289e+00,3.052159547805786133e+00,3.056327819824218750e+00,3.084746837615966797e+00,3.144392490386962891e+00,3.290106534957885742e+00,5.000000000000000000e+00,5.000000000000000000e+00,5.000000000000000000e+00,5.000000000000000000e+00,5.000000000000000000e+00,5.000000000000000000e+00,4.863585472106933594e+00,4.672499179840087891e+00,4.495860099792480469e+00,4.332089900970458984e+00,4.179831981658935547e+00,4.037912845611572266e+00,3.905315160751342773e+00,3.781148672103881836e+00,3.664634227752685547e+00,3.555086135864257812e+00,3.451897621154785156e+00,3.354530096054077148e+00,3.262504816055297852e+00,3.175394058227539062e+00,3.092813491821289062e+00,3.014419794082641602e+00,2.939901828765869141e+00,2.868979454040527344e+00,2.801398038864135742e+00,2.736927270889282227e+00,2.675357341766357422e+00,2.616496562957763672e+00,2.560169935226440430e+00,2.506217479705810547e+00,2.454491853713989258e+00,2.404858350753784180e+00,2.357192277908325195e+00,2.311379194259643555e+00,2.267312765121459961e+00,2.224895238876342773e+00,2.184035778045654297e+00,2.144649744033813477e+00,2.106659412384033203e+00,2.069991350173950195e+00,2.034578084945678711e+00,2.000355958938598633e+00,1.967266201972961426e+00,1.935253262519836426e+00,1.904265642166137695e+00,1.874254584312438965e+00,1.845174670219421387e+00
5.000000000000000000e+00,5.000000000000000000e+00,5.000000000000000000e+00,5.000000000000000000e+00,5.000000000000000000e+00,5.000000000000000000e+00,5.000000000000000000e+00,5.000000000000000000e+00,5.000000000000000000e+00,5.000000000000000000e+00,5.000000000000000000e+00,5.000000000000000000e+00,5.000000000000000000e+00,5.000000000000000000e+00,5.000000000000000000e+00,5.000000000000000000e+00,5.000000000000000000e+00,5.000000000000000000e+00,5.000000000000000000e+00,5.000000000000000000e+00,5.000000000000000000e+00,5.000000000000000000e+00,5.000000000000000000e+00,5.000000000000000000e+00,5.000000000000000000e+00,3.034157514572143555e+00,3.034195661544799805e+00,3.066389083862304688e+00,3.048258066177368164e+00,3.055404663085937500e+00,3.081090927124023438e+00,3.128920078277587891e+00,3.293682336807250977e+00,5.000000000000000000e+00,5.000000000000000000e+00,5.000000000000000000e+00,5.000000000000000000e+00,5.000000000000000000e+00,5.000000000000000000e+00,4.863724231719970703e+00,4.672626972198486328e+00,4.495978832244873047e+00,4.332200050354003906e+00,4.179934501647949219e+00,4.038008689880371094e+00,3.905404567718505859e+00,3.781232595443725586e+00,3.664713144302368164e+00,3.555160284042358398e+00,3.451967477798461914e+00,3.354596138000488281e+00,3.262567281723022461e+00,3.175453186035156250e+00,3.092869758605957031e+00,3.014473199844360352e+00,2.939952611923217773e+00,2.869027614593505859e+00,2.801444292068481445e+00,2.736971139907836914e+00,2.675399303436279297e+00,2.616536617279052734e+00,2.560208320617675781e+00,2.506254434585571289e+00,2.454527139663696289e+00,2.404892206192016602e+00,2.357224941253662109e+00,2.311410427093505859e+00,2.267343044281005859e+00,2.224924325942993164e+00,2.184063673019409180e+00,2.144676923751831055e+00,2.106685400009155273e+00,2.070016384124755859e+00,2.034602403640747070e+00,2.000379562377929688e+00,1.967288851737976074e+00,1.935275197029113770e+00,1.904286861419677734e+00,1.874275088310241699e+00,1.845194816589355469e+00
5.000000000000000000e+00,5.000000000000000000e+00,5.000000000000000000e+00,5.000000000000000000e+00,5.000000000000000000e+00,5.000000000000000000e+00,5.000000000000000000e+00,5.000000000000000000e+00,5.000000000000000000e+00,5.000000000000000000e+00,5.000000000000000000e+00,5.000000000000000000e+00,5.000000000000000000e+00,5.000000000000000000e+00,5.000000000000000000e+00,5.000000000000000000e+00,5.000000000000000000e+00,5.000000000000000000e+00,5.000000000000000000e+00,5.000000000000000000e+00,5.000000000000000000e+00,5.000000000000000000e+00,5.000000000000000000e+00,5.000000000000000000e+00,5.000000000000000000e+00,3.037749290466308594e+00,3.038536071777343750e+00,3.073452711105346680e+00,3.045933485031127930e+00,3.055500268936157227e+00,3.084965467453002930e+00,3.131916046142578125e+00,3.303188323974609375e+00,5.000000000000000000e+00,5.000000000000000000e+00,5.000000000000000000e+00,5.000000000000000000e+00,5.000000000000000000e+00,5.000000000000000000e+00,4.863862991333007812e+00,4.672755241394042969e+00,4.496097564697265625e+00,4.332310199737548828e+00,4.180037021636962891e+00,4.038104534149169922e+00,3.905494213104248047e+00,3.781316757202148438e+00,3.664791822433471680e+00,3.555234670639038086e+00,3.452037334442138672e+00,3.354662179946899414e+00,3.262629985809326172e+00,3.175512313842773438e+00,3.092925786972045898e+00,3.014526367187500000e+00,2.940003395080566406e+00,2.869076013565063477e+00,2.801490306854248047e+00,2.737015247344970703e+00,2.675441265106201172e+00,2.616576910018920898e+00,2.560246944427490234e+00,2.506291151046752930e+00,2.454562425613403320e+00,2.404926061630249023e+00,2.357257604598999023e+00,2.311441898345947266e+00,2.267373085021972656e+00,2.224953413009643555e+00,2.184091806411743164e+00,2.144703865051269531e+00,2.106711626052856445e+00,2.070041656494140625e+00,2.034626722335815430e+00,2.000402927398681641e+00,1.967311739921569824e+00,1.935297250747680664e+00,1.904308199882507324e+00,1.874295830726623535e+00,1.845214605331420898e+00
5.000000000000000000e+00,5.000000000000000000e+00,5.000000000000000000e+00,5.000000000000000000e+00,5.000000000000000000e+00,5.000000000000000000e+00,5.000000000000000000e+00,5.000000000000000000e+00,5.000000000000000000e+00,5.000000000000000000e+00,5.000000000000000000e+00,5.000000000000000000e+00,5.000000000000000000e+00,5.000000000000000000e+00,5.000000000000000000e+00,5.000000000000000000e+00,5.000000000000000000e+00,5.000000000000000000e+00,5.000000000000000000e+00,5.000000000000000000e+00,5.000000000000000000e+00,5.000000000000000000e+00,5.000000000000000000e+00,5.000000000000000000e+00,5.000000000000000000e+00,3.038174629211425781e+00,3.043201684951782227e+00,3.061229228973388672e+00,3.036575794219970703e+00,3.046465396881103516e+00,3.076539516448974609e+00,3.112519264221191406e+00,3.332549333572387695e+00,5.000000000000000000e+00,5.000000000000000000e+00,5.000000000000000000e+00,5.000000000000000000e+00,5.000000000000000000e+00,5.000000000000000000e+00,4.864002227783203125e+00,4.672883510589599609e+00,4.496216297149658203e+00,4.332420825958251953e+00,4.180139541625976562e+00,4.038200378417968750e+00,3.905583858489990234e+00,3.781400680541992188e+00,3.664871215820312500e+00,3.555308818817138672e+00,3.452107429504394531e+00,3.354728221893310547e+00,3.262692451477050781e+00,3.175571441650390625e+00,3.092982053756713867e+00,3.014579772949218750e+00,2.940054178237915039e+00,2.869124412536621094e+00,2.801536321640014648e+00,2.737059116363525391e+00,2.675483465194702148e+00,2.616617202758789062e+00,2.560285329818725586e+00,2.506328105926513672e+00,2.454598188400268555e+00,2.404960155487060547e+00,2.357290267944335938e+00,2.311473369598388672e+00,2.267403364181518555e+00,2.224982500076293945e+00,2.184119701385498047e+00,2.144730806350708008e+00,2.106737613677978516e+00,2.070066690444946289e+00,2.034651041030883789e+00,2.000426530838012695e+00,1.967334270477294922e+00,1.935319185256958008e+00,1.904329419136047363e+00,1.874316334724426270e+00,1.845234751701354980e+00
5.000000000000000000e+00,5.000000000000000000e+00,5.000000000000000000e+00,5.000000000000000000e+00,5.000000000000000000e+00,5.000000000000000000e+00,5.000000000000000000e+00,5.000000000000000000e+00,5.000000000000000000e+00,5.000000000000000000e+00,5.000000000000000000e+00,5.000000000000000000e+00,5.000000000000000000e+00,5.000000000000000000e+00,5.000000000000000000e+00,5.000000000000000000e+00,5.000000000000000000e+00,5.000000000000000000e+00,5.000000000000000000e+00,5.000000000000000000e+00,5.000000000000000000e+00,5.000000000000000000e+00,5.000000000000000000e+00,5.000000000000000000e+00,5.000000000000000000e+00,3.009874343872070312e+00,2.992915153503417969e+00,3.054592370986938477e+00,3.047476530075073242e+00,3.056968212127685547e+00,3.079456806182861328e+00,3.128759860992431641e+00,3.349191665649414062e+00,5.000000000000000000e+00,5.000000000000000000e+00,5.000000000000000000e+00,5.000000000000000000e+00,5.000000000000000000e+00,5.000000000000000000e+00,4.864141464233398438e+00,4.673011779785156250e+00,4.496335029602050781e+00,4.332530975341796875e+00,4.180242061614990234e+00,4.038296222686767578e+00,3.905673265457153320e+00,3.781484603881835938e+00,3.664950132369995117e+00,3.555382966995239258e+00,3.452177286148071289e+00,3.354794263839721680e+00,3.262754917144775391e+00,3.175630807876586914e+00,3.093038082122802734e+00,3.014633178710937500e+00,2.940104961395263672e+00,2.869172573089599609e+00,2.801582336425781250e+00,2.737102985382080078e+00,2.675525426864624023e+00,2.616657257080078125e+00,2.560323953628540039e+00,2.506365060806274414e+00,2.454633474349975586e+00,2.404994010925292969e+00,2.357322931289672852e+00,2.311504602432250977e+00,2.267433643341064453e+00,2.225011587142944336e+00,2.184147834777832031e+00,2.144757747650146484e+00,2.106763601303100586e+00,2.070091962814331055e+00,2.034675359725952148e+00,2.000449895858764648e+00,1.967357158660888672e+00,1.935341238975524902e+00,1.904350757598876953e+00,1.874337077140808105e+00,1.845254778861999512e+00
5.000000000000000000e+00,5.000000000000000000e+00,5.000000000000000000e+00,5.000000000000000000e+00,5.000000000000000000e+00,5.000000000000000000e+00,5.000000000000000000e+00,5.000000000000000000e+00,5.000000000000000000e+00,5.000000000000000000e+00,5.000000000000000000e+00,5.000000000000000000e+00,5.000000000000000000e+00,5.000000000000000000e+00,5.000000000000000000e+00,5.000000000000000000e+00,5.000000000000000000e+00,5.000000000000000000e+00,5.000000000000000000e+00,5.000000000000000000e+00,5.000000000000000000e+00,5.000000000000000000e+00,5.000000000000000000e+00,5.000000000000000000e+00,5.000000000000000000e+00,5.000000000000000000e+00,2.950267791748046875e+00,3.048635005950927734e+00,3.050222873687744141e+00,3.067253589630126953e+00,3.098456382751464844e+00,3.136851310729980469e+00,3.337497472763061523e+00,5.000000000000000000e+00,5.000000000000000000e+00,5.000000000000000000e+00,5.000000000000000000e+00,5.000000000000000000e+00,5.000000000000000000e+00,4.864280223846435547e+00,4.673140048980712891e+00,4.496453762054443359e+00,4.332641124725341797e+00,4.180345058441162109e+00,4.038391590118408203e+00,3.905762910842895508e+00,3.781568527221679688e+00,3.665028810501098633e+00,3.555457115173339844e+00,3.452247381210327148e+00,3.354860544204711914e+00,3.262817382812500000e+00,3.175689935684204102e+00,3.093094348907470703e+00,3.014686584472656250e+00,2.940155744552612305e+00,2.869220972061157227e+00,2.801628589630126953e+00,2.737147092819213867e+00,2.675567388534545898e+00,2.616697549819946289e+00,2.560362339019775391e+00,2.506401777267456055e+00,2.454668760299682617e+00,2.405028104782104492e+00,2.357355594635009766e+00,2.311536073684692383e+00,2.267463684082031250e+00,2.225040674209594727e+00,2.184175729751586914e+00,2.144784927368164062e+00,2.106789827346801758e+00,2.070116996765136719e+00,2.034699678421020508e+00,2.000473499298095703e+00,1.967379689216613770e+00,1.935363173484802246e+00,1.904371976852416992e+00,1.874357581138610840e+00,1.845274686813354492e+00
5.000000000000000000e+00,5.000000000000000000e+00,5.000000000000000000e+00,5.000000000000000000e+00,5.000000000000000000e+00,5.000000000000000000e+00,5.000000000000000000e+00,5.000000000000000000e+00,5.000000000000000000e+00,5.000000000000000000e+00,5.000000000000000000e+00,5.000000000000000000e+00,5.000000000000000000e+00,5.000000000000000000e+00,5.000000000000000000e+00,5.000000000000000000e+00,5.000000000000000000e+00,5.000000000000000000e+00,5.000000000000000000e+00,5.000000000000000000e+00,5.000000000000000000e+00,5.000000000000000000e+00,5.000000000000000000e+00,5.000000000000000000e+00,5.000000000000000000e+00,5.000000000000000000e+00,2.931473493576049805e+00,3.048506259918212891e+00,3.054392337799072266e+00,3.103358030319213867e+00,3.097887277603149414e+00,3.082792758941650391e+00,3.134204149246215820e+00,5.000000000000000000e+00,5.000000000000000000e+00,5.000000000000000000e+00,5.000000000000000000e+00,5.000000000000000000e+00,5.000000000000000000e+00,4.864418983459472656e+00,4.673268318176269531e+00,4.496572494506835938e+00,4.332751274108886719e+00,4.180447578430175781e+00,4.038487434387207031e+00,3.905852317810058594e+00,3.781652450561523438e+00,3.665107727050781250e+00,3.555531501770019531e+00,3.452317237854003906e+00,3.354926586151123047e+00,3.262879848480224609e+00,3.175749063491821289e+00,3.093150615692138672e+00,3.014739990234375000e+00,2.940206527709960938e+00,2.869269371032714844e+00,2.801674604415893555e+00,2.737190961837768555e+00,2.675609350204467773e+00,2.616737604141235352e+00,2.560400724411010742e+00,2.506438732147216797e+00,2.454704284667968750e+00,2.405061960220336914e+00,2.357388019561767578e+00,2.311567306518554688e+00,2.267493963241577148e+00,2.225069761276245117e+00,2.184203863143920898e+00,2.144811868667602539e+00,2.106815814971923828e+00,2.070142269134521484e+00,2.034723997116088867e+00,2.000496864318847656e+00,1.967402577400207520e+00,1.935385227203369141e+00,1.904393315315246582e+00,1.874378323554992676e+00,1.845294833183288574e+00
5.000000000000000000e+00,5.000000000000000000e+00,5.000000000000000000e+00,5.000000000000000000e+00,5.000000000000000000e+00,5.000000000000000000e+00,5.000000000000000000e+00,5.000000000000000000e+00,5.000000000000000000e+00,5.000000000000000000e+00,5.000000000000000000e+00,5.000000000000000000e+00,5.000000000000000000e+00,5.000000000000000000e+00,5.000000000000000000e+00,5.000000000000000000e+00,5.000000000000000000e+00,5.000000000000000000e+00,5.000000000000000000e+00,5.000000000000000000e+00,5.000000000000000000e+00,5.000000000000000000e+00,5.000000000000000000e+00,5.000000000000000000e+00,5.000000000000000000e+00,5.000000000000000000e+00,2.893047571182250977e+00,2.894377946853637695e+00,3.056816101074218750e+00,3.109418869018554688e+00,3.074085474014282227e+00,3.056671857833862305e+00,3.089639663696289062e+00,5.000000000000000000e+00,5.000000000000000000e+00,5.000000000000000000e+00,5.000000000000000000e+00,5.000000000000000000e+00,5.000000000000000000e+00,4.864558219909667969e+00,4.673396587371826172e+00,4.496691226959228516e+00,4.332861423492431641e+00,4.180550098419189453e+00,4.038583278656005859e+00,3.905941963195800781e+00,3.781736373901367188e+00,3.665186643600463867e+00,3.555605649948120117e+00,3.452387332916259766e+00,3.354992628097534180e+00,3.262942314147949219e+00,3.175808429718017578e+00,3.093206644058227539e+00,3.014793157577514648e+00,2.940257072448730469e+00,2.869317770004272461e+00,2.801720619201660156e+00,2.737235069274902344e+00,2.675651550292968750e+00,2.616777896881103516e+00,2.560439348220825195e+00,2.506475687026977539e+00,2.454739570617675781e+00,2.405096054077148438e+00,2.357420682907104492e+00,2.311598777770996094e+00,2.267524242401123047e+00,2.225098848342895508e+00,2.184231758117675781e+00,2.144838809967041016e+00,2.106841802597045898e+00,2.070167303085327148e+00,2.034748315811157227e+00,2.000520467758178711e+00,1.967425227165222168e+00,1.935407161712646484e+00,1.904414534568786621e+00,1.874398827552795410e+00,1.845314741134643555e+00
5.000000000000000000e+00,5.000000000000000000e+00,5.000000000000000000e+00,5.000000000000000000e+00,5.000000000000000000e+00,5.000000000000000000e+00,5.000000000000000000e+00,5.000000000000000000e+00,5.000000000000000000e+00,5.000000000000000000e+00,5.000000000000000000e+00,5.000000000000000000e+00,5.000000000000000000e+00,5.000000000000000000e+00,5.000000000000000000e+00,5.000000000000000000e+00,5.000000000000000000e+00,5.000000000000000000e+00,5.000000000000000000e+00,5.000000000000000000e+00,5.000000000000000000e+00,5.000000000000000000e+00,5.000000000000000000e+00,5.000000000000000000e+00,5.000000000000000000e+00,5.000000000000000000e+00,2.862711906433105469e+00,3.058386564254760742e+00,3.062969446182250977e+00,3.115423202514648438e+00,3.069529771804809570e+00,3.038471698760986328e+00,3.053749322891235352e+00,5.000000000000000000e+00,5.000000000000000000e+00,5.000000000000000000e+00,5.000000000000000000e+00,5.000000000000000000e+00,5.000000000000000000e+00,4.864696979522705078e+00,4.673524856567382812e+00,4.496809959411621094e+00,4.332971572875976562e+00,4.180652618408203125e+00,4.038679122924804688e+00,3.906031608581542969e+00,3.781820297241210938e+00,3.665265560150146484e+00,3.555679798126220703e+00,3.452457189559936523e+00,3.355058670043945312e+00,3.263004779815673828e+00,3.175867557525634766e+00,3.093262910842895508e+00,3.014846563339233398e+00,2.940307855606079102e+00,2.869365930557250977e+00,2.801766872406005859e+00,2.737278938293457031e+00,2.675693511962890625e+00,2.616818189620971680e+00,2.560477733612060547e+00,2.506512641906738281e+00,2.454775094985961914e+00,2.405129909515380859e+00,2.357453346252441406e+00,2.311630010604858398e+00,2.267554283142089844e+00,2.225127935409545898e+00,2.184259891510009766e+00,2.144865989685058594e+00,2.106867790222167969e+00,2.070192575454711914e+00,2.034772634506225586e+00,2.000543832778930664e+00,1.967447996139526367e+00,1.935429215431213379e+00,1.904435992240905762e+00,1.874419569969177246e+00,1.845334768295288086e+00
5.000000000000000000e+00,5.000000000000000000e+00,5.000000000000000000e+00,5.000000000000000000e+00,5.000000000000000000e+00,5.000000000000000000e+00,5.000000000000000000e+00,5.000000000000000000e+00,5.000000000000000000e+00,5.000000000000000000e+00,5.000000000000000000e+00,5.000000000000000000e+00,5.000000000000000000e+00,5.000000000000000000e+00,5.000000000000000000e+00,5.000000000000000000e+00,5.000000000000000000e+00,5.000000000000000000e+00,5.000000000000000000e+00,5.000000000000000000e+00,5.000000000000000000e+00,5.000000000000000000e+00,5.000000000000000000e+00,5.000000000000000000e+00,5.000000000000000000e+00,5.000000000000000000e+00,2.852544784545898438e+00,3.072819471359252930e+00,3.075979232788085938e+00,3.134772062301635742e+00,3.063961744308471680e+00,3.017150640487670898e+00,3.023097276687622070e+00,5.000000000000000000e+00,5.000000000000000000e+00,5.000000000000000000e+00,5.000000000000000000e+00,5.000000000000000000e+00,5.000000000000000000e+00,4.864835739135742188e+00,4.673652648925781250e+00,4.496928691864013672e+00,4.333082199096679688e+00,4.180755138397216797e+00,4.038774967193603516e+00,3.906121015548706055e+00,3.781904458999633789e+00,3.665344476699829102e+00,3.555754184722900391e+00,3.452527284622192383e+00,3.355124711990356445e+00,3.263067483901977539e+00,3.175926923751831055e+00,3.093319177627563477e+00,3.014899969100952148e+00,2.940358638763427734e+00,2.869414329528808594e+00,2.801812887191772461e+00,2.737323284149169922e+00,2.675735473632812500e+00,2.616858243942260742e+00,2.560516357421875000e+00,2.506549358367919922e+00,2.454810380935668945e+00,2.405164003372192383e+00,2.357486009597778320e+00,2.311661481857299805e+00,2.267584562301635742e+00,2.225157022476196289e+00,2.184287786483764648e+00,2.144892930984497070e+00,2.106894016265869141e+00,2.070217847824096680e+00,2.034796953201293945e+00,2.000567436218261719e+00,1.967470645904541016e+00,1.935451149940490723e+00,1.904457092285156250e+00,1.874440073966979980e+00,1.845354676246643066e+00
5.000000000000000000e+00,5.000000000000000000e+00,5.000000000000000000e+00,5.000000000000000000e+00,5.000000000000000000e+00,5.000000000000000000e+00,5.000000000000000000e+00,5.000000000000000000e+00,5.000000000000000000e+00,5.000000000000000000e+00,5.000000000000000000e+00,5.000000000000000000e+00,5.000000000000000000e+00,5.000000000000000000e+00,5.000000000000000000e+00,5.000000000000000000e+00,5.000000000000000000e+00,5.000000000000000000e+00,5.000000000000000000e+00,5.000000000000000000e+00,5.000000000000000000e+00,5.000000000000000000e+00,5.000000000000000000e+00,5.000000000000000000e+00,5.000000000000000000e+00,5.000000000000000000e+00,3.174193620681762695e+00,3.088791608810424805e+00,3.090388774871826172e+00,5.000000000000000000e+00,3.073822498321533203e+00,2.998830795288085938e+00,3.003817319869995117e+00,5.000000000000000000e+00,5.000000000000000000e+00,5.000000000000000000e+00,5.000000000000000000e+00,5.000000000000000000e+00,5.000000000000000000e+00,4.864974975585937500e+00,4.673780918121337891e+00,4.497047424316406250e+00,4.333192348480224609e+00,4.180858135223388672e+00,4.038870334625244141e+00,3.906210660934448242e+00,3.781988382339477539e+00,3.665423154830932617e+00,3.555828332901000977e+00,3.452597141265869141e+00,3.355190992355346680e+00,3.263129949569702148e+00,3.175986051559448242e+00,3.093375205993652344e+00,3.014953374862670898e+00,2.940409421920776367e+00,2.869462728500366211e+00,2.801858901977539062e+00,2.737367153167724609e+00,2.675777673721313477e+00,2.616898536682128906e+00,2.560554742813110352e+00,2.506586313247680664e+00,2.454845666885375977e+00,2.405197858810424805e+00,2.357518672943115234e+00,2.311692953109741211e+00,2.267614603042602539e+00,2.225186109542846680e+00,2.184315919876098633e+00,2.144919872283935547e+00,2.106920003890991211e+00,2.070242881774902344e+00,2.034821033477783203e+00,2.000591039657592773e+00,1.967493534088134766e+00,1.935473203659057617e+00,1.904478549957275391e+00,1.874460816383361816e+00,1.845374822616577148e+00
5.000000000000000000e+00,5.000000000000000000e+00,5.000000000000000000e+00,5.000000000000000000e+00,5.000000000000000000e+00,5.000000000000000000e+00,5.000000000000000000e+00,5.000000000000000000e+00,5.000000000000000000e+00,5.000000000000000000e+00,5.000000000000000000e+00,5.000000000000000000e+00,5.000000000000000000e+00,5.000000000000000000e+00,5.000000000000000000e+00,5.000000000000000000e+00,5.000000000000000000e+00,5.000000000000000000e+00,5.000000000000000000e+00,5.000000000000000000e+00,5.000000000000000000e+00,5.000000000000000000e+00,5.000000000000000000e+00,5.000000000000000000e+00,5.000000000000000000e+00,5.000000000000000000e+00,5.000000000000000000e+00,3.101555824279785156e+00,3.108212709426879883e+00,5.000000000000000000e+00,5.000000000000000000e+00,2.990971803665161133e+00,2.980412244796752930e+00,5.000000000000000000e+00,5.000000000000000000e+00,5.000000000000000000e+00,5.000000000000000000e+00,5.000000000000000000e+00,5.000000000000000000e+00,4.865113735198974609e+00,4.673909187316894531e+00,4.497166156768798828e+00,4.333302497863769531e+00,4.180960655212402344e+00,4.038966178894042969e+00,3.906300306320190430e+00,3.782072305679321289e+00,3.665502071380615234e+00,3.555902481079101562e+00,3.452667236328125000e+00,3.355257034301757812e+00,3.263192415237426758e+00,3.176045179367065430e+00,3.093431472778320312e+00,3.015006780624389648e+00,2.940460205078125000e+00,2.869511127471923828e+00,2.801904916763305664e+00,2.737411260604858398e+00,2.675819635391235352e+00,2.616938829421997070e+00,2.560593366622924805e+00,2.506623268127441406e+00,2.454881191253662109e+00,2.405231714248657227e+00,2.357551336288452148e+00,2.311724185943603516e+00,2.267644882202148438e+00,2.225214958190917969e+00,2.184343814849853516e+00,2.144946813583374023e+00,2.106945991516113281e+00,2.070268154144287109e+00,2.034845352172851562e+00,2.000614404678344727e+00,1.967516064643859863e+00,1.935495138168334961e+00,1.904499769210815430e+00,1.874481439590454102e+00,1.845394730567932129e+00
5.000000000000000000e+00,5.000000000000000000e+00,5.000000000000000000e+00,5.000000000000000000e+00,5.000000000000000000e+00,5.000000000000000000e+00,5.000000000000000000e+00,5.000000000000000000e+00,5.000000000000000000e+00,5.000000000000000000e+00,5.000000000000000000e+00,5.000000000000000000e+00,5.000000000000000000e+00,5.000000000000000000e+00,5.000000000000000000e+00,5.000000000000000000e+00,5.000000000000000000e+00,5.000000000000000000e+00,5.000000000000000000e+00,5.000000000000000000e+00,5.000000000000000000e+00,5.000000000000000000e+00,5.000000000000000000e+00,5.000000000000000000e+00,5.000000000000000000e+00,5.000000000000000000e+00,5.000000000000000000e+00,3.116651296615600586e+00,3.127552032470703125e+00,5.000000000000000000e+00,5.000000000000000000e+00,2.988116502761840820e+00,2.973592281341552734e+00,5.000000000000000000e+00,5.000000000000000000e+00,5.000000000000000000e+00,5.000000000000000000e+00,5.000000000000000000e+00,5.000000000000000000e+00,4.865252971649169922e+00,4.674037456512451172e+00,4.497284889221191406e+00,4.333413124084472656e+00,4.181063175201416016e+00,4.039062023162841797e+00,3.906389951705932617e+00,3.782156229019165039e+00,3.665580987930297852e+00,3.555976867675781250e+00,3.452737092971801758e+00,3.355323076248168945e+00,3.263254880905151367e+00,3.176104545593261719e+00,3.093487501144409180e+00,3.015060186386108398e+00,2.940510988235473633e+00,2.869559288024902344e+00,2.801951169967651367e+00,2.737455129623413086e+00,2.675861597061157227e+00,2.616978883743286133e+00,2.560631752014160156e+00,2.506659984588623047e+00,2.454916477203369141e+00,2.405265808105468750e+00,2.357583999633789062e+00,2.311755657196044922e+00,2.267675161361694336e+00,2.225244045257568359e+00,2.184371948242187500e+00,2.144973993301391602e+00,2.106972217559814453e+00,2.070293188095092773e+00,2.034869670867919922e+00,2.000638008117675781e+00,1.967538952827453613e+00,1.935517191886901855e+00,1.904521107673645020e+00,1.874502062797546387e+00,1.845414757728576660e+00
5.000000000000000000e+00,5.000000000000000000e+00,5.000000000000000000e+00,5.000000000000000000e+00,5.000000000000000000e+00,5.000000000000000000e+00,5.000000000000000000e+00,5.000000000000000000e+00,5.000000000000000000e+00,5.000000000000000000e+00,5.000000000000000000e+00,5.000000000000000000e+00,5.000000000000000000e+00,5.000000000000000000e+00,5.000000000000000000e+00,5.000000000000000000e+00,5.000000000000000000e+00,5.000000000000000000e+00,5.000000000000000000e+00,5.000000000000000000e+00,5.000000000000000000e+00,5.000000000000000000e+00,5.000000000000000000e+00,5.000000000000000000e+00,5.000000000000000000e+00,5.000000000000000000e+00,5.000000000000000000e+00,3.133243322372436523e+00,3.142808675765991211e+00,5.000000000000000000e+00,5.000000000000000000e+00,3.001491069793701172e+00,2.986603975296020508e+00,5.000000000000000000e+00,5.000000000000000000e+00,5.000000000000000000e+00,5.000000000000000000e+00,5.000000000000000000e+00,5.000000000000000000e+00,4.865391731262207031e+00,4.674165725708007812e+00,4.497403621673583984e+00,4.333523273468017578e+00,4.181165695190429688e+00,4.039157867431640625e+00,3.906479597091674805e+00,3.782240390777587891e+00,3.665659904479980469e+00,3.556051015853881836e+00,3.452807188034057617e+00,3.355389118194580078e+00,3.263317584991455078e+00,3.176163673400878906e+00,3.093543767929077148e+00,3.015113353729248047e+00,2.940561771392822266e+00,2.869607686996459961e+00,2.801997184753417969e+00,2.737499237060546875e+00,2.675903797149658203e+00,2.617019176483154297e+00,2.560670375823974609e+00,2.506696939468383789e+00,2.454951763153076172e+00,2.405299663543701172e+00,2.357616662979125977e+00,2.311786890029907227e+00,2.267705202102661133e+00,2.225273132324218750e+00,2.184399843215942383e+00,2.145000934600830078e+00,2.106998205184936523e+00,2.070318460464477539e+00,2.034893989562988281e+00,2.000661611557006836e+00,1.967561602592468262e+00,1.935539126396179199e+00,1.904542326927185059e+00,1.874522686004638672e+00,1.845434665679931641e+00
5.000000000000000000e+00,5.000000000000000000e+00,5.000000000000000000e+00,5.000000000000000000e+00,5.000000000000000000e+00,5.000000000000000000e+00,5.000000000000000000e+00,5.000000000000000000e+00,5.000000000000000000e+00,5.000000000000000000e+00,5.000000000000000000e+00,5.000000000000000000e+00,5.000000000000000000e+00,5.000000000000000000e+00,5.000000000000000000e+00,5.000000000000000000e+00,5.000000000000000000e+00,5.000000000000000000e+00,5.000000000000000000e+00,5.000000000000000000e+00,5.000000000000000000e+00,5.000000000000000000e+00,5.000000000000000000e+00,5.000000000000000000e+00,5.000000000000000000e+00,5.000000000000000000e+00,3.227125167846679688e+00,3.165719270706176758e+00,3.184652090072631836e+00,5.000000000000000000e+00,5.000000000000000000e+00,3.010287523269653320e+00,3.002631425857543945e+00,5.000000000000000000e+00,5.000000000000000000e+00,5.000000000000000000e+00,5.000000000000000000e+00,5.000000000000000000e+00,5.000000000000000000e+00,4.865530014038085938e+00,4.674293994903564453e+00,4.497522354125976562e+00,4.333633422851562500e+00,4.181268215179443359e+00,4.039253711700439453e+00,3.906569004058837891e+00,3.782324314117431641e+00,3.665738821029663086e+00,3.556125402450561523e+00,3.452877283096313477e+00,3.355455160140991211e+00,3.263380050659179688e+00,3.176223039627075195e+00,3.093600034713745117e+00,3.015166759490966797e+00,2.940612554550170898e+00,2.869656085968017578e+00,2.802043199539184570e+00,2.737543106079101562e+00,2.675945758819580078e+00,2.617059230804443359e+00,2.560708761215209961e+00,2.506733894348144531e+00,2.454987287521362305e+00,2.405333757400512695e+00,2.357649087905883789e+00,2.311818361282348633e+00,2.267735481262207031e+00,2.225302219390869141e+00,2.184427976608276367e+00,2.145027875900268555e+00,2.107024192810058594e+00,2.070343494415283203e+00,2.034918308258056641e+00,2.000684976577758789e+00,1.967584371566772461e+00,1.935561180114746094e+00,1.904563784599304199e+00,1.874543428421020508e+00,1.845454812049865723e+00
5.000000000000000000e+00,5.000000000000000000e+00,5.000000000000000000e+00,5.000000000000000000e+00,5.000000000000000000e+00,5.000000000000000000e+00,5.000000000000000000e+00,5.000000000000000000e+00,5.000000000000000000e+00,5.000000000000000000e+00,5.000000000000000000e+00,5.000000000000000000e+00,5.000000000000000000e+00,5.000000000000000000e+00,5.000000000000000000e+00,5.000000000000000000e+00,5.000000000000000000e+00,5.000000000000000000e+00,5.000000000000000000e+00,5.000000000000000000e+00,5.000000000000000000e+00,5.000000000000000000e+00,5.000000000000000000e+00,5.000000000000000000e+00,5.000000000000000000e+00,5.000000000000000000e+00,3.259349822998046875e+00,3.232260704040527344e+00,5.000000000000000000e+00,5.000000000000000000e+00,5.000000000000000000e+00,3.009273290634155273e+00,3.005415201187133789e+00,5.000000000000000000e+00,5.000000000000000000e+00,5.000000000000000000e+00,5.000000000000000000e+00,5.000000000000000000e+00,5.000000000000000000e+00,4.865669250488281250e+00,4.674421787261962891e+00,4.497641086578369141e+00,4.333743572235107422e+00,4.181371212005615234e+00,4.039349555969238281e+00,3.906658649444580078e+00,3.782408237457275391e+00,3.665817737579345703e+00,3.556199550628662109e+00,3.452947139739990234e+00,3.355521440505981445e+00,3.263442516326904297e+00,3.176282167434692383e+00,3.093656063079833984e+00,3.015220165252685547e+00,2.940663337707519531e+00,2.869704484939575195e+00,2.802089452743530273e+00,2.737587213516235352e+00,2.675987720489501953e+00,2.617099523544311523e+00,2.560747385025024414e+00,2.506770849227905273e+00,2.455022573471069336e+00,2.405367612838745117e+00,2.357681751251220703e+00,2.311849832534790039e+00,2.267765760421752930e+00,2.225331306457519531e+00,2.184455871582031250e+00,2.145055055618286133e+00,2.107050180435180664e+00,2.070368766784667969e+00,2.034942626953125000e+00,2.000708580017089844e+00,1.967607021331787109e+00,1.935583114624023438e+00,1.904584884643554688e+00,1.874563932418823242e+00,1.845474600791931152e+00
5.000000000000000000e+00,5.000000000000000000e+00,5.000000000000000000e+00,5.000000000000000000e+00,5.000000000000000000e+00,5.000000000000000000e+00,5.000000000000000000e+00,5.000000000000000000e+00,5.000000000000000000e+00,5.000000000000000000e+00,5.000000000000000000e+00,5.000000000000000000e+00,5.000000000000000000e+00,5.000000000000000000e+00,5.000000000000000000e+00,5.000000000000000000e+00,5.000000000000000000e+00,5.000000000000000000e+00,5.000000000000000000e+00,5.000000000000000000e+00,5.000000000000000000e+00,5.000000000000000000e+00,5.000000000000000000e+00,5.000000000000000000e+00,5.000000000000000000e+00,5.000000000000000000e+00,3.297375440597534180e+00,3.322970390319824219e+00,5.000000000000000000e+00,5.000000000000000000e+00,5.000000000000000000e+00,3.007460832595825195e+00,3.003276586532592773e+00,5.000000000000000000e+00,5.000000000000000000e+00,5.000000000000000000e+00,5.000000000000000000e+00,5.000000000000000000e+00,5.000000000000000000e+00,4.865808486938476562e+00,4.674550533294677734e+00,4.497759819030761719e+00,4.333853721618652344e+00,4.181473731994628906e+00,4.039445400238037109e+00,3.906748294830322266e+00,3.782492160797119141e+00,3.665896654129028320e+00,3.556273698806762695e+00,3.453017234802246094e+00,3.355587482452392578e+00,3.263504981994628906e+00,3.176341295242309570e+00,3.093712568283081055e+00,3.015273571014404297e+00,2.940714120864868164e+00,2.869752883911132812e+00,2.802135467529296875e+00,2.737631320953369141e+00,2.676029920578002930e+00,2.617139816284179688e+00,2.560785770416259766e+00,2.506807565689086914e+00,2.455058097839355469e+00,2.405401706695556641e+00,2.357714414596557617e+00,2.311881065368652344e+00,2.267795801162719727e+00,2.225360393524169922e+00,2.184484004974365234e+00,2.145081996917724609e+00,2.107076406478881836e+00,2.070393800735473633e+00,2.034966945648193359e+00,2.000731945037841797e+00,1.967629909515380859e+00,1.935605168342590332e+00,1.904606342315673828e+00,1.874584674835205078e+00,1.845494747161865234e+00
5.000000000000000000e+00,5.000000000000000000e+00,5.000000000000000000e+00,5.000000000000000000e+00,5.000000000000000000e+00,5.000000000000000000e+00,5.000000000000000000e+00,5.000000000000000000e+00,5.000000000000000000e+00,5.000000000000000000e+00,5.000000000000000000e+00,5.000000000000000000e+00,5.000000000000000000e+00,5.000000000000000000e+00,5.000000000000000000e+00,5.000000000000000000e+00,5.000000000000000000e+00,5.000000000000000000e+00,5.000000000000000000e+00,5.000000000000000000e+00,5.000000000000000000e+00,5.000000000000000000e+00,5.000000000000000000e+00,5.000000000000000000e+00,5.000000000000000000e+00,5.000000000000000000e+00,3.345521450042724609e+00,5.000000000000000000e+00,5.000000000000000000e+00,5.000000000000000000e+00,5.000000000000000000e+00,3.007625818252563477e+00,3.000252723693847656e+00,5.000000000000000000e+00,5.000000000000000000e+00,5.000000000000000000e+00,5.000000000000000000e+00,5.000000000000000000e+00,5.000000000000000000e+00,4.865947723388671875e+00,4.674678802490234375e+00,4.497878074645996094e+00,4.333964347839355469e+00,4.181576251983642578e+00,4.039541244506835938e+00,3.906837940216064453e+00,3.782576322555541992e+00,3.665975570678710938e+00,3.556348085403442383e+00,3.453087091445922852e+00,3.355653524398803711e+00,3.263567686080932617e+00,3.176400661468505859e+00,3.093768835067749023e+00,3.015326976776123047e+00,2.940764904022216797e+00,2.869801044464111328e+00,2.802181720733642578e+00,2.737675189971923828e+00,2.676071882247924805e+00,2.617179870605468750e+00,2.560824394226074219e+00,2.506844520568847656e+00,2.455093383789062500e+00,2.405435562133789062e+00,2.357747077941894531e+00,2.311912536621093750e+00,2.267826080322265625e+00,2.225389480590820312e+00,2.184512138366699219e+00,2.145108938217163086e+00,2.107102394104003906e+00,2.070419073104858398e+00,2.034991264343261719e+00,2.000755548477172852e+00,1.967652440071105957e+00,1.935627102851867676e+00,1.904627561569213867e+00,1.874605178833007812e+00,1.845514655113220215e+00
5.000000000000000000e+00,5.000000000000000000e+00,5.000000000000000000e+00,5.000000000000000000e+00,5.000000000000000000e+00,5.000000000000000000e+00,5.000000000000000000e+00,5.000000000000000000e+00,5.000000000000000000e+00,5.000000000000000000e+00,5.000000000000000000e+00,5.000000000000000000e+00,5.000000000000000000e+00,5.000000000000000000e+00,5.000000000000000000e+00,5.000000000000000000e+00,5.000000000000000000e+00,5.000000000000000000e+00,5.000000000000000000e+00,5.000000000000000000e+00,5.000000000000000000e+00,5.000000000000000000e+00,5.000000000000000000e+00,5.000000000000000000e+00,5.000000000000000000e+00,5.000000000000000000e+00,3.404321670532226562e+00,5.000000000000000000e+00,5.000000000000000000e+00,5.000000000000000000e+00,5.000000000000000000e+00,3.011129379272460938e+00,2.998182535171508789e+00,5.000000000000000000e+00,5.000000000000000000e+00,5.000000000000000000e+00,5.000000000000000000e+00,5.000000000000000000e+00,5.000000000000000000e+00,4.866086959838867188e+00,4.674807548522949219e+00,4.497997283935546875e+00,4.334073543548583984e+00,4.181679248809814453e+00,4.039637088775634766e+00,3.906927585601806641e+00,3.782660245895385742e+00,3.666054487228393555e+00,3.556422233581542969e+00,3.453157186508178711e+00,3.355719804763793945e+00,3.263630151748657227e+00,3.176459789276123047e+00,3.093825101852416992e+00,3.015380382537841797e+00,2.940815687179565430e+00,2.869849443435668945e+00,2.802227735519409180e+00,2.737719297409057617e+00,2.676113843917846680e+00,2.617220163345336914e+00,2.560862779617309570e+00,2.506881475448608398e+00,2.455128908157348633e+00,2.405469655990600586e+00,2.357779741287231445e+00,2.311943769454956055e+00,2.267856121063232422e+00,2.225418567657470703e+00,2.184540033340454102e+00,2.145136117935180664e+00,2.107128381729125977e+00,2.070444107055664062e+00,2.035015583038330078e+00,2.000778913497924805e+00,1.967675328254699707e+00,1.935649156570434570e+00,1.904648900032043457e+00,1.874625921249389648e+00,1.845534801483154297e+00
5.000000000000000000e+00,5.000000000000000000e+00,5.000000000000000000e+00,5.000000000000000000e+00,5.000000000000000000e+00,5.000000000000000000e+00,5.000000000000000000e+00,5.000000000000000000e+00,5.000000000000000000e+00,5.000000000000000000e+00,5.000000000000000000e+00,5.000000000000000000e+00,5.000000000000000000e+00,5.000000000000000000e+00,5.000000000000000000e+00,5.000000000000000000e+00,5.000000000000000000e+00,5.000000000000000000e+00,5.000000000000000000e+00,5.000000000000000000e+00,5.000000000000000000e+00,5.000000000000000000e+00,5.000000000000000000e+00,5.000000000000000000e+00,5.000000000000000000e+00,3.486483573913574219e+00,3.453201293945312500e+00,5.000000000000000000e+00,5.000000000000000000e+00,5.000000000000000000e+00,5.000000000000000000e+00,3.014416217803955078e+00,3.005787134170532227e+00,5.000000000000000000e+00,5.000000000000000000e+00,5.000000000000000000e+00,5.000000000000000000e+00,5.000000000000000000e+00,5.000000000000000000e+00,4.866226673126220703e+00,4.674935817718505859e+00,4.498116016387939453e+00,4.334184169769287109e+00,4.181781291961669922e+00,4.039732456207275391e+00,3.907016992568969727e+00,3.782744169235229492e+00,3.666133403778076172e+00,3.556496620178222656e+00,3.453227281570434570e+00,3.355785846710205078e+00,3.263692617416381836e+00,3.176519155502319336e+00,3.093881130218505859e+00,3.015433788299560547e+00,2.940866470336914062e+00,2.869897842407226562e+00,2.802273750305175781e+00,2.737763166427612305e+00,2.676156044006347656e+00,2.617260456085205078e+00,2.560901403427124023e+00,2.506918430328369141e+00,2.455164194107055664e+00,2.405503511428833008e+00,2.357812404632568359e+00,2.311975240707397461e+00,2.267886400222778320e+00,2.225447654724121094e+00,2.184568166732788086e+00,2.145163059234619141e+00,2.107154607772827148e+00,2.070469379425048828e+00,2.035039901733398438e+00,2.000802516937255859e+00,1.967697978019714355e+00,1.935671091079711914e+00,1.904670119285583496e+00,1.874646425247192383e+00,1.845554590225219727e+00
4.875550270080566406e+00,4.874339103698730469e+00,4.873128414154052734e+00,4.871918678283691406e+00,4.870708942413330078e+00,4.869500637054443359e+00,4.868292331695556641e+00,4.867084980010986328e+00,4.865878105163574219e+00,4.864671707153320312e+00,4.863466262817382812e+00,4.862260818481445312e+00,4.861056327819824219e+00,4.859852790832519531e+00,4.858649253845214844e+00,4.857446670532226562e+00,4.856244564056396484e+00,4.855042934417724609e+00,4.853841781616210938e+00,4.852641582489013672e+00,4.851441860198974609e+00,4.850242614746093750e+00,4.849044322967529297e+00,4.847846031188964844e+00,4.846648693084716797e+00,4.845451831817626953e+00,3.437339305877685547e+00,4.843060493469238281e+00,4.841865539550781250e+00,4.840671062469482422e+00,4.839477062225341797e+00,3.023902654647827148e+00,3.025659322738647461e+00,4.835898876190185547e+00,4.834707736968994141e+00,4.833516597747802734e+00,4.832326412200927734e+00,4.831136703491210938e+00,4.829947471618652344e+00,4.828758716583251953e+00,4.675064563751220703e+00,4.498234748840332031e+00,4.334294795989990234e+00,4.181883811950683594e+00,4.039828300476074219e+00,3.907106637954711914e+00,3.782828330993652344e+00,3.666212320327758789e+00,3.556570768356323242e+00,3.453297138214111328e+00,3.355851888656616211e+00,3.263755083084106445e+00,3.176578283309936523e+00,3.093937397003173828e+00,3.015487194061279297e+00,2.940917253494262695e+00,2.869946241378784180e+00,2.802320003509521484e+00,2.737807273864746094e+00,2.676198005676269531e+00,2.617300510406494141e+00,2.560939788818359375e+00,2.506955146789550781e+00,2.455199480056762695e+00,2.405537605285644531e+00,2.357845067977905273e+00,2.312006711959838867e+00,2.267916679382324219e+00,2.225476741790771484e+00,2.184596061706542969e+00,2.145190000534057617e+00,2.107180595397949219e+00,2.070494651794433594e+00,2.035064220428466797e+00,2.000826120376586914e+00,1.967720746994018555e+00,1.935693144798278809e+00,1.904691576957702637e+00,1.874667167663574219e+00,1.845574736595153809e+00
3.778351783752441406e+00,3.777624368667602539e+00,3.776897430419921875e+00,3.776170492172241211e+00,3.775444030761718750e+00,3.774717569351196289e+00,3.773991584777832031e+00,3.773265838623046875e+00,3.772540569305419922e+00,3.771815299987792969e+00,3.771090984344482422e+00,3.770366191864013672e+00,3.769641876220703125e+00,3.768918037414550781e+00,3.768194198608398438e+00,3.767470598220825195e+00,3.766747474670410156e+00,3.766024589538574219e+00,3.765301942825317383e+00,3.764579534530639648e+00,3.763857364654541016e+00,3.763135671615600586e+00,3.762413978576660156e+00,3.761692762374877930e+00,3.760971784591674805e+00,3.760251045227050781e+00,3.408108472824096680e+00,3.758810520172119141e+00,3.758090734481811523e+00,3.757370948791503906e+00,3.756651639938354492e+00,3.023886680603027344e+00,2.931791305541992188e+00,3.754495382308959961e+00,3.753777027130126953e+00,3.753059148788452148e+00,3.752341508865356445e+00,3.751624107360839844e+00,3.750906944274902344e+00,3.750190019607543945e+00,3.749473333358764648e+00,3.748757123947143555e+00,3.748041152954101562e+00,3.747325420379638672e+00,3.746610164642333984e+00,3.745894908905029297e+00,3.745180130004882812e+00,3.666291236877441406e+00,3.556645154953002930e+00,3.453367233276367188e+00,3.355918169021606445e+00,3.263817787170410156e+00,3.176637649536132812e+00,3.093993663787841797e+00,3.015540599822998047e+00,2.940968036651611328e+00,2.869994640350341797e+00,2.802366018295288086e+00,2.737851142883300781e+00,2.676239967346191406e+00,2.617340803146362305e+00,2.560978412628173828e+00,2.506992101669311523e+00,2.455235004425048828e+00,2.405571460723876953e+00,2.357877731323242188e+00,2.312037944793701172e+00,2.267946720123291016e+00,2.225505828857421875e+00,2.184624195098876953e+00,2.145217180252075195e+00,2.107206583023071289e+00,2.070519685745239258e+00,2.035088539123535156e+00,2.000849485397338867e+00,1.967743396759033203e+00,1.935715079307556152e+00,1.904712677001953125e+00,1.874687671661376953e+00,1.845594644546508789e+00
3.084265947341918945e+00,3.083781242370605469e+00,3.083296775817871094e+00,3.082812309265136719e+00,3.082328081130981445e+00,3.081843852996826172e+00,3.081360101699829102e+00,3.080876111984252930e+00,3.080392599105834961e+00,3.079909086227416992e+00,3.079426050186157227e+00,3.078942775726318359e+00,3.078459739685058594e+00,3.077976942062377930e+00,3.077494144439697266e+00,3.077011585235595703e+00,3.076529026031494141e+00,3.076046943664550781e+00,3.075564622879028320e+00,3.075082778930664062e+00,3.074600934982299805e+00,3.074119091033935547e+00,3.073637723922729492e+00,3.073156356811523438e+00,3.072674989700317383e+00,3.072193861007690430e+00,3.071712970733642578e+00,3.071232318878173828e+00,3.070751667022705078e+00,3.070271253585815430e+00,3.069790840148925781e+00,3.069310665130615234e+00,3.068830728530883789e+00,3.068350791931152344e+00,3.067871093750000000e+00,3.067391395568847656e+00,3.066912174224853516e+00,3.066432714462280273e+00,3.065953731536865234e+00,3.065474748611450195e+00,3.064996004104614258e+00,3.064517259597778320e+00,3.064038753509521484e+00,3.063560485839843750e+00,3.063082456588745117e+00,3.062604427337646484e+00,3.062126398086547852e+00,3.061648607254028320e+00,3.061171054840087891e+00,3.060693502426147461e+00,3.060216188430786133e+00,3.059739112854003906e+00,3.059262037277221680e+00,3.058785200119018555e+00,3.015593767166137695e+00,2.941018819808959961e+00,2.870042800903320312e+00,2.802412033081054688e+00,2.737895250320434570e+00,2.676282167434692383e+00,2.617381095886230469e+00,2.561016798019409180e+00,2.507029056549072266e+00,2.455270290374755859e+00,2.405605792999267578e+00,2.357910394668579102e+00,2.312069416046142578e+00,2.267976999282836914e+00,2.225534915924072266e+00,2.184652090072631836e+00,2.145244121551513672e+00,2.107232809066772461e+00,2.070544958114624023e+00,2.035112857818603516e+00,2.000873088836669922e+00,1.967766284942626953e+00,1.935737133026123047e+00,1.904734134674072266e+00,1.874708414077758789e+00,1.845614790916442871e+00
2.605612993240356445e+00,2.605267047882080078e+00,2.604921102523803711e+00,2.604575395584106445e+00,2.604229688644409180e+00,2.603884220123291016e+00,2.603538751602172852e+00,2.603193283081054688e+00,2.602848052978515625e+00,2.602502822875976562e+00,2.602157831192016602e+00,2.601812839508056641e+00,2.601467847824096680e+00,2.601123094558715820e+00,2.600778341293334961e+00,2.600433588027954102e+00,2.600089073181152344e+00,2.599744558334350586e+00,2.599400043487548828e+00,2.599055767059326172e+00,2.598711490631103516e+00,2.598367452621459961e+00,2.598023414611816406e+00,2.597679615020751953e+00,2.597335577011108398e+00,2.596992015838623047e+00,2.596648216247558594e+00,2.596304655075073242e+00,2.595961332321166992e+00,2.595617771148681641e+00,2.595274448394775391e+00,2.594931364059448242e+00,2.594588279724121094e+00,2.594245195388793945e+00,2.593902349472045898e+00,2.593559503555297852e+00,2.593216657638549805e+00,2.592874050140380859e+00,2.592531442642211914e+00,2.592188835144042969e+00,2.591846466064453125e+00,2.591504335403442383e+00,2.591161966323852539e+00,2.590819835662841797e+00,2.590478181838989258e+00,2.590136051177978516e+00,2.589794397354125977e+00,2.589452505111694336e+00,2.589110851287841797e+00,2.588769197463989258e+00,2.588427782058715820e+00,2.588086366653442383e+00,2.587745189666748047e+00,2.587404012680053711e+00,2.587062835693359375e+00,2.586721658706665039e+00,2.586380720138549805e+00,2.586040019989013672e+00,2.585699081420898438e+00,2.585358619689941406e+00,2.585017919540405273e+00,2.561055421829223633e+00,2.507066011428833008e+00,2.455305814743041992e+00,2.405639648437500000e+00,2.357942819595336914e+00,2.312100887298583984e+00,2.268007278442382812e+00,2.225564002990722656e+00,2.184680223464965820e+00,2.145271062850952148e+00,2.107258796691894531e+00,2.070569992065429688e+00,2.035137176513671875e+00,2.000896453857421875e+00,1.967788815498352051e+00,1.935759067535400391e+00,1.904755353927612305e+00,1.874728918075561523e+00,1.845634579658508301e+00
2.255578994750976562e+00,2.255319118499755859e+00,2.255059480667114258e+00,2.254799842834472656e+00,2.254540205001831055e+00,2.254280805587768555e+00,2.254021167755126953e+00,2.253761768341064453e+00,2.253502368927001953e+00,2.253243207931518555e+00,2.252984046936035156e+00,2.252724885940551758e+00,2.252465724945068359e+00,2.252206563949584961e+00,2.251947641372680664e+00,2.251688718795776367e+00,2.251429796218872070e+00,2.251171112060546875e+00,2.250912189483642578e+00,2.250653743743896484e+00,2.250395059585571289e+00,2.250136375427246094e+00,2.249877929687500000e+00,2.249619960784912109e+00,2.249361991882324219e+00,2.249104261398315430e+00,2.248846530914306641e+00,2.248588800430297852e+00,2.248331069946289062e+00,2.248073577880859375e+00,2.247816085815429688e+00,2.247558593750000000e+00,2.247301101684570312e+00,2.247043848037719727e+00,2.246786594390869141e+00,2.246529340744018555e+00,2.246272087097167969e+00,2.246015071868896484e+00,2.245758056640625000e+00,2.245500802993774414e+00,2.245244026184082031e+00,2.244987010955810547e+00,2.244730234146118164e+00,2.244473457336425781e+00,2.244216918945312500e+00,2.243960380554199219e+00,2.243703842163085938e+00,2.243447303771972656e+00,2.243190765380859375e+00,2.242934465408325195e+00,2.242677927017211914e+00,2.242421627044677734e+00,2.242165565490722656e+00,2.241909265518188477e+00,2.241653203964233398e+00,2.241397142410278320e+00,2.241141080856323242e+00,2.240885257720947266e+00,2.240629434585571289e+00,2.240373611450195312e+00,2.240117788314819336e+00,2.239861965179443359e+00,2.239606380462646484e+00,2.239350795745849609e+00,2.239095211029052734e+00,2.238839864730834961e+00,2.238584280014038086e+00,2.238328933715820312e+00,2.225593090057373047e+00,2.184708118438720703e+00,2.145298242568969727e+00,2.107284784317016602e+00,2.070595264434814453e+00,2.035161495208740234e+00,2.000920057296752930e+00,1.967811703681945801e+00,1.935781121253967285e+00,1.904776692390441895e+00,1.874749660491943359e+00,1.845654726028442383e+00
1.988476276397705078e+00,1.988274335861206055e+00,1.988072633743286133e+00,1.987870693206787109e+00,1.987668871879577637e+00,1.987467408180236816e+00,1.987265586853027344e+00,1.987063884735107422e+00,1.986862301826477051e+00,1.986660838127136230e+00,1.986459255218505859e+00,1.986257791519165039e+00,1.986056447029113770e+00,1.985854983329772949e+00,1.985653638839721680e+00,1.985452413558959961e+00,1.985251069068908691e+00,1.985049843788146973e+00,1.984848618507385254e+00,1.984647631645202637e+00,1.984446406364440918e+00,1.984245181083679199e+00,1.984044313430786133e+00,1.983843326568603516e+00,1.983642339706420898e+00,1.983441352844238281e+00,1.983240604400634766e+00,1.983039736747741699e+00,1.982838869094848633e+00,1.982638359069824219e+00,1.982437491416931152e+00,1.982236862182617188e+00,1.982036113739013672e+00,1.981835722923278809e+00,1.981635093688964844e+00,1.981434583663940430e+00,1.981234192848205566e+00,1.981033682823181152e+00,1.980833292007446289e+00,1.980633139610290527e+00,1.980432748794555664e+00,1.980232477188110352e+00,1.980032086372375488e+00,1.979832172393798828e+00,1.979631900787353516e+00,1.979431748390197754e+00,1.979231834411621094e+00,1.979031801223754883e+00,1.978831768035888672e+00,1.978631734848022461e+00,1.978431940078735352e+00,1.978232026100158691e+00,1.978032231330871582e+00,1.977832555770874023e+00,1.977632761001586914e+00,1.977432966232299805e+00,1.977233290672302246e+00,1.977033853530883789e+00,1.976834177970886230e+00,1.976634621620178223e+00,1.976435303688049316e+00,1.976235747337341309e+00,1.976036310195922852e+00,1.975837111473083496e+00,1.975637674331665039e+00,1.975438356399536133e+00,1.975239038467407227e+00,1.975039958953857422e+00,1.974840641021728516e+00,1.974641442298889160e+00,1.974442601203918457e+00,1.974243402481079102e+00,1.974044322967529297e+00,1.973845362663269043e+00,1.973646521568298340e+00,1.967834353446960449e+00,1.935803055763244629e+00,1.904797911643981934e+00,1.874770283699035645e+00,1.845674633979797363e+00
1.777935624122619629e+00,1.777774214744567871e+00,1.777612805366516113e+00,1.777451515197753906e+00,1.777290225028991699e+00,1.777128815650939941e+00,1.776967525482177734e+00,1.776806473731994629e+00,1.776645183563232422e+00,1.776484012603759766e+00,1.776322960853576660e+00,1.776161789894104004e+00,1.776000738143920898e+00,1.775839567184448242e+00,1.775678753852844238e+00,1.775517702102661133e+00,1.775356650352478027e+00,1.775195837020874023e+00,1.775034904479980469e+00,1.774873971939086914e+00,1.774713039398193359e+00,1.774552345275878906e+00,1.774391531944274902e+00,1.774230718612670898e+00,1.774070143699645996e+00,1.773909330368041992e+00,1.773748636245727539e+00,1.773588180541992188e+00,1.773427486419677734e+00,1.773266792297363281e+00,1.773106217384338379e+00,1.772945880889892578e+00,1.772785305976867676e+00,1.772624731063842773e+00,1.772464394569396973e+00,1.772303938865661621e+00,1.772143483161926270e+00,1.771983146667480469e+00,1.771822929382324219e+00,1.771662592887878418e+00,1.771502256393432617e+00,1.771342158317565918e+00,1.771181941032409668e+00,1.771021723747253418e+00,1.770861506462097168e+00,1.770701527595520020e+00,1.770541310310363770e+00,1.770381212234497070e+00,1.770221352577209473e+00,1.770061254501342773e+00,1.769901275634765625e+00,1.769741415977478027e+00,1.769581437110900879e+00,1.769421458244323730e+00,1.769261598587036133e+00,1.769101858139038086e+00,1.768941998481750488e+00,1.768782138824462891e+00,1.768622517585754395e+00,1.768462777137756348e+00,1.768303036689758301e+00,1.768143296241760254e+00,1.767983794212341309e+00,1.767824172973632812e+00,1.767664551734924316e+00,1.767505168914794922e+00,1.767345547676086426e+00,1.767186045646667480e+00,1.767026543617248535e+00,1.766867280006408691e+00,1.766707777976989746e+00,1.766548395156860352e+00,1.766389131546020508e+00,1.766229748725891113e+00,1.766070485115051270e+00,1.765911340713500977e+00,1.765752077102661133e+00,1.765592813491821289e+00,1.765433669090270996e+00,1.765274643898010254e+00
1.607710480690002441e+00,1.607578516006469727e+00,1.607446670532226562e+00,1.607314705848693848e+00,1.607182741165161133e+00,1.607050895690917969e+00,1.606919050216674805e+00,1.606787085533142090e+00,1.606655240058898926e+00,1.606523513793945312e+00,1.606391787528991699e+00,1.606259942054748535e+00,1.606128334999084473e+00,1.605996489524841309e+00,1.605864763259887695e+00,1.605733275413513184e+00,1.605601549148559570e+00,1.605469822883605957e+00,1.605338215827941895e+00,1.605206727981567383e+00,1.605075120925903320e+00,1.604943513870239258e+00,1.604812145233154297e+00,1.604680538177490234e+00,1.604549050331115723e+00,1.604417562484741211e+00,1.604286193847656250e+00,1.604154706001281738e+00,1.604023337364196777e+00,1.603892087936401367e+00,1.603760719299316406e+00,1.603629350662231445e+00,1.603497982025146484e+00,1.603366732597351074e+00,1.603235483169555664e+00,1.603104233741760254e+00,1.602973103523254395e+00,1.602841854095458984e+00,1.602710604667663574e+00,1.602579593658447266e+00,1.602448344230651855e+00,1.602317214012145996e+00,1.602186083793640137e+00,1.602055072784423828e+00,1.601924061775207520e+00,1.601792931556701660e+00,1.601662039756774902e+00,1.601531028747558594e+00,1.601400017738342285e+00,1.601269006729125977e+00,1.601138234138488770e+00,1.601007342338562012e+00,1.600876331329345703e+00,1.600745677947998047e+00,1.600614786148071289e+00,1.600483894348144531e+00,1.600353002548217773e+00,1.600222349166870117e+00,1.600091576576232910e+00,1.599960803985595703e+00,1.599830150604248047e+00,1.599699497222900391e+00,1.599568724632263184e+00,1.599438190460205078e+00,1.599307537078857422e+00,1.599176883697509766e+00,1.599046349525451660e+00,1.598915815353393555e+00,1.598785281181335449e+00,1.598654747009277344e+00,1.598524332046508789e+00,1.598393797874450684e+00,1.598263382911682129e+00,1.598132848739624023e+00,1.598002552986145020e+00,1.597872138023376465e+00,1.597741723060607910e+00,1.597611427307128906e+00,1.597481131553649902e+00,1.597350716590881348e+00
1.467233061790466309e+00,1.467123150825500488e+00,1.467013239860534668e+00,1.466903448104858398e+00,1.466793537139892578e+00,1.466683626174926758e+00,1.466573715209960938e+00,1.466464042663574219e+00,1.466354131698608398e+00,1.466244339942932129e+00,1.466134667396545410e+00,1.466024875640869141e+00,1.465915083885192871e+00,1.465805292129516602e+00,1.465695738792419434e+00,1.465585947036743164e+00,1.465476274490356445e+00,1.465366721153259277e+00,1.465257048606872559e+00,1.465147376060485840e+00,1.465037703514099121e+00,1.464928150177001953e+00,1.464818596839904785e+00,1.464708924293518066e+00,1.464599490165710449e+00,1.464489936828613281e+00,1.464380383491516113e+00,1.464270949363708496e+00,1.464161515235900879e+00,1.464051961898803711e+00,1.463942527770996094e+00,1.463833212852478027e+00,1.463723659515380859e+00,1.463614344596862793e+00,1.463505029678344727e+00,1.463395595550537109e+00,1.463286161422729492e+00,1.463176846504211426e+00,1.463067650794982910e+00,1.462958335876464844e+00,1.462849020957946777e+00,1.462739825248718262e+00,1.462630510330200195e+00,1.462521195411682129e+00,1.462411999702453613e+00,1.462302923202514648e+00,1.462193727493286133e+00,1.462084412574768066e+00,1.461975455284118652e+00,1.461866259574890137e+00,1.461757063865661621e+00,1.461648106575012207e+00,1.461538910865783691e+00,1.461429834365844727e+00,1.461320757865905762e+00,1.461211800575256348e+00,1.461102724075317383e+00,1.460993766784667969e+00,1.460884809494018555e+00,1.460775852203369141e+00,1.460666775703430176e+00,1.460557818412780762e+00,1.460448980331420898e+00,1.460340023040771484e+00,1.460231184959411621e+00,1.460122346878051758e+00,1.460013508796691895e+00,1.459904551506042480e+00,1.459795713424682617e+00,1.459686994552612305e+00,1.459578156471252441e+00,1.459469318389892578e+00,1.459360718727111816e+00,1.459251880645751953e+00,1.459143161773681641e+00,1.459034562110900879e+00,1.458925843238830566e+00,1.458817124366760254e+00,1.458708405494689941e+00,1.458599805831909180e+00
1.349331974983215332e+00,1.349238991737365723e+00,1.349146127700805664e+00,1.349053144454956055e+00,1.348960161209106445e+00,1.348867297172546387e+00,1.348774433135986328e+00,1.348681449890136719e+00,1.348588585853576660e+00,1.348495841026306152e+00,1.348402857780456543e+00,1.348309993743896484e+00,1.348217248916625977e+00,1.348124384880065918e+00,1.348031640052795410e+00,1.347938895225524902e+00,1.347846150398254395e+00,1.347753286361694336e+00,1.347660541534423828e+00,1.347567915916442871e+00,1.347475171089172363e+00,1.347382426261901855e+00,1.347289800643920898e+00,1.347197055816650391e+00,1.347104430198669434e+00,1.347011685371398926e+00,1.346919178962707520e+00,1.346826434135437012e+00,1.346733808517456055e+00,1.346641302108764648e+00,1.346548676490783691e+00,1.346456050872802734e+00,1.346363425254821777e+00,1.346270918846130371e+00,1.346178412437438965e+00,1.346085786819458008e+00,1.345993399620056152e+00,1.345900893211364746e+00,1.345808267593383789e+00,1.345715880393981934e+00,1.345623373985290527e+00,1.345530986785888672e+00,1.345438480377197266e+00,1.345346093177795410e+00,1.345253705978393555e+00,1.345161199569702148e+00,1.345068931579589844e+00,1.344976544380187988e+00,1.344884037971496582e+00,1.344791650772094727e+00,1.344699382781982422e+00,1.344607114791870117e+00,1.344514727592468262e+00,1.344422459602355957e+00,1.344330191612243652e+00,1.344237923622131348e+00,1.344145536422729492e+00,1.344053387641906738e+00,1.343961119651794434e+00,1.343868851661682129e+00,1.343776702880859375e+00,1.343684434890747070e+00,1.343592286109924316e+00,1.343500137329101562e+00,1.343407988548278809e+00,1.343315839767456055e+00,1.343223571777343750e+00,1.343131542205810547e+00,1.343039393424987793e+00,1.342947244644165039e+00,1.342855334281921387e+00,1.342763185501098633e+00,1.342671036720275879e+00,1.342579007148742676e+00,1.342486977577209473e+00,1.342394948005676270e+00,1.342302918434143066e+00,1.342211008071899414e+00,1.342118978500366211e+00,1.342026948928833008e+00
1.248969793319702148e+00,1.248890042304992676e+00,1.248810410499572754e+00,1.248730897903442383e+00,1.248651266098022461e+00,1.248571634292602539e+00,1.248492002487182617e+00,1.248412370681762695e+00,1.248332858085632324e+00,1.248253226280212402e+00,1.248173713684082031e+00,1.248094201087951660e+00,1.248014569282531738e+00,1.247935056686401367e+00,1.247855544090270996e+00,1.247776031494140625e+00,1.247696518898010254e+00,1.247617125511169434e+00,1.247537612915039062e+00,1.247458100318908691e+00,1.247378587722778320e+00,1.247299194335937500e+00,1.247219800949096680e+00,1.247140288352966309e+00,1.247060894966125488e+00,1.246981501579284668e+00,1.246902108192443848e+00,1.246822714805603027e+00,1.246743321418762207e+00,1.246663928031921387e+00,1.246584534645080566e+00,1.246505260467529297e+00,1.246425986289978027e+00,1.246346592903137207e+00,1.246267318725585938e+00,1.246188044548034668e+00,1.246108651161193848e+00,1.246029376983642578e+00,1.245950102806091309e+00,1.245870828628540039e+00,1.245791554450988770e+00,1.245712399482727051e+00,1.245633125305175781e+00,1.245553851127624512e+00,1.245474696159362793e+00,1.245395541191101074e+00,1.245316267013549805e+00,1.245237112045288086e+00,1.245157957077026367e+00,1.245078802108764648e+00,1.244999527931213379e+00,1.244920492172241211e+00,1.244841337203979492e+00,1.244762182235717773e+00,1.244683027267456055e+00,1.244603991508483887e+00,1.244524836540222168e+00,1.244445800781250000e+00,1.244366765022277832e+00,1.244287610054016113e+00,1.244208574295043945e+00,1.244129538536071777e+00,1.244050502777099609e+00,1.243971467018127441e+00,1.243892431259155273e+00,1.243813514709472656e+00,1.243734478950500488e+00,1.243655443191528320e+00,1.243576526641845703e+00,1.243497610092163086e+00,1.243418574333190918e+00,1.243339657783508301e+00,1.243260741233825684e+00,1.243181824684143066e+00,1.243102908134460449e+00,1.243023991584777832e+00,1.242945075035095215e+00,1.242866158485412598e+00,1.242787361145019531e+00,1.242708563804626465e+00
1.162503600120544434e+00,1.162434577941894531e+00,1.162365674972534180e+00,1.162296652793884277e+00,1.162227630615234375e+00,1.162158727645874023e+00,1.162089705467224121e+00,1.162020802497863770e+00,1.161951780319213867e+00,1.161882877349853516e+00,1.161813974380493164e+00,1.161745071411132812e+00,1.161676168441772461e+00,1.161607265472412109e+00,1.161538362503051758e+00,1.161469459533691406e+00,1.161400556564331055e+00,1.161331653594970703e+00,1.161262750625610352e+00,1.161193966865539551e+00,1.161125063896179199e+00,1.161056280136108398e+00,1.160987496376037598e+00,1.160918593406677246e+00,1.160849809646606445e+00,1.160780906677246094e+00,1.160712242126464844e+00,1.160643339157104492e+00,1.160574555397033691e+00,1.160505890846252441e+00,1.160437107086181641e+00,1.160368323326110840e+00,1.160299539566040039e+00,1.160230875015258789e+00,1.160162091255187988e+00,1.160093307495117188e+00,1.160024642944335938e+00,1.159955859184265137e+00,1.159887194633483887e+00,1.159818530082702637e+00,1.159749865531921387e+00,1.159681081771850586e+00,1.159612417221069336e+00,1.159543871879577637e+00,1.159475207328796387e+00,1.159406542778015137e+00,1.159337878227233887e+00,1.159269213676452637e+00,1.159200549125671387e+00,1.159132003784179688e+00,1.159063458442687988e+00,1.158994793891906738e+00,1.158926129341125488e+00,1.158857703208923340e+00,1.158789038658142090e+00,1.158720493316650391e+00,1.158651947975158691e+00,1.158583402633666992e+00,1.158514857292175293e+00,1.158446311950683594e+00,1.158377766609191895e+00,1.158309340476989746e+00,1.158240795135498047e+00,1.158172369003295898e+00,1.158103823661804199e+00,1.158035278320312500e+00,1.157966852188110352e+00,1.157898426055908203e+00,1.157829880714416504e+00,1.157761454582214355e+00,1.157693028450012207e+00,1.157624602317810059e+00,1.157556176185607910e+00,1.157487750053405762e+00,1.157419323921203613e+00,1.157350897789001465e+00,1.157282471656799316e+00,1.157214164733886719e+00,1.157145738601684570e+00,1.157077431678771973e+00
1.087234497070312500e+00,1.087174057960510254e+00,1.087113738059997559e+00,1.087053418159484863e+00,1.086993098258972168e+00,1.086932659149169922e+00,1.086872339248657227e+00,1.086812138557434082e+00,1.086751818656921387e+00,1.086691379547119141e+00,1.086631178855895996e+00,1.086570858955383301e+00,1.086510539054870605e+00,1.086450219154357910e+00,1.086390018463134766e+00,1.086329817771911621e+00,1.086269497871398926e+00,1.086209297180175781e+00,1.086148977279663086e+00,1.086088776588439941e+00,1.086028575897216797e+00,1.085968375205993652e+00,1.085908055305480957e+00,1.085847854614257812e+00,1.085787773132324219e+00,1.085727453231811523e+00,1.085667252540588379e+00,1.085607171058654785e+00,1.085546970367431641e+00,1.085486769676208496e+00,1.085426568984985352e+00,1.085366487503051758e+00,1.085306286811828613e+00,1.085246205329895020e+00,1.085186004638671875e+00,1.085125923156738281e+00,1.085065722465515137e+00,1.085005640983581543e+00,1.084945559501647949e+00,1.084885478019714355e+00,1.084825277328491211e+00,1.084765315055847168e+00,1.084705114364624023e+00,1.084645032882690430e+00,1.084584951400756836e+00,1.084524989128112793e+00,1.084464907646179199e+00,1.084404826164245605e+00,1.084344863891601562e+00,1.084284782409667969e+00,1.084224700927734375e+00,1.084164738655090332e+00,1.084104657173156738e+00,1.084044694900512695e+00,1.083984613418579102e+00,1.083924651145935059e+00,1.083864688873291016e+00,1.083804726600646973e+00,1.083744764328002930e+00,1.083684802055358887e+00,1.083624839782714844e+00,1.083564758300781250e+00,1.083504915237426758e+00,1.083444952964782715e+00,1.083384990692138672e+00,1.083325147628784180e+00,1.083265185356140137e+00,1.083205223083496094e+00,1.083145260810852051e+00,1.083085417747497559e+00,1.083025455474853516e+00,1.082965612411499023e+00,1.082905769348144531e+00,1.082845807075500488e+00,1.082785964012145996e+00,1.082726120948791504e+00,1.082666277885437012e+00,1.082606434822082520e+00,1.082546591758728027e+00,1.082486748695373535e+00
1.021119475364685059e+00,1.021066188812255859e+00,1.021013021469116211e+00,1.020959854125976562e+00,1.020906567573547363e+00,1.020853400230407715e+00,1.020800113677978516e+00,1.020746946334838867e+00,1.020693659782409668e+00,1.020640611648559570e+00,1.020587325096130371e+00,1.020534157752990723e+00,1.020480990409851074e+00,1.020427823066711426e+00,1.020374655723571777e+00,1.020321488380432129e+00,1.020268321037292480e+00,1.020215153694152832e+00,1.020161986351013184e+00,1.020108938217163086e+00,1.020055770874023438e+00,1.020002603530883789e+00,1.019949555397033691e+00,1.019896388053894043e+00,1.019843220710754395e+00,1.019790172576904297e+00,1.019737124443054199e+00,1.019683957099914551e+00,1.019630908966064453e+00,1.019577860832214355e+00,1.019524693489074707e+00,1.019471645355224609e+00,1.019418597221374512e+00,1.019365549087524414e+00,1.019312500953674316e+00,1.019259333610534668e+00,1.019206404685974121e+00,1.019153356552124023e+00,1.019100308418273926e+00,1.019047260284423828e+00,1.018994212150573730e+00,1.018941164016723633e+00,1.018888115882873535e+00,1.018835186958312988e+00,1.018782138824462891e+00,1.018729209899902344e+00,1.018676161766052246e+00,1.018623232841491699e+00,1.018570184707641602e+00,1.018517255783081055e+00,1.018464326858520508e+00,1.018411278724670410e+00,1.018358349800109863e+00,1.018305420875549316e+00,1.018252491950988770e+00,1.018199443817138672e+00,1.018146514892578125e+00,1.018093705177307129e+00,1.018040776252746582e+00,1.017987728118896484e+00,1.017934918403625488e+00,1.017881989479064941e+00,1.017829060554504395e+00,1.017776250839233398e+00,1.017723321914672852e+00,1.017670392990112305e+00,1.017617464065551758e+00,1.017564654350280762e+00,1.017511725425720215e+00,1.017458915710449219e+00,1.017406105995178223e+00,1.017353177070617676e+00,1.017300367355346680e+00,1.017247438430786133e+00,1.017194628715515137e+00,1.017141819000244141e+00,1.017089009284973145e+00,1.017036199569702148e+00,1.016983389854431152e+00,1.016930580139160156e+00
9.625846147537231445e-01,9.625373482704162598e-01,9.624899625778198242e-01,9.624426960945129395e-01,9.623954296112060547e-01,9.623480439186096191e-01,9.623007774353027344e-01,9.622535705566406250e-01,9.622061848640441895e-01,9.621589779853820801e-01,9.621117711067199707e-01,9.620643854141235352e-01,9.620171785354614258e-01,9.619698524475097656e-01,9.619226455688476562e-01,9.618754386901855469e-01,9.618281126022338867e-01,9.617809653282165527e-01,9.617337584495544434e-01,9.616864323616027832e-01,9.616392850875854492e-01,9.615920782089233398e-01,9.615448117256164551e-01,9.614976048469543457e-01,9.614504575729370117e-01,9.614031910896301270e-01,9.613560438156127930e-01,9.613088965415954590e-01,9.612616300582885742e-01,9.612144827842712402e-01,9.611672163009643555e-01,9.611201286315917969e-01,9.610729813575744629e-01,9.610257148742675781e-01,9.609786272048950195e-01,9.609314799308776855e-01,9.608842730522155762e-01,9.608371853828430176e-01,9.607900977134704590e-01,9.607428908348083496e-01,9.606958031654357910e-01,9.606487154960632324e-01,9.606015086174011230e-01,9.605544209480285645e-01,9.605072140693664551e-01,9.604601860046386719e-01,9.604130983352661133e-01,9.603659510612487793e-01,9.603188633918762207e-01,9.602718353271484375e-01,9.602246880531311035e-01,9.601776599884033203e-01,9.601305723190307617e-01,9.600834250450134277e-01,9.600363969802856445e-01,9.599894285202026367e-01,9.599422812461853027e-01,9.598952531814575195e-01,9.598482251167297363e-01,9.598011374473571777e-01,9.597541093826293945e-01,9.597070217132568359e-01,9.596600532531738281e-01,9.596130251884460449e-01,9.595659375190734863e-01,9.595189690589904785e-01,9.594720005989074707e-01,9.594249129295349121e-01,9.593779444694519043e-01,9.593310356140136719e-01,9.592839479446411133e-01,9.592369794845581055e-01,9.591900706291198730e-01,9.591429829597473145e-01,9.590960741043090820e-01,9.590491056442260742e-01,9.590020775794982910e-01,9.589551687240600586e-01,9.589081406593322754e-01,9.588612318038940430e-01
9.103967547416687012e-01,9.103543758392333984e-01,9.103121161460876465e-01,9.102698564529418945e-01,9.102274775505065918e-01,9.101851582527160645e-01,9.101428985595703125e-01,9.101005792617797852e-01,9.100583195686340332e-01,9.100160598754882812e-01,9.099736809730529785e-01,9.099314808845520020e-01,9.098892211914062500e-01,9.098468422889709473e-01,9.098046422004699707e-01,9.097623825073242188e-01,9.097200632095336914e-01,9.096778631210327148e-01,9.096355438232421875e-01,9.095933437347412109e-01,9.095510840415954590e-01,9.095088243484497070e-01,9.094666242599487305e-01,9.094244241714477539e-01,9.093821048736572266e-01,9.093399047851562500e-01,9.092977046966552734e-01,9.092554450035095215e-01,9.092132449150085449e-01,9.091711044311523438e-01,9.091288447380065918e-01,9.090866446495056152e-01,9.090443849563598633e-01,9.090022444725036621e-01,9.089600443840026855e-01,9.089178442955017090e-01,9.088756442070007324e-01,9.088335037231445312e-01,9.087913036346435547e-01,9.087491631507873535e-01,9.087070226669311523e-01,9.086647629737854004e-01,9.086226820945739746e-01,9.085805416107177734e-01,9.085383415222167969e-01,9.084962010383605957e-01,9.084541201591491699e-01,9.084119200706481934e-01,9.083697795867919922e-01,9.083276391029357910e-01,9.082854986190795898e-01,9.082434177398681641e-01,9.082012176513671875e-01,9.081591367721557617e-01,9.081171154975891113e-01,9.080749154090881348e-01,9.080328345298767090e-01,9.079907536506652832e-01,9.079486131668090820e-01,9.079065322875976562e-01,9.078645110130310059e-01,9.078223705291748047e-01,9.077802896499633789e-01,9.077382683753967285e-01,9.076961278915405273e-01,9.076541066169738770e-01,9.076119661331176758e-01,9.075699448585510254e-01,9.075279235839843750e-01,9.074857831001281738e-01,9.074437618255615234e-01,9.074017405509948730e-01,9.073596596717834473e-01,9.073176383972167969e-01,9.072756767272949219e-01,9.072335362434387207e-01,9.071915745735168457e-01,9.071495532989501953e-01,9.071074724197387695e-01,9.070655107498168945e-01
8.635767698287963867e-01,8.635386824607849121e-01,8.635005950927734375e-01,8.634625673294067383e-01,8.634244203567504883e-01,8.633863925933837891e-01,8.633483052253723145e-01,8.633102774620056152e-01,8.632722496986389160e-01,8.632341027259826660e-01,8.631961345672607422e-01,8.631581068038940430e-01,8.631200194358825684e-01,8.630819916725158691e-01,8.630439639091491699e-01,8.630058765411376953e-01,8.629679083824157715e-01,8.629298806190490723e-01,8.628917932510375977e-01,8.628538250923156738e-01,8.628157377243041992e-01,8.627777695655822754e-01,8.627398014068603516e-01,8.627017140388488770e-01,8.626637458801269531e-01,8.626257777214050293e-01,8.625877499580383301e-01,8.625497817993164062e-01,8.625118136405944824e-01,8.624737858772277832e-01,8.624358177185058594e-01,8.623978495597839355e-01,8.623598217964172363e-01,8.623219132423400879e-01,8.622839450836181641e-01,8.622459173202514648e-01,8.622080087661743164e-01,8.621699810028076172e-01,8.621320724487304688e-01,8.620941638946533203e-01,8.620561361312866211e-01,8.620182275772094727e-01,8.619803190231323242e-01,8.619422912597656250e-01,8.619044423103332520e-01,8.618665337562561035e-01,8.618285059928894043e-01,8.617906570434570312e-01,8.617527484893798828e-01,8.617147803306579590e-01,8.616768717765808105e-01,8.616390228271484375e-01,8.616010546684265137e-01,8.615631461143493652e-01,8.615251779556274414e-01,8.614873290061950684e-01,8.614494800567626953e-01,8.614115118980407715e-01,8.613736629486083984e-01,8.613358139991760254e-01,8.612978458404541016e-01,8.612599968910217285e-01,8.612221479415893555e-01,8.611842393875122070e-01,8.611463904380798340e-01,8.611085414886474609e-01,8.610706329345703125e-01,8.610328435897827148e-01,8.609949350357055664e-01,8.609570860862731934e-01,8.609192371368408203e-01,8.608813881874084473e-01,8.608435392379760742e-01,8.608057498931884766e-01,8.607678413391113281e-01,8.607300519943237305e-01,8.606922626495361328e-01,8.606543540954589844e-01,8.606165647506713867e-01,8.605787754058837891e-01
8.213369250297546387e-01,8.213024735450744629e-01,8.212680816650390625e-01,8.212335705757141113e-01,8.211991786956787109e-01,8.211647868156433105e-01,8.211302757263183594e-01,8.210958838462829590e-01,8.210614323616027832e-01,8.210270404815673828e-01,8.209926486015319824e-01,8.209581375122070312e-01,8.209238052368164062e-01,8.208894133567810059e-01,8.208549618721008301e-01,8.208205699920654297e-01,8.207861781120300293e-01,8.207517266273498535e-01,8.207173943519592285e-01,8.206830024719238281e-01,8.206485509872436523e-01,8.206142187118530273e-01,8.205798268318176270e-01,8.205454349517822266e-01,8.205110430717468262e-01,8.204766511917114258e-01,8.204423189163208008e-01,8.204079270362854004e-01,8.203735351562500000e-01,8.203392028808593750e-01,8.203048706054687500e-01,8.202704787254333496e-01,8.202361464500427246e-01,8.202018141746520996e-01,8.201674222946166992e-01,8.201330900192260742e-01,8.200987577438354492e-01,8.200643658638000488e-01,8.200300335884094238e-01,8.199957609176635742e-01,8.199613690376281738e-01,8.199270367622375488e-01,8.198927044868469238e-01,8.198583722114562988e-01,8.198240995407104492e-01,8.197897076606750488e-01,8.197554349899291992e-01,8.197211623191833496e-01,8.196867704391479492e-01,8.196524977684020996e-01,8.196182250976562500e-01,8.195838928222656250e-01,8.195496201515197754e-01,8.195153474807739258e-01,8.194810152053833008e-01,8.194467425346374512e-01,8.194124102592468262e-01,8.193781375885009766e-01,8.193438649177551270e-01,8.193095326423645020e-01,8.192753195762634277e-01,8.192410469055175781e-01,8.192067146301269531e-01,8.191725015640258789e-01,8.191382884979248047e-01,8.191039562225341797e-01,8.190697431564331055e-01,8.190354704856872559e-01,8.190011978149414062e-01,8.189669847488403320e-01,8.189327120780944824e-01,8.188984394073486328e-01,8.188642263412475586e-01,8.188299536705017090e-01,8.187957406044006348e-01,8.187615275382995605e-01,8.187272548675537109e-01,8.186930418014526367e-01,8.186588287353515625e-01,8.186245560646057129e-01
7.830365896224975586e-01,7.830052971839904785e-01,7.829739451408386230e-01,7.829426527023315430e-01,7.829113602638244629e-01,7.828800082206726074e-01,7.828487753868103027e-01,7.828174829483032227e-01,7.827861905097961426e-01,7.827548980712890625e-01,7.827236652374267578e-01,7.826923131942749023e-01,7.826610803604125977e-01,7.826297283172607422e-01,7.825984954833984375e-01,7.825672030448913574e-01,7.825359106063842773e-01,7.825046777725219727e-01,7.824734449386596680e-01,7.824420928955078125e-01,7.824108600616455078e-01,7.823796272277832031e-01,7.823483347892761230e-01,7.823171019554138184e-01,7.822858691215515137e-01,7.822545766830444336e-01,7.822234034538269043e-01,7.821921706199645996e-01,7.821608781814575195e-01,7.821296453475952148e-01,7.820983529090881348e-01,7.820671796798706055e-01,7.820359468460083008e-01,7.820046544075012207e-01,7.819734811782836914e-01,7.819423079490661621e-01,7.819110155105590820e-01,7.818798422813415527e-01,7.818486094474792480e-01,7.818173766136169434e-01,7.817862033843994141e-01,7.817550301551818848e-01,7.817237377166748047e-01,7.816925644874572754e-01,7.816613316535949707e-01,7.816301584243774414e-01,7.815989851951599121e-01,7.815677523612976074e-01,7.815365791320800781e-01,7.815054059028625488e-01,7.814741730690002441e-01,7.814429998397827148e-01,7.814118862152099609e-01,7.813806533813476562e-01,7.813494801521301270e-01,7.813183069229125977e-01,7.812871336936950684e-01,7.812559604644775391e-01,7.812248468399047852e-01,7.811936140060424805e-01,7.811625003814697266e-01,7.811312675476074219e-01,7.811001539230346680e-01,7.810690402984619141e-01,7.810378074645996094e-01,7.810066938400268555e-01,7.809755802154541016e-01,7.809444069862365723e-01,7.809132933616638184e-01,7.808821797370910645e-01,7.808510065078735352e-01,7.808198928833007812e-01,7.807887792587280273e-01,7.807576060295104980e-01,7.807264924049377441e-01,7.806953787803649902e-01,7.806642055511474609e-01,7.806331515312194824e-01,7.806019783020019531e-01,7.805708646774291992e-01
7.481490969657897949e-01,7.481204867362976074e-01,7.480918765068054199e-01,7.480633258819580078e-01,7.480347156524658203e-01,7.480061650276184082e-01,7.479776144027709961e-01,7.479490041732788086e-01,7.479205131530761719e-01,7.478919625282287598e-01,7.478633522987365723e-01,7.478348016738891602e-01,7.478062510490417480e-01,7.477777004241943359e-01,7.477491497993469238e-01,7.477205991744995117e-01,7.476920485496520996e-01,7.476634979248046875e-01,7.476349472999572754e-01,7.476063966751098633e-01,7.475779056549072266e-01,7.475492954254150391e-01,7.475208044052124023e-01,7.474923133850097656e-01,7.474637031555175781e-01,7.474352121353149414e-01,7.474067211151123047e-01,7.473781108856201172e-01,7.473496198654174805e-01,7.473211288452148438e-01,7.472925782203674316e-01,7.472640872001647949e-01,7.472355365753173828e-01,7.472070455551147461e-01,7.471785545349121094e-01,7.471500039100646973e-01,7.471215128898620605e-01,7.470930814743041992e-01,7.470645308494567871e-01,7.470360398292541504e-01,7.470075488090515137e-01,7.469789981842041016e-01,7.469505667686462402e-01,7.469220757484436035e-01,7.468935847282409668e-01,7.468650937080383301e-01,7.468366622924804688e-01,7.468081116676330566e-01,7.467796802520751953e-01,7.467511296272277832e-01,7.467226982116699219e-01,7.466942667961120605e-01,7.466657161712646484e-01,7.466372847557067871e-01,7.466088533401489258e-01,7.465803623199462891e-01,7.465518712997436523e-01,7.465234398841857910e-01,7.464949488639831543e-01,7.464665174484252930e-01,7.464380860328674316e-01,7.464095950126647949e-01,7.463811635971069336e-01,7.463527917861938477e-01,7.463243007659912109e-01,7.462958693504333496e-01,7.462673783302307129e-01,7.462389469146728516e-01,7.462105751037597656e-01,7.461820840835571289e-01,7.461536526679992676e-01,7.461252808570861816e-01,7.460967898368835449e-01,7.460684180259704590e-01,7.460399866104125977e-01,7.460115551948547363e-01,7.459831237792968750e-01,7.459547519683837891e-01,7.459262609481811523e-01,7.458978891372680664e-01
7.162377238273620605e-01,7.162114977836608887e-01,7.161853313446044922e-01,7.161591649055480957e-01,7.161329388618469238e-01,7.161067724227905273e-01,7.160805463790893555e-01,7.160543799400329590e-01,7.160282135009765625e-01,7.160020470619201660e-01,7.159758806228637695e-01,7.159497141838073730e-01,7.159234881401062012e-01,7.158973217010498047e-01,7.158712148666381836e-01,7.158449888229370117e-01,7.158188223838806152e-01,7.157927155494689941e-01,7.157664895057678223e-01,7.157403826713562012e-01,7.157141566276550293e-01,7.156880497932434082e-01,7.156618833541870117e-01,7.156357169151306152e-01,7.156095504760742188e-01,7.155834436416625977e-01,7.155572772026062012e-01,7.155311703681945801e-01,7.155050039291381836e-01,7.154788374900817871e-01,7.154527306556701660e-01,7.154266238212585449e-01,7.154004573822021484e-01,7.153743505477905273e-01,7.153482437133789062e-01,7.153220176696777344e-01,7.152959108352661133e-01,7.152698040008544922e-01,7.152436971664428711e-01,7.152175903320312500e-01,7.151914238929748535e-01,7.151653170585632324e-01,7.151392102241516113e-01,7.151130437850952148e-01,7.150869965553283691e-01,7.150608897209167480e-01,7.150347232818603516e-01,7.150086760520935059e-01,7.149825692176818848e-01,7.149564623832702637e-01,7.149303555488586426e-01,7.149042487144470215e-01,7.148781418800354004e-01,7.148520946502685547e-01,7.148259282112121582e-01,7.147998809814453125e-01,7.147737741470336914e-01,7.147476673126220703e-01,7.147216200828552246e-01,7.146955728530883789e-01,7.146694064140319824e-01,7.146433591842651367e-01,7.146173119544982910e-01,7.145912051200866699e-01,7.145651578903198242e-01,7.145391106605529785e-01,7.145130038261413574e-01,7.144869565963745117e-01,7.144608497619628906e-01,7.144348025321960449e-01,7.144087553024291992e-01,7.143826484680175781e-01,7.143566012382507324e-01,7.143305540084838867e-01,7.143044471740722656e-01,7.142784595489501953e-01,7.142524123191833496e-01,7.142263054847717285e-01,7.142003178596496582e-01,7.141742706298828125e-01
6.869372725486755371e-01,6.869131922721862793e-01,6.868891119956970215e-01,6.868650317192077637e-01,6.868409514427185059e-01,6.868168711662292480e-01,6.867927312850952148e-01,6.867686510086059570e-01,6.867445707321166992e-01,6.867204904556274414e-01,6.866964101791381836e-01,6.866723299026489258e-01,6.866482496261596680e-01,6.866242289543151855e-01,6.866000890731811523e-01,6.865760684013366699e-01,6.865519881248474121e-01,6.865279078483581543e-01,6.865038275718688965e-01,6.864798069000244141e-01,6.864557266235351562e-01,6.864316463470458984e-01,6.864076256752014160e-01,6.863835453987121582e-01,6.863594651222229004e-01,6.863353848457336426e-01,6.863113641738891602e-01,6.862873435020446777e-01,6.862632632255554199e-01,6.862392425537109375e-01,6.862151622772216797e-01,6.861910820007324219e-01,6.861670613288879395e-01,6.861430406570434570e-01,6.861189603805541992e-01,6.860949993133544922e-01,6.860709786415100098e-01,6.860468983650207520e-01,6.860228776931762695e-01,6.859988570213317871e-01,6.859747767448425293e-01,6.859508156776428223e-01,6.859267354011535645e-01,6.859027147293090820e-01,6.858786940574645996e-01,6.858546733856201172e-01,6.858306527137756348e-01,6.858066916465759277e-01,6.857826113700866699e-01,6.857585906982421875e-01,6.857346296310424805e-01,6.857105493545532227e-01,6.856865882873535156e-01,6.856626272201538086e-01,6.856385469436645508e-01,6.856145858764648438e-01,6.855905055999755859e-01,6.855665445327758789e-01,6.855425834655761719e-01,6.855185627937316895e-01,6.854945421218872070e-01,6.854705810546875000e-01,6.854465603828430176e-01,6.854225993156433105e-01,6.853986382484436035e-01,6.853746175765991211e-01,6.853506565093994141e-01,6.853266358375549316e-01,6.853026747703552246e-01,6.852787137031555176e-01,6.852547526359558105e-01,6.852307319641113281e-01,6.852067708969116211e-01,6.851827502250671387e-01,6.851587891578674316e-01,6.851348280906677246e-01,6.851108670234680176e-01,6.850869059562683105e-01,6.850629448890686035e-01,6.850389242172241211e-01
6.599399447441101074e-01,6.599177122116088867e-01,6.598954796791076660e-01,6.598732471466064453e-01,6.598510146141052246e-01,6.598287224769592285e-01,6.598065495491027832e-01,6.597843170166015625e-01,6.597620844841003418e-01,6.597398519515991211e-01,6.597176790237426758e-01,6.596953868865966797e-01,6.596732139587402344e-01,6.596509218215942383e-01,6.596287488937377930e-01,6.596065163612365723e-01,6.595842838287353516e-01,6.595621109008789062e-01,6.595398783683776855e-01,6.595176458358764648e-01,6.594954729080200195e-01,6.594732999801635742e-01,6.594510078430175781e-01,6.594288349151611328e-01,6.594066619873046875e-01,6.593844294548034668e-01,6.593622565269470215e-01,6.593400835990905762e-01,6.593178510665893555e-01,6.592956781387329102e-01,6.592734456062316895e-01,6.592512726783752441e-01,6.592290997505187988e-01,6.592068672180175781e-01,6.591846942901611328e-01,6.591625213623046875e-01,6.591402888298034668e-01,6.591181159019470215e-01,6.590959429740905762e-01,6.590737700462341309e-01,6.590515971183776855e-01,6.590294241905212402e-01,6.590071916580200195e-01,6.589850783348083496e-01,6.589628458023071289e-01,6.589406728744506836e-01,6.589185595512390137e-01,6.588963270187377930e-01,6.588742136955261230e-01,6.588520407676696777e-01,6.588298678398132324e-01,6.588076949119567871e-01,6.587855815887451172e-01,6.587633490562438965e-01,6.587412357330322266e-01,6.587190628051757812e-01,6.586968898773193359e-01,6.586747765541076660e-01,6.586526036262512207e-01,6.586304306983947754e-01,6.586083173751831055e-01,6.585860848426818848e-01,6.585639715194702148e-01,6.585418581962585449e-01,6.585196852684020996e-01,6.584975719451904297e-01,6.584754586219787598e-01,6.584532856941223145e-01,6.584311127662658691e-01,6.584089994430541992e-01,6.583868265151977539e-01,6.583647131919860840e-01,6.583425998687744141e-01,6.583204269409179688e-01,6.582983136177062988e-01,6.582762598991394043e-01,6.582540869712829590e-01,6.582319736480712891e-01,6.582098007202148438e-01,6.581876873970031738e-01
6.349843740463256836e-01,6.349637508392333984e-01,6.349431872367858887e-01,6.349226236343383789e-01,6.349020004272460938e-01,6.348814368247985840e-01,6.348608732223510742e-01,6.348402500152587891e-01,6.348196864128112793e-01,6.347991228103637695e-01,6.347785592079162598e-01,6.347579956054687500e-01,6.347374320030212402e-01,6.347168087959289551e-01,6.346962451934814453e-01,6.346757411956787109e-01,6.346551179885864258e-01,6.346345543861389160e-01,6.346139907836914062e-01,6.345934271812438965e-01,6.345728635787963867e-01,6.345522999763488770e-01,6.345317363739013672e-01,6.345111727714538574e-01,6.344906091690063477e-01,6.344700455665588379e-01,6.344495415687561035e-01,6.344289183616638184e-01,6.344084143638610840e-01,6.343878507614135742e-01,6.343672871589660645e-01,6.343467831611633301e-01,6.343261599540710449e-01,6.343056559562683105e-01,6.342851519584655762e-01,6.342645287513732910e-01,6.342440247535705566e-01,6.342235207557678223e-01,6.342029571533203125e-01,6.341823935508728027e-01,6.341618895530700684e-01,6.341413259506225586e-01,6.341208219528198242e-01,6.341003179550170898e-01,6.340797543525695801e-01,6.340592503547668457e-01,6.340386867523193359e-01,6.340181827545166016e-01,6.339976191520690918e-01,6.339771151542663574e-01,6.339566111564636230e-01,6.339361071586608887e-01,6.339155435562133789e-01,6.338950395584106445e-01,6.338745355606079102e-01,6.338539719581604004e-01,6.338334679603576660e-01,6.338129639625549316e-01,6.337924599647521973e-01,6.337719559669494629e-01,6.337514519691467285e-01,6.337308883666992188e-01,6.337104439735412598e-01,6.336899399757385254e-01,6.336693763732910156e-01,6.336489319801330566e-01,6.336283683776855469e-01,6.336078643798828125e-01,6.335874199867248535e-01,6.335668563842773438e-01,6.335464119911193848e-01,6.335259079933166504e-01,6.335054039955139160e-01,6.334848999977111816e-01,6.334644556045532227e-01,6.334439516067504883e-01,6.334234476089477539e-01,6.334030032157897949e-01,6.333824396133422852e-01,6.333619952201843262e-01
6.118474602699279785e-01,6.118283271789550781e-01,6.118092536926269531e-01,6.117901206016540527e-01,6.117709875106811523e-01,6.117519140243530273e-01,6.117327809333801270e-01,6.117136478424072266e-01,6.116945743560791016e-01,6.116754412651062012e-01,6.116563677787780762e-01,6.116372942924499512e-01,6.116181612014770508e-01,6.115990281105041504e-01,6.115799546241760254e-01,6.115608215332031250e-01,6.115417480468750000e-01,6.115226745605468750e-01,6.115035414695739746e-01,6.114844679832458496e-01,6.114653348922729492e-01,6.114462614059448242e-01,6.114271879196166992e-01,6.114081144332885742e-01,6.113890409469604492e-01,6.113699674606323242e-01,6.113508343696594238e-01,6.113317608833312988e-01,6.113126873970031738e-01,6.112935543060302734e-01,6.112745404243469238e-01,6.112554669380187988e-01,6.112363338470458984e-01,6.112172603607177734e-01,6.111982464790344238e-01,6.111791133880615234e-01,6.111600399017333984e-01,6.111409664154052734e-01,6.111218929290771484e-01,6.111028194427490234e-01,6.110837459564208984e-01,6.110646724700927734e-01,6.110456585884094238e-01,6.110265254974365234e-01,6.110075116157531738e-01,6.109884381294250488e-01,6.109693646430969238e-01,6.109502911567687988e-01,6.109312772750854492e-01,6.109122037887573242e-01,6.108931303024291992e-01,6.108741164207458496e-01,6.108550429344177246e-01,6.108359694480895996e-01,6.108168959617614746e-01,6.107978820800781250e-01,6.107788085937500000e-01,6.107597351074218750e-01,6.107407212257385254e-01,6.107217073440551758e-01,6.107026338577270508e-01,6.106835603713989258e-01,6.106645464897155762e-01,6.106454730033874512e-01,6.106264591217041016e-01,6.106074452400207520e-01,6.105883717536926270e-01,6.105693578720092773e-01,6.105502843856811523e-01,6.105312705039978027e-01,6.105122566223144531e-01,6.104931831359863281e-01,6.104741692543029785e-01,6.104551553726196289e-01,6.104360818862915039e-01,6.104170680046081543e-01,6.103980541229248047e-01,6.103790402412414551e-01,6.103600263595581055e-01,6.103410124778747559e-01
5.903372764587402344e-01,5.903195142745971680e-01,5.903017520904541016e-01,5.902839303016662598e-01,5.902661681175231934e-01,5.902483463287353516e-01,5.902305245399475098e-01,5.902127623558044434e-01,5.901949405670166016e-01,5.901771783828735352e-01,5.901594161987304688e-01,5.901415944099426270e-01,5.901238322257995605e-01,5.901060700416564941e-01,5.900882482528686523e-01,5.900704860687255859e-01,5.900527238845825195e-01,5.900349020957946777e-01,5.900171399116516113e-01,5.899993777275085449e-01,5.899816155433654785e-01,5.899638533592224121e-01,5.899460911750793457e-01,5.899282693862915039e-01,5.899105072021484375e-01,5.898927450180053711e-01,5.898749828338623047e-01,5.898572206497192383e-01,5.898394584655761719e-01,5.898216962814331055e-01,5.898039340972900391e-01,5.897861719131469727e-01,5.897684097290039062e-01,5.897506475448608398e-01,5.897328853607177734e-01,5.897151231765747070e-01,5.896974205970764160e-01,5.896795988082885742e-01,5.896618962287902832e-01,5.896441340446472168e-01,5.896263718605041504e-01,5.896086096763610840e-01,5.895908474922180176e-01,5.895730853080749512e-01,5.895553827285766602e-01,5.895376205444335938e-01,5.895198583602905273e-01,5.895021557807922363e-01,5.894843339920043945e-01,5.894666314125061035e-01,5.894489288330078125e-01,5.894311666488647461e-01,5.894134044647216797e-01,5.893957018852233887e-01,5.893779397010803223e-01,5.893601775169372559e-01,5.893424153327941895e-01,5.893247127532958984e-01,5.893070101737976074e-01,5.892892479896545410e-01,5.892715454101562500e-01,5.892537832260131836e-01,5.892360210418701172e-01,5.892183184623718262e-01,5.892006158828735352e-01,5.891828536987304688e-01,5.891651511192321777e-01,5.891474485397338867e-01,5.891296863555908203e-01,5.891119837760925293e-01,5.890942811965942383e-01,5.890765190124511719e-01,5.890588164329528809e-01,5.890411138534545898e-01,5.890234112739562988e-01,5.890057086944580078e-01,5.889879465103149414e-01,5.889702439308166504e-01,5.889525413513183594e-01,5.889347791671752930e-01
