5.000000000000000000e+00,5.000000000000000000e+00,5.000000000000000000e+00,5.000000000000000000e+00,5.000000000000000000e+00,5.000000000000000000e+00,5.000000000000000000e+00,5.000000000000000000e+00,5.000000000000000000e+00,5.000000000000000000e+00,5.000000000000000000e+00,5.000000000000000000e+00,5.000000000000000000e+00,5.000000000000000000e+00,5.000000000000000000e+00,5.000000000000000000e+00,5.000000000000000000e+00,5.000000000000000000e+00,5.000000000000000000e+00,5.000000000000000000e+00,5.000000000000000000e+00,5.000000000000000000e+00,5.000000000000000000e+00,5.000000000000000000e+00,5.000000000000000000e+00,5.000000000000000000e+00,3.750400066375732422e+00,3.707651853561401367e+00,5.000000000000000000e+00,5.000000000000000000e+00,5.000000000000000000e+00,5.000000000000000000e+00,5.000000000000000000e+00,5.000000000000000000e+00,5.000000000000000000e+00,5.000000000000000000e+00,5.000000000000000000e+00,5.000000000000000000e+00,5.000000000000000000e+00,4.850438594818115234e+00,4.660451889038085938e+00,4.484787464141845703e+00,4.321884155273437500e+00,4.170400619506835938e+00,4.029176712036132812e+00,3.897204637527465820e+00,3.773602962493896484e+00,3.657600879669189453e+00,3.548517704010009766e+00,3.445752620697021484e+00,3.348772048950195312e+00,3.257101535797119141e+00,3.170315742492675781e+00,3.088034868240356445e+00,3.009917020797729492e+00,2.935653924942016602e+00,2.864966869354248047e+00,2.797604084014892578e+00,2.733336448669433594e+00,2.671955108642578125e+00,2.613269805908203125e+00,2.557107448577880859e+00,2.503307819366455078e+00,2.451725721359252930e+00,2.402226209640502930e+00,2.354686260223388672e+00,2.308990955352783203e+00,2.265035629272460938e+00,2.222722530364990234e+00,2.181961536407470703e+00,2.142668247222900391e+00,2.104765415191650391e+00,2.068180084228515625e+00,2.032845020294189453e+00,1.998696923255920410e+00,1.965677261352539062e+00,1.933730959892272949e+00,1.902806282043457031e+00,1.872855067253112793e+00,1.843832254409790039e+00
5.000000000000000000e+00,5.000000000000000000e+00,5.000000000000000000e+00,5.000000000000000000e+00,5.000000000000000000e+00,5.000000000000000000e+00,5.000000000000000000e+00,5.000000000000000000e+00,5.000000000000000000e+00,5.000000000000000000e+00,5.000000000000000000e+00,5.000000000000000000e+00,5.000000000000000000e+00,5.000000000000000000e+00,5.000000000000000000e+00,5.000000000000000000e+00,5.000000000000000000e+00,5.000000000000000000e+00,5.000000000000000000e+00,5.000000000000000000e+00,5.000000000000000000e+00,5.000000000000000000e+00,5.000000000000000000e+00,3.669270277023315430e+00,3.666537523269653320e+00,3.673915863037109375e+00,3.676203727722167969e+00,3.783752202987670898e+00,3.782496452331542969e+00,3.842556953430175781e+00,5.000000000000000000e+00,5.000000000000000000e+00,5.000000000000000000e+00,5.000000000000000000e+00,5.000000000000000000e+00,5.000000000000000000e+00,5.000000000000000000e+00,5.000000000000000000e+00,5.000000000000000000e+00,4.850577354431152344e+00,4.660579681396484375e+00,4.484905719757080078e+00,4.321994304656982422e+00,4.170503139495849609e+00,4.029272556304931641e+00,3.897294044494628906e+00,3.773686885833740234e+00,3.657679557800292969e+00,3.548591613769531250e+00,3.445822715759277344e+00,3.348838329315185547e+00,3.257164001464843750e+00,3.170375108718872070e+00,3.088091135025024414e+00,3.009970188140869141e+00,2.935704469680786133e+00,2.865015268325805664e+00,2.797650098800659180e+00,2.733380317687988281e+00,2.671996831893920898e+00,2.613310337066650391e+00,2.557145833969116211e+00,2.503344774246215820e+00,2.451761007308959961e+00,2.402260303497314453e+00,2.354718685150146484e+00,2.309022188186645508e+00,2.265065908432006836e+00,2.222751617431640625e+00,2.181989431381225586e+00,2.142695426940917969e+00,2.104791641235351562e+00,2.068205118179321289e+00,2.032869338989257812e+00,1.998720526695251465e+00,1.965700030326843262e+00,1.933752775192260742e+00,1.902827620506286621e+00,1.872875809669494629e+00,1.843852281570434570e+00
5.000000000000000000e+00,5.000000000000000000e+00,5.000000000000000000e+00,5.000000000000000000e+00,5.000000000000000000e+00,5.000000000000000000e+00,5.000000000000000000e+00,5.000000000000000000e+00,5.000000000000000000e+00,5.000000000000000000e+00,5.000000000000000000e+00,5.000000000000000000e+00,5.000000000000000000e+00,5.000000000000000000e+00,5.000000000000000000e+00,5.000000000000000000e+00,5.000000000000000000e+00,5.000000000000000000e+00,5.000000000000000000e+00,5.000000000000000000e+00,5.000000000000000000e+00,5.000000000000000000e+00,5.000000000000000000e+00,3.628453493118286133e+00,3.644884586334228516e+00,3.646525382995605469e+00,3.667796611785888672e+00,3.697033882141113281e+00,3.739861965179443359e+00,3.801754474639892578e+00,3.859101772308349609e+00,5.000000000000000000e+00,5.000000000000000000e+00,5.000000000000000000e+00,5.000000000000000000e+00,5.000000000000000000e+00,5.000000000000000000e+00,5.000000000000000000e+00,5.000000000000000000e+00,4.850715637207031250e+00,4.660707473754882812e+00,4.485023975372314453e+00,4.322103977203369141e+00,4.170605659484863281e+00,4.029367923736572266e+00,3.897383213043212891e+00,3.773770570755004883e+00,3.657758474349975586e+00,3.548666000366210938e+00,3.445892333984375000e+00,3.348904132843017578e+00,3.257226467132568359e+00,3.170433998107910156e+00,3.088147163391113281e+00,3.010023832321166992e+00,2.935755252838134766e+00,2.865063428878784180e+00,2.797696113586425781e+00,2.733424425125122070e+00,2.672039031982421875e+00,2.613350391387939453e+00,2.557184457778930664e+00,2.503381729125976562e+00,2.451796293258666992e+00,2.402294158935546875e+00,2.354751348495483398e+00,2.309053659439086914e+00,2.265095949172973633e+00,2.222780704498291016e+00,2.182017564773559570e+00,2.142722368240356445e+00,2.104817628860473633e+00,2.068230390548706055e+00,2.032893657684326172e+00,1.998744010925292969e+00,1.965722799301147461e+00,1.933774828910827637e+00,1.902848839759826660e+00,1.872896313667297363e+00,1.843872308731079102e+00
5.000000000000000000e+00,5.000000000000000000e+00,5.000000000000000000e+00,5.000000000000000000e+00,5.000000000000000000e+00,5.000000000000000000e+00,5.000000000000000000e+00,5.000000000000000000e+00,5.000000000000000000e+00,5.000000000000000000e+00,5.000000000000000000e+00,5.000000000000000000e+00,5.000000000000000000e+00,5.000000000000000000e+00,5.000000000000000000e+00,5.000000000000000000e+00,5.000000000000000000e+00,5.000000000000000000e+00,5.000000000000000000e+00,5.000000000000000000e+00,5.000000000000000000e+00,5.000000000000000000e+00,5.000000000000000000e+00,3.654899358749389648e+00,3.671632766723632812e+00,3.637969255447387695e+00,3.641438722610473633e+00,3.669770717620849609e+00,3.707786798477172852e+00,3.811357736587524414e+00,3.866099596023559570e+00,5.000000000000000000e+00,5.000000000000000000e+00,5.000000000000000000e+00,5.000000000000000000e+00,5.000000000000000000e+00,5.000000000000000000e+00,5.000000000000000000e+00,5.000000000000000000e+00,4.850854396820068359e+00,4.660835742950439453e+00,4.485142707824707031e+00,4.322214126586914062e+00,4.170708179473876953e+00,4.029463768005371094e+00,3.897472858428955078e+00,3.773854494094848633e+00,3.657836914062500000e+00,3.548739910125732422e+00,3.445962429046630859e+00,3.348970174789428711e+00,3.257288694381713867e+00,3.170493364334106445e+00,3.088203430175781250e+00,3.010076999664306641e+00,2.935806035995483398e+00,2.865112066268920898e+00,2.797742366790771484e+00,2.733468294143676758e+00,2.672081232070922852e+00,2.613390684127807617e+00,2.557222843170166016e+00,2.503418445587158203e+00,2.451831817626953125e+00,2.402328252792358398e+00,2.354784011840820312e+00,2.309084892272949219e+00,2.265126228332519531e+00,2.222809791564941406e+00,2.182045459747314453e+00,2.142749547958374023e+00,2.104843616485595703e+00,2.068255662918090820e+00,2.032917976379394531e+00,1.998767614364624023e+00,1.965745687484741211e+00,1.933796882629394531e+00,1.902870178222656250e+00,1.872916936874389648e+00,1.843892216682434082e+00
5.000000000000000000e+00,5.000000000000000000e+00,5.000000000000000000e+00,5.000000000000000000e+00,5.000000000000000000e+00,5.000000000000000000e+00,5.000000000000000000e+00,5.000000000000000000e+00,5.000000000000000000e+00,5.000000000000000000e+00,5.000000000000000000e+00,5.000000000000000000e+00,5.000000000000000000e+00,5.000000000000000000e+00,5.000000000000000000e+00,5.000000000000000000e+00,5.000000000000000000e+00,5.000000000000000000e+00,5.000000000000000000e+00,5.000000000000000000e+00,5.000000000000000000e+00,5.000000000000000000e+00,5.000000000000000000e+00,3.688220739364624023e+00,3.680219173431396484e+00,3.650963544845581055e+00,3.646211862564086914e+00,3.665818452835083008e+00,3.716557979583740234e+00,3.854942560195922852e+00,3.865142822265625000e+00,5.000000000000000000e+00,5.000000000000000000e+00,5.000000000000000000e+00,5.000000000000000000e+00,5.000000000000000000e+00,5.000000000000000000e+00,5.000000000000000000e+00,5.000000000000000000e+00,4.850992679595947266e+00,4.660963535308837891e+00,4.485260963439941406e+00,4.322324275970458984e+00,4.170810699462890625e+00,4.029559135437011719e+00,3.897562026977539062e+00,3.773938179016113281e+00,3.657916069030761719e+00,3.548814296722412109e+00,3.446032047271728516e+00,3.349036455154418945e+00,3.257351398468017578e+00,3.170552492141723633e+00,3.088259220123291016e+00,3.010130405426025391e+00,2.935856819152832031e+00,2.865160226821899414e+00,2.797788143157958984e+00,2.733512163162231445e+00,2.672123193740844727e+00,2.613430738449096680e+00,2.557261466979980469e+00,2.503455400466918945e+00,2.451867103576660156e+00,2.402362108230590820e+00,2.354816675186157227e+00,2.309116363525390625e+00,2.265156507492065430e+00,2.222838878631591797e+00,2.182073593139648438e+00,2.142776489257812500e+00,2.104869604110717773e+00,2.068280696868896484e+00,2.032942295074462891e+00,1.998790979385375977e+00,1.965768456459045410e+00,1.933819055557250977e+00,1.902891516685485840e+00,1.872937679290771484e+00,1.843912243843078613e+00
5.000000000000000000e+00,5.000000000000000000e+00,5.000000000000000000e+00,5.000000000000000000e+00,5.000000000000000000e+00,5.000000000000000000e+00,5.000000000000000000e+00,5.000000000000000000e+00,5.000000000000000000e+00,5.000000000000000000e+00,5.000000000000000000e+00,5.000000000000000000e+00,5.000000000000000000e+00,5.000000000000000000e+00,5.000000000000000000e+00,5.000000000000000000e+00,5.000000000000000000e+00,5.000000000000000000e+00,5.000000000000000000e+00,5.000000000000000000e+00,5.000000000000000000e+00,5.000000000000000000e+00,5.000000000000000000e+00,3.702360868453979492e+00,3.682510375976562500e+00,3.659827232360839844e+00,3.645334005355834961e+00,3.666509866714477539e+00,3.712905168533325195e+00,3.904572725296020508e+00,3.860258102416992188e+00,5.000000000000000000e+00,5.000000000000000000e+00,5.000000000000000000e+00,5.000000000000000000e+00,5.000000000000000000e+00,5.000000000000000000e+00,5.000000000000000000e+00,5.000000000000000000e+00,4.851131439208984375e+00,4.661091327667236328e+00,4.485379695892333984e+00,4.322433948516845703e+00,4.170913219451904297e+00,4.029654502868652344e+00,3.897651672363281250e+00,3.774022340774536133e+00,3.657994508743286133e+00,3.548888206481933594e+00,3.446102142333984375e+00,3.349102258682250977e+00,3.257413625717163086e+00,3.170611619949340820e+00,3.088315725326538086e+00,3.010183572769165039e+00,2.935907363891601562e+00,2.865208625793457031e+00,2.797834634780883789e+00,2.733556032180786133e+00,2.672165155410766602e+00,2.613471031188964844e+00,2.557299852371215820e+00,2.503492355346679688e+00,2.451902627944946289e+00,2.402395963668823242e+00,2.354849338531494141e+00,2.309147834777832031e+00,2.265186786651611328e+00,2.222867965698242188e+00,2.182101488113403320e+00,2.142803430557250977e+00,2.104895830154418945e+00,2.068305969238281250e+00,2.032966613769531250e+00,1.998814582824707031e+00,1.965790987014770508e+00,1.933840870857238770e+00,1.902912855148315430e+00,1.872958421707153320e+00,1.843932390213012695e+00
5.000000000000000000e+00,5.000000000000000000e+00,5.000000000000000000e+00,5.000000000000000000e+00,5.000000000000000000e+00,5.000000000000000000e+00,5.000000000000000000e+00,5.000000000000000000e+00,5.000000000000000000e+00,5.000000000000000000e+00,5.000000000000000000e+00,5.000000000000000000e+00,5.000000000000000000e+00,5.000000000000000000e+00,5.000000000000000000e+00,5.000000000000000000e+00,5.000000000000000000e+00,5.000000000000000000e+00,5.000000000000000000e+00,5.000000000000000000e+00,5.000000000000000000e+00,5.000000000000000000e+00,5.000000000000000000e+00,3.721103191375732422e+00,3.704748392105102539e+00,3.644742488861083984e+00,3.633979082107543945e+00,3.668691158294677734e+00,3.710348129272460938e+00,5.000000000000000000e+00,3.871794223785400391e+00,5.000000000000000000e+00,5.000000000000000000e+00,5.000000000000000000e+00,5.000000000000000000e+00,5.000000000000000000e+00,5.000000000000000000e+00,5.000000000000000000e+00,5.000000000000000000e+00,4.851269721984863281e+00,4.661219120025634766e+00,4.485497951507568359e+00,4.322544097900390625e+00,4.171015262603759766e+00,4.029750347137451172e+00,3.897741079330444336e+00,3.774105787277221680e+00,3.658073425292968750e+00,3.548962593078613281e+00,3.446171998977661133e+00,3.349168539047241211e+00,3.257476329803466797e+00,3.170670747756958008e+00,3.088371515274047852e+00,3.010236978530883789e+00,2.935958147048950195e+00,2.865256786346435547e+00,2.797880649566650391e+00,2.733600139617919922e+00,2.672207117080688477e+00,2.613511085510253906e+00,2.557338476181030273e+00,2.503529310226440430e+00,2.451937913894653320e+00,2.402430057525634766e+00,2.354882001876831055e+00,2.309179306030273438e+00,2.265216827392578125e+00,2.222897052764892578e+00,2.182129621505737305e+00,2.142830610275268555e+00,2.104921817779541016e+00,2.068331241607666016e+00,2.032990932464599609e+00,1.998838067054748535e+00,1.965813875198364258e+00,1.933862924575805664e+00,1.902934074401855469e+00,1.872978925704956055e+00,1.843952417373657227e+00
5.000000000000000000e+00,5.000000000000000000e+00,5.000000000000000000e+00,5.000000000000000000e+00,5.000000000000000000e+00,5.000000000000000000e+00,5.000000000000000000e+00,5.000000000000000000e+00,5.000000000000000000e+00,5.000000000000000000e+00,5.000000000000000000e+00,5.000000000000000000e+00,5.000000000000000000e+00,5.000000000000000000e+00,5.000000000000000000e+00,5.000000000000000000e+00,5.000000000000000000e+00,5.000000000000000000e+00,5.000000000000000000e+00,5.000000000000000000e+00,5.000000000000000000e+00,5.000000000000000000e+00,5.000000000000000000e+00,5.000000000000000000e+00,3.721222400665283203e+00,3.646652936935424805e+00,3.647486925125122070e+00,3.666834354400634766e+00,3.719632863998413086e+00,5.000000000000000000e+00,3.848735332489013672e+00,3.880175590515136719e+00,5.000000000000000000e+00,5.000000000000000000e+00,5.000000000000000000e+00,5.000000000000000000e+00,5.000000000000000000e+00,5.000000000000000000e+00,5.000000000000000000e+00,4.851408481597900391e+00,4.661346912384033203e+00,4.485616683959960938e+00,4.322654247283935547e+00,4.171117782592773438e+00,4.029845714569091797e+00,3.897830724716186523e+00,3.774189949035644531e+00,3.658152103424072266e+00,3.549036741256713867e+00,3.446242094039916992e+00,3.349234342575073242e+00,3.257538557052612305e+00,3.170730113983154297e+00,3.088427782058715820e+00,3.010290384292602539e+00,2.936009168624877930e+00,2.865305185317993164e+00,2.797926664352416992e+00,2.733644008636474609e+00,2.672249317169189453e+00,2.613551378250122070e+00,2.557376861572265625e+00,2.503566026687622070e+00,2.451973438262939453e+00,2.402463912963867188e+00,2.354914426803588867e+00,2.309210777282714844e+00,2.265247106552124023e+00,2.222926139831542969e+00,2.182157516479492188e+00,2.142857551574707031e+00,2.104948043823242188e+00,2.068356275558471680e+00,2.033015489578247070e+00,1.998861670494079590e+00,1.965836644172668457e+00,1.933884978294372559e+00,1.902955412864685059e+00,1.872999548912048340e+00,1.843972325325012207e+00
5.000000000000000000e+00,5.000000000000000000e+00,5.000000000000000000e+00,5.000000000000000000e+00,5.000000000000000000e+00,5.000000000000000000e+00,5.000000000000000000e+00,5.000000000000000000e+00,5.000000000000000000e+00,5.000000000000000000e+00,5.000000000000000000e+00,5.000000000000000000e+00,5.000000000000000000e+00,5.000000000000000000e+00,5.000000000000000000e+00,5.000000000000000000e+00,5.000000000000000000e+00,5.000000000000000000e+00,5.000000000000000000e+00,5.000000000000000000e+00,5.000000000000000000e+00,5.000000000000000000e+00,5.000000000000000000e+00,3.720237731933593750e+00,3.703465223312377930e+00,3.642674922943115234e+00,3.652369737625122070e+00,3.680720329284667969e+00,3.722724199295043945e+00,5.000000000000000000e+00,3.862018823623657227e+00,3.806914329528808594e+00,5.000000000000000000e+00,5.000000000000000000e+00,5.000000000000000000e+00,5.000000000000000000e+00,5.000000000000000000e+00,5.000000000000000000e+00,5.000000000000000000e+00,4.851547241210937500e+00,4.661475181579589844e+00,4.485734939575195312e+00,4.322763919830322266e+00,4.171220302581787109e+00,4.029941558837890625e+00,3.897919893264770508e+00,3.774273872375488281e+00,3.658231019973754883e+00,3.549110889434814453e+00,3.446311712265014648e+00,3.349300622940063477e+00,3.257601261138916016e+00,3.170789003372192383e+00,3.088483810424804688e+00,3.010343790054321289e+00,2.936059713363647461e+00,2.865353345870971680e+00,2.797972917556762695e+00,2.733688116073608398e+00,2.672291278839111328e+00,2.613591432571411133e+00,2.557415246963500977e+00,2.503602981567382812e+00,2.452008724212646484e+00,2.402498006820678711e+00,2.354947328567504883e+00,2.309242010116577148e+00,2.265277147293090820e+00,2.222955226898193359e+00,2.182185649871826172e+00,2.142884492874145508e+00,2.104974031448364258e+00,2.068381547927856445e+00,2.033039569854736328e+00,1.998885035514831543e+00,1.965859413146972656e+00,1.933907032012939453e+00,1.902976751327514648e+00,1.873020291328430176e+00,1.843992352485656738e+00
5.000000000000000000e+00,5.000000000000000000e+00,5.000000000000000000e+00,5.000000000000000000e+00,5.000000000000000000e+00,5.000000000000000000e+00,5.000000000000000000e+00,5.000000000000000000e+00,5.000000000000000000e+00,5.000000000000000000e+00,5.000000000000000000e+00,5.000000000000000000e+00,5.000000000000000000e+00,5.000000000000000000e+00,5.000000000000000000e+00,5.000000000000000000e+00,5.000000000000000000e+00,5.000000000000000000e+00,5.000000000000000000e+00,5.000000000000000000e+00,5.000000000000000000e+00,5.000000000000000000e+00,5.000000000000000000e+00,5.000000000000000000e+00,3.696255922317504883e+00,3.587804794311523438e+00,3.589690208435058594e+00,3.676085233688354492e+00,3.746352672576904297e+00,5.000000000000000000e+00,5.000000000000000000e+00,5.000000000000000000e+00,5.000000000000000000e+00,5.000000000000000000e+00,5.000000000000000000e+00,5.000000000000000000e+00,5.000000000000000000e+00,5.000000000000000000e+00,5.000000000000000000e+00,4.851685523986816406e+00,4.661602973937988281e+00,4.485853195190429688e+00,4.322874069213867188e+00,4.171322822570800781e+00,4.030036926269531250e+00,3.898009538650512695e+00,3.774357557296752930e+00,3.658309459686279297e+00,3.549185037612915039e+00,3.446381807327270508e+00,3.349366426467895508e+00,3.257663488388061523e+00,3.170848369598388672e+00,3.088540077209472656e+00,3.010396957397460938e+00,2.936110496520996094e+00,2.865401983261108398e+00,2.798018932342529297e+00,2.733731985092163086e+00,2.672333478927612305e+00,2.613631725311279297e+00,2.557453632354736328e+00,2.503639936447143555e+00,2.452044248580932617e+00,2.402531862258911133e+00,2.354979753494262695e+00,2.309273481369018555e+00,2.265307426452636719e+00,2.222984313964843750e+00,2.182213783264160156e+00,2.142911672592163086e+00,2.105000257492065430e+00,2.068406581878662109e+00,2.033064126968383789e+00,1.998908638954162598e+00,1.965882062911987305e+00,1.933928847312927246e+00,1.902998089790344238e+00,1.873040914535522461e+00,1.844012379646301270e+00
5.000000000000000000e+00,5.000000000000000000e+00,5.000000000000000000e+00,5.000000000000000000e+00,5.000000000000000000e+00,5.000000000000000000e+00,5.000000000000000000e+00,5.000000000000000000e+00,5.000000000000000000e+00,5.000000000000000000e+00,5.000000000000000000e+00,5.000000000000000000e+00,5.000000000000000000e+00,5.000000000000000000e+00,5.000000000000000000e+00,5.000000000000000000e+00,5.000000000000000000e+00,5.000000000000000000e+00,5.000000000000000000e+00,5.000000000000000000e+00,5.000000000000000000e+00,5.000000000000000000e+00,5.000000000000000000e+00,5.000000000000000000e+00,3.689515113830566406e+00,3.574243307113647461e+00,3.564787864685058594e+00,3.609308242797851562e+00,3.747035264968872070e+00,3.815843820571899414e+00,5.000000000000000000e+00,5.000000000000000000e+00,3.721837282180786133e+00,5.000000000000000000e+00,5.000000000000000000e+00,5.000000000000000000e+00,5.000000000000000000e+00,5.000000000000000000e+00,5.000000000000000000e+00,4.851824283599853516e+00,4.661730766296386719e+00,4.485971927642822266e+00,4.322984218597412109e+00,4.171424865722656250e+00,4.030132770538330078e+00,3.898098707199096680e+00,3.774441719055175781e+00,3.658388614654541016e+00,3.549258947372436523e+00,3.446451663970947266e+00,3.349432706832885742e+00,3.257726192474365234e+00,3.170907497406005859e+00,3.088596582412719727e+00,3.010450363159179688e+00,2.936161279678344727e+00,2.865450143814086914e+00,2.798064947128295898e+00,2.733776092529296875e+00,2.672375202178955078e+00,2.613672256469726562e+00,2.557492256164550781e+00,2.503676891326904297e+00,2.452079534530639648e+00,2.402565956115722656e+00,2.355012655258178711e+00,2.309304714202880859e+00,2.265337705612182617e+00,2.223013401031494141e+00,2.182241678237915039e+00,2.142938613891601562e+00,2.105026245117187500e+00,2.068431854248046875e+00,2.033088207244873047e+00,1.998932242393493652e+00,1.965904831886291504e+00,1.933950901031494141e+00,1.903019309043884277e+00,1.873061656951904297e+00,1.844032406806945801e+00
5.000000000000000000e+00,5.000000000000000000e+00,5.000000000000000000e+00,5.000000000000000000e+00,5.000000000000000000e+00,5.000000000000000000e+00,5.000000000000000000e+00,5.000000000000000000e+00,5.000000000000000000e+00,5.000000000000000000e+00,5.000000000000000000e+00,5.000000000000000000e+00,5.000000000000000000e+00,5.000000000000000000e+00,5.000000000000000000e+00,5.000000000000000000e+00,5.000000000000000000e+00,5.000000000000000000e+00,5.000000000000000000e+00,5.000000000000000000e+00,5.000000000000000000e+00,5.000000000000000000e+00,5.000000000000000000e+00,5.000000000000000000e+00,3.667209148406982422e+00,3.585382223129272461e+00,3.543869256973266602e+00,3.572768449783325195e+00,3.755291700363159180e+00,5.000000000000000000e+00,5.000000000000000000e+00,5.000000000000000000e+00,5.000000000000000000e+00,5.000000000000000000e+00,5.000000000000000000e+00,5.000000000000000000e+00,5.000000000000000000e+00,5.000000000000000000e+00,5.000000000000000000e+00,4.851962566375732422e+00,4.661858558654785156e+00,4.486090183258056641e+00,4.323093891143798828e+00,4.171527385711669922e+00,4.030228614807128906e+00,3.898188352584838867e+00,3.774525403976440430e+00,3.658467054367065430e+00,3.549333333969116211e+00,3.446521759033203125e+00,3.349498510360717773e+00,3.257788419723510742e+00,3.170966863632202148e+00,3.088652372360229492e+00,3.010503530502319336e+00,2.936212062835693359e+00,2.865498542785644531e+00,2.798110961914062500e+00,2.733819961547851562e+00,2.672417402267456055e+00,2.613712310791015625e+00,2.557530641555786133e+00,2.503713846206665039e+00,2.452115058898925781e+00,2.402599811553955078e+00,2.355045080184936523e+00,2.309336185455322266e+00,2.265367984771728516e+00,2.223042488098144531e+00,2.182269811630249023e+00,2.142965793609619141e+00,2.105052232742309570e+00,2.068456888198852539e+00,2.033112764358520508e+00,1.998955726623535156e+00,1.965927600860595703e+00,1.933973073959350586e+00,1.903040647506713867e+00,1.873082160949707031e+00,1.844052314758300781e+00
5.000000000000000000e+00,5.000000000000000000e+00,5.000000000000000000e+00,5.000000000000000000e+00,5.000000000000000000e+00,5.000000000000000000e+00,5.000000000000000000e+00,5.000000000000000000e+00,5.000000000000000000e+00,5.000000000000000000e+00,5.000000000000000000e+00,5.000000000000000000e+00,5.000000000000000000e+00,5.000000000000000000e+00,5.000000000000000000e+00,5.000000000000000000e+00,5.000000000000000000e+00,5.000000000000000000e+00,5.000000000000000000e+00,5.000000000000000000e+00,5.000000000000000000e+00,5.000000000000000000e+00,5.000000000000000000e+00,5.000000000000000000e+00,5.000000000000000000e+00,3.616634368896484375e+00,3.519894123077392578e+00,3.536546468734741211e+00,3.777854204177856445e+00,5.000000000000000000e+00,5.000000000000000000e+00,5.000000000000000000e+00,5.000000000000000000e+00,5.000000000000000000e+00,5.000000000000000000e+00,5.000000000000000000e+00,5.000000000000000000e+00,5.000000000000000000e+00,5.000000000000000000e+00,4.852101325988769531e+00,4.661986827850341797e+00,4.486208915710449219e+00,4.323204040527343750e+00,4.171629905700683594e+00,4.030323982238769531e+00,3.898277521133422852e+00,3.774609327316284180e+00,3.658546209335327148e+00,3.549407243728637695e+00,3.446591377258300781e+00,3.349564552307128906e+00,3.257851123809814453e+00,3.171025753021240234e+00,3.088708877563476562e+00,3.010557174682617188e+00,2.936262607574462891e+00,2.865546703338623047e+00,2.798157215118408203e+00,2.733864068984985352e+00,2.672459363937377930e+00,2.613752603530883789e+00,2.557569265365600586e+00,2.503750562667846680e+00,2.452150344848632812e+00,2.402633905410766602e+00,2.355077743530273438e+00,2.309367656707763672e+00,2.265398263931274414e+00,2.223071575164794922e+00,2.182297706604003906e+00,2.142992734909057617e+00,2.105078458786010742e+00,2.068482160568237305e+00,2.033136844635009766e+00,1.998979091644287109e+00,1.965950369834899902e+00,1.933995127677917480e+00,1.903061985969543457e+00,1.873102903366088867e+00,1.844072341918945312e+00
5.000000000000000000e+00,5.000000000000000000e+00,5.000000000000000000e+00,5.000000000000000000e+00,5.000000000000000000e+00,5.000000000000000000e+00,5.000000000000000000e+00,5.000000000000000000e+00,5.000000000000000000e+00,5.000000000000000000e+00,5.000000000000000000e+00,5.000000000000000000e+00,5.000000000000000000e+00,5.000000000000000000e+00,5.000000000000000000e+00,5.000000000000000000e+00,5.000000000000000000e+00,5.000000000000000000e+00,5.000000000000000000e+00,5.000000000000000000e+00,5.000000000000000000e+00,5.000000000000000000e+00,5.000000000000000000e+00,5.000000000000000000e+00,5.000000000000000000e+00,5.000000000000000000e+00,3.517112731933593750e+00,3.499893426895141602e+00,3.809207916259765625e+00,5.000000000000000000e+00,5.000000000000000000e+00,5.000000000000000000e+00,5.000000000000000000e+00,5.000000000000000000e+00,5.000000000000000000e+00,5.000000000000000000e+00,5.000000000000000000e+00,5.000000000000000000e+00,5.000000000000000000e+00,4.852240085601806641e+00,4.662114620208740234e+00,4.486327171325683594e+00,4.323314189910888672e+00,4.171732425689697266e+00,4.030419826507568359e+00,3.898367166519165039e+00,3.774693012237548828e+00,3.658624649047851562e+00,3.549481630325317383e+00,3.446661472320556641e+00,3.349630594253540039e+00,3.257913589477539062e+00,3.171085119247436523e+00,3.088764667510986328e+00,3.010610342025756836e+00,2.936313629150390625e+00,2.865595102310180664e+00,2.798203229904174805e+00,2.733908176422119141e+00,2.672501564025878906e+00,2.613792657852172852e+00,2.557607650756835938e+00,2.503787517547607422e+00,2.452185630798339844e+00,2.402667760848999023e+00,2.355110406875610352e+00,2.309399127960205078e+00,2.265428304672241211e+00,2.223100662231445312e+00,2.182325839996337891e+00,2.143019676208496094e+00,2.105104446411132812e+00,2.068507432937622070e+00,2.033161401748657227e+00,1.999002695083618164e+00,1.965973019599914551e+00,1.934017181396484375e+00,1.903083443641662598e+00,1.873123526573181152e+00,1.844092488288879395e+00
5.000000000000000000e+00,5.000000000000000000e+00,5.000000000000000000e+00,5.000000000000000000e+00,5.000000000000000000e+00,5.000000000000000000e+00,5.000000000000000000e+00,5.000000000000000000e+00,5.000000000000000000e+00,5.000000000000000000e+00,5.000000000000000000e+00,5.000000000000000000e+00,5.000000000000000000e+00,5.000000000000000000e+00,5.000000000000000000e+00,5.000000000000000000e+00,5.000000000000000000e+00,5.000000000000000000e+00,5.000000000000000000e+00,5.000000000000000000e+00,5.000000000000000000e+00,5.000000000000000000e+00,5.000000000000000000e+00,5.000000000000000000e+00,5.000000000000000000e+00,5.000000000000000000e+00,3.535115718841552734e+00,3.491910457611083984e+00,3.836263656616210938e+00,5.000000000000000000e+00,5.000000000000000000e+00,5.000000000000000000e+00,5.000000000000000000e+00,5.000000000000000000e+00,5.000000000000000000e+00,5.000000000000000000e+00,5.000000000000000000e+00,5.000000000000000000e+00,5.000000000000000000e+00,4.852378368377685547e+00,4.662242412567138672e+00,4.486445903778076172e+00,4.323424339294433594e+00,4.171834945678710938e+00,4.030515193939208984e+00,3.898456573486328125e+00,3.774777173995971680e+00,3.658703565597534180e+00,3.549555778503417969e+00,3.446731567382812500e+00,3.349696636199951172e+00,3.257976055145263672e+00,3.171144247055053711e+00,3.088821172714233398e+00,3.010663747787475586e+00,2.936364173889160156e+00,2.865643501281738281e+00,2.798249483108520508e+00,2.733952045440673828e+00,2.672543525695800781e+00,2.613832950592041016e+00,2.557646274566650391e+00,2.503824472427368164e+00,2.452221155166625977e+00,2.402701854705810547e+00,2.355143070220947266e+00,2.309430360794067383e+00,2.265458583831787109e+00,2.223129749298095703e+00,2.182353973388671875e+00,2.143046617507934570e+00,2.105130672454833984e+00,2.068532705307006836e+00,2.033185720443725586e+00,1.999026298522949219e+00,1.965995788574218750e+00,1.934038996696472168e+00,1.903104543685913086e+00,1.873144268989562988e+00,1.844112515449523926e+00
5.000000000000000000e+00,5.000000000000000000e+00,5.000000000000000000e+00,5.000000000000000000e+00,5.000000000000000000e+00,5.000000000000000000e+00,5.000000000000000000e+00,5.000000000000000000e+00,5.000000000000000000e+00,5.000000000000000000e+00,5.000000000000000000e+00,5.000000000000000000e+00,5.000000000000000000e+00,5.000000000000000000e+00,5.000000000000000000e+00,5.000000000000000000e+00,5.000000000000000000e+00,5.000000000000000000e+00,5.000000000000000000e+00,5.000000000000000000e+00,5.000000000000000000e+00,5.000000000000000000e+00,5.000000000000000000e+00,5.000000000000000000e+00,5.000000000000000000e+00,5.000000000000000000e+00,3.518587112426757812e+00,3.499962806701660156e+00,5.000000000000000000e+00,5.000000000000000000e+00,5.000000000000000000e+00,5.000000000000000000e+00,5.000000000000000000e+00,5.000000000000000000e+00,5.000000000000000000e+00,5.000000000000000000e+00,5.000000000000000000e+00,5.000000000000000000e+00,5.000000000000000000e+00,4.852516651153564453e+00,4.662370681762695312e+00,4.486564159393310547e+00,4.323534488677978516e+00,4.171936988830566406e+00,4.030611038208007812e+00,3.898546218872070312e+00,3.774860858917236328e+00,3.658782243728637695e+00,3.549629926681518555e+00,3.446801424026489258e+00,3.349762678146362305e+00,3.258038759231567383e+00,3.171203613281250000e+00,3.088877201080322266e+00,3.010716915130615234e+00,2.936415195465087891e+00,2.865691900253295898e+00,2.798295259475708008e+00,2.733996152877807617e+00,2.672585725784301758e+00,2.613873004913330078e+00,2.557684659957885742e+00,2.503861427307128906e+00,2.452256441116333008e+00,2.402735948562622070e+00,2.355175971984863281e+00,2.309461832046508789e+00,2.265488624572753906e+00,2.223158836364746094e+00,2.182382106781005859e+00,2.143073797225952148e+00,2.105156660079956055e+00,2.068557977676391602e+00,2.033210039138793945e+00,1.999049782752990723e+00,1.966018557548522949e+00,1.934061050415039062e+00,1.903125882148742676e+00,1.873164772987365723e+00,1.844132423400878906e+00
5.000000000000000000e+00,5.000000000000000000e+00,5.000000000000000000e+00,5.000000000000000000e+00,5.000000000000000000e+00,5.000000000000000000e+00,5.000000000000000000e+00,5.000000000000000000e+00,5.000000000000000000e+00,5.000000000000000000e+00,5.000000000000000000e+00,5.000000000000000000e+00,5.000000000000000000e+00,5.000000000000000000e+00,5.000000000000000000e+00,5.000000000000000000e+00,5.000000000000000000e+00,5.000000000000000000e+00,5.000000000000000000e+00,5.000000000000000000e+00,5.000000000000000000e+00,5.000000000000000000e+00,5.000000000000000000e+00,5.000000000000000000e+00,5.000000000000000000e+00,5.000000000000000000e+00,3.520518779754638672e+00,3.502644300460815430e+00,5.000000000000000000e+00,5.000000000000000000e+00,5.000000000000000000e+00,5.000000000000000000e+00,5.000000000000000000e+00,5.000000000000000000e+00,5.000000000000000000e+00,5.000000000000000000e+00,5.000000000000000000e+00,5.000000000000000000e+00,5.000000000000000000e+00,4.852654457092285156e+00,4.662498474121093750e+00,4.486682891845703125e+00,4.323644161224365234e+00,4.172039508819580078e+00,4.030706405639648438e+00,3.898635387420654297e+00,3.774944782257080078e+00,3.658861160278320312e+00,3.549704074859619141e+00,3.446871519088745117e+00,3.349828720092773438e+00,3.258100986480712891e+00,3.171262502670288086e+00,3.088933467864990234e+00,3.010770559310913086e+00,2.936465740203857422e+00,2.865740299224853516e+00,2.798341512680053711e+00,2.734040260314941406e+00,2.672627449035644531e+00,2.613913297653198242e+00,2.557723283767700195e+00,2.503898143768310547e+00,2.452291965484619141e+00,2.402769804000854492e+00,2.355208396911621094e+00,2.309493064880371094e+00,2.265518903732299805e+00,2.223187923431396484e+00,2.182410001754760742e+00,2.143100738525390625e+00,2.105182886123657227e+00,2.068583011627197266e+00,2.033234357833862305e+00,1.999073386192321777e+00,1.966041445732116699e+00,1.934083223342895508e+00,1.903147339820861816e+00,1.873185515403747559e+00,1.844152450561523438e+00
5.000000000000000000e+00,5.000000000000000000e+00,5.000000000000000000e+00,5.000000000000000000e+00,5.000000000000000000e+00,5.000000000000000000e+00,5.000000000000000000e+00,5.000000000000000000e+00,5.000000000000000000e+00,5.000000000000000000e+00,5.000000000000000000e+00,5.000000000000000000e+00,5.000000000000000000e+00,5.000000000000000000e+00,5.000000000000000000e+00,5.000000000000000000e+00,5.000000000000000000e+00,5.000000000000000000e+00,5.000000000000000000e+00,5.000000000000000000e+00,5.000000000000000000e+00,5.000000000000000000e+00,5.000000000000000000e+00,5.000000000000000000e+00,5.000000000000000000e+00,5.000000000000000000e+00,3.521751880645751953e+00,3.492226839065551758e+00,5.000000000000000000e+00,5.000000000000000000e+00,5.000000000000000000e+00,5.000000000000000000e+00,5.000000000000000000e+00,5.000000000000000000e+00,5.000000000000000000e+00,5.000000000000000000e+00,5.000000000000000000e+00,5.000000000000000000e+00,5.000000000000000000e+00,4.852792739868164062e+00,4.662625789642333984e+00,4.486801147460937500e+00,4.323754310607910156e+00,4.172142028808593750e+00,4.030802249908447266e+00,3.898725032806396484e+00,3.775028467178344727e+00,3.658940315246582031e+00,3.549778223037719727e+00,3.446941137313842773e+00,3.349894762039184570e+00,3.258163690567016602e+00,3.171321868896484375e+00,3.088989496231079102e+00,3.010823965072631836e+00,2.936516523361206055e+00,2.865788459777832031e+00,2.798387527465820312e+00,2.734084367752075195e+00,2.672669649124145508e+00,2.613953590393066406e+00,2.557761669158935547e+00,2.503935098648071289e+00,2.452327251434326172e+00,2.402803897857666016e+00,2.355241060256958008e+00,2.309524536132812500e+00,2.265549182891845703e+00,2.223217010498046875e+00,2.182438135147094727e+00,2.143127918243408203e+00,2.105208873748779297e+00,2.068608283996582031e+00,2.033258676528930664e+00,1.999096751213073730e+00,1.966063976287841797e+00,1.934105277061462402e+00,1.903168678283691406e+00,1.873206138610839844e+00,1.844172477722167969e+00
5.000000000000000000e+00,5.000000000000000000e+00,5.000000000000000000e+00,5.000000000000000000e+00,5.000000000000000000e+00,5.000000000000000000e+00,5.000000000000000000e+00,5.000000000000000000e+00,5.000000000000000000e+00,5.000000000000000000e+00,5.000000000000000000e+00,5.000000000000000000e+00,5.000000000000000000e+00,5.000000000000000000e+00,5.000000000000000000e+00,5.000000000000000000e+00,5.000000000000000000e+00,5.000000000000000000e+00,5.000000000000000000e+00,5.000000000000000000e+00,5.000000000000000000e+00,5.000000000000000000e+00,5.000000000000000000e+00,5.000000000000000000e+00,5.000000000000000000e+00,5.000000000000000000e+00,3.945856094360351562e+00,3.486949682235717773e+00,5.000000000000000000e+00,5.000000000000000000e+00,5.000000000000000000e+00,5.000000000000000000e+00,5.000000000000000000e+00,5.000000000000000000e+00,5.000000000000000000e+00,5.000000000000000000e+00,5.000000000000000000e+00,5.000000000000000000e+00,5.000000000000000000e+00,4.852930068969726562e+00,4.662753105163574219e+00,4.486918926239013672e+00,4.323864459991455078e+00,4.172244548797607422e+00,4.030897617340087891e+00,3.898814916610717773e+00,3.775112628936767578e+00,3.659018754959106445e+00,3.549852371215820312e+00,3.447011232376098633e+00,3.349961042404174805e+00,3.258225917816162109e+00,3.171380996704101562e+00,3.089045763015747070e+00,3.010877132415771484e+00,2.936567306518554688e+00,2.865837097167968750e+00,2.798433780670166016e+00,2.734128236770629883e+00,2.672711610794067383e+00,2.613993883132934570e+00,2.557800292968750000e+00,2.503972053527832031e+00,2.452362775802612305e+00,2.402837753295898438e+00,2.355273723602294922e+00,2.309556007385253906e+00,2.265579462051391602e+00,2.223246097564697266e+00,2.182466030120849609e+00,2.143155097961425781e+00,2.105234861373901367e+00,2.068633317947387695e+00,2.033282995223999023e+00,1.999120354652404785e+00,1.966086864471435547e+00,1.934127092361450195e+00,1.903190016746520996e+00,1.873226881027221680e+00,1.844192624092102051e+00
5.000000000000000000e+00,5.000000000000000000e+00,5.000000000000000000e+00,5.000000000000000000e+00,5.000000000000000000e+00,5.000000000000000000e+00,5.000000000000000000e+00,5.000000000000000000e+00,5.000000000000000000e+00,5.000000000000000000e+00,5.000000000000000000e+00,5.000000000000000000e+00,5.000000000000000000e+00,5.000000000000000000e+00,5.000000000000000000e+00,5.000000000000000000e+00,5.000000000000000000e+00,5.000000000000000000e+00,5.000000000000000000e+00,5.000000000000000000e+00,5.000000000000000000e+00,5.000000000000000000e+00,5.000000000000000000e+00,5.000000000000000000e+00,5.000000000000000000e+00,3.999902009963989258e+00,3.981611251831054688e+00,3.484678268432617188e+00,5.000000000000000000e+00,5.000000000000000000e+00,5.000000000000000000e+00,5.000000000000000000e+00,5.000000000000000000e+00,5.000000000000000000e+00,5.000000000000000000e+00,5.000000000000000000e+00,5.000000000000000000e+00,5.000000000000000000e+00,5.000000000000000000e+00,4.853067874908447266e+00,4.662880420684814453e+00,4.487037181854248047e+00,4.323974132537841797e+00,4.172347068786621094e+00,4.030993461608886719e+00,3.898904085159301758e+00,3.775196313858032227e+00,3.659097909927368164e+00,3.549926757812500000e+00,3.447081089019775391e+00,3.350026845932006836e+00,3.258288621902465820e+00,3.171440362930297852e+00,3.089101791381835938e+00,3.010930776596069336e+00,2.936618089675903320e+00,2.865885257720947266e+00,2.798479795455932617e+00,2.734172344207763672e+00,2.672753810882568359e+00,2.614033937454223633e+00,2.557838916778564453e+00,2.504009008407592773e+00,2.452398061752319336e+00,2.402871847152709961e+00,2.355306386947631836e+00,2.309587478637695312e+00,2.265609502792358398e+00,2.223275184631347656e+00,2.182494163513183594e+00,2.143182039260864258e+00,2.105261087417602539e+00,2.068658590316772461e+00,2.033307313919067383e+00,1.999143958091735840e+00,1.966109633445739746e+00,1.934149146080017090e+00,1.903211236000061035e+00,1.873247385025024414e+00,1.844212651252746582e+00
5.000000000000000000e+00,5.000000000000000000e+00,5.000000000000000000e+00,5.000000000000000000e+00,5.000000000000000000e+00,5.000000000000000000e+00,5.000000000000000000e+00,5.000000000000000000e+00,5.000000000000000000e+00,5.000000000000000000e+00,5.000000000000000000e+00,5.000000000000000000e+00,5.000000000000000000e+00,5.000000000000000000e+00,5.000000000000000000e+00,5.000000000000000000e+00,5.000000000000000000e+00,5.000000000000000000e+00,5.000000000000000000e+00,5.000000000000000000e+00,5.000000000000000000e+00,5.000000000000000000e+00,5.000000000000000000e+00,5.000000000000000000e+00,5.000000000000000000e+00,4.026134014129638672e+00,5.000000000000000000e+00,3.488431453704833984e+00,5.000000000000000000e+00,5.000000000000000000e+00,5.000000000000000000e+00,5.000000000000000000e+00,5.000000000000000000e+00,5.000000000000000000e+00,5.000000000000000000e+00,5.000000000000000000e+00,5.000000000000000000e+00,5.000000000000000000e+00,5.000000000000000000e+00,4.853206157684326172e+00,4.663007736206054688e+00,4.487154960632324219e+00,4.324083805084228516e+00,4.172449588775634766e+00,4.031089305877685547e+00,3.898993730545043945e+00,3.775280475616455078e+00,3.659176349639892578e+00,3.550000667572021484e+00,3.447151184082031250e+00,3.350093126296997070e+00,3.258350849151611328e+00,3.171499729156494141e+00,3.089158058166503906e+00,3.010983943939208984e+00,2.936668634414672852e+00,2.865933656692504883e+00,2.798526048660278320e+00,2.734216213226318359e+00,2.672795772552490234e+00,2.614074230194091797e+00,2.557877302169799805e+00,2.504045724868774414e+00,2.452433586120605469e+00,2.402905941009521484e+00,2.355339050292968750e+00,2.309618711471557617e+00,2.265639781951904297e+00,2.223304510116577148e+00,2.182522058486938477e+00,2.143208980560302734e+00,2.105287075042724609e+00,2.068683624267578125e+00,2.033331632614135742e+00,1.999167561531066895e+00,1.966132402420043945e+00,1.934171199798583984e+00,1.903232574462890625e+00,1.873268127441406250e+00,1.844232559204101562e+00
4.875101566314697266e+00,4.873890876770019531e+00,4.872680664062500000e+00,4.871471405029296875e+00,4.870262145996093750e+00,4.869054317474365234e+00,4.867846488952636719e+00,4.866639137268066406e+00,4.865432739257812500e+00,4.864226818084716797e+00,4.863021850585937500e+00,4.861816883087158203e+00,4.860612869262695312e+00,4.859409332275390625e+00,4.858206272125244141e+00,4.857004165649414062e+00,4.855802536010742188e+00,4.854600906372070312e+00,4.853400707244873047e+00,4.852200508117675781e+00,4.851001262664794922e+00,4.849802970886230469e+00,4.848604679107666016e+00,4.847407341003417969e+00,4.846210002899169922e+00,3.960799455642700195e+00,4.843817710876464844e+00,3.498011112213134766e+00,3.447814702987670898e+00,4.840233802795410156e+00,4.839040279388427734e+00,4.837847709655761719e+00,4.836655616760253906e+00,4.835463523864746094e+00,4.834272384643554688e+00,4.833081722259521484e+00,4.831892013549804688e+00,4.830702781677246094e+00,4.829514026641845703e+00,4.828325748443603516e+00,4.663135051727294922e+00,4.487272739410400391e+00,4.324193000793457031e+00,4.172551631927490234e+00,4.031184673309326172e+00,3.899082899093627930e+00,3.775364160537719727e+00,3.659255504608154297e+00,3.550075054168701172e+00,3.447221040725708008e+00,3.350158929824829102e+00,3.258413553237915039e+00,3.171558856964111328e+00,3.089214086532592773e+00,3.011037349700927734e+00,2.936719655990600586e+00,2.865981817245483398e+00,2.798571825027465820e+00,2.734260320663452148e+00,2.672837972640991211e+00,2.614114522933959961e+00,2.557915925979614258e+00,2.504082918167114258e+00,2.452468872070312500e+00,2.402939796447753906e+00,2.355371713638305664e+00,2.309650182723999023e+00,2.265669822692871094e+00,2.223333597183227539e+00,2.182550191879272461e+00,2.143235921859741211e+00,2.105313062667846680e+00,2.068708896636962891e+00,2.033355951309204102e+00,1.999190807342529297e+00,1.966155290603637695e+00,1.934193372726440430e+00,1.903253912925720215e+00,1.873288750648498535e+00,1.844252586364746094e+00
3.777930736541748047e+00,3.777203798294067383e+00,3.776476860046386719e+00,3.775750160217285156e+00,3.775023937225341797e+00,3.774298191070556641e+00,3.773572206497192383e+00,3.772846698760986328e+00,3.772121906280517578e+00,3.771396875381469727e+00,3.770672321319580078e+00,3.769947767257690430e+00,3.769223928451538086e+00,3.768500089645385742e+00,3.767776489257812500e+00,3.767053604125976562e+00,3.766330718994140625e+00,3.765607833862304688e+00,3.764885425567626953e+00,3.764163494110107422e+00,3.763441562652587891e+00,3.762719869613647461e+00,3.761998653411865234e+00,3.761277914047241211e+00,3.760557174682617188e+00,3.759836435317993164e+00,3.759116649627685547e+00,3.516000747680664062e+00,3.757677078247070312e+00,3.756957530975341797e+00,3.756238698959350586e+00,3.755519866943359375e+00,3.754801273345947266e+00,3.754082918167114258e+00,3.753365278244018555e+00,3.752647399902343750e+00,3.751929759979248047e+00,3.751213073730468750e+00,3.750495910644531250e+00,3.749779224395751953e+00,3.749062776565551758e+00,3.748347043991088867e+00,3.747631311416625977e+00,3.746915578842163086e+00,3.746200323104858398e+00,3.745485782623291016e+00,3.744770765304565430e+00,3.659334182739257812e+00,3.550148963928222656e+00,3.447291135787963867e+00,3.350225210189819336e+00,3.258476018905639648e+00,3.171618223190307617e+00,3.089270353317260742e+00,3.011090755462646484e+00,2.936770200729370117e+00,2.866030454635620117e+00,2.798618078231811523e+00,2.734304189682006836e+00,2.672879934310913086e+00,2.614154815673828125e+00,2.557954311370849609e+00,2.504119634628295898e+00,2.452504396438598633e+00,2.402973890304565430e+00,2.355404376983642578e+00,2.309681653976440430e+00,2.265700340270996094e+00,2.223362684249877930e+00,2.182578086853027344e+00,2.143263101577758789e+00,2.105339288711547852e+00,2.068734169006347656e+00,2.033380270004272461e+00,1.999214410781860352e+00,1.966177821159362793e+00,1.934215188026428223e+00,1.903275370597839355e+00,1.873309493064880371e+00,1.844272613525390625e+00
3.083884477615356445e+00,3.083399772644042969e+00,3.082915306091308594e+00,3.082431077957153320e+00,3.081947326660156250e+00,3.081463336944580078e+00,3.080979347229003906e+00,3.080495834350585938e+00,3.080012559890747070e+00,3.079529047012329102e+00,3.079046010971069336e+00,3.078563213348388672e+00,3.078080177307128906e+00,3.077597379684448242e+00,3.077114820480346680e+00,3.076632738113403320e+00,3.076150417327880859e+00,3.075668096542358398e+00,3.075186014175415039e+00,3.074704647064208984e+00,3.074222803115844727e+00,3.073741197586059570e+00,3.073260068893432617e+00,3.072778940200805664e+00,3.072297811508178711e+00,3.071816921234130859e+00,3.071336269378662109e+00,3.070855617523193359e+00,3.070375204086303711e+00,3.069894790649414062e+00,3.069414854049682617e+00,3.068934679031372070e+00,3.068454980850219727e+00,3.067975521087646484e+00,3.067495822906494141e+00,3.067016363143920898e+00,3.066537141799926758e+00,3.066058158874511719e+00,3.065579175949096680e+00,3.065100431442260742e+00,3.064621686935424805e+00,3.064143419265747070e+00,3.063665151596069336e+00,3.063186883926391602e+00,3.062708854675292969e+00,3.062231063842773438e+00,3.061753273010253906e+00,3.061275482177734375e+00,3.060798406600952148e+00,3.060320854187011719e+00,3.059843778610229492e+00,3.059366703033447266e+00,3.058890104293823242e+00,3.058413267135620117e+00,3.011144161224365234e+00,2.936821222305297852e+00,2.866078615188598633e+00,2.798664331436157227e+00,2.734348297119140625e+00,2.672921895980834961e+00,2.614194869995117188e+00,2.557992935180664062e+00,2.504156589508056641e+00,2.452539682388305664e+00,2.403007745742797852e+00,2.355437040328979492e+00,2.309712886810302734e+00,2.265730381011962891e+00,2.223391771316528320e+00,2.182606220245361328e+00,2.143290042877197266e+00,2.105365276336669922e+00,2.068759441375732422e+00,2.033404588699340820e+00,1.999238014221191406e+00,1.966200590133666992e+00,1.934237241744995117e+00,1.903296470642089844e+00,1.873329997062683105e+00,1.844292759895324707e+00
2.605268478393554688e+00,2.604922533035278320e+00,2.604576826095581055e+00,2.604231119155883789e+00,2.603885650634765625e+00,2.603540182113647461e+00,2.603194952011108398e+00,2.602849721908569336e+00,2.602504491806030273e+00,2.602159500122070312e+00,2.601814508438110352e+00,2.601469755172729492e+00,2.601124763488769531e+00,2.600780010223388672e+00,2.600435495376586914e+00,2.600090980529785156e+00,2.599746465682983398e+00,2.599402189254760742e+00,2.599058151245117188e+00,2.598713874816894531e+00,2.598369598388671875e+00,2.598025560379028320e+00,2.597681999206542969e+00,2.597338199615478516e+00,2.596994400024414062e+00,2.596650838851928711e+00,2.596307277679443359e+00,2.595963954925537109e+00,2.595620393753051758e+00,2.595277309417724609e+00,2.594934225082397461e+00,2.594591140747070312e+00,2.594248056411743164e+00,2.593905210494995117e+00,2.593562364578247070e+00,2.593219757080078125e+00,2.592877149581909180e+00,2.592534542083740234e+00,2.592192173004150391e+00,2.591849803924560547e+00,2.591507673263549805e+00,2.591165542602539062e+00,2.590823411941528320e+00,2.590481281280517578e+00,2.590139627456665039e+00,2.589797735214233398e+00,2.589455842971801758e+00,2.589114427566528320e+00,2.588772773742675781e+00,2.588431358337402344e+00,2.588089942932128906e+00,2.587749004364013672e+00,2.587407588958740234e+00,2.587066650390625000e+00,2.586725473403930664e+00,2.586384773254394531e+00,2.586043834686279297e+00,2.585703134536743164e+00,2.585362672805786133e+00,2.585022211074829102e+00,2.584681510925292969e+00,2.558031320571899414e+00,2.504193544387817383e+00,2.452575206756591797e+00,2.403041839599609375e+00,2.355469703674316406e+00,2.309744596481323242e+00,2.265760660171508789e+00,2.223420858383178711e+00,2.182634353637695312e+00,2.143317222595214844e+00,2.105391502380371094e+00,2.068784475326538086e+00,2.033429145812988281e+00,1.999261617660522461e+00,1.966223478317260742e+00,1.934259295463562012e+00,1.903317928314208984e+00,1.873350739479064941e+00,1.844312548637390137e+00
2.255282878875732422e+00,2.255022525787353516e+00,2.254762172698974609e+00,2.254502058029174805e+00,2.254241943359375000e+00,2.253981828689575195e+00,2.253721714019775391e+00,2.253461837768554688e+00,2.253201961517333984e+00,2.252942085266113281e+00,2.252682209014892578e+00,2.252422571182250977e+00,2.252162933349609375e+00,2.251903295516967773e+00,2.251643896102905273e+00,2.251384258270263672e+00,2.251124858856201172e+00,2.250865459442138672e+00,2.250606060028076172e+00,2.250346899032592773e+00,2.250087738037109375e+00,2.249828577041625977e+00,2.249569416046142578e+00,2.249310493469238281e+00,2.249052286148071289e+00,2.248794555664062500e+00,2.248536825180053711e+00,2.248279333114624023e+00,2.248021602630615234e+00,2.247764348983764648e+00,2.247506856918334961e+00,2.247249603271484375e+00,2.246992349624633789e+00,2.246735095977783203e+00,2.246477842330932617e+00,2.246220588684082031e+00,2.245963811874389648e+00,2.245706796646118164e+00,2.245449781417846680e+00,2.245192766189575195e+00,2.244935989379882812e+00,2.244679212570190430e+00,2.244422435760498047e+00,2.244165897369384766e+00,2.243909358978271484e+00,2.243652820587158203e+00,2.243396282196044922e+00,2.243139982223510742e+00,2.242883443832397461e+00,2.242627143859863281e+00,2.242370843887329102e+00,2.242114782333374023e+00,2.241858720779418945e+00,2.241602659225463867e+00,2.241346597671508789e+00,2.241090774536132812e+00,2.240834712982177734e+00,2.240578889846801758e+00,2.240323305130004883e+00,2.240067481994628906e+00,2.239811897277832031e+00,2.239556074142456055e+00,2.239300727844238281e+00,2.239045143127441406e+00,2.238789796829223633e+00,2.238534450531005859e+00,2.238279104232788086e+00,2.238023996353149414e+00,2.223449945449829102e+00,2.182662248611450195e+00,2.143344163894653320e+00,2.105417728424072266e+00,2.068809747695922852e+00,2.033453464508056641e+00,1.999284982681274414e+00,1.966246247291564941e+00,1.934281349182128906e+00,1.903339266777038574e+00,1.873371481895446777e+00,1.844332695007324219e+00
1.988245844841003418e+00,1.988043665885925293e+00,1.987841367721557617e+00,1.987639069557189941e+00,1.987436771392822266e+00,1.987234592437744141e+00,1.987032651901245117e+00,1.986830472946166992e+00,1.986628413200378418e+00,1.986426353454589844e+00,1.986224293708801270e+00,1.986022591590881348e+00,1.985820651054382324e+00,1.985618829727172852e+00,1.985417008399963379e+00,1.985215187072753906e+00,1.985013365745544434e+00,1.984811902046203613e+00,1.984610199928283691e+00,1.984408617019653320e+00,1.984207034111022949e+00,1.984005451202392578e+00,1.983804106712341309e+00,1.983602643013000488e+00,1.983401179313659668e+00,1.983199834823608398e+00,1.982998490333557129e+00,1.982797384262084961e+00,1.982596158981323242e+00,1.982394933700561523e+00,1.982193708419799805e+00,1.981992602348327637e+00,1.981791734695434570e+00,1.981590628623962402e+00,1.981389641761779785e+00,1.981188654899597168e+00,1.980987668037414551e+00,1.980787038803100586e+00,1.980586171150207520e+00,1.980385303497314453e+00,1.980184555053710938e+00,1.979983806610107422e+00,1.979783296585083008e+00,1.979582667350769043e+00,1.979382038116455078e+00,1.979181408882141113e+00,1.978980898857116699e+00,1.978780388832092285e+00,1.978580117225646973e+00,1.978379726409912109e+00,1.978179335594177246e+00,1.977979063987731934e+00,1.977778673171997070e+00,1.977578639984130859e+00,1.977378487586975098e+00,1.977178335189819336e+00,1.976978182792663574e+00,1.976778030395507812e+00,1.976578235626220703e+00,1.976378202438354492e+00,1.976178288459777832e+00,1.975978374481201172e+00,1.975778460502624512e+00,1.975578784942626953e+00,1.975378990173339844e+00,1.975179195404052734e+00,1.974979519844055176e+00,1.974779844284057617e+00,1.974580407142639160e+00,1.974380731582641602e+00,1.974181175231933594e+00,1.973981618881225586e+00,1.973782181739807129e+00,1.973582983016967773e+00,1.973383545875549316e+00,1.966268897056579590e+00,1.934303283691406250e+00,1.903360605239868164e+00,1.873392105102539062e+00,1.844352722167968750e+00
1.777750968933105469e+00,1.777589440345764160e+00,1.777427673339843750e+00,1.777265906333923340e+00,1.777104139328002930e+00,1.776942491531372070e+00,1.776781082153320312e+00,1.776619434356689453e+00,1.776457905769348145e+00,1.776296257972717285e+00,1.776134729385375977e+00,1.775973439216613770e+00,1.775811910629272461e+00,1.775650501251220703e+00,1.775489091873168945e+00,1.775327682495117188e+00,1.775166511535644531e+00,1.775005221366882324e+00,1.774843931198120117e+00,1.774682641029357910e+00,1.774521470069885254e+00,1.774360418319702148e+00,1.774199247360229492e+00,1.774038076400756836e+00,1.773876905441284180e+00,1.773715853691101074e+00,1.773554801940917969e+00,1.773393869400024414e+00,1.773232936859130859e+00,1.773071885108947754e+00,1.772910952568054199e+00,1.772750020027160645e+00,1.772589325904846191e+00,1.772428512573242188e+00,1.772267699241638184e+00,1.772106885910034180e+00,1.771946072578430176e+00,1.771785497665405273e+00,1.771624803543090820e+00,1.771464109420776367e+00,1.771303415298461914e+00,1.771142840385437012e+00,1.770982384681701660e+00,1.770821809768676758e+00,1.770661354064941406e+00,1.770500779151916504e+00,1.770340323448181152e+00,1.770179986953735352e+00,1.770019650459289551e+00,1.769859194755554199e+00,1.769698858261108398e+00,1.769538521766662598e+00,1.769378423690795898e+00,1.769218087196350098e+00,1.769057869911193848e+00,1.768897652626037598e+00,1.768737435340881348e+00,1.768577218055725098e+00,1.768417358398437500e+00,1.768257260322570801e+00,1.768097162246704102e+00,1.767937064170837402e+00,1.767777085304260254e+00,1.767617225646972656e+00,1.767457365989685059e+00,1.767297387123107910e+00,1.767137408256530762e+00,1.766977548599243164e+00,1.766817927360534668e+00,1.766658186912536621e+00,1.766498327255249023e+00,1.766338586807250977e+00,1.766178846359252930e+00,1.766019344329833984e+00,1.765859723091125488e+00,1.765700101852416992e+00,1.765540480613708496e+00,1.765380859375000000e+00,1.765221476554870605e+00,1.765061974525451660e+00
1.607559323310852051e+00,1.607427239418029785e+00,1.607294917106628418e+00,1.607162714004516602e+00,1.607030391693115234e+00,1.606898188591003418e+00,1.606766223907470703e+00,1.606634020805358887e+00,1.606501817703247070e+00,1.606369733810424805e+00,1.606237649917602539e+00,1.606105685234069824e+00,1.605973601341247559e+00,1.605841636657714844e+00,1.605709552764892578e+00,1.605577588081359863e+00,1.605445742607116699e+00,1.605313777923583984e+00,1.605181813240051270e+00,1.605049967765808105e+00,1.604918003082275391e+00,1.604786276817321777e+00,1.604654431343078613e+00,1.604522705078125000e+00,1.604390859603881836e+00,1.604259014129638672e+00,1.604127407073974609e+00,1.603995680809020996e+00,1.603863954544067383e+00,1.603732347488403320e+00,1.603600621223449707e+00,1.603469133377075195e+00,1.603337526321411133e+00,1.603205919265747070e+00,1.603074312210083008e+00,1.602942705154418945e+00,1.602811217308044434e+00,1.602679848670959473e+00,1.602548360824584961e+00,1.602416872978210449e+00,1.602285385131835938e+00,1.602153897285461426e+00,1.602022647857666016e+00,1.601891279220581055e+00,1.601759910583496094e+00,1.601628541946411133e+00,1.601497292518615723e+00,1.601366043090820312e+00,1.601234793663024902e+00,1.601103544235229492e+00,1.600972294807434082e+00,1.600841045379638672e+00,1.600710034370422363e+00,1.600578904151916504e+00,1.600447654724121094e+00,1.600316524505615234e+00,1.600185513496398926e+00,1.600054502487182617e+00,1.599923372268676758e+00,1.599792361259460449e+00,1.599661350250244141e+00,1.599530339241027832e+00,1.599399447441101074e+00,1.599268555641174316e+00,1.599137544631958008e+00,1.599006652832031250e+00,1.598875761032104492e+00,1.598744869232177734e+00,1.598614215850830078e+00,1.598483324050903320e+00,1.598352551460266113e+00,1.598221778869628906e+00,1.598091006278991699e+00,1.597960352897644043e+00,1.597829699516296387e+00,1.597698926925659180e+00,1.597568273544311523e+00,1.597437620162963867e+00,1.597307085990905762e+00,1.597176551818847656e+00
1.467107057571411133e+00,1.466996908187866211e+00,1.466886758804321289e+00,1.466776609420776367e+00,1.466666460037231445e+00,1.466556429862976074e+00,1.466446280479431152e+00,1.466336250305175781e+00,1.466226100921630859e+00,1.466116070747375488e+00,1.466006040573120117e+00,1.465896129608154297e+00,1.465786099433898926e+00,1.465676069259643555e+00,1.465566158294677734e+00,1.465456128120422363e+00,1.465346336364746094e+00,1.465236425399780273e+00,1.465126514434814453e+00,1.465016603469848633e+00,1.464906692504882812e+00,1.464797019958496094e+00,1.464687108993530273e+00,1.464577317237854004e+00,1.464467406272888184e+00,1.464357614517211914e+00,1.464247941970825195e+00,1.464138269424438477e+00,1.464028477668762207e+00,1.463918805122375488e+00,1.463809013366699219e+00,1.463699460029602051e+00,1.463589787483215332e+00,1.463480114936828613e+00,1.463370442390441895e+00,1.463260769844055176e+00,1.463151335716247559e+00,1.463041663169860840e+00,1.462932109832763672e+00,1.462822556495666504e+00,1.462713003158569336e+00,1.462603569030761719e+00,1.462494134902954102e+00,1.462384581565856934e+00,1.462275147438049316e+00,1.462165594100952148e+00,1.462056159973144531e+00,1.461946845054626465e+00,1.461837410926818848e+00,1.461728096008300781e+00,1.461618661880493164e+00,1.461509346961975098e+00,1.461400032043457031e+00,1.461290717124938965e+00,1.461181402206420898e+00,1.461072087287902832e+00,1.460962772369384766e+00,1.460853695869445801e+00,1.460744380950927734e+00,1.460635185241699219e+00,1.460525989532470703e+00,1.460416674613952637e+00,1.460307717323303223e+00,1.460198521614074707e+00,1.460089325904846191e+00,1.459980130195617676e+00,1.459871053695678711e+00,1.459762096405029297e+00,1.459653019905090332e+00,1.459543943405151367e+00,1.459434866905212402e+00,1.459325790405273438e+00,1.459216833114624023e+00,1.459107875823974609e+00,1.458998918533325195e+00,1.458889842033386230e+00,1.458780884742736816e+00,1.458671927452087402e+00,1.458563208580017090e+00,1.458454251289367676e+00
1.349225282669067383e+00,1.349132061004638672e+00,1.349038958549499512e+00,1.348945736885070801e+00,1.348852634429931641e+00,1.348759531974792480e+00,1.348666429519653320e+00,1.348573327064514160e+00,1.348480224609375000e+00,1.348387122154235840e+00,1.348294138908386230e+00,1.348201036453247070e+00,1.348107933998107910e+00,1.348014950752258301e+00,1.347921848297119141e+00,1.347828984260559082e+00,1.347736001014709473e+00,1.347643017768859863e+00,1.347550034523010254e+00,1.347457051277160645e+00,1.347364187240600586e+00,1.347271323204040527e+00,1.347178339958190918e+00,1.347085475921630859e+00,1.346992492675781250e+00,1.346899628639221191e+00,1.346806883811950684e+00,1.346714019775390625e+00,1.346621155738830566e+00,1.346528291702270508e+00,1.346435546875000000e+00,1.346342802047729492e+00,1.346250057220458984e+00,1.346157193183898926e+00,1.346064448356628418e+00,1.345971703529357910e+00,1.345879077911376953e+00,1.345786333084106445e+00,1.345693588256835938e+00,1.345600843429565430e+00,1.345508098602294922e+00,1.345415592193603516e+00,1.345322847366333008e+00,1.345230221748352051e+00,1.345137596130371094e+00,1.345044970512390137e+00,1.344952464103698730e+00,1.344859838485717773e+00,1.344767212867736816e+00,1.344674706459045410e+00,1.344582080841064453e+00,1.344489574432373047e+00,1.344397068023681641e+00,1.344304561614990234e+00,1.344212055206298828e+00,1.344119548797607422e+00,1.344027042388916016e+00,1.343934655189514160e+00,1.343842148780822754e+00,1.343749761581420898e+00,1.343657255172729492e+00,1.343564867973327637e+00,1.343472480773925781e+00,1.343380093574523926e+00,1.343287706375122070e+00,1.343195319175720215e+00,1.343102931976318359e+00,1.343010663986206055e+00,1.342918395996093750e+00,1.342826008796691895e+00,1.342733740806579590e+00,1.342641472816467285e+00,1.342549204826354980e+00,1.342456936836242676e+00,1.342364668846130371e+00,1.342272400856018066e+00,1.342180132865905762e+00,1.342088103294372559e+00,1.341995835304260254e+00,1.341903686523437500e+00
1.248878121376037598e+00,1.248798370361328125e+00,1.248718500137329102e+00,1.248638629913330078e+00,1.248558878898620605e+00,1.248479127883911133e+00,1.248399376869201660e+00,1.248319506645202637e+00,1.248239755630493164e+00,1.248160004615783691e+00,1.248080372810363770e+00,1.248000621795654297e+00,1.247920870780944824e+00,1.247841119766235352e+00,1.247761368751525879e+00,1.247681736946105957e+00,1.247602105140686035e+00,1.247522354125976562e+00,1.247442722320556641e+00,1.247362971305847168e+00,1.247283458709716797e+00,1.247203826904296875e+00,1.247124195098876953e+00,1.247044563293457031e+00,1.246964931488037109e+00,1.246885418891906738e+00,1.246805787086486816e+00,1.246726274490356445e+00,1.246646642684936523e+00,1.246567130088806152e+00,1.246487498283386230e+00,1.246408104896545410e+00,1.246328473091125488e+00,1.246248960494995117e+00,1.246169447898864746e+00,1.246089935302734375e+00,1.246010541915893555e+00,1.245931148529052734e+00,1.245851635932922363e+00,1.245772123336791992e+00,1.245692729949951172e+00,1.245613336563110352e+00,1.245533943176269531e+00,1.245454430580139160e+00,1.245375037193298340e+00,1.245295643806457520e+00,1.245216369628906250e+00,1.245136976242065430e+00,1.245057582855224609e+00,1.244978189468383789e+00,1.244898915290832520e+00,1.244819641113281250e+00,1.244740247726440430e+00,1.244660973548889160e+00,1.244581699371337891e+00,1.244502305984497070e+00,1.244423151016235352e+00,1.244343876838684082e+00,1.244264602661132812e+00,1.244185328483581543e+00,1.244106054306030273e+00,1.244026899337768555e+00,1.243947744369506836e+00,1.243868470191955566e+00,1.243789315223693848e+00,1.243710041046142578e+00,1.243630886077880859e+00,1.243551731109619141e+00,1.243472576141357422e+00,1.243393421173095703e+00,1.243314266204833984e+00,1.243235111236572266e+00,1.243156075477600098e+00,1.243077039718627930e+00,1.242997884750366211e+00,1.242918848991394043e+00,1.242839694023132324e+00,1.242760658264160156e+00,1.242681622505187988e+00,1.242602586746215820e+00
1.162424206733703613e+00,1.162355065345764160e+00,1.162285804748535156e+00,1.162216663360595703e+00,1.162147641181945801e+00,1.162078499794006348e+00,1.162009358406066895e+00,1.161940217018127441e+00,1.161871075630187988e+00,1.161802053451538086e+00,1.161732912063598633e+00,1.161663889884948730e+00,1.161594748497009277e+00,1.161525726318359375e+00,1.161456584930419922e+00,1.161387681961059570e+00,1.161318540573120117e+00,1.161249518394470215e+00,1.161180496215820312e+00,1.161111474037170410e+00,1.161042451858520508e+00,1.160973548889160156e+00,1.160904526710510254e+00,1.160835504531860352e+00,1.160766482353210449e+00,1.160697579383850098e+00,1.160628557205200195e+00,1.160559654235839844e+00,1.160490632057189941e+00,1.160421729087829590e+00,1.160352826118469238e+00,1.160283923149108887e+00,1.160215020179748535e+00,1.160146117210388184e+00,1.160077214241027832e+00,1.160008311271667480e+00,1.159939527511596680e+00,1.159870624542236328e+00,1.159801721572875977e+00,1.159732818603515625e+00,1.159664034843444824e+00,1.159595251083374023e+00,1.159526348114013672e+00,1.159457564353942871e+00,1.159388661384582520e+00,1.159319877624511719e+00,1.159251093864440918e+00,1.159182310104370117e+00,1.159113526344299316e+00,1.159044742584228516e+00,1.158975958824157715e+00,1.158907294273376465e+00,1.158838510513305664e+00,1.158769726753234863e+00,1.158701062202453613e+00,1.158632278442382812e+00,1.158563613891601562e+00,1.158494949340820312e+00,1.158426165580749512e+00,1.158357501029968262e+00,1.158288836479187012e+00,1.158220171928405762e+00,1.158151507377624512e+00,1.158082842826843262e+00,1.158014178276062012e+00,1.157945513725280762e+00,1.157876968383789062e+00,1.157808303833007812e+00,1.157739758491516113e+00,1.157671093940734863e+00,1.157602429389953613e+00,1.157534003257751465e+00,1.157465338706970215e+00,1.157396793365478516e+00,1.157328128814697266e+00,1.157259583473205566e+00,1.157191038131713867e+00,1.157122611999511719e+00,1.157054066658020020e+00,1.156985521316528320e+00
1.087164878845214844e+00,1.087104320526123047e+00,1.087043881416320801e+00,1.086983323097229004e+00,1.086922883987426758e+00,1.086862444877624512e+00,1.086802005767822266e+00,1.086741447448730469e+00,1.086681008338928223e+00,1.086620688438415527e+00,1.086560130119323730e+00,1.086499691009521484e+00,1.086439251899719238e+00,1.086378812789916992e+00,1.086318492889404297e+00,1.086258053779602051e+00,1.086197733879089355e+00,1.086137294769287109e+00,1.086076855659484863e+00,1.086016535758972168e+00,1.085956215858459473e+00,1.085895776748657227e+00,1.085835456848144531e+00,1.085775017738342285e+00,1.085714697837829590e+00,1.085654497146606445e+00,1.085594058036804199e+00,1.085533738136291504e+00,1.085473418235778809e+00,1.085413098335266113e+00,1.085352897644042969e+00,1.085292577743530273e+00,1.085232257843017578e+00,1.085171937942504883e+00,1.085111618041992188e+00,1.085051417350769043e+00,1.084991216659545898e+00,1.084930896759033203e+00,1.084870696067810059e+00,1.084810376167297363e+00,1.084750175476074219e+00,1.084689974784851074e+00,1.084629654884338379e+00,1.084569454193115234e+00,1.084509253501892090e+00,1.084449172019958496e+00,1.084388852119445801e+00,1.084328651428222656e+00,1.084268569946289062e+00,1.084208369255065918e+00,1.084148168563842773e+00,1.084088087081909180e+00,1.084027886390686035e+00,1.083967685699462891e+00,1.083907604217529297e+00,1.083847403526306152e+00,1.083787322044372559e+00,1.083727240562438965e+00,1.083667039871215820e+00,1.083606958389282227e+00,1.083546876907348633e+00,1.083486795425415039e+00,1.083426713943481445e+00,1.083366632461547852e+00,1.083306550979614258e+00,1.083246469497680664e+00,1.083186388015747070e+00,1.083126306533813477e+00,1.083066225051879883e+00,1.083006262779235840e+00,1.082946181297302246e+00,1.082886219024658203e+00,1.082826137542724609e+00,1.082766175270080566e+00,1.082706093788146973e+00,1.082646131515502930e+00,1.082586169242858887e+00,1.082526087760925293e+00,1.082466125488281250e+00,1.082406163215637207e+00
1.021058082580566406e+00,1.021004676818847656e+00,1.020951271057128906e+00,1.020897984504699707e+00,1.020844578742980957e+00,1.020791292190551758e+00,1.020737886428833008e+00,1.020684599876403809e+00,1.020631194114685059e+00,1.020578026771545410e+00,1.020524621009826660e+00,1.020471334457397461e+00,1.020418047904968262e+00,1.020364761352539062e+00,1.020311474800109863e+00,1.020258188247680664e+00,1.020204901695251465e+00,1.020151615142822266e+00,1.020098328590393066e+00,1.020045042037963867e+00,1.019991874694824219e+00,1.019938588142395020e+00,1.019885301589965820e+00,1.019832015037536621e+00,1.019778847694396973e+00,1.019725561141967773e+00,1.019672393798828125e+00,1.019619107246398926e+00,1.019565939903259277e+00,1.019512772560119629e+00,1.019459605216979980e+00,1.019406318664550781e+00,1.019353151321411133e+00,1.019299983978271484e+00,1.019246697425842285e+00,1.019193649291992188e+00,1.019140481948852539e+00,1.019087314605712891e+00,1.019034147262573242e+00,1.018980979919433594e+00,1.018927812576293945e+00,1.018874645233154297e+00,1.018821477890014648e+00,1.018768429756164551e+00,1.018715262413024902e+00,1.018662214279174805e+00,1.018609046936035156e+00,1.018555879592895508e+00,1.018502831459045410e+00,1.018449664115905762e+00,1.018396615982055664e+00,1.018343567848205566e+00,1.018290519714355469e+00,1.018237352371215820e+00,1.018184304237365723e+00,1.018131256103515625e+00,1.018078207969665527e+00,1.018025159835815430e+00,1.017972111701965332e+00,1.017919063568115234e+00,1.017866015434265137e+00,1.017812967300415039e+00,1.017759919166564941e+00,1.017706990242004395e+00,1.017653942108154297e+00,1.017600893974304199e+00,1.017547965049743652e+00,1.017494916915893555e+00,1.017441868782043457e+00,1.017388939857482910e+00,1.017335891723632812e+00,1.017282962799072266e+00,1.017230033874511719e+00,1.017176985740661621e+00,1.017124056816101074e+00,1.017071127891540527e+00,1.017018198966979980e+00,1.016965270042419434e+00,1.016912341117858887e+00,1.016859412193298340e+00
9.625299572944641113e-01,9.624824523925781250e-01,9.624350666999816895e-01,9.623876810073852539e-01,9.623402357101440430e-01,9.622928500175476074e-01,9.622454047203063965e-01,9.621980190277099609e-01,9.621505737304687500e-01,9.621032476425170898e-01,9.620559215545654297e-01,9.620084762573242188e-01,9.619611501693725586e-01,9.619137048721313477e-01,9.618663787841796875e-01,9.618191123008728027e-01,9.617716670036315918e-01,9.617244005203247070e-01,9.616769552230834961e-01,9.616296887397766113e-01,9.615823626518249512e-01,9.615349769592285156e-01,9.614877104759216309e-01,9.614403247833251953e-01,9.613930583000183105e-01,9.613457918167114258e-01,9.612984061241149902e-01,9.612511396408081055e-01,9.612038135528564453e-01,9.611565470695495605e-01,9.611092805862426758e-01,9.610619544982910156e-01,9.610147476196289062e-01,9.609673619270324707e-01,9.609201550483703613e-01,9.608729481697082520e-01,9.608256220817565918e-01,9.607784152030944824e-01,9.607310891151428223e-01,9.606838822364807129e-01,9.606366753578186035e-01,9.605894088745117188e-01,9.605422019958496094e-01,9.604949355125427246e-01,9.604477286338806152e-01,9.604005813598632812e-01,9.603533148765563965e-01,9.603061079978942871e-01,9.602588415145874023e-01,9.602116942405700684e-01,9.601645469665527344e-01,9.601172804832458496e-01,9.600701332092285156e-01,9.600229263305664062e-01,9.599757790565490723e-01,9.599286317825317383e-01,9.598814249038696289e-01,9.598342776298522949e-01,9.597870707511901855e-01,9.597399830818176270e-01,9.596928954124450684e-01,9.596456289291381836e-01,9.595985412597656250e-01,9.595513343811035156e-01,9.595043063163757324e-01,9.594572186470031738e-01,9.594100117683410645e-01,9.593629240989685059e-01,9.593157768249511719e-01,9.592686891555786133e-01,9.592215418815612793e-01,9.591744542121887207e-01,9.591274261474609375e-01,9.590802788734436035e-01,9.590332508087158203e-01,9.589861035346984863e-01,9.589390754699707031e-01,9.588920474052429199e-01,9.588449001312255859e-01,9.587978720664978027e-01
9.103477597236633301e-01,9.103053212165832520e-01,9.102629423141479492e-01,9.102205634117126465e-01,9.101780652999877930e-01,9.101356863975524902e-01,9.100932478904724121e-01,9.100508689880371094e-01,9.100085496902465820e-01,9.099661111831665039e-01,9.099237322807312012e-01,9.098812937736511230e-01,9.098389744758605957e-01,9.097966551780700684e-01,9.097542166709899902e-01,9.097118973731994629e-01,9.096694588661193848e-01,9.096271395683288574e-01,9.095847606658935547e-01,9.095424413681030273e-01,9.095001220703125000e-01,9.094577431678771973e-01,9.094154238700866699e-01,9.093730449676513672e-01,9.093307256698608398e-01,9.092884659767150879e-01,9.092460870742797852e-01,9.092038273811340332e-01,9.091614484786987305e-01,9.091191887855529785e-01,9.090768694877624512e-01,9.090345501899719238e-01,9.089922904968261719e-01,9.089499115943908691e-01,9.089076519012451172e-01,9.088654518127441406e-01,9.088230729103088379e-01,9.087808728218078613e-01,9.087384939193725586e-01,9.086962938308715820e-01,9.086540937423706055e-01,9.086117148399353027e-01,9.085695147514343262e-01,9.085271954536437988e-01,9.084849953651428223e-01,9.084427952766418457e-01,9.084004759788513184e-01,9.083582758903503418e-01,9.083160161972045898e-01,9.082738161087036133e-01,9.082316160202026367e-01,9.081893563270568848e-01,9.081471562385559082e-01,9.081048965454101562e-01,9.080626964569091797e-01,9.080205559730529785e-01,9.079782962799072266e-01,9.079361557960510254e-01,9.078938961029052734e-01,9.078517556190490723e-01,9.078095555305480957e-01,9.077673554420471191e-01,9.077252149581909180e-01,9.076829552650451660e-01,9.076408147811889648e-01,9.075986742973327637e-01,9.075564742088317871e-01,9.075143337249755859e-01,9.074721336364746094e-01,9.074300527572631836e-01,9.073879122734069824e-01,9.073457121849060059e-01,9.073036313056945801e-01,9.072614312171936035e-01,9.072193503379821777e-01,9.071772694587707520e-01,9.071350693702697754e-01,9.070929884910583496e-01,9.070507884025573730e-01,9.070087075233459473e-01
8.635326027870178223e-01,8.634943962097167969e-01,8.634562492370605469e-01,8.634181618690490723e-01,8.633799552917480469e-01,8.633418083190917969e-01,8.633036017417907715e-01,8.632655143737792969e-01,8.632273674011230469e-01,8.631891608238220215e-01,8.631510734558105469e-01,8.631128668785095215e-01,8.630747795104980469e-01,8.630366921424865723e-01,8.629985451698303223e-01,8.629604578018188477e-01,8.629222512245178223e-01,8.628841638565063477e-01,8.628461360931396484e-01,8.628079295158386230e-01,8.627699017524719238e-01,8.627316951751708984e-01,8.626936674118041992e-01,8.626555800437927246e-01,8.626174330711364746e-01,8.625794053077697754e-01,8.625412583351135254e-01,8.625032305717468262e-01,8.624650835990905762e-01,8.624270558357238770e-01,8.623890280723571777e-01,8.623508810997009277e-01,8.623128533363342285e-01,8.622747659683227539e-01,8.622367382049560547e-01,8.621987104415893555e-01,8.621606230735778809e-01,8.621225953102111816e-01,8.620845079421997070e-01,8.620464801788330078e-01,8.620084524154663086e-01,8.619703650474548340e-01,8.619323968887329102e-01,8.618943095207214355e-01,8.618563413619995117e-01,8.618183135986328125e-01,8.617802858352661133e-01,8.617423176765441895e-01,8.617042303085327148e-01,8.616662621498107910e-01,8.616282939910888672e-01,8.615902066230773926e-01,8.615522980690002441e-01,8.615142107009887695e-01,8.614762425422668457e-01,8.614383339881896973e-01,8.614003062248229980e-01,8.613623380661010742e-01,8.613243103027343750e-01,8.612863421440124512e-01,8.612484335899353027e-01,8.612104058265686035e-01,8.611724972724914551e-01,8.611344695091247559e-01,8.610965609550476074e-01,8.610586524009704590e-01,8.610206246376037598e-01,8.609827160835266113e-01,8.609446883201599121e-01,8.609067797660827637e-01,8.608689308166503906e-01,8.608309030532836914e-01,8.607930541038513184e-01,8.607550263404846191e-01,8.607171773910522461e-01,8.606792688369750977e-01,8.606413006782531738e-01,8.606033921241760254e-01,8.605654835700988770e-01,8.605275750160217285e-01
8.212969303131103516e-01,8.212623596191406250e-01,8.212279081344604492e-01,8.211933970451354980e-01,8.211588263511657715e-01,8.211243748664855957e-01,8.210898041725158691e-01,8.210552930831909180e-01,8.210208415985107422e-01,8.209862709045410156e-01,8.209518194198608398e-01,8.209172487258911133e-01,8.208827972412109375e-01,8.208483457565307617e-01,8.208138346672058105e-01,8.207793831825256348e-01,8.207448124885559082e-01,8.207103610038757324e-01,8.206759691238403320e-01,8.206413984298706055e-01,8.206070065498352051e-01,8.205724358558654785e-01,8.205380439758300781e-01,8.205035924911499023e-01,8.204690814018249512e-01,8.204346895217895508e-01,8.204001784324645996e-01,8.203657269477844238e-01,8.203313350677490234e-01,8.202968239784240723e-01,8.202624320983886719e-01,8.202279210090637207e-01,8.201935291290283203e-01,8.201591372489929199e-01,8.201246857643127441e-01,8.200902342796325684e-01,8.200557827949523926e-01,8.200213909149169922e-01,8.199869394302368164e-01,8.199525475502014160e-01,8.199181556701660156e-01,8.198837041854858398e-01,8.198493123054504395e-01,8.198148608207702637e-01,8.197805285453796387e-01,8.197461366653442383e-01,8.197116851806640625e-01,8.196773529052734375e-01,8.196429014205932617e-01,8.196085691452026367e-01,8.195741772651672363e-01,8.195397853851318359e-01,8.195053935050964355e-01,8.194710016250610352e-01,8.194366693496704102e-01,8.194022774696350098e-01,8.193678855895996094e-01,8.193335533142089844e-01,8.192991614341735840e-01,8.192648291587829590e-01,8.192304968833923340e-01,8.191961050033569336e-01,8.191617727279663086e-01,8.191273808479309082e-01,8.190930485725402832e-01,8.190587759017944336e-01,8.190243840217590332e-01,8.189900517463684082e-01,8.189556598663330078e-01,8.189213871955871582e-01,8.188871145248413086e-01,8.188527226448059082e-01,8.188184499740600586e-01,8.187840580940246582e-01,8.187497854232788086e-01,8.187155127525329590e-01,8.186811208724975586e-01,8.186468482017517090e-01,8.186125159263610840e-01,8.185782432556152344e-01
7.830001711845397949e-01,7.829687595367431641e-01,7.829374074935913086e-01,7.829060554504394531e-01,7.828746438026428223e-01,7.828432917594909668e-01,7.828118801116943359e-01,7.827805280685424805e-01,7.827491760253906250e-01,7.827178239822387695e-01,7.826864719390869141e-01,7.826550602912902832e-01,7.826237082481384277e-01,7.825924158096313477e-01,7.825610041618347168e-01,7.825297117233276367e-01,7.824983000755310059e-01,7.824670076370239258e-01,7.824357151985168457e-01,7.824043035507202148e-01,7.823730111122131348e-01,7.823416590690612793e-01,7.823103070259094238e-01,7.822790145874023438e-01,7.822476625442504883e-01,7.822163701057434082e-01,7.821850180625915527e-01,7.821537256240844727e-01,7.821224331855773926e-01,7.820910811424255371e-01,7.820597887039184570e-01,7.820284366607666016e-01,7.819971442222595215e-01,7.819659113883972168e-01,7.819345593452453613e-01,7.819032669067382812e-01,7.818719744682312012e-01,7.818406820297241211e-01,7.818094491958618164e-01,7.817780971527099609e-01,7.817468643188476562e-01,7.817155122756958008e-01,7.816842794418334961e-01,7.816530466079711914e-01,7.816216945648193359e-01,7.815904617309570312e-01,7.815591692924499512e-01,7.815279364585876465e-01,7.814965844154357910e-01,7.814653515815734863e-01,7.814341187477111816e-01,7.814028263092041016e-01,7.813715934753417969e-01,7.813403010368347168e-01,7.813090682029724121e-01,7.812778949737548828e-01,7.812466025352478027e-01,7.812153697013854980e-01,7.811840772628784180e-01,7.811529040336608887e-01,7.811216711997985840e-01,7.810903787612915039e-01,7.810592055320739746e-01,7.810279130935668945e-01,7.809967398643493652e-01,7.809655666351318359e-01,7.809342741966247559e-01,7.809031009674072266e-01,7.808718681335449219e-01,7.808406352996826172e-01,7.808094620704650879e-01,7.807782292366027832e-01,7.807470560073852539e-01,7.807158231735229492e-01,7.806846499443054199e-01,7.806534767150878906e-01,7.806222438812255859e-01,7.805910706520080566e-01,7.805598378181457520e-01,7.805286645889282227e-01
7.481157779693603516e-01,7.480871081352233887e-01,7.480584979057312012e-01,7.480298876762390137e-01,7.480011582374572754e-01,7.479725480079650879e-01,7.479438781738281250e-01,7.479152679443359375e-01,7.478866577148437500e-01,7.478579878807067871e-01,7.478294372558593750e-01,7.478007674217224121e-01,7.477721571922302246e-01,7.477435469627380371e-01,7.477148771286010742e-01,7.476863265037536621e-01,7.476576566696166992e-01,7.476290464401245117e-01,7.476004958152770996e-01,7.475718259811401367e-01,7.475432753562927246e-01,7.475146055221557617e-01,7.474859952926635742e-01,7.474574446678161621e-01,7.474288344383239746e-01,7.474002242088317871e-01,7.473716139793395996e-01,7.473430633544921875e-01,7.473145127296447754e-01,7.472858428955078125e-01,7.472572922706604004e-01,7.472286820411682129e-01,7.472001314163208008e-01,7.471715807914733887e-01,7.471429705619812012e-01,7.471144199371337891e-01,7.470858097076416016e-01,7.470572590827941895e-01,7.470287084579467773e-01,7.470000982284545898e-01,7.469715476036071777e-01,7.469429969787597656e-01,7.469144463539123535e-01,7.468858957290649414e-01,7.468573451042175293e-01,7.468287944793701172e-01,7.468001842498779297e-01,7.467716932296752930e-01,7.467431426048278809e-01,7.467145919799804688e-01,7.466860413551330566e-01,7.466574907302856445e-01,7.466289997100830078e-01,7.466004490852355957e-01,7.465718984603881836e-01,7.465434074401855469e-01,7.465148568153381348e-01,7.464863061904907227e-01,7.464577555656433105e-01,7.464292645454406738e-01,7.464007735252380371e-01,7.463722229003906250e-01,7.463437318801879883e-01,7.463151812553405762e-01,7.462866902351379395e-01,7.462581992149353027e-01,7.462296485900878906e-01,7.462012171745300293e-01,7.461726665496826172e-01,7.461441755294799805e-01,7.461156845092773438e-01,7.460871934890747070e-01,7.460587024688720703e-01,7.460301518440246582e-01,7.460017204284667969e-01,7.459732294082641602e-01,7.459447383880615234e-01,7.459162473678588867e-01,7.458877563476562500e-01,7.458593249320983887e-01
7.162071466445922852e-01,7.161809206008911133e-01,7.161546349525451660e-01,7.161284089088439941e-01,7.161021232604980469e-01,7.160758972167968750e-01,7.160496115684509277e-01,7.160233855247497559e-01,7.159972190856933594e-01,7.159709334373474121e-01,7.159447073936462402e-01,7.159184217453002930e-01,7.158921957015991211e-01,7.158660292625427246e-01,7.158397436141967773e-01,7.158135175704956055e-01,7.157872915267944336e-01,7.157610654830932617e-01,7.157348394393920898e-01,7.157086133956909180e-01,7.156823873519897461e-01,7.156561613082885742e-01,7.156299948692321777e-01,7.156037688255310059e-01,7.155775427818298340e-01,7.155513167381286621e-01,7.155250906944274902e-01,7.154989242553710938e-01,7.154727578163146973e-01,7.154464721679687500e-01,7.154203057289123535e-01,7.153940796852111816e-01,7.153679132461547852e-01,7.153417468070983887e-01,7.153155207633972168e-01,7.152893543243408203e-01,7.152631282806396484e-01,7.152369618415832520e-01,7.152107954025268555e-01,7.151845693588256836e-01,7.151584029197692871e-01,7.151322364807128906e-01,7.151060700416564941e-01,7.150799036026000977e-01,7.150536775588989258e-01,7.150275707244873047e-01,7.150013446807861328e-01,7.149751782417297363e-01,7.149490714073181152e-01,7.149228453636169434e-01,7.148967385292053223e-01,7.148705124855041504e-01,7.148444056510925293e-01,7.148182392120361328e-01,7.147920727729797363e-01,7.147659659385681152e-01,7.147397398948669434e-01,7.147136330604553223e-01,7.146875262260437012e-01,7.146613001823425293e-01,7.146351933479309082e-01,7.146090269088745117e-01,7.145829200744628906e-01,7.145568132400512695e-01,7.145306468009948730e-01,7.145045399665832520e-01,7.144783735275268555e-01,7.144522666931152344e-01,7.144261002540588379e-01,7.143999934196472168e-01,7.143738865852355957e-01,7.143477201461791992e-01,7.143216133117675781e-01,7.142954468727111816e-01,7.142693996429443359e-01,7.142432928085327148e-01,7.142171263694763184e-01,7.141910791397094727e-01,7.141649127006530762e-01,7.141388058662414551e-01
6.869091391563415527e-01,6.868849992752075195e-01,6.868608593940734863e-01,6.868367195129394531e-01,6.868125200271606445e-01,6.867884397506713867e-01,6.867642998695373535e-01,6.867401003837585449e-01,6.867160201072692871e-01,6.866918206214904785e-01,6.866677403450012207e-01,6.866436004638671875e-01,6.866194605827331543e-01,6.865953207015991211e-01,6.865711808204650879e-01,6.865470409393310547e-01,6.865229010581970215e-01,6.864987611770629883e-01,6.864746809005737305e-01,6.864505410194396973e-01,6.864264607429504395e-01,6.864022612571716309e-01,6.863781809806823730e-01,6.863541007041931152e-01,6.863299608230590820e-01,6.863058805465698242e-01,6.862817406654357910e-01,6.862576603889465332e-01,6.862335205078125000e-01,6.862094402313232422e-01,6.861853003501892090e-01,6.861612200736999512e-01,6.861371397972106934e-01,6.861130595207214355e-01,6.860889196395874023e-01,6.860648393630981445e-01,6.860406994819641113e-01,6.860166192054748535e-01,6.859925985336303711e-01,6.859684586524963379e-01,6.859443783760070801e-01,6.859202980995178223e-01,6.858962178230285645e-01,6.858721375465393066e-01,6.858480572700500488e-01,6.858239769935607910e-01,6.857998967170715332e-01,6.857758164405822754e-01,6.857517957687377930e-01,6.857276558876037598e-01,6.857036352157592773e-01,6.856794953346252441e-01,6.856554746627807617e-01,6.856314539909362793e-01,6.856073141098022461e-01,6.855832934379577637e-01,6.855592131614685059e-01,6.855351924896240234e-01,6.855111718177795410e-01,6.854870319366455078e-01,6.854630112648010254e-01,6.854389309883117676e-01,6.854149103164672852e-01,6.853908896446228027e-01,6.853668093681335449e-01,6.853427886962890625e-01,6.853187084197998047e-01,6.852946877479553223e-01,6.852706670761108398e-01,6.852465867996215820e-01,6.852226257324218750e-01,6.851985454559326172e-01,6.851745247840881348e-01,6.851505041122436523e-01,6.851264238357543945e-01,6.851024627685546875e-01,6.850783824920654297e-01,6.850543618202209473e-01,6.850303411483764648e-01,6.850063204765319824e-01
6.599139571189880371e-01,6.598916649818420410e-01,6.598693132400512695e-01,6.598470807075500488e-01,6.598247289657592773e-01,6.598024964332580566e-01,6.597802042961120605e-01,6.597579121589660645e-01,6.597356796264648438e-01,6.597133278846740723e-01,6.596910953521728516e-01,6.596688628196716309e-01,6.596465110778808594e-01,6.596242785453796387e-01,6.596019864082336426e-01,6.595797538757324219e-01,6.595574617385864258e-01,6.595351696014404297e-01,6.595129370689392090e-01,6.594906449317932129e-01,6.594684123992919922e-01,6.594461798667907715e-01,6.594238877296447754e-01,6.594016551971435547e-01,6.593793630599975586e-01,6.593571305274963379e-01,6.593348383903503418e-01,6.593126058578491211e-01,6.592903733253479004e-01,6.592680811882019043e-01,6.592458486557006836e-01,6.592235565185546875e-01,6.592013835906982422e-01,6.591791510581970215e-01,6.591568589210510254e-01,6.591346263885498047e-01,6.591123938560485840e-01,6.590901613235473633e-01,6.590679287910461426e-01,6.590456962585449219e-01,6.590234637260437012e-01,6.590012311935424805e-01,6.589789986610412598e-01,6.589567661285400391e-01,6.589345335960388184e-01,6.589123606681823730e-01,6.588900685310363770e-01,6.588678956031799316e-01,6.588456630706787109e-01,6.588234305381774902e-01,6.588012576103210449e-01,6.587789654731750488e-01,6.587567925453186035e-01,6.587346196174621582e-01,6.587123274803161621e-01,6.586901545524597168e-01,6.586679220199584961e-01,6.586457490921020508e-01,6.586235761642456055e-01,6.586013436317443848e-01,6.585791110992431641e-01,6.585568785667419434e-01,6.585347056388854980e-01,6.585125327110290527e-01,6.584903001785278320e-01,6.584681272506713867e-01,6.584458947181701660e-01,6.584237217903137207e-01,6.584015488624572754e-01,6.583793759346008301e-01,6.583572030067443848e-01,6.583349704742431641e-01,6.583127975463867188e-01,6.582906246185302734e-01,6.582684516906738281e-01,6.582462787628173828e-01,6.582240462303161621e-01,6.582019329071044922e-01,6.581797599792480469e-01,6.581575274467468262e-01
6.349602341651916504e-01,6.349396705627441406e-01,6.349189877510070801e-01,6.348983645439147949e-01,6.348776817321777344e-01,6.348571181297302246e-01,6.348364949226379395e-01,6.348158121109008789e-01,6.347951889038085938e-01,6.347745656967163086e-01,6.347539424896240234e-01,6.347333192825317383e-01,6.347126960754394531e-01,6.346920728683471680e-01,6.346714496612548828e-01,6.346508264541625977e-01,6.346302628517150879e-01,6.346095800399780273e-01,6.345890164375305176e-01,6.345683932304382324e-01,6.345477700233459473e-01,6.345272064208984375e-01,6.345065236091613770e-01,6.344859600067138672e-01,6.344653367996215820e-01,6.344447135925292969e-01,6.344241499900817871e-01,6.344035267829895020e-01,6.343829631805419922e-01,6.343622803688049316e-01,6.343417167663574219e-01,6.343211531639099121e-01,6.343005299568176270e-01,6.342799663543701172e-01,6.342593431472778320e-01,6.342387795448303223e-01,6.342181563377380371e-01,6.341975927352905273e-01,6.341770291328430176e-01,6.341564059257507324e-01,6.341358423233032227e-01,6.341152191162109375e-01,6.340946555137634277e-01,6.340740919113159180e-01,6.340534687042236328e-01,6.340329051017761230e-01,6.340122818946838379e-01,6.339917778968811035e-01,6.339712142944335938e-01,6.339505910873413086e-01,6.339300274848937988e-01,6.339094638824462891e-01,6.338889002799987793e-01,6.338683366775512695e-01,6.338477730751037598e-01,6.338272094726562500e-01,6.338066458702087402e-01,6.337860822677612305e-01,6.337655186653137207e-01,6.337449550628662109e-01,6.337243914604187012e-01,6.337038278579711914e-01,6.336832642555236816e-01,6.336627602577209473e-01,6.336421370506286621e-01,6.336216330528259277e-01,6.336010694503784180e-01,6.335805058479309082e-01,6.335600018501281738e-01,6.335394382476806641e-01,6.335188746452331543e-01,6.334983110427856445e-01,6.334778070449829102e-01,6.334572434425354004e-01,6.334366798400878906e-01,6.334161758422851562e-01,6.333956122398376465e-01,6.333751082420349121e-01,6.333546042442321777e-01,6.333340406417846680e-01
6.118250489234924316e-01,6.118059158325195312e-01,6.117867231369018555e-01,6.117675900459289551e-01,6.117483973503112793e-01,6.117292642593383789e-01,6.117101311683654785e-01,6.116909384727478027e-01,6.116718053817749023e-01,6.116526126861572266e-01,6.116334795951843262e-01,6.116143465042114258e-01,6.115951538085937500e-01,6.115760207176208496e-01,6.115568876266479492e-01,6.115377545356750488e-01,6.115186214447021484e-01,6.114994287490844727e-01,6.114803552627563477e-01,6.114611625671386719e-01,6.114420294761657715e-01,6.114228963851928711e-01,6.114037632942199707e-01,6.113846302032470703e-01,6.113654971122741699e-01,6.113463640213012695e-01,6.113272309303283691e-01,6.113080978393554688e-01,6.112889647483825684e-01,6.112698316574096680e-01,6.112507581710815430e-01,6.112316250801086426e-01,6.112124919891357422e-01,6.111933588981628418e-01,6.111742258071899414e-01,6.111550927162170410e-01,6.111360192298889160e-01,6.111168861389160156e-01,6.110977530479431152e-01,6.110786199569702148e-01,6.110595464706420898e-01,6.110404133796691895e-01,6.110212802886962891e-01,6.110022068023681641e-01,6.109830737113952637e-01,6.109640002250671387e-01,6.109448671340942383e-01,6.109257340431213379e-01,6.109066605567932129e-01,6.108875274658203125e-01,6.108684539794921875e-01,6.108493208885192871e-01,6.108302474021911621e-01,6.108111739158630371e-01,6.107920408248901367e-01,6.107729673385620117e-01,6.107538342475891113e-01,6.107347607612609863e-01,6.107156872749328613e-01,6.106965541839599609e-01,6.106774806976318359e-01,6.106584072113037109e-01,6.106393337249755859e-01,6.106202602386474609e-01,6.106011271476745605e-01,6.105820536613464355e-01,6.105629801750183105e-01,6.105439066886901855e-01,6.105248332023620605e-01,6.105057001113891602e-01,6.104866862297058105e-01,6.104675531387329102e-01,6.104484796524047852e-01,6.104294657707214355e-01,6.104103326797485352e-01,6.103912591934204102e-01,6.103721857070922852e-01,6.103531122207641602e-01,6.103340983390808105e-01,6.103149652481079102e-01
5.903164148330688477e-01,5.902985930442810059e-01,5.902807116508483887e-01,5.902628898620605469e-01,5.902450680732727051e-01,5.902272462844848633e-01,5.902094244956970215e-01,5.901915431022644043e-01,5.901737213134765625e-01,5.901558995246887207e-01,5.901380777359008789e-01,5.901202559471130371e-01,5.901024341583251953e-01,5.900846123695373535e-01,5.900667309761047363e-01,5.900489687919616699e-01,5.900311470031738281e-01,5.900133252143859863e-01,5.899955034255981445e-01,5.899776816368103027e-01,5.899598598480224609e-01,5.899420380592346191e-01,5.899242162704467773e-01,5.899064540863037109e-01,5.898885726928710938e-01,5.898708105087280273e-01,5.898529887199401855e-01,5.898351669311523438e-01,5.898174047470092773e-01,5.897995829582214355e-01,5.897817611694335938e-01,5.897639989852905273e-01,5.897461771965026855e-01,5.897283554077148438e-01,5.897105336189270020e-01,5.896927714347839355e-01,5.896749496459960938e-01,5.896571278572082520e-01,5.896393656730651855e-01,5.896215438842773438e-01,5.896037817001342773e-01,5.895860195159912109e-01,5.895681977272033691e-01,5.895503759384155273e-01,5.895326137542724609e-01,5.895147919654846191e-01,5.894970297813415527e-01,5.894792079925537109e-01,5.894614458084106445e-01,5.894436240196228027e-01,5.894258618354797363e-01,5.894080996513366699e-01,5.893902778625488281e-01,5.893725156784057617e-01,5.893547534942626953e-01,5.893369913101196289e-01,5.893191695213317871e-01,5.893014073371887207e-01,5.892836451530456543e-01,5.892658233642578125e-01,5.892481207847595215e-01,5.892302989959716797e-01,5.892125368118286133e-01,5.891947746276855469e-01,5.891770124435424805e-01,5.891592502593994141e-01,5.891414284706115723e-01,5.891237258911132812e-01,5.891059637069702148e-01,5.890881419181823730e-01,5.890704393386840820e-01,5.890526175498962402e-01,5.890348553657531738e-01,5.890171527862548828e-01,5.889993309974670410e-01,5.889816284179687500e-01,5.889638066291809082e-01,5.889461040496826172e-01,5.889283418655395508e-01,5.889105796813964844e-01
