5.000000000000000000e+00,5.000000000000000000e+00,5.000000000000000000e+00,5.000000000000000000e+00,5.000000000000000000e+00,5.000000000000000000e+00,5.000000000000000000e+00,5.000000000000000000e+00,5.000000000000000000e+00,5.000000000000000000e+00,5.000000000000000000e+00,5.000000000000000000e+00,5.000000000000000000e+00,5.000000000000000000e+00,5.000000000000000000e+00,5.000000000000000000e+00,5.000000000000000000e+00,5.000000000000000000e+00,5.000000000000000000e+00,5.000000000000000000e+00,5.000000000000000000e+00,5.000000000000000000e+00,5.000000000000000000e+00,5.000000000000000000e+00,5.000000000000000000e+00,5.000000000000000000e+00,5.000000000000000000e+00,5.000000000000000000e+00,5.000000000000000000e+00,5.000000000000000000e+00,5.000000000000000000e+00,5.000000000000000000e+00,5.000000000000000000e+00,5.000000000000000000e+00,5.000000000000000000e+00,5.000000000000000000e+00,5.000000000000000000e+00,5.000000000000000000e+00,5.000000000000000000e+00,4.864503860473632812e+00,4.673328876495361328e+00,4.496613025665283203e+00,4.332773685455322266e+00,4.180454254150390625e+00,4.038480758666992188e+00,3.905834197998046875e+00,3.781623840332031250e+00,3.665070056915283203e+00,3.555486202239990234e+00,3.452265024185180664e+00,3.354868173599243164e+00,3.262816190719604492e+00,3.175680875778198242e+00,3.093078374862670898e+00,3.014663934707641602e+00,2.940127372741699219e+00,2.869187355041503906e+00,2.801590204238891602e+00,2.737104654312133789e+00,2.675521135330200195e+00,2.616647720336914062e+00,2.560309410095214844e+00,2.506345987319946289e+00,2.454610586166381836e+00,2.404967784881591797e+00,2.357293128967285156e+00,2.311471700668334961e+00,2.267397642135620117e+00,2.224973201751708984e+00,2.184107065200805664e+00,2.144714832305908203e+00,2.106718540191650391e+00,2.070044994354248047e+00,2.034626722335815430e+00,2.000399827957153320e+00,1.967305421829223633e+00,1.935288310050964355e+00,1.904296517372131348e+00,1.874281764030456543e+00,1.845198392868041992e+00
5.000000000000000000e+00,5.000000000000000000e+00,5.000000000000000000e+00,5.000000000000000000e+00,5.000000000000000000e+00,5.000000000000000000e+00,5.000000000000000000e+00,5.000000000000000000e+00,5.000000000000000000e+00,5.000000000000000000e+00,5.000000000000000000e+00,5.000000000000000000e+00,5.000000000000000000e+00,5.000000000000000000e+00,5.000000000000000000e+00,5.000000000000000000e+00,5.000000000000000000e+00,5.000000000000000000e+00,5.000000000000000000e+00,5.000000000000000000e+00,5.000000000000000000e+00,5.000000000000000000e+00,5.000000000000000000e+00,5.000000000000000000e+00,5.000000000000000000e+00,5.000000000000000000e+00,5.000000000000000000e+00,5.000000000000000000e+00,5.000000000000000000e+00,5.000000000000000000e+00,5.000000000000000000e+00,5.000000000000000000e+00,5.000000000000000000e+00,5.000000000000000000e+00,5.000000000000000000e+00,5.000000000000000000e+00,5.000000000000000000e+00,5.000000000000000000e+00,5.000000000000000000e+00,4.864643096923828125e+00,4.673457622528076172e+00,4.496731758117675781e+00,4.332884311676025391e+00,4.180557250976562500e+00,4.038577079772949219e+00,3.905923843383789062e+00,3.781707763671875000e+00,3.665149450302124023e+00,3.555560827255249023e+00,3.452335357666015625e+00,3.354934692382812500e+00,3.262878894805908203e+00,3.175740242004394531e+00,3.093134641647338867e+00,3.014717340469360352e+00,2.940178155899047852e+00,2.869235754013061523e+00,2.801636457443237305e+00,2.737148761749267578e+00,2.675563335418701172e+00,2.616688013076782227e+00,2.560348033905029297e+00,2.506383180618286133e+00,2.454646110534667969e+00,2.405001640319824219e+00,2.357325792312622070e+00,2.311502933502197266e+00,2.267427921295166016e+00,2.225002288818359375e+00,2.184135198593139648e+00,2.144742012023925781e+00,2.106744766235351562e+00,2.070070266723632812e+00,2.034651041030883789e+00,2.000423431396484375e+00,1.967328310012817383e+00,1.935310244560241699e+00,1.904317975044250488e+00,1.874302387237548828e+00,1.845218539237976074e+00
5.000000000000000000e+00,5.000000000000000000e+00,5.000000000000000000e+00,5.000000000000000000e+00,5.000000000000000000e+00,5.000000000000000000e+00,5.000000000000000000e+00,5.000000000000000000e+00,5.000000000000000000e+00,5.000000000000000000e+00,5.000000000000000000e+00,5.000000000000000000e+00,5.000000000000000000e+00,5.000000000000000000e+00,5.000000000000000000e+00,5.000000000000000000e+00,5.000000000000000000e+00,5.000000000000000000e+00,5.000000000000000000e+00,5.000000000000000000e+00,5.000000000000000000e+00,5.000000000000000000e+00,5.000000000000000000e+00,5.000000000000000000e+00,5.000000000000000000e+00,5.000000000000000000e+00,5.000000000000000000e+00,5.000000000000000000e+00,5.000000000000000000e+00,5.000000000000000000e+00,5.000000000000000000e+00,5.000000000000000000e+00,5.000000000000000000e+00,5.000000000000000000e+00,5.000000000000000000e+00,5.000000000000000000e+00,5.000000000000000000e+00,5.000000000000000000e+00,5.000000000000000000e+00,4.864782333374023438e+00,4.673586368560791016e+00,4.496850967407226562e+00,4.332994937896728516e+00,4.180660247802734375e+00,4.038672924041748047e+00,3.906013727188110352e+00,3.781792163848876953e+00,3.665228366851806641e+00,3.555634975433349609e+00,3.452405452728271484e+00,3.355000734329223633e+00,3.262941360473632812e+00,3.175799608230590820e+00,3.093190908432006836e+00,3.014770984649658203e+00,2.940229177474975586e+00,2.869284391403198242e+00,2.801682472229003906e+00,2.737192869186401367e+00,2.675605297088623047e+00,2.616728305816650391e+00,2.560386657714843750e+00,2.506420135498046875e+00,2.454681634902954102e+00,2.405035734176635742e+00,2.357358455657958984e+00,2.311534643173217773e+00,2.267458200454711914e+00,2.225031375885009766e+00,2.184163093566894531e+00,2.144768953323364258e+00,2.106770753860473633e+00,2.070095300674438477e+00,2.034675359725952148e+00,2.000447034835815430e+00,1.967351078987121582e+00,1.935332298278808594e+00,1.904339313507080078e+00,1.874323129653930664e+00,1.845238566398620605e+00
5.000000000000000000e+00,5.000000000000000000e+00,5.000000000000000000e+00,5.000000000000000000e+00,5.000000000000000000e+00,5.000000000000000000e+00,5.000000000000000000e+00,5.000000000000000000e+00,5.000000000000000000e+00,5.000000000000000000e+00,5.000000000000000000e+00,5.000000000000000000e+00,5.000000000000000000e+00,5.000000000000000000e+00,5.000000000000000000e+00,5.000000000000000000e+00,5.000000000000000000e+00,5.000000000000000000e+00,5.000000000000000000e+00,5.000000000000000000e+00,5.000000000000000000e+00,5.000000000000000000e+00,5.000000000000000000e+00,5.000000000000000000e+00,5.000000000000000000e+00,5.000000000000000000e+00,5.000000000000000000e+00,5.000000000000000000e+00,5.000000000000000000e+00,5.000000000000000000e+00,5.000000000000000000e+00,5.000000000000000000e+00,5.000000000000000000e+00,5.000000000000000000e+00,5.000000000000000000e+00,5.000000000000000000e+00,5.000000000000000000e+00,5.000000000000000000e+00,5.000000000000000000e+00,4.864921569824218750e+00,4.673714637756347656e+00,4.496969699859619141e+00,4.333105564117431641e+00,4.180763244628906250e+00,4.038768768310546875e+00,3.906103372573852539e+00,3.781876325607299805e+00,3.665307521820068359e+00,3.555709600448608398e+00,3.452475786209106445e+00,3.355067014694213867e+00,3.263004302978515625e+00,3.175858974456787109e+00,3.093247175216674805e+00,3.014824390411376953e+00,2.940279960632324219e+00,2.869332551956176758e+00,2.801728963851928711e+00,2.737236976623535156e+00,2.675647735595703125e+00,2.616768598556518555e+00,2.560425281524658203e+00,2.506457090377807617e+00,2.454716920852661133e+00,2.405069828033447266e+00,2.357391119003295898e+00,2.311565876007080078e+00,2.267488479614257812e+00,2.225060462951660156e+00,2.184191226959228516e+00,2.144796133041381836e+00,2.106796979904174805e+00,2.070120573043823242e+00,2.034699678421020508e+00,2.000470399856567383e+00,1.967373728752136230e+00,1.935354471206665039e+00,1.904360532760620117e+00,1.874343752861022949e+00,1.845258712768554688e+00
5.000000000000000000e+00,5.000000000000000000e+00,5.000000000000000000e+00,5.000000000000000000e+00,5.000000000000000000e+00,5.000000000000000000e+00,5.000000000000000000e+00,5.000000000000000000e+00,5.000000000000000000e+00,5.000000000000000000e+00,5.000000000000000000e+00,5.000000000000000000e+00,5.000000000000000000e+00,5.000000000000000000e+00,5.000000000000000000e+00,5.000000000000000000e+00,5.000000000000000000e+00,5.000000000000000000e+00,5.000000000000000000e+00,5.000000000000000000e+00,5.000000000000000000e+00,5.000000000000000000e+00,5.000000000000000000e+00,5.000000000000000000e+00,5.000000000000000000e+00,5.000000000000000000e+00,5.000000000000000000e+00,5.000000000000000000e+00,5.000000000000000000e+00,5.000000000000000000e+00,5.000000000000000000e+00,5.000000000000000000e+00,5.000000000000000000e+00,5.000000000000000000e+00,5.000000000000000000e+00,5.000000000000000000e+00,5.000000000000000000e+00,5.000000000000000000e+00,5.000000000000000000e+00,4.865060806274414062e+00,4.673843383789062500e+00,4.497088909149169922e+00,4.333215713500976562e+00,4.180865764617919922e+00,4.038865089416503906e+00,3.906193494796752930e+00,3.781960725784301758e+00,3.665386438369750977e+00,3.555783987045288086e+00,3.452545642852783203e+00,3.355133056640625000e+00,3.263066768646240234e+00,3.175918340682983398e+00,3.093303680419921875e+00,3.014878034591674805e+00,2.940330982208251953e+00,2.869381189346313477e+00,2.801774978637695312e+00,2.737281084060668945e+00,2.675689697265625000e+00,2.616808891296386719e+00,2.560463666915893555e+00,2.506494283676147461e+00,2.454752445220947266e+00,2.405103921890258789e+00,2.357424020767211914e+00,2.311597347259521484e+00,2.267518758773803711e+00,2.225089550018310547e+00,2.184219360351562500e+00,2.144823074340820312e+00,2.106822967529296875e+00,2.070145845413208008e+00,2.034724235534667969e+00,2.000494003295898438e+00,1.967396616935729980e+00,1.935376524925231934e+00,1.904381871223449707e+00,1.874364495277404785e+00,1.845278620719909668e+00
5.000000000000000000e+00,5.000000000000000000e+00,5.000000000000000000e+00,5.000000000000000000e+00,5.000000000000000000e+00,5.000000000000000000e+00,5.000000000000000000e+00,5.000000000000000000e+00,5.000000000000000000e+00,5.000000000000000000e+00,5.000000000000000000e+00,5.000000000000000000e+00,5.000000000000000000e+00,5.000000000000000000e+00,5.000000000000000000e+00,5.000000000000000000e+00,5.000000000000000000e+00,5.000000000000000000e+00,5.000000000000000000e+00,5.000000000000000000e+00,5.000000000000000000e+00,5.000000000000000000e+00,5.000000000000000000e+00,5.000000000000000000e+00,5.000000000000000000e+00,5.000000000000000000e+00,5.000000000000000000e+00,5.000000000000000000e+00,5.000000000000000000e+00,5.000000000000000000e+00,5.000000000000000000e+00,5.000000000000000000e+00,5.000000000000000000e+00,5.000000000000000000e+00,5.000000000000000000e+00,5.000000000000000000e+00,5.000000000000000000e+00,5.000000000000000000e+00,5.000000000000000000e+00,4.865200042724609375e+00,4.673971652984619141e+00,4.497208118438720703e+00,4.333326339721679688e+00,4.180968761444091797e+00,4.038960933685302734e+00,3.906283140182495117e+00,3.782045125961303711e+00,3.665465593338012695e+00,3.555858612060546875e+00,3.452615976333618164e+00,3.355199575424194336e+00,3.263129711151123047e+00,3.175977706909179688e+00,3.093359947204589844e+00,3.014931440353393555e+00,2.940381526947021484e+00,2.869429588317871094e+00,2.801821231842041016e+00,2.737325191497802734e+00,2.675731897354125977e+00,2.616849422454833984e+00,2.560502529144287109e+00,2.506531000137329102e+00,2.454787969589233398e+00,2.405137777328491211e+00,2.357456445693969727e+00,2.311628818511962891e+00,2.267549037933349609e+00,2.225118875503540039e+00,2.184247493743896484e+00,2.144850254058837891e+00,2.106849193572998047e+00,2.070171117782592773e+00,2.034748554229736328e+00,2.000517606735229492e+00,1.967419385910034180e+00,1.935398459434509277e+00,1.904403328895568848e+00,1.874385237693786621e+00,1.845298647880554199e+00
5.000000000000000000e+00,5.000000000000000000e+00,5.000000000000000000e+00,5.000000000000000000e+00,5.000000000000000000e+00,5.000000000000000000e+00,5.000000000000000000e+00,5.000000000000000000e+00,5.000000000000000000e+00,5.000000000000000000e+00,5.000000000000000000e+00,5.000000000000000000e+00,5.000000000000000000e+00,5.000000000000000000e+00,5.000000000000000000e+00,5.000000000000000000e+00,5.000000000000000000e+00,5.000000000000000000e+00,5.000000000000000000e+00,5.000000000000000000e+00,5.000000000000000000e+00,5.000000000000000000e+00,5.000000000000000000e+00,5.000000000000000000e+00,5.000000000000000000e+00,5.000000000000000000e+00,5.000000000000000000e+00,5.000000000000000000e+00,5.000000000000000000e+00,5.000000000000000000e+00,5.000000000000000000e+00,5.000000000000000000e+00,5.000000000000000000e+00,5.000000000000000000e+00,5.000000000000000000e+00,5.000000000000000000e+00,5.000000000000000000e+00,5.000000000000000000e+00,5.000000000000000000e+00,4.865339756011962891e+00,4.674100399017333984e+00,4.497326850891113281e+00,4.333436965942382812e+00,4.181071758270263672e+00,4.039056777954101562e+00,3.906373023986816406e+00,3.782129049301147461e+00,3.665544509887695312e+00,3.555932760238647461e+00,3.452686071395874023e+00,3.355265617370605469e+00,3.263192176818847656e+00,3.176037073135375977e+00,3.093416213989257812e+00,3.014985084533691406e+00,2.940432548522949219e+00,2.869478225708007812e+00,2.801867246627807617e+00,2.737369298934936523e+00,2.675773859024047852e+00,2.616889476776123047e+00,2.560540914535522461e+00,2.506568193435668945e+00,2.454823493957519531e+00,2.405172109603881836e+00,2.357489347457885742e+00,2.311660289764404297e+00,2.267579317092895508e+00,2.225147962570190430e+00,2.184275388717651367e+00,2.144877195358276367e+00,2.106875181198120117e+00,2.070196390151977539e+00,2.034772872924804688e+00,2.000541210174560547e+00,1.967442274093627930e+00,1.935420513153076172e+00,1.904424667358398438e+00,1.874405741691589355e+00,1.845318794250488281e+00
5.000000000000000000e+00,5.000000000000000000e+00,5.000000000000000000e+00,5.000000000000000000e+00,5.000000000000000000e+00,5.000000000000000000e+00,5.000000000000000000e+00,5.000000000000000000e+00,5.000000000000000000e+00,5.000000000000000000e+00,5.000000000000000000e+00,5.000000000000000000e+00,5.000000000000000000e+00,5.000000000000000000e+00,5.000000000000000000e+00,5.000000000000000000e+00,5.000000000000000000e+00,5.000000000000000000e+00,5.000000000000000000e+00,5.000000000000000000e+00,5.000000000000000000e+00,5.000000000000000000e+00,5.000000000000000000e+00,5.000000000000000000e+00,5.000000000000000000e+00,4.111974239349365234e+00,5.000000000000000000e+00,5.000000000000000000e+00,5.000000000000000000e+00,5.000000000000000000e+00,5.000000000000000000e+00,5.000000000000000000e+00,5.000000000000000000e+00,5.000000000000000000e+00,5.000000000000000000e+00,5.000000000000000000e+00,5.000000000000000000e+00,5.000000000000000000e+00,5.000000000000000000e+00,4.865478992462158203e+00,4.674229145050048828e+00,4.497446060180664062e+00,4.333547592163085938e+00,4.181174755096435547e+00,4.039153099060058594e+00,3.906462669372558594e+00,3.782213449478149414e+00,3.665623903274536133e+00,3.556007385253906250e+00,3.452756404876708984e+00,3.355332136154174805e+00,3.263254880905151367e+00,3.176096439361572266e+00,3.093472480773925781e+00,3.015038490295410156e+00,2.940483331680297852e+00,2.869526386260986328e+00,2.801913738250732422e+00,2.737413406372070312e+00,2.675816297531127930e+00,2.616930007934570312e+00,2.560579538345336914e+00,2.506604909896850586e+00,2.454858779907226562e+00,2.405205965042114258e+00,2.357522010803222656e+00,2.311691761016845703e+00,2.267609357833862305e+00,2.225177049636840820e+00,2.184303522109985352e+00,2.144904375076293945e+00,2.106901407241821289e+00,2.070221662521362305e+00,2.034797191619873047e+00,2.000564575195312500e+00,1.967464923858642578e+00,1.935442686080932617e+00,1.904445886611938477e+00,1.874426484107971191e+00,1.845338821411132812e+00
5.000000000000000000e+00,5.000000000000000000e+00,5.000000000000000000e+00,5.000000000000000000e+00,5.000000000000000000e+00,5.000000000000000000e+00,5.000000000000000000e+00,5.000000000000000000e+00,5.000000000000000000e+00,5.000000000000000000e+00,5.000000000000000000e+00,5.000000000000000000e+00,5.000000000000000000e+00,5.000000000000000000e+00,5.000000000000000000e+00,5.000000000000000000e+00,5.000000000000000000e+00,5.000000000000000000e+00,5.000000000000000000e+00,5.000000000000000000e+00,5.000000000000000000e+00,5.000000000000000000e+00,5.000000000000000000e+00,5.000000000000000000e+00,5.000000000000000000e+00,4.091096401214599609e+00,4.168417453765869141e+00,5.000000000000000000e+00,5.000000000000000000e+00,5.000000000000000000e+00,5.000000000000000000e+00,5.000000000000000000e+00,5.000000000000000000e+00,5.000000000000000000e+00,5.000000000000000000e+00,5.000000000000000000e+00,5.000000000000000000e+00,5.000000000000000000e+00,5.000000000000000000e+00,4.865618228912353516e+00,4.674357891082763672e+00,4.497565269470214844e+00,4.333658218383789062e+00,4.181277751922607422e+00,4.039248943328857422e+00,3.906552791595458984e+00,3.782297372817993164e+00,3.665702819824218750e+00,3.556081533432006836e+00,3.452826261520385742e+00,3.355398178100585938e+00,3.263317584991455078e+00,3.176155805587768555e+00,3.093528985977172852e+00,3.015092134475708008e+00,2.940534353256225586e+00,2.869575023651123047e+00,2.801959753036499023e+00,2.737457513809204102e+00,2.675858259201049805e+00,2.616970062255859375e+00,2.560618162155151367e+00,2.506642103195190430e+00,2.454894304275512695e+00,2.405240058898925781e+00,2.357554674148559570e+00,2.311723232269287109e+00,2.267639875411987305e+00,2.225206136703491211e+00,2.184331655502319336e+00,2.144931316375732422e+00,2.106927633285522461e+00,2.070246696472167969e+00,2.034821748733520508e+00,2.000588178634643555e+00,1.967487692832946777e+00,1.935464739799499512e+00,1.904467344284057617e+00,1.874447226524353027e+00,1.845358729362487793e+00
5.000000000000000000e+00,5.000000000000000000e+00,5.000000000000000000e+00,5.000000000000000000e+00,5.000000000000000000e+00,5.000000000000000000e+00,5.000000000000000000e+00,5.000000000000000000e+00,5.000000000000000000e+00,5.000000000000000000e+00,5.000000000000000000e+00,5.000000000000000000e+00,5.000000000000000000e+00,5.000000000000000000e+00,5.000000000000000000e+00,5.000000000000000000e+00,5.000000000000000000e+00,5.000000000000000000e+00,5.000000000000000000e+00,5.000000000000000000e+00,5.000000000000000000e+00,5.000000000000000000e+00,5.000000000000000000e+00,5.000000000000000000e+00,5.000000000000000000e+00,4.102432727813720703e+00,4.166602611541748047e+00,5.000000000000000000e+00,5.000000000000000000e+00,5.000000000000000000e+00,5.000000000000000000e+00,5.000000000000000000e+00,5.000000000000000000e+00,5.000000000000000000e+00,5.000000000000000000e+00,5.000000000000000000e+00,5.000000000000000000e+00,5.000000000000000000e+00,5.000000000000000000e+00,4.865757465362548828e+00,4.674486160278320312e+00,4.497684001922607422e+00,4.333768367767333984e+00,4.181380271911621094e+00,4.039345264434814453e+00,3.906642198562622070e+00,3.782381772994995117e+00,3.665781974792480469e+00,3.556156158447265625e+00,3.452896833419799805e+00,3.355464696884155273e+00,3.263380289077758789e+00,3.176215171813964844e+00,3.093585252761840820e+00,3.015145301818847656e+00,2.940585136413574219e+00,2.869623422622680664e+00,2.802006006240844727e+00,2.737501621246337891e+00,2.675900459289550781e+00,2.617010593414306641e+00,2.560656785964965820e+00,2.506679058074951172e+00,2.454929828643798828e+00,2.405274152755737305e+00,2.357587337493896484e+00,2.311754703521728516e+00,2.267669916152954102e+00,2.225235462188720703e+00,2.184359788894653320e+00,2.144958496093750000e+00,2.106953859329223633e+00,2.070271968841552734e+00,2.034846067428588867e+00,2.000611782073974609e+00,1.967510581016540527e+00,1.935486674308776855e+00,1.904488682746887207e+00,1.874467968940734863e+00,1.845378875732421875e+00
5.000000000000000000e+00,5.000000000000000000e+00,5.000000000000000000e+00,5.000000000000000000e+00,5.000000000000000000e+00,5.000000000000000000e+00,5.000000000000000000e+00,5.000000000000000000e+00,5.000000000000000000e+00,5.000000000000000000e+00,5.000000000000000000e+00,5.000000000000000000e+00,5.000000000000000000e+00,5.000000000000000000e+00,5.000000000000000000e+00,5.000000000000000000e+00,5.000000000000000000e+00,5.000000000000000000e+00,5.000000000000000000e+00,5.000000000000000000e+00,5.000000000000000000e+00,5.000000000000000000e+00,5.000000000000000000e+00,5.000000000000000000e+00,5.000000000000000000e+00,4.185130596160888672e+00,4.219532012939453125e+00,5.000000000000000000e+00,5.000000000000000000e+00,5.000000000000000000e+00,5.000000000000000000e+00,5.000000000000000000e+00,5.000000000000000000e+00,5.000000000000000000e+00,5.000000000000000000e+00,5.000000000000000000e+00,5.000000000000000000e+00,5.000000000000000000e+00,5.000000000000000000e+00,4.865896701812744141e+00,4.674614906311035156e+00,4.497803211212158203e+00,4.333878993988037109e+00,4.181483268737792969e+00,4.039441108703613281e+00,3.906732320785522461e+00,3.782465934753417969e+00,3.665860891342163086e+00,3.556230545043945312e+00,3.452966690063476562e+00,3.355530738830566406e+00,3.263442754745483398e+00,3.176274538040161133e+00,3.093641519546508789e+00,3.015198945999145508e+00,2.940636157989501953e+00,2.869672060012817383e+00,2.802052259445190430e+00,2.737545728683471680e+00,2.675942420959472656e+00,2.617050647735595703e+00,2.560695409774780273e+00,2.506716012954711914e+00,2.454965353012084961e+00,2.405308246612548828e+00,2.357620239257812500e+00,2.311786174774169922e+00,2.267700433731079102e+00,2.225264549255371094e+00,2.184387683868408203e+00,2.144985675811767578e+00,2.106979846954345703e+00,2.070297241210937500e+00,2.034870386123657227e+00,2.000635385513305664e+00,1.967533349990844727e+00,1.935508728027343750e+00,1.904510140419006348e+00,1.874488472938537598e+00,1.845398902893066406e+00
5.000000000000000000e+00,5.000000000000000000e+00,5.000000000000000000e+00,5.000000000000000000e+00,5.000000000000000000e+00,5.000000000000000000e+00,5.000000000000000000e+00,5.000000000000000000e+00,5.000000000000000000e+00,5.000000000000000000e+00,5.000000000000000000e+00,5.000000000000000000e+00,5.000000000000000000e+00,5.000000000000000000e+00,5.000000000000000000e+00,5.000000000000000000e+00,5.000000000000000000e+00,5.000000000000000000e+00,5.000000000000000000e+00,5.000000000000000000e+00,5.000000000000000000e+00,5.000000000000000000e+00,5.000000000000000000e+00,4.155882358551025391e+00,4.134508609771728516e+00,4.145000457763671875e+00,4.139879226684570312e+00,4.165195941925048828e+00,4.178356170654296875e+00,5.000000000000000000e+00,5.000000000000000000e+00,5.000000000000000000e+00,5.000000000000000000e+00,5.000000000000000000e+00,5.000000000000000000e+00,5.000000000000000000e+00,5.000000000000000000e+00,5.000000000000000000e+00,5.000000000000000000e+00,4.866036415100097656e+00,4.674743652343750000e+00,4.497922420501708984e+00,4.333989620208740234e+00,4.181586265563964844e+00,4.039536952972412109e+00,3.906821966171264648e+00,3.782550334930419922e+00,3.665940284729003906e+00,3.556305170059204102e+00,3.453037023544311523e+00,3.355597257614135742e+00,3.263505697250366211e+00,3.176333904266357422e+00,3.093697786331176758e+00,3.015252351760864258e+00,2.940686941146850586e+00,2.869720458984375000e+00,2.802098512649536133e+00,2.737589836120605469e+00,2.675984859466552734e+00,2.617091178894042969e+00,2.560734033584594727e+00,2.506752967834472656e+00,2.455000638961791992e+00,2.405342102050781250e+00,2.357652902603149414e+00,2.311817646026611328e+00,2.267730474472045898e+00,2.225293636322021484e+00,2.184415817260742188e+00,2.145012855529785156e+00,2.107005834579467773e+00,2.070322513580322266e+00,2.034894704818725586e+00,2.000658988952636719e+00,1.967555999755859375e+00,1.935530781745910645e+00,1.904531359672546387e+00,1.874509215354919434e+00,1.845419049263000488e+00
5.000000000000000000e+00,5.000000000000000000e+00,5.000000000000000000e+00,5.000000000000000000e+00,5.000000000000000000e+00,5.000000000000000000e+00,5.000000000000000000e+00,5.000000000000000000e+00,5.000000000000000000e+00,5.000000000000000000e+00,5.000000000000000000e+00,5.000000000000000000e+00,5.000000000000000000e+00,5.000000000000000000e+00,5.000000000000000000e+00,5.000000000000000000e+00,5.000000000000000000e+00,5.000000000000000000e+00,5.000000000000000000e+00,5.000000000000000000e+00,5.000000000000000000e+00,5.000000000000000000e+00,4.140456199645996094e+00,4.121909141540527344e+00,4.080784797668457031e+00,4.089309215545654297e+00,4.094295501708984375e+00,4.142835617065429688e+00,4.193356037139892578e+00,4.256526470184326172e+00,5.000000000000000000e+00,5.000000000000000000e+00,5.000000000000000000e+00,5.000000000000000000e+00,5.000000000000000000e+00,5.000000000000000000e+00,5.000000000000000000e+00,5.000000000000000000e+00,5.000000000000000000e+00,4.866175651550292969e+00,4.674871921539306641e+00,4.498041152954101562e+00,4.334100246429443359e+00,4.181689262390136719e+00,4.039633274078369141e+00,3.906912088394165039e+00,3.782634258270263672e+00,3.666019201278686523e+00,3.556379318237304688e+00,3.453107118606567383e+00,3.355663299560546875e+00,3.263568162918090820e+00,3.176393508911132812e+00,3.093754291534423828e+00,3.015305995941162109e+00,2.940737962722778320e+00,2.869768857955932617e+00,2.802144527435302734e+00,2.737633943557739258e+00,2.676026821136474609e+00,2.617131471633911133e+00,2.560772418975830078e+00,2.506789922714233398e+00,2.455036401748657227e+00,2.405376434326171875e+00,2.357685565948486328e+00,2.311849117279052734e+00,2.267760992050170898e+00,2.225322723388671875e+00,2.184443950653076172e+00,2.145039796829223633e+00,2.107032060623168945e+00,2.070347547531127930e+00,2.034919023513793945e+00,2.000682592391967773e+00,1.967578887939453125e+00,1.935552954673767090e+00,1.904552698135375977e+00,1.874529957771301270e+00,1.845438957214355469e+00
5.000000000000000000e+00,5.000000000000000000e+00,5.000000000000000000e+00,5.000000000000000000e+00,5.000000000000000000e+00,5.000000000000000000e+00,5.000000000000000000e+00,5.000000000000000000e+00,5.000000000000000000e+00,5.000000000000000000e+00,5.000000000000000000e+00,5.000000000000000000e+00,5.000000000000000000e+00,5.000000000000000000e+00,5.000000000000000000e+00,5.000000000000000000e+00,5.000000000000000000e+00,5.000000000000000000e+00,5.000000000000000000e+00,5.000000000000000000e+00,5.000000000000000000e+00,5.000000000000000000e+00,4.211153030395507812e+00,4.172006130218505859e+00,4.089591503143310547e+00,4.081508636474609375e+00,4.100625038146972656e+00,4.147336959838867188e+00,4.191061973571777344e+00,4.229066371917724609e+00,5.000000000000000000e+00,5.000000000000000000e+00,5.000000000000000000e+00,5.000000000000000000e+00,5.000000000000000000e+00,5.000000000000000000e+00,5.000000000000000000e+00,5.000000000000000000e+00,5.000000000000000000e+00,4.866314888000488281e+00,4.675000667572021484e+00,4.498160362243652344e+00,4.334210872650146484e+00,4.181792259216308594e+00,4.039729118347167969e+00,3.907001733779907227e+00,3.782718658447265625e+00,3.666098356246948242e+00,3.556453943252563477e+00,3.453177452087402344e+00,3.355729818344116211e+00,3.263631105422973633e+00,3.176452636718750000e+00,3.093810558319091797e+00,3.015359401702880859e+00,2.940788745880126953e+00,2.869817256927490234e+00,2.802191019058227539e+00,2.737678050994873047e+00,2.676069021224975586e+00,2.617171764373779297e+00,2.560811281204223633e+00,2.506826877593994141e+00,2.455071687698364258e+00,2.405410289764404297e+00,2.357718229293823242e+00,2.311880588531494141e+00,2.267791032791137695e+00,2.225352048873901367e+00,2.184472084045410156e+00,2.145066976547241211e+00,2.107058286666870117e+00,2.070373058319091797e+00,2.034943342208862305e+00,2.000705957412719727e+00,1.967601656913757324e+00,1.935574769973754883e+00,1.904574155807495117e+00,1.874550700187683105e+00,1.845458984375000000e+00
5.000000000000000000e+00,5.000000000000000000e+00,5.000000000000000000e+00,5.000000000000000000e+00,5.000000000000000000e+00,5.000000000000000000e+00,5.000000000000000000e+00,5.000000000000000000e+00,5.000000000000000000e+00,5.000000000000000000e+00,5.000000000000000000e+00,5.000000000000000000e+00,5.000000000000000000e+00,5.000000000000000000e+00,5.000000000000000000e+00,5.000000000000000000e+00,5.000000000000000000e+00,5.000000000000000000e+00,5.000000000000000000e+00,5.000000000000000000e+00,5.000000000000000000e+00,5.000000000000000000e+00,5.000000000000000000e+00,4.178661823272705078e+00,4.082249641418457031e+00,4.076794624328613281e+00,4.097673416137695312e+00,4.159924983978271484e+00,4.185732841491699219e+00,4.215329647064208984e+00,5.000000000000000000e+00,5.000000000000000000e+00,5.000000000000000000e+00,5.000000000000000000e+00,5.000000000000000000e+00,5.000000000000000000e+00,5.000000000000000000e+00,5.000000000000000000e+00,5.000000000000000000e+00,4.866454601287841797e+00,4.675129413604736328e+00,4.498279571533203125e+00,4.334321498870849609e+00,4.181895256042480469e+00,4.039825439453125000e+00,3.907091617584228516e+00,3.782802820205688477e+00,3.666177272796630859e+00,3.556528329849243164e+00,3.453247547149658203e+00,3.355795860290527344e+00,3.263693571090698242e+00,3.176512241363525391e+00,3.093867063522338867e+00,3.015413045883178711e+00,2.940839767456054688e+00,2.869865894317626953e+00,2.802237033843994141e+00,2.737722158432006836e+00,2.676111221313476562e+00,2.617212057113647461e+00,2.560849666595458984e+00,2.506864070892333984e+00,2.455107212066650391e+00,2.405444383621215820e+00,2.357751131057739258e+00,2.311912059783935547e+00,2.267821550369262695e+00,2.225381135940551758e+00,2.184500217437744141e+00,2.145093917846679688e+00,2.107084274291992188e+00,2.070398092269897461e+00,2.034967899322509766e+00,2.000729560852050781e+00,1.967624545097351074e+00,1.935596942901611328e+00,1.904595494270324707e+00,1.874571204185485840e+00,1.845479130744934082e+00
5.000000000000000000e+00,5.000000000000000000e+00,5.000000000000000000e+00,5.000000000000000000e+00,5.000000000000000000e+00,5.000000000000000000e+00,5.000000000000000000e+00,5.000000000000000000e+00,5.000000000000000000e+00,5.000000000000000000e+00,5.000000000000000000e+00,5.000000000000000000e+00,5.000000000000000000e+00,5.000000000000000000e+00,5.000000000000000000e+00,5.000000000000000000e+00,5.000000000000000000e+00,5.000000000000000000e+00,5.000000000000000000e+00,5.000000000000000000e+00,5.000000000000000000e+00,5.000000000000000000e+00,5.000000000000000000e+00,4.190286636352539062e+00,4.071073532104492188e+00,4.081353664398193359e+00,4.096819400787353516e+00,4.181550502777099609e+00,4.220279693603515625e+00,4.214612007141113281e+00,5.000000000000000000e+00,5.000000000000000000e+00,5.000000000000000000e+00,5.000000000000000000e+00,5.000000000000000000e+00,5.000000000000000000e+00,5.000000000000000000e+00,5.000000000000000000e+00,5.000000000000000000e+00,4.866593837738037109e+00,4.675258159637451172e+00,4.498398780822753906e+00,4.334432125091552734e+00,4.181997776031494141e+00,4.039921283721923828e+00,3.907181262969970703e+00,3.782887220382690430e+00,3.666256666183471680e+00,3.556602954864501953e+00,3.453317880630493164e+00,3.355862379074096680e+00,3.263756513595581055e+00,3.176571369171142578e+00,3.093923091888427734e+00,3.015466451644897461e+00,2.940890550613403320e+00,2.869914293289184570e+00,2.802283525466918945e+00,2.737766265869140625e+00,2.676153421401977539e+00,2.617252349853515625e+00,2.560888290405273438e+00,2.506901025772094727e+00,2.455142736434936523e+00,2.405478477478027344e+00,2.357783794403076172e+00,2.311943292617797852e+00,2.267851591110229492e+00,2.225410223007202148e+00,2.184528350830078125e+00,2.145121097564697266e+00,2.107110500335693359e+00,2.070423364639282227e+00,2.034992218017578125e+00,2.000753164291381836e+00,1.967647194862365723e+00,1.935618996620178223e+00,1.904616713523864746e+00,1.874591946601867676e+00,1.845499277114868164e+00
5.000000000000000000e+00,5.000000000000000000e+00,5.000000000000000000e+00,5.000000000000000000e+00,5.000000000000000000e+00,5.000000000000000000e+00,5.000000000000000000e+00,5.000000000000000000e+00,5.000000000000000000e+00,5.000000000000000000e+00,5.000000000000000000e+00,5.000000000000000000e+00,5.000000000000000000e+00,5.000000000000000000e+00,5.000000000000000000e+00,5.000000000000000000e+00,5.000000000000000000e+00,5.000000000000000000e+00,5.000000000000000000e+00,5.000000000000000000e+00,5.000000000000000000e+00,5.000000000000000000e+00,5.000000000000000000e+00,4.166488647460937500e+00,4.084828853607177734e+00,4.076614379882812500e+00,4.102586746215820312e+00,4.162663459777832031e+00,5.000000000000000000e+00,4.153769016265869141e+00,5.000000000000000000e+00,5.000000000000000000e+00,5.000000000000000000e+00,5.000000000000000000e+00,5.000000000000000000e+00,5.000000000000000000e+00,5.000000000000000000e+00,5.000000000000000000e+00,5.000000000000000000e+00,4.866733074188232422e+00,4.675386905670166016e+00,4.498517990112304688e+00,4.334542751312255859e+00,4.182100772857666016e+00,4.040017604827880859e+00,3.907271385192871094e+00,3.782971143722534180e+00,3.666335582733154297e+00,3.556677103042602539e+00,3.453387737274169922e+00,3.355928421020507812e+00,3.263818979263305664e+00,3.176630973815917969e+00,3.093979597091674805e+00,3.015520095825195312e+00,2.940941572189331055e+00,2.869962930679321289e+00,2.802329540252685547e+00,2.737810373306274414e+00,2.676195383071899414e+00,2.617292642593383789e+00,2.560926914215087891e+00,2.506937980651855469e+00,2.455178260803222656e+00,2.405512571334838867e+00,2.357816457748413086e+00,2.311975002288818359e+00,2.267881870269775391e+00,2.225439310073852539e+00,2.184556245803833008e+00,2.145148038864135742e+00,2.107136487960815430e+00,2.070448637008666992e+00,2.035016536712646484e+00,2.000776767730712891e+00,1.967669963836669922e+00,1.935641169548034668e+00,1.904638171195983887e+00,1.874612689018249512e+00,1.845519065856933594e+00
5.000000000000000000e+00,5.000000000000000000e+00,5.000000000000000000e+00,5.000000000000000000e+00,5.000000000000000000e+00,5.000000000000000000e+00,5.000000000000000000e+00,5.000000000000000000e+00,5.000000000000000000e+00,5.000000000000000000e+00,5.000000000000000000e+00,5.000000000000000000e+00,5.000000000000000000e+00,5.000000000000000000e+00,5.000000000000000000e+00,5.000000000000000000e+00,5.000000000000000000e+00,5.000000000000000000e+00,5.000000000000000000e+00,5.000000000000000000e+00,5.000000000000000000e+00,5.000000000000000000e+00,5.000000000000000000e+00,4.202443599700927734e+00,4.080985069274902344e+00,4.094459056854248047e+00,4.107476234436035156e+00,4.154075145721435547e+00,5.000000000000000000e+00,4.096769332885742188e+00,5.000000000000000000e+00,5.000000000000000000e+00,5.000000000000000000e+00,5.000000000000000000e+00,5.000000000000000000e+00,5.000000000000000000e+00,5.000000000000000000e+00,5.000000000000000000e+00,5.000000000000000000e+00,4.866872787475585938e+00,4.675515174865722656e+00,4.498636722564697266e+00,4.334652900695800781e+00,4.182203769683837891e+00,4.040113449096679688e+00,3.907361030578613281e+00,3.783055543899536133e+00,3.666414976119995117e+00,3.556751728057861328e+00,3.453458309173583984e+00,3.355994939804077148e+00,3.263881921768188477e+00,3.176690340042114258e+00,3.094035863876342773e+00,3.015573501586914062e+00,2.940992355346679688e+00,2.870011329650878906e+00,2.802375793457031250e+00,2.737854480743408203e+00,2.676237583160400391e+00,2.617333173751831055e+00,2.560965538024902344e+00,2.506974935531616211e+00,2.455213546752929688e+00,2.405546426773071289e+00,2.357849121093750000e+00,2.312006235122680664e+00,2.267912149429321289e+00,2.225468635559082031e+00,2.184584379196166992e+00,2.145175218582153320e+00,2.107162714004516602e+00,2.070473909378051758e+00,2.035040855407714844e+00,2.000800132751464844e+00,1.967692852020263672e+00,1.935662984848022461e+00,1.904659509658813477e+00,1.874633431434631348e+00,1.845539212226867676e+00
5.000000000000000000e+00,5.000000000000000000e+00,5.000000000000000000e+00,5.000000000000000000e+00,5.000000000000000000e+00,5.000000000000000000e+00,5.000000000000000000e+00,5.000000000000000000e+00,5.000000000000000000e+00,5.000000000000000000e+00,5.000000000000000000e+00,5.000000000000000000e+00,5.000000000000000000e+00,5.000000000000000000e+00,5.000000000000000000e+00,5.000000000000000000e+00,5.000000000000000000e+00,5.000000000000000000e+00,5.000000000000000000e+00,5.000000000000000000e+00,5.000000000000000000e+00,5.000000000000000000e+00,5.000000000000000000e+00,4.043612480163574219e+00,4.013079166412353516e+00,4.071893215179443359e+00,4.135311603546142578e+00,4.159632682800292969e+00,5.000000000000000000e+00,4.041570663452148438e+00,5.000000000000000000e+00,5.000000000000000000e+00,5.000000000000000000e+00,5.000000000000000000e+00,5.000000000000000000e+00,5.000000000000000000e+00,5.000000000000000000e+00,5.000000000000000000e+00,5.000000000000000000e+00,4.867012023925781250e+00,4.675643920898437500e+00,4.498755931854248047e+00,4.334763526916503906e+00,4.182306766510009766e+00,4.040209770202636719e+00,3.907451152801513672e+00,3.783139705657958984e+00,3.666493892669677734e+00,3.556826114654541016e+00,3.453528165817260742e+00,3.356060981750488281e+00,3.263944387435913086e+00,3.176749706268310547e+00,3.094092369079589844e+00,3.015627145767211914e+00,2.941043376922607422e+00,2.870059728622436523e+00,2.802422046661376953e+00,2.737898588180541992e+00,2.676279783248901367e+00,2.617373228073120117e+00,2.561004161834716797e+00,2.507011890411376953e+00,2.455249071121215820e+00,2.405580759048461914e+00,2.357882022857666016e+00,2.312037944793701172e+00,2.267942428588867188e+00,2.225497722625732422e+00,2.184612512588500977e+00,2.145202159881591797e+00,2.107188701629638672e+00,2.070498943328857422e+00,2.035065412521362305e+00,2.000823974609375000e+00,1.967715740203857422e+00,1.935685157775878906e+00,1.904680967330932617e+00,1.874653935432434082e+00,1.845559358596801758e+00
5.000000000000000000e+00,5.000000000000000000e+00,5.000000000000000000e+00,5.000000000000000000e+00,5.000000000000000000e+00,5.000000000000000000e+00,5.000000000000000000e+00,5.000000000000000000e+00,5.000000000000000000e+00,5.000000000000000000e+00,5.000000000000000000e+00,5.000000000000000000e+00,5.000000000000000000e+00,5.000000000000000000e+00,5.000000000000000000e+00,5.000000000000000000e+00,5.000000000000000000e+00,5.000000000000000000e+00,5.000000000000000000e+00,5.000000000000000000e+00,5.000000000000000000e+00,5.000000000000000000e+00,5.000000000000000000e+00,4.015146732330322266e+00,3.986582994461059570e+00,4.052523136138916016e+00,4.138546466827392578e+00,4.167017459869384766e+00,5.000000000000000000e+00,3.981458902359008789e+00,5.000000000000000000e+00,5.000000000000000000e+00,5.000000000000000000e+00,5.000000000000000000e+00,5.000000000000000000e+00,5.000000000000000000e+00,5.000000000000000000e+00,5.000000000000000000e+00,5.000000000000000000e+00,4.867151737213134766e+00,4.675772666931152344e+00,4.498875141143798828e+00,4.334874153137207031e+00,4.182409763336181641e+00,4.040305614471435547e+00,3.907540798187255859e+00,3.783224105834960938e+00,3.666573286056518555e+00,3.556900739669799805e+00,3.453598737716674805e+00,3.356127500534057617e+00,3.264007329940795898e+00,3.176809072494506836e+00,3.094148635864257812e+00,3.015680551528930664e+00,2.941094160079956055e+00,2.870108127593994141e+00,2.802468299865722656e+00,2.737942934036254883e+00,2.676321983337402344e+00,2.617413759231567383e+00,2.561042785644531250e+00,2.507048845291137695e+00,2.455284595489501953e+00,2.405614614486694336e+00,2.357914686203002930e+00,2.312069177627563477e+00,2.267972707748413086e+00,2.225526809692382812e+00,2.184640645980834961e+00,2.145229339599609375e+00,2.107214927673339844e+00,2.070524215698242188e+00,2.035089731216430664e+00,2.000847339630126953e+00,1.967738270759582520e+00,1.935707211494445801e+00,1.904702067375183105e+00,1.874674677848815918e+00,1.845579385757446289e+00
5.000000000000000000e+00,5.000000000000000000e+00,5.000000000000000000e+00,5.000000000000000000e+00,5.000000000000000000e+00,5.000000000000000000e+00,5.000000000000000000e+00,5.000000000000000000e+00,5.000000000000000000e+00,5.000000000000000000e+00,5.000000000000000000e+00,5.000000000000000000e+00,5.000000000000000000e+00,5.000000000000000000e+00,5.000000000000000000e+00,5.000000000000000000e+00,5.000000000000000000e+00,5.000000000000000000e+00,5.000000000000000000e+00,5.000000000000000000e+00,5.000000000000000000e+00,5.000000000000000000e+00,5.000000000000000000e+00,4.158149242401123047e+00,3.961642742156982422e+00,4.032690048217773438e+00,4.158792972564697266e+00,4.189666271209716797e+00,5.000000000000000000e+00,5.000000000000000000e+00,5.000000000000000000e+00,5.000000000000000000e+00,5.000000000000000000e+00,5.000000000000000000e+00,5.000000000000000000e+00,5.000000000000000000e+00,5.000000000000000000e+00,5.000000000000000000e+00,5.000000000000000000e+00,4.867290973663330078e+00,4.675901412963867188e+00,4.498994350433349609e+00,4.334984779357910156e+00,4.182512760162353516e+00,4.040401935577392578e+00,3.907630920410156250e+00,3.783308029174804688e+00,3.666652202606201172e+00,3.556974887847900391e+00,3.453668594360351562e+00,3.356193542480468750e+00,3.264070034027099609e+00,3.176868677139282227e+00,3.094205141067504883e+00,3.015734195709228516e+00,2.941145181655883789e+00,2.870156764984130859e+00,2.802514314651489258e+00,2.737987041473388672e+00,2.676363945007324219e+00,2.617454051971435547e+00,2.561081409454345703e+00,2.507086038589477539e+00,2.455320119857788086e+00,2.405648708343505859e+00,2.357947349548339844e+00,2.312100887298583984e+00,2.268002986907958984e+00,2.225555896759033203e+00,2.184668540954589844e+00,2.145256519317626953e+00,2.107241153717041016e+00,2.070549488067626953e+00,2.035114049911499023e+00,2.000870943069458008e+00,1.967761158943176270e+00,1.935729384422302246e+00,1.904723525047302246e+00,1.874695420265197754e+00,1.845599293708801270e+00
5.000000000000000000e+00,5.000000000000000000e+00,5.000000000000000000e+00,5.000000000000000000e+00,5.000000000000000000e+00,5.000000000000000000e+00,5.000000000000000000e+00,5.000000000000000000e+00,5.000000000000000000e+00,5.000000000000000000e+00,5.000000000000000000e+00,5.000000000000000000e+00,5.000000000000000000e+00,5.000000000000000000e+00,5.000000000000000000e+00,5.000000000000000000e+00,5.000000000000000000e+00,5.000000000000000000e+00,5.000000000000000000e+00,5.000000000000000000e+00,5.000000000000000000e+00,5.000000000000000000e+00,5.000000000000000000e+00,5.000000000000000000e+00,3.934620618820190430e+00,4.002012729644775391e+00,4.185248374938964844e+00,4.218581676483154297e+00,5.000000000000000000e+00,5.000000000000000000e+00,5.000000000000000000e+00,5.000000000000000000e+00,5.000000000000000000e+00,5.000000000000000000e+00,5.000000000000000000e+00,5.000000000000000000e+00,5.000000000000000000e+00,5.000000000000000000e+00,5.000000000000000000e+00,4.867430210113525391e+00,4.676030158996582031e+00,4.499113559722900391e+00,4.335095405578613281e+00,4.182615756988525391e+00,4.040497779846191406e+00,3.907720565795898438e+00,3.783392667770385742e+00,3.666731357574462891e+00,3.557049751281738281e+00,3.453738927841186523e+00,3.356260061264038086e+00,3.264132738113403320e+00,3.176927804946899414e+00,3.094261169433593750e+00,3.015787601470947266e+00,2.941195964813232422e+00,2.870205163955688477e+00,2.802560806274414062e+00,2.738031148910522461e+00,2.676406383514404297e+00,2.617494344711303711e+00,2.561120033264160156e+00,2.507122993469238281e+00,2.455355644226074219e+00,2.405682802200317383e+00,2.357980012893676758e+00,2.312132120132446289e+00,2.268033504486083984e+00,2.225585222244262695e+00,2.184696912765502930e+00,2.145283699035644531e+00,2.107267379760742188e+00,2.070574760437011719e+00,2.035138368606567383e+00,2.000894546508789062e+00,1.967784047126770020e+00,1.935751199722290039e+00,1.904744982719421387e+00,1.874716162681579590e+00,1.845619440078735352e+00
5.000000000000000000e+00,5.000000000000000000e+00,5.000000000000000000e+00,5.000000000000000000e+00,5.000000000000000000e+00,5.000000000000000000e+00,5.000000000000000000e+00,5.000000000000000000e+00,5.000000000000000000e+00,5.000000000000000000e+00,5.000000000000000000e+00,5.000000000000000000e+00,5.000000000000000000e+00,5.000000000000000000e+00,5.000000000000000000e+00,5.000000000000000000e+00,5.000000000000000000e+00,5.000000000000000000e+00,5.000000000000000000e+00,5.000000000000000000e+00,5.000000000000000000e+00,5.000000000000000000e+00,5.000000000000000000e+00,5.000000000000000000e+00,3.911424398422241211e+00,3.980303287506103516e+00,4.210123538970947266e+00,4.273814678192138672e+00,5.000000000000000000e+00,5.000000000000000000e+00,5.000000000000000000e+00,5.000000000000000000e+00,5.000000000000000000e+00,5.000000000000000000e+00,5.000000000000000000e+00,5.000000000000000000e+00,5.000000000000000000e+00,5.000000000000000000e+00,5.000000000000000000e+00,4.867569923400878906e+00,4.676158905029296875e+00,4.499232769012451172e+00,4.335206031799316406e+00,4.182718753814697266e+00,4.040594100952148438e+00,3.907810688018798828e+00,3.783476591110229492e+00,3.666810274124145508e+00,3.557123899459838867e+00,3.453809022903442383e+00,3.356326341629028320e+00,3.264195442199707031e+00,3.176987409591674805e+00,3.094317674636840820e+00,3.015841245651245117e+00,2.941247224807739258e+00,2.870253801345825195e+00,2.802606821060180664e+00,2.738075256347656250e+00,2.676448345184326172e+00,2.617534637451171875e+00,2.561158418655395508e+00,2.507159948348999023e+00,2.455391168594360352e+00,2.405716896057128906e+00,2.358012914657592773e+00,2.312163829803466797e+00,2.268063545227050781e+00,2.225614309310913086e+00,2.184724807739257812e+00,2.145310640335083008e+00,2.107293367385864258e+00,2.070600032806396484e+00,2.035162925720214844e+00,2.000918149948120117e+00,1.967806816101074219e+00,1.935773372650146484e+00,1.904766321182250977e+00,1.874736666679382324e+00,1.845639467239379883e+00
5.000000000000000000e+00,5.000000000000000000e+00,5.000000000000000000e+00,5.000000000000000000e+00,5.000000000000000000e+00,5.000000000000000000e+00,5.000000000000000000e+00,5.000000000000000000e+00,5.000000000000000000e+00,5.000000000000000000e+00,5.000000000000000000e+00,5.000000000000000000e+00,5.000000000000000000e+00,5.000000000000000000e+00,5.000000000000000000e+00,5.000000000000000000e+00,5.000000000000000000e+00,5.000000000000000000e+00,5.000000000000000000e+00,5.000000000000000000e+00,5.000000000000000000e+00,5.000000000000000000e+00,5.000000000000000000e+00,5.000000000000000000e+00,3.922126293182373047e+00,3.995137214660644531e+00,4.231762409210205078e+00,5.000000000000000000e+00,5.000000000000000000e+00,5.000000000000000000e+00,5.000000000000000000e+00,5.000000000000000000e+00,5.000000000000000000e+00,5.000000000000000000e+00,5.000000000000000000e+00,5.000000000000000000e+00,5.000000000000000000e+00,5.000000000000000000e+00,5.000000000000000000e+00,4.867708683013916016e+00,4.676287651062011719e+00,4.499351501464843750e+00,4.335316658020019531e+00,4.182821750640869141e+00,4.040689945220947266e+00,3.907900333404541016e+00,3.783560991287231445e+00,3.666889667510986328e+00,3.557198524475097656e+00,3.453879356384277344e+00,3.356392621994018555e+00,3.264258146286010742e+00,3.177046537399291992e+00,3.094373941421508789e+00,3.015894651412963867e+00,2.941298007965087891e+00,2.870302200317382812e+00,2.802653312683105469e+00,2.738119363784790039e+00,2.676490545272827148e+00,2.617574930191040039e+00,2.561197280883789062e+00,2.507196903228759766e+00,2.455426454544067383e+00,2.405750989913940430e+00,2.358045578002929688e+00,2.312195062637329102e+00,2.268094062805175781e+00,2.225643634796142578e+00,2.184752941131591797e+00,2.145337820053100586e+00,2.107319593429565430e+00,2.070625305175781250e+00,2.035187244415283203e+00,2.000941514968872070e+00,1.967829465866088867e+00,1.935795426368713379e+00,1.904787540435791016e+00,1.874757409095764160e+00,1.845659613609313965e+00
5.000000000000000000e+00,5.000000000000000000e+00,5.000000000000000000e+00,5.000000000000000000e+00,5.000000000000000000e+00,5.000000000000000000e+00,5.000000000000000000e+00,5.000000000000000000e+00,5.000000000000000000e+00,5.000000000000000000e+00,5.000000000000000000e+00,5.000000000000000000e+00,5.000000000000000000e+00,5.000000000000000000e+00,5.000000000000000000e+00,5.000000000000000000e+00,5.000000000000000000e+00,5.000000000000000000e+00,5.000000000000000000e+00,5.000000000000000000e+00,5.000000000000000000e+00,5.000000000000000000e+00,5.000000000000000000e+00,5.000000000000000000e+00,3.935318708419799805e+00,4.018194675445556641e+00,4.298584938049316406e+00,4.389705657958984375e+00,5.000000000000000000e+00,5.000000000000000000e+00,5.000000000000000000e+00,5.000000000000000000e+00,5.000000000000000000e+00,5.000000000000000000e+00,5.000000000000000000e+00,5.000000000000000000e+00,5.000000000000000000e+00,5.000000000000000000e+00,5.000000000000000000e+00,4.867847442626953125e+00,4.676415443420410156e+00,4.499470710754394531e+00,4.335427284240722656e+00,4.182924747467041016e+00,4.040786266326904297e+00,3.907990455627441406e+00,3.783645153045654297e+00,3.666968584060668945e+00,3.557272911071777344e+00,3.453949451446533203e+00,3.356458902359008789e+00,3.264321088790893555e+00,3.177106142044067383e+00,3.094430446624755859e+00,3.015948295593261719e+00,2.941349029541015625e+00,2.870350837707519531e+00,2.802699327468872070e+00,2.738163471221923828e+00,2.676532745361328125e+00,2.617615222930908203e+00,2.561235666275024414e+00,2.507233858108520508e+00,2.455461978912353516e+00,2.405785083770751953e+00,2.358078241348266602e+00,2.312226772308349609e+00,2.268124103546142578e+00,2.225672721862792969e+00,2.184781074523925781e+00,2.145364761352539062e+00,2.107345581054687500e+00,2.070650339126586914e+00,2.035211563110351562e+00,2.000965356826782227e+00,1.967852354049682617e+00,1.935817599296569824e+00,1.904808998107910156e+00,1.874778151512145996e+00,1.845679521560668945e+00
5.000000000000000000e+00,5.000000000000000000e+00,5.000000000000000000e+00,5.000000000000000000e+00,5.000000000000000000e+00,5.000000000000000000e+00,5.000000000000000000e+00,5.000000000000000000e+00,5.000000000000000000e+00,5.000000000000000000e+00,5.000000000000000000e+00,5.000000000000000000e+00,5.000000000000000000e+00,5.000000000000000000e+00,5.000000000000000000e+00,5.000000000000000000e+00,5.000000000000000000e+00,5.000000000000000000e+00,5.000000000000000000e+00,5.000000000000000000e+00,5.000000000000000000e+00,5.000000000000000000e+00,5.000000000000000000e+00,5.000000000000000000e+00,3.928111553192138672e+00,4.000770568847656250e+00,4.383024215698242188e+00,5.000000000000000000e+00,5.000000000000000000e+00,5.000000000000000000e+00,5.000000000000000000e+00,5.000000000000000000e+00,5.000000000000000000e+00,5.000000000000000000e+00,5.000000000000000000e+00,5.000000000000000000e+00,5.000000000000000000e+00,5.000000000000000000e+00,5.000000000000000000e+00,4.867986679077148438e+00,4.676543712615966797e+00,4.499589920043945312e+00,4.335537910461425781e+00,4.183027744293212891e+00,4.040882110595703125e+00,3.908080101013183594e+00,3.783729553222656250e+00,3.667047977447509766e+00,3.557347536087036133e+00,3.454019784927368164e+00,3.356525421142578125e+00,3.264383554458618164e+00,3.177165508270263672e+00,3.094486713409423828e+00,3.016001701354980469e+00,2.941399812698364258e+00,2.870399236679077148e+00,2.802745580673217773e+00,2.738207817077636719e+00,2.676574945449829102e+00,2.617655754089355469e+00,2.561274528503417969e+00,2.507270812988281250e+00,2.455497503280639648e+00,2.405818939208984375e+00,2.358110904693603516e+00,2.312258005142211914e+00,2.268154621124267578e+00,2.225701808929443359e+00,2.184809207916259766e+00,2.145391941070556641e+00,2.107371807098388672e+00,2.070675849914550781e+00,2.035235881805419922e+00,2.000988721847534180e+00,1.967875123023986816e+00,1.935839533805847168e+00,1.904830336570739746e+00,1.874798893928527832e+00,1.845699667930603027e+00
5.000000000000000000e+00,5.000000000000000000e+00,5.000000000000000000e+00,5.000000000000000000e+00,5.000000000000000000e+00,5.000000000000000000e+00,5.000000000000000000e+00,5.000000000000000000e+00,5.000000000000000000e+00,5.000000000000000000e+00,5.000000000000000000e+00,5.000000000000000000e+00,5.000000000000000000e+00,5.000000000000000000e+00,5.000000000000000000e+00,5.000000000000000000e+00,5.000000000000000000e+00,5.000000000000000000e+00,5.000000000000000000e+00,5.000000000000000000e+00,5.000000000000000000e+00,5.000000000000000000e+00,5.000000000000000000e+00,5.000000000000000000e+00,3.924187898635864258e+00,3.989464759826660156e+00,4.432900905609130859e+00,5.000000000000000000e+00,5.000000000000000000e+00,5.000000000000000000e+00,5.000000000000000000e+00,5.000000000000000000e+00,5.000000000000000000e+00,5.000000000000000000e+00,5.000000000000000000e+00,5.000000000000000000e+00,5.000000000000000000e+00,5.000000000000000000e+00,5.000000000000000000e+00,4.868125438690185547e+00,4.676672458648681641e+00,4.499708175659179688e+00,4.335648536682128906e+00,4.183130741119384766e+00,4.040978431701660156e+00,3.908170223236083984e+00,3.783813714981079102e+00,3.667126893997192383e+00,3.557421922683715820e+00,3.454089879989624023e+00,3.356591463088989258e+00,3.264446496963500977e+00,3.177225112915039062e+00,3.094543218612670898e+00,3.016055583953857422e+00,2.941450834274291992e+00,2.870447874069213867e+00,2.802791833877563477e+00,2.738251686096191406e+00,2.676617145538330078e+00,2.617695808410644531e+00,2.561312913894653320e+00,2.507308006286621094e+00,2.455533027648925781e+00,2.405853271484375000e+00,2.358143806457519531e+00,2.312289714813232422e+00,2.268184661865234375e+00,2.225730895996093750e+00,2.184837102890014648e+00,2.145418882369995117e+00,2.107398033142089844e+00,2.070700883865356445e+00,2.035260438919067383e+00,2.001012325286865234e+00,1.967898011207580566e+00,1.935861587524414062e+00,1.904851794242858887e+00,1.874819517135620117e+00,1.845719695091247559e+00
5.000000000000000000e+00,5.000000000000000000e+00,5.000000000000000000e+00,5.000000000000000000e+00,5.000000000000000000e+00,5.000000000000000000e+00,5.000000000000000000e+00,5.000000000000000000e+00,5.000000000000000000e+00,5.000000000000000000e+00,5.000000000000000000e+00,5.000000000000000000e+00,5.000000000000000000e+00,5.000000000000000000e+00,5.000000000000000000e+00,5.000000000000000000e+00,5.000000000000000000e+00,5.000000000000000000e+00,5.000000000000000000e+00,5.000000000000000000e+00,5.000000000000000000e+00,5.000000000000000000e+00,5.000000000000000000e+00,5.000000000000000000e+00,3.931756258010864258e+00,3.989438056945800781e+00,4.486357212066650391e+00,5.000000000000000000e+00,5.000000000000000000e+00,5.000000000000000000e+00,5.000000000000000000e+00,5.000000000000000000e+00,5.000000000000000000e+00,5.000000000000000000e+00,5.000000000000000000e+00,5.000000000000000000e+00,5.000000000000000000e+00,5.000000000000000000e+00,5.000000000000000000e+00,4.868264198303222656e+00,4.676800251007080078e+00,4.499826908111572266e+00,4.335758686065673828e+00,4.183233737945556641e+00,4.041074752807617188e+00,3.908259868621826172e+00,3.783898115158081055e+00,3.667206287384033203e+00,3.557496547698974609e+00,3.454160451889038086e+00,3.356657981872558594e+00,3.264508962631225586e+00,3.177284240722656250e+00,3.094599485397338867e+00,3.016108989715576172e+00,2.941501617431640625e+00,2.870496034622192383e+00,2.802838087081909180e+00,2.738296031951904297e+00,2.676659345626831055e+00,2.617736339569091797e+00,2.561351776123046875e+00,2.507344961166381836e+00,2.455568552017211914e+00,2.405887126922607422e+00,2.358176469802856445e+00,2.312320947647094727e+00,2.268215179443359375e+00,2.225760221481323242e+00,2.184865474700927734e+00,2.145446062088012695e+00,2.107424020767211914e+00,2.070726156234741211e+00,2.035284757614135742e+00,2.001035928726196289e+00,1.967920660972595215e+00,1.935883760452270508e+00,1.904873013496398926e+00,1.874840259552001953e+00,1.845739841461181641e+00
5.000000000000000000e+00,5.000000000000000000e+00,5.000000000000000000e+00,5.000000000000000000e+00,5.000000000000000000e+00,5.000000000000000000e+00,5.000000000000000000e+00,5.000000000000000000e+00,5.000000000000000000e+00,5.000000000000000000e+00,5.000000000000000000e+00,5.000000000000000000e+00,5.000000000000000000e+00,5.000000000000000000e+00,5.000000000000000000e+00,5.000000000000000000e+00,5.000000000000000000e+00,5.000000000000000000e+00,5.000000000000000000e+00,5.000000000000000000e+00,5.000000000000000000e+00,5.000000000000000000e+00,5.000000000000000000e+00,5.000000000000000000e+00,3.959046125411987305e+00,5.000000000000000000e+00,4.517573833465576172e+00,5.000000000000000000e+00,5.000000000000000000e+00,5.000000000000000000e+00,5.000000000000000000e+00,5.000000000000000000e+00,5.000000000000000000e+00,5.000000000000000000e+00,5.000000000000000000e+00,5.000000000000000000e+00,5.000000000000000000e+00,5.000000000000000000e+00,5.000000000000000000e+00,4.868403434753417969e+00,4.676928997039794922e+00,4.499945640563964844e+00,4.335868835449218750e+00,4.183336257934570312e+00,4.041170597076416016e+00,3.908349990844726562e+00,3.783982276916503906e+00,3.667285203933715820e+00,3.557570934295654297e+00,3.454230308532714844e+00,3.356724023818969727e+00,3.264571905136108398e+00,3.177343845367431641e+00,3.094655990600585938e+00,3.016162633895874023e+00,2.941552639007568359e+00,2.870544672012329102e+00,2.802884340286254883e+00,2.738339900970458984e+00,2.676701307296752930e+00,2.617776632308959961e+00,2.561390161514282227e+00,2.507381916046142578e+00,2.455604076385498047e+00,2.405921220779418945e+00,2.358209133148193359e+00,2.312352657318115234e+00,2.268245220184326172e+00,2.225789308547973633e+00,2.184893369674682617e+00,2.145473241806030273e+00,2.107450246810913086e+00,2.070751428604125977e+00,2.035309076309204102e+00,2.001059532165527344e+00,1.967943549156188965e+00,1.935905814170837402e+00,1.904894351959228516e+00,1.874861001968383789e+00,1.845759749412536621e+00
4.875556945800781250e+00,4.874345779418945312e+00,4.873134613037109375e+00,4.871924877166748047e+00,4.870715141296386719e+00,4.869506359100341797e+00,4.868298053741455078e+00,4.867090225219726562e+00,4.865883350372314453e+00,4.864676475524902344e+00,4.863470554351806641e+00,4.862265110015869141e+00,4.861060619354248047e+00,4.859856605529785156e+00,4.858653068542480469e+00,4.857450008392333984e+00,4.856247901916503906e+00,4.855046272277832031e+00,4.853845119476318359e+00,4.852644443511962891e+00,4.851444244384765625e+00,4.850244998931884766e+00,4.849046230316162109e+00,4.847848415374755859e+00,3.905202865600585938e+00,4.845453739166259766e+00,4.459152221679687500e+00,4.843061447143554688e+00,4.841866016387939453e+00,4.840671539306640625e+00,4.839477539062500000e+00,4.838284492492675781e+00,4.837091445922851562e+00,4.835898876190185547e+00,4.834707260131835938e+00,4.833516120910644531e+00,4.832325458526611328e+00,4.831135749816894531e+00,4.829946517944335938e+00,4.828757286071777344e+00,4.677056789398193359e+00,4.500064373016357422e+00,4.335978984832763672e+00,4.183438777923583984e+00,4.041266918182373047e+00,3.908439636230468750e+00,3.784066677093505859e+00,3.667364597320556641e+00,3.557645559310913086e+00,3.454300880432128906e+00,3.356790542602539062e+00,3.264634370803833008e+00,3.177403211593627930e+00,3.094712257385253906e+00,3.016216039657592773e+00,2.941603422164916992e+00,2.870593070983886719e+00,2.802930593490600586e+00,2.738384246826171875e+00,2.676743745803833008e+00,2.617816925048828125e+00,2.561429023742675781e+00,2.507418870925903320e+00,2.455639362335205078e+00,2.405955314636230469e+00,2.358241796493530273e+00,2.312383890151977539e+00,2.268275737762451172e+00,2.225818395614624023e+00,2.184921503067016602e+00,2.145500421524047852e+00,2.107476472854614258e+00,2.070776700973510742e+00,2.035333395004272461e+00,2.001083135604858398e+00,1.967966318130493164e+00,1.935927748680114746e+00,1.904915809631347656e+00,1.874881744384765625e+00,1.845779776573181152e+00
3.778346300125122070e+00,3.777618408203125000e+00,3.776891469955444336e+00,3.776164531707763672e+00,3.775438070297241211e+00,3.774711370468139648e+00,3.773985385894775391e+00,3.773259639739990234e+00,3.772533655166625977e+00,3.771808624267578125e+00,3.771083593368530273e+00,3.770359039306640625e+00,3.769634246826171875e+00,3.768910408020019531e+00,3.768186569213867188e+00,3.767463207244873047e+00,3.766739368438720703e+00,3.766016483306884766e+00,3.765293836593627930e+00,3.764571428298950195e+00,3.763849020004272461e+00,3.763127088546752930e+00,3.762405633926391602e+00,3.761683940887451172e+00,3.760962963104248047e+00,3.760242223739624023e+00,3.759521961212158203e+00,3.758801221847534180e+00,3.758081436157226562e+00,3.757361888885498047e+00,3.756642341613769531e+00,3.755923032760620117e+00,3.755204200744628906e+00,3.754485607147216797e+00,3.753767013549804688e+00,3.753049135208129883e+00,3.752331495285034180e+00,3.751613855361938477e+00,3.750896453857421875e+00,3.750179529190063477e+00,3.749463081359863281e+00,3.748746633529663086e+00,3.748030185699462891e+00,3.747314453125000000e+00,3.746598958969116211e+00,3.745883226394653320e+00,3.745168447494506836e+00,3.667443513870239258e+00,3.557719707489013672e+00,3.454370737075805664e+00,3.356856822967529297e+00,3.264697313308715820e+00,3.177462816238403320e+00,3.094768762588500977e+00,3.016269683837890625e+00,2.941654443740844727e+00,2.870641708374023438e+00,2.802976846694946289e+00,2.738428354263305664e+00,2.676785707473754883e+00,2.617857217788696289e+00,2.561467409133911133e+00,2.507456064224243164e+00,2.455675125122070312e+00,2.405989408493041992e+00,2.358274698257446289e+00,2.312415599822998047e+00,2.268306016921997070e+00,2.225847482681274414e+00,2.184949636459350586e+00,2.145527362823486328e+00,2.107502460479736328e+00,2.070801973342895508e+00,2.035357952117919922e+00,2.001106739044189453e+00,1.967989206314086914e+00,1.935949802398681641e+00,1.904937148094177246e+00,1.874902248382568359e+00,1.845799922943115234e+00
3.084255456924438477e+00,3.083770751953125000e+00,3.083286285400390625e+00,3.082801818847656250e+00,3.082317352294921875e+00,3.081833124160766602e+00,3.081349134445190430e+00,3.080865383148193359e+00,3.080381631851196289e+00,3.079898118972778320e+00,3.079414606094360352e+00,3.078931331634521484e+00,3.078448295593261719e+00,3.077965259552001953e+00,3.077482461929321289e+00,3.076999664306640625e+00,3.076517343521118164e+00,3.076035022735595703e+00,3.075552940368652344e+00,3.075070619583129883e+00,3.074588775634765625e+00,3.074107170104980469e+00,3.073625326156616211e+00,3.073143959045410156e+00,3.072662591934204102e+00,3.072181701660156250e+00,3.071700334548950195e+00,3.071219682693481445e+00,3.070739030838012695e+00,3.070258617401123047e+00,3.069777965545654297e+00,3.069297790527343750e+00,3.068817853927612305e+00,3.068337678909301758e+00,3.067857980728149414e+00,3.067378282546997070e+00,3.066898822784423828e+00,3.066419363021850586e+00,3.065940141677856445e+00,3.065461397171020508e+00,3.064982652664184570e+00,3.064503669738769531e+00,3.064025163650512695e+00,3.063546657562255859e+00,3.063068151473999023e+00,3.062590122222900391e+00,3.062112331390380859e+00,3.061634540557861328e+00,3.061156511306762695e+00,3.060678958892822266e+00,3.060201644897460938e+00,3.059724569320678711e+00,3.059247255325317383e+00,3.058770418167114258e+00,3.016323089599609375e+00,2.941705226898193359e+00,2.870690107345581055e+00,2.803023099899291992e+00,2.738472461700439453e+00,2.676827907562255859e+00,2.617897748947143555e+00,2.561506032943725586e+00,2.507493019104003906e+00,2.455710411071777344e+00,2.406023502349853516e+00,2.358307361602783203e+00,2.312446832656860352e+00,2.268336296081542969e+00,2.225876808166503906e+00,2.184977769851684570e+00,2.145554542541503906e+00,2.107528686523437500e+00,2.070827245712280273e+00,2.035382270812988281e+00,2.001130104064941406e+00,1.968011856079101562e+00,1.935971975326538086e+00,1.904958367347717285e+00,1.874922990798950195e+00,1.845820069313049316e+00
2.605600833892822266e+00,2.605254888534545898e+00,2.604908943176269531e+00,2.604562997817993164e+00,2.604217290878295898e+00,2.603871822357177734e+00,2.603526353836059570e+00,2.603180646896362305e+00,2.602835416793823242e+00,2.602490186691284180e+00,2.602144956588745117e+00,2.601799964904785156e+00,2.601454973220825195e+00,2.601109981536865234e+00,2.600765228271484375e+00,2.600420475006103516e+00,2.600075960159301758e+00,2.599731445312500000e+00,2.599386930465698242e+00,2.599042654037475586e+00,2.598698377609252930e+00,2.598354101181030273e+00,2.598010063171386719e+00,2.597666025161743164e+00,2.597322225570678711e+00,2.596978187561035156e+00,2.596634626388549805e+00,2.596291065216064453e+00,2.595947504043579102e+00,2.595603942871093750e+00,2.595260620117187500e+00,2.594917535781860352e+00,2.594574213027954102e+00,2.594231128692626953e+00,2.593888282775878906e+00,2.593545436859130859e+00,2.593202352523803711e+00,2.592859745025634766e+00,2.592517137527465820e+00,2.592174768447875977e+00,2.591832160949707031e+00,2.591489791870117188e+00,2.591147661209106445e+00,2.590805530548095703e+00,2.590463399887084961e+00,2.590121269226074219e+00,2.589779615402221680e+00,2.589437484741210938e+00,2.589095830917358398e+00,2.588754415512084961e+00,2.588412761688232422e+00,2.588071346282958984e+00,2.587729930877685547e+00,2.587388753890991211e+00,2.587047576904296875e+00,2.586706399917602539e+00,2.586365461349487305e+00,2.586024522781372070e+00,2.585683584213256836e+00,2.585342884063720703e+00,2.585002422332763672e+00,2.561544656753540039e+00,2.507529973983764648e+00,2.455745935440063477e+00,2.406057596206665039e+00,2.358340263366699219e+00,2.312478542327880859e+00,2.268366575241088867e+00,2.225905895233154297e+00,2.185005903244018555e+00,2.145581483840942383e+00,2.107554674148559570e+00,2.070852279663085938e+00,2.035406589508056641e+00,2.001153707504272461e+00,1.968034744262695312e+00,1.935994029045104980e+00,1.904979825019836426e+00,1.874943733215332031e+00,1.845839977264404297e+00
2.255566358566284180e+00,2.255306720733642578e+00,2.255046844482421875e+00,2.254787206649780273e+00,2.254527568817138672e+00,2.254267930984497070e+00,2.254008531570434570e+00,2.253748893737792969e+00,2.253489732742309570e+00,2.253230333328247070e+00,2.252970933914184570e+00,2.252711772918701172e+00,2.252452850341796875e+00,2.252193689346313477e+00,2.251934528350830078e+00,2.251675605773925781e+00,2.251416683197021484e+00,2.251157760620117188e+00,2.250899076461791992e+00,2.250640392303466797e+00,2.250381708145141602e+00,2.250123023986816406e+00,2.249864339828491211e+00,2.249606370925903320e+00,2.249348402023315430e+00,2.249090433120727539e+00,2.248832702636718750e+00,2.248574972152709961e+00,2.248317241668701172e+00,2.248059749603271484e+00,2.247802257537841797e+00,2.247544765472412109e+00,2.247287034988403320e+00,2.247029781341552734e+00,2.246772527694702148e+00,2.246515035629272461e+00,2.246258020401000977e+00,2.246000766754150391e+00,2.245743751525878906e+00,2.245486736297607422e+00,2.245229721069335938e+00,2.244972944259643555e+00,2.244715929031372070e+00,2.244459152221679688e+00,2.244202375411987305e+00,2.243945837020874023e+00,2.243689060211181641e+00,2.243432521820068359e+00,2.243175983428955078e+00,2.242919683456420898e+00,2.242663145065307617e+00,2.242406845092773438e+00,2.242150545120239258e+00,2.241894483566284180e+00,2.241638183593750000e+00,2.241382122039794922e+00,2.241126298904418945e+00,2.240869998931884766e+00,2.240614175796508789e+00,2.240358352661132812e+00,2.240102529525756836e+00,2.239846706390380859e+00,2.239591121673583984e+00,2.239335536956787109e+00,2.239079952239990234e+00,2.238824367523193359e+00,2.238569021224975586e+00,2.238313674926757812e+00,2.225935220718383789e+00,2.185034036636352539e+00,2.145608663558959961e+00,2.107580900192260742e+00,2.070877552032470703e+00,2.035431146621704102e+00,2.001177310943603516e+00,1.968057513236999512e+00,1.936015963554382324e+00,1.905001282691955566e+00,1.874964475631713867e+00,1.845860004425048828e+00
1.988463997840881348e+00,1.988262057304382324e+00,1.988060116767883301e+00,1.987858295440673828e+00,1.987656474113464355e+00,1.987454652786254883e+00,1.987253189086914062e+00,1.987051486968994141e+00,1.986849784851074219e+00,1.986648201942443848e+00,1.986446619033813477e+00,1.986245036125183105e+00,1.986043572425842285e+00,1.985842108726501465e+00,1.985640883445739746e+00,1.985439538955688477e+00,1.985238194465637207e+00,1.985036849975585938e+00,1.984835624694824219e+00,1.984634399414062500e+00,1.984433174133300781e+00,1.984232306480407715e+00,1.984031200408935547e+00,1.983830213546752930e+00,1.983629107475280762e+00,1.983428239822387695e+00,1.983227252960205078e+00,1.983026385307312012e+00,1.982825756072998047e+00,1.982625007629394531e+00,1.982424139976501465e+00,1.982223510742187500e+00,1.982022762298583984e+00,1.981822133064270020e+00,1.981621503829956055e+00,1.981421232223510742e+00,1.981220722198486328e+00,1.981020212173461914e+00,1.980819702148437500e+00,1.980619311332702637e+00,1.980418920516967773e+00,1.980218648910522461e+00,1.980018377304077148e+00,1.979818344116210938e+00,1.979618191719055176e+00,1.979417920112609863e+00,1.979217886924743652e+00,1.979017734527587891e+00,1.978817701339721680e+00,1.978617787361145020e+00,1.978417992591857910e+00,1.978218078613281250e+00,1.978018164634704590e+00,1.977818369865417480e+00,1.977618575096130371e+00,1.977418780326843262e+00,1.977219104766845703e+00,1.977019667625427246e+00,1.976819992065429688e+00,1.976620435714721680e+00,1.976420879364013672e+00,1.976221323013305664e+00,1.976021885871887207e+00,1.975822448730468750e+00,1.975623011589050293e+00,1.975423932075500488e+00,1.975224614143371582e+00,1.975025296211242676e+00,1.974826097488403320e+00,1.974626898765563965e+00,1.974427700042724609e+00,1.974228620529174805e+00,1.974029779434204102e+00,1.973830699920654297e+00,1.973631739616394043e+00,1.968080401420593262e+00,1.936038017272949219e+00,1.905022621154785156e+00,1.874984979629516602e+00,1.845880150794982910e+00
1.777923583984375000e+00,1.777762174606323242e+00,1.777600765228271484e+00,1.777439355850219727e+00,1.777277946472167969e+00,1.777116775512695312e+00,1.776955485343933105e+00,1.776794195175170898e+00,1.776633024215698242e+00,1.776471734046936035e+00,1.776310563087463379e+00,1.776149392127990723e+00,1.775988459587097168e+00,1.775827407836914062e+00,1.775666356086730957e+00,1.775505304336547852e+00,1.775344252586364746e+00,1.775183320045471191e+00,1.775022268295288086e+00,1.774861574172973633e+00,1.774700641632080078e+00,1.774539828300476074e+00,1.774379014968872070e+00,1.774218201637268066e+00,1.774057388305664062e+00,1.773896574974060059e+00,1.773736119270324707e+00,1.773575425148010254e+00,1.773414731025695801e+00,1.773254036903381348e+00,1.773093461990356445e+00,1.772932887077331543e+00,1.772772312164306641e+00,1.772611856460571289e+00,1.772451519966125488e+00,1.772291064262390137e+00,1.772130608558654785e+00,1.771970272064208984e+00,1.771809816360473633e+00,1.771649479866027832e+00,1.771489143371582031e+00,1.771329045295715332e+00,1.771168828010559082e+00,1.771008610725402832e+00,1.770848393440246582e+00,1.770688176155090332e+00,1.770528078079223633e+00,1.770367980003356934e+00,1.770208001136779785e+00,1.770048022270202637e+00,1.769887924194335938e+00,1.769727945327758789e+00,1.769567966461181641e+00,1.769408106803894043e+00,1.769248127937316895e+00,1.769088387489318848e+00,1.768928527832031250e+00,1.768768787384033203e+00,1.768608927726745605e+00,1.768449187278747559e+00,1.768289446830749512e+00,1.768129706382751465e+00,1.767970085144042969e+00,1.767810583114624023e+00,1.767650961875915527e+00,1.767491340637207031e+00,1.767331838607788086e+00,1.767172336578369141e+00,1.767012834548950195e+00,1.766853332519531250e+00,1.766694068908691406e+00,1.766534566879272461e+00,1.766375184059143066e+00,1.766215920448303223e+00,1.766056537628173828e+00,1.765897274017333984e+00,1.765737891197204590e+00,1.765578866004943848e+00,1.765419721603393555e+00,1.765260577201843262e+00
1.607698917388916016e+00,1.607566952705383301e+00,1.607434868812561035e+00,1.607303142547607422e+00,1.607171177864074707e+00,1.607039213180541992e+00,1.606907248497009277e+00,1.606775403022766113e+00,1.606643557548522949e+00,1.606511712074279785e+00,1.606379985809326172e+00,1.606248259544372559e+00,1.606116414070129395e+00,1.605984687805175781e+00,1.605852961540222168e+00,1.605721235275268555e+00,1.605589509010314941e+00,1.605458021163940430e+00,1.605326414108276367e+00,1.605194807052612305e+00,1.605063199996948242e+00,1.604931592941284180e+00,1.604799985885620117e+00,1.604668498039245605e+00,1.604536890983581543e+00,1.604405641555786133e+00,1.604274153709411621e+00,1.604142665863037109e+00,1.604011178016662598e+00,1.603879809379577637e+00,1.603748440742492676e+00,1.603617072105407715e+00,1.603485822677612305e+00,1.603354573249816895e+00,1.603223204612731934e+00,1.603091955184936523e+00,1.602960705757141113e+00,1.602829456329345703e+00,1.602698206901550293e+00,1.602567195892333984e+00,1.602435946464538574e+00,1.602304816246032715e+00,1.602173686027526855e+00,1.602042555809020996e+00,1.601911544799804688e+00,1.601780414581298828e+00,1.601649522781372070e+00,1.601518511772155762e+00,1.601387500762939453e+00,1.601256489753723145e+00,1.601125597953796387e+00,1.600994586944580078e+00,1.600863695144653320e+00,1.600732803344726562e+00,1.600602030754089355e+00,1.600471258163452148e+00,1.600340366363525391e+00,1.600209593772888184e+00,1.600078821182250977e+00,1.599947929382324219e+00,1.599817276000976562e+00,1.599686622619628906e+00,1.599555969238281250e+00,1.599425315856933594e+00,1.599294662475585938e+00,1.599164009094238281e+00,1.599033355712890625e+00,1.598902702331542969e+00,1.598772287368774414e+00,1.598641753196716309e+00,1.598511219024658203e+00,1.598380684852600098e+00,1.598250269889831543e+00,1.598119735717773438e+00,1.597989320755004883e+00,1.597859025001525879e+00,1.597728610038757324e+00,1.597598195075988770e+00,1.597467899322509766e+00,1.597337484359741211e+00
1.467221975326538086e+00,1.467112064361572266e+00,1.467002153396606445e+00,1.466892242431640625e+00,1.466782331466674805e+00,1.466672420501708984e+00,1.466562628746032715e+00,1.466452717781066895e+00,1.466343045234680176e+00,1.466233134269714355e+00,1.466123342514038086e+00,1.466013550758361816e+00,1.465903759002685547e+00,1.465794086456298828e+00,1.465684294700622559e+00,1.465574741363525391e+00,1.465464949607849121e+00,1.465355277061462402e+00,1.465245604515075684e+00,1.465135931968688965e+00,1.465026259422302246e+00,1.464916706085205078e+00,1.464807033538818359e+00,1.464697599411010742e+00,1.464588046073913574e+00,1.464478492736816406e+00,1.464368939399719238e+00,1.464259386062622070e+00,1.464149832725524902e+00,1.464040398597717285e+00,1.463930964469909668e+00,1.463821530342102051e+00,1.463712096214294434e+00,1.463602662086486816e+00,1.463493227958679199e+00,1.463383793830871582e+00,1.463274478912353516e+00,1.463165283203125000e+00,1.463055849075317383e+00,1.462946534156799316e+00,1.462837219238281250e+00,1.462727904319763184e+00,1.462618708610534668e+00,1.462509393692016602e+00,1.462400197982788086e+00,1.462291002273559570e+00,1.462181806564331055e+00,1.462072610855102539e+00,1.461963415145874023e+00,1.461854219436645508e+00,1.461745142936706543e+00,1.461635947227478027e+00,1.461526989936828613e+00,1.461417913436889648e+00,1.461308836936950684e+00,1.461199760437011719e+00,1.461090683937072754e+00,1.460981607437133789e+00,1.460872650146484375e+00,1.460763692855834961e+00,1.460654735565185547e+00,1.460545778274536133e+00,1.460436820983886719e+00,1.460327863693237305e+00,1.460218906402587891e+00,1.460110068321228027e+00,1.460001230239868164e+00,1.459892392158508301e+00,1.459783554077148438e+00,1.459674715995788574e+00,1.459565877914428711e+00,1.459457039833068848e+00,1.459348201751708984e+00,1.459239482879638672e+00,1.459130883216857910e+00,1.459022045135498047e+00,1.458913326263427734e+00,1.458804607391357422e+00,1.458696007728576660e+00,1.458587288856506348e+00
1.349321484565734863e+00,1.349228501319885254e+00,1.349135518074035645e+00,1.349042534828186035e+00,1.348949551582336426e+00,1.348856568336486816e+00,1.348763823509216309e+00,1.348670840263366699e+00,1.348577976226806641e+00,1.348484992980957031e+00,1.348392128944396973e+00,1.348299264907836914e+00,1.348206400871276855e+00,1.348113656044006348e+00,1.348020911216735840e+00,1.347928047180175781e+00,1.347835302352905273e+00,1.347742438316345215e+00,1.347649693489074707e+00,1.347556948661804199e+00,1.347464203834533691e+00,1.347371578216552734e+00,1.347278833389282227e+00,1.347186207771301270e+00,1.347093462944030762e+00,1.347000718116760254e+00,1.346908092498779297e+00,1.346815466880798340e+00,1.346722841262817383e+00,1.346630215644836426e+00,1.346537590026855469e+00,1.346444964408874512e+00,1.346352458000183105e+00,1.346259832382202148e+00,1.346167206764221191e+00,1.346074819564819336e+00,1.345982313156127930e+00,1.345889687538146973e+00,1.345797181129455566e+00,1.345704674720764160e+00,1.345612168312072754e+00,1.345519661903381348e+00,1.345427274703979492e+00,1.345334887504577637e+00,1.345242381095886230e+00,1.345149993896484375e+00,1.345057606697082520e+00,1.344965219497680664e+00,1.344872713088989258e+00,1.344780325889587402e+00,1.344688177108764648e+00,1.344595789909362793e+00,1.344503402709960938e+00,1.344411134719848633e+00,1.344318747520446777e+00,1.344226479530334473e+00,1.344134211540222168e+00,1.344041943550109863e+00,1.343949675559997559e+00,1.343857407569885254e+00,1.343765258789062500e+00,1.343672990798950195e+00,1.343580722808837891e+00,1.343488574028015137e+00,1.343396306037902832e+00,1.343304276466369629e+00,1.343212127685546875e+00,1.343119978904724121e+00,1.343027830123901367e+00,1.342935681343078613e+00,1.342843532562255859e+00,1.342751502990722656e+00,1.342659473419189453e+00,1.342567443847656250e+00,1.342475295066833496e+00,1.342383265495300293e+00,1.342291235923767090e+00,1.342199206352233887e+00,1.342107176780700684e+00,1.342015266418457031e+00
1.248959660530090332e+00,1.248879909515380859e+00,1.248800277709960938e+00,1.248720645904541016e+00,1.248641014099121094e+00,1.248561501502990723e+00,1.248481869697570801e+00,1.248402237892150879e+00,1.248322606086730957e+00,1.248242974281311035e+00,1.248163461685180664e+00,1.248083829879760742e+00,1.248004317283630371e+00,1.247924804687500000e+00,1.247845292091369629e+00,1.247765779495239258e+00,1.247686266899108887e+00,1.247606754302978516e+00,1.247527241706848145e+00,1.247447848320007324e+00,1.247368335723876953e+00,1.247288823127746582e+00,1.247209429740905762e+00,1.247129917144775391e+00,1.247050523757934570e+00,1.246971011161804199e+00,1.246891736984252930e+00,1.246812343597412109e+00,1.246732950210571289e+00,1.246653556823730469e+00,1.246574163436889648e+00,1.246494770050048828e+00,1.246415376663208008e+00,1.246335983276367188e+00,1.246256828308105469e+00,1.246177434921264648e+00,1.246098160743713379e+00,1.246018767356872559e+00,1.245939493179321289e+00,1.245860219001770020e+00,1.245780944824218750e+00,1.245701789855957031e+00,1.245622515678405762e+00,1.245543241500854492e+00,1.245463967323303223e+00,1.245384812355041504e+00,1.245305538177490234e+00,1.245226383209228516e+00,1.245147228240966797e+00,1.245068073272705078e+00,1.244988918304443359e+00,1.244909644126892090e+00,1.244830489158630371e+00,1.244751334190368652e+00,1.244672298431396484e+00,1.244593143463134766e+00,1.244514107704162598e+00,1.244434952735900879e+00,1.244355916976928711e+00,1.244276762008666992e+00,1.244197726249694824e+00,1.244118690490722656e+00,1.244039535522460938e+00,1.243960618972778320e+00,1.243881583213806152e+00,1.243802547454833984e+00,1.243723511695861816e+00,1.243644475936889648e+00,1.243565559387207031e+00,1.243486523628234863e+00,1.243407607078552246e+00,1.243328690528869629e+00,1.243249773979187012e+00,1.243170738220214844e+00,1.243091821670532227e+00,1.243012905120849609e+00,1.242933988571166992e+00,1.242855191230773926e+00,1.242776274681091309e+00,1.242697358131408691e+00
1.162493944168090820e+00,1.162424921989440918e+00,1.162355899810791016e+00,1.162286996841430664e+00,1.162217974662780762e+00,1.162148952484130859e+00,1.162080049514770508e+00,1.162011027336120605e+00,1.161942124366760254e+00,1.161873102188110352e+00,1.161804199218750000e+00,1.161735296249389648e+00,1.161666393280029297e+00,1.161597371101379395e+00,1.161528468132019043e+00,1.161459565162658691e+00,1.161390662193298340e+00,1.161321878433227539e+00,1.161252975463867188e+00,1.161184072494506836e+00,1.161115169525146484e+00,1.161046385765075684e+00,1.160977482795715332e+00,1.160908699035644531e+00,1.160839796066284180e+00,1.160771012306213379e+00,1.160702228546142578e+00,1.160633444786071777e+00,1.160564661026000977e+00,1.160495877265930176e+00,1.160427093505859375e+00,1.160358309745788574e+00,1.160289525985717773e+00,1.160220742225646973e+00,1.160152077674865723e+00,1.160083293914794922e+00,1.160014510154724121e+00,1.159945845603942871e+00,1.159877061843872070e+00,1.159808397293090820e+00,1.159739732742309570e+00,1.159671068191528320e+00,1.159602284431457520e+00,1.159533619880676270e+00,1.159464955329895020e+00,1.159396290779113770e+00,1.159327745437622070e+00,1.159259080886840820e+00,1.159190416336059570e+00,1.159121751785278320e+00,1.159053206443786621e+00,1.158984541893005371e+00,1.158915877342224121e+00,1.158847332000732422e+00,1.158778786659240723e+00,1.158710241317749023e+00,1.158641695976257324e+00,1.158573031425476074e+00,1.158504486083984375e+00,1.158435940742492676e+00,1.158367395401000977e+00,1.158298969268798828e+00,1.158230423927307129e+00,1.158161878585815430e+00,1.158093452453613281e+00,1.158024907112121582e+00,1.157956480979919434e+00,1.157887935638427734e+00,1.157819509506225586e+00,1.157751083374023438e+00,1.157682657241821289e+00,1.157614111900329590e+00,1.157545685768127441e+00,1.157477259635925293e+00,1.157408833503723145e+00,1.157340526580810547e+00,1.157272100448608398e+00,1.157203674316406250e+00,1.157135248184204102e+00,1.157066822052001953e+00
1.087225198745727539e+00,1.087164878845214844e+00,1.087104439735412598e+00,1.087044119834899902e+00,1.086983799934387207e+00,1.086923360824584961e+00,1.086863040924072266e+00,1.086802721023559570e+00,1.086742520332336426e+00,1.086682200431823730e+00,1.086621880531311035e+00,1.086561560630798340e+00,1.086501240730285645e+00,1.086440920829772949e+00,1.086380600929260254e+00,1.086320400238037109e+00,1.086260080337524414e+00,1.086199879646301270e+00,1.086139559745788574e+00,1.086079359054565430e+00,1.086019039154052734e+00,1.085958838462829590e+00,1.085898637771606445e+00,1.085838437080383301e+00,1.085778236389160156e+00,1.085718035697937012e+00,1.085657835006713867e+00,1.085597634315490723e+00,1.085537433624267578e+00,1.085477232933044434e+00,1.085417151451110840e+00,1.085356950759887695e+00,1.085296750068664551e+00,1.085236549377441406e+00,1.085176467895507812e+00,1.085116267204284668e+00,1.085056185722351074e+00,1.084996104240417480e+00,1.084936022758483887e+00,1.084875822067260742e+00,1.084815740585327148e+00,1.084755659103393555e+00,1.084695458412170410e+00,1.084635376930236816e+00,1.084575295448303223e+00,1.084515333175659180e+00,1.084455251693725586e+00,1.084395170211791992e+00,1.084335088729858398e+00,1.084275007247924805e+00,1.084214925765991211e+00,1.084154963493347168e+00,1.084095001220703125e+00,1.084034919738769531e+00,1.083974957466125488e+00,1.083914875984191895e+00,1.083854913711547852e+00,1.083794832229614258e+00,1.083734869956970215e+00,1.083675026893615723e+00,1.083614945411682129e+00,1.083554983139038086e+00,1.083495020866394043e+00,1.083435058593750000e+00,1.083375096321105957e+00,1.083315134048461914e+00,1.083255290985107422e+00,1.083195328712463379e+00,1.083135366439819336e+00,1.083075523376464844e+00,1.083015561103820801e+00,1.082955718040466309e+00,1.082895755767822266e+00,1.082835912704467773e+00,1.082776069641113281e+00,1.082716107368469238e+00,1.082656264305114746e+00,1.082596421241760254e+00,1.082536578178405762e+00,1.082476735115051270e+00
1.021110653877258301e+00,1.021057367324829102e+00,1.021004199981689453e+00,1.020950913429260254e+00,1.020897626876831055e+00,1.020844459533691406e+00,1.020791292190551758e+00,1.020738005638122559e+00,1.020684838294982910e+00,1.020631670951843262e+00,1.020578384399414062e+00,1.020525217056274414e+00,1.020472049713134766e+00,1.020418763160705566e+00,1.020365715026855469e+00,1.020312547683715820e+00,1.020259380340576172e+00,1.020206212997436523e+00,1.020153045654296875e+00,1.020099878311157227e+00,1.020046710968017578e+00,1.019993662834167480e+00,1.019940495491027832e+00,1.019887328147888184e+00,1.019834160804748535e+00,1.019781112670898438e+00,1.019727945327758789e+00,1.019674897193908691e+00,1.019621849060058594e+00,1.019568681716918945e+00,1.019515633583068848e+00,1.019462466239929199e+00,1.019409418106079102e+00,1.019356369972229004e+00,1.019303321838378906e+00,1.019250273704528809e+00,1.019197225570678711e+00,1.019144177436828613e+00,1.019091129302978516e+00,1.019038081169128418e+00,1.018985033035278320e+00,1.018931984901428223e+00,1.018878936767578125e+00,1.018826007843017578e+00,1.018772959709167480e+00,1.018719911575317383e+00,1.018666982650756836e+00,1.018613934516906738e+00,1.018560886383056641e+00,1.018507957458496094e+00,1.018455028533935547e+00,1.018401980400085449e+00,1.018349051475524902e+00,1.018296122550964355e+00,1.018243074417114258e+00,1.018190145492553711e+00,1.018137216567993164e+00,1.018084287643432617e+00,1.018031358718872070e+00,1.017978429794311523e+00,1.017925500869750977e+00,1.017872571945190430e+00,1.017819643020629883e+00,1.017766714096069336e+00,1.017713904380798340e+00,1.017660975456237793e+00,1.017608165740966797e+00,1.017555236816406250e+00,1.017502307891845703e+00,1.017449498176574707e+00,1.017396569252014160e+00,1.017343640327453613e+00,1.017290949821472168e+00,1.017238020896911621e+00,1.017185211181640625e+00,1.017132282257080078e+00,1.017079472541809082e+00,1.017026662826538086e+00,1.016973853111267090e+00,1.016921043395996094e+00
9.625760912895202637e-01,9.625288248062133789e-01,9.624814391136169434e-01,9.624341726303100586e-01,9.623867869377136230e-01,9.623395204544067383e-01,9.622923135757446289e-01,9.622449278831481934e-01,9.621977210044860840e-01,9.621503949165344238e-01,9.621031284332275391e-01,9.620558023452758789e-01,9.620085954666137695e-01,9.619613885879516602e-01,9.619140625000000000e-01,9.618668556213378906e-01,9.618195295333862305e-01,9.617723226547241211e-01,9.617250561714172363e-01,9.616778492927551270e-01,9.616306424140930176e-01,9.615833759307861328e-01,9.615361690521240234e-01,9.614889025688171387e-01,9.614417552947998047e-01,9.613944888114929199e-01,9.613473415374755859e-01,9.613001942634582520e-01,9.612529277801513672e-01,9.612057805061340332e-01,9.611585140228271484e-01,9.611114263534545898e-01,9.610641598701477051e-01,9.610170125961303711e-01,9.609699249267578125e-01,9.609227180480957031e-01,9.608755707740783691e-01,9.608283638954162598e-01,9.607812762260437012e-01,9.607340693473815918e-01,9.606869816780090332e-01,9.606398940086364746e-01,9.605926871299743652e-01,9.605455994606018066e-01,9.604984521865844727e-01,9.604513645172119141e-01,9.604042172431945801e-01,9.603571295738220215e-01,9.603101015090942383e-01,9.602628946304321289e-01,9.602158665657043457e-01,9.601687192916870117e-01,9.601216912269592285e-01,9.600745439529418945e-01,9.600275158882141113e-01,9.599804878234863281e-01,9.599334001541137695e-01,9.598863720893859863e-01,9.598392248153686523e-01,9.597922563552856445e-01,9.597451090812683105e-01,9.596981406211853027e-01,9.596510529518127441e-01,9.596040248870849609e-01,9.595570564270019531e-01,9.595099687576293945e-01,9.594630002975463867e-01,9.594159126281738281e-01,9.593689441680908203e-01,9.593219161033630371e-01,9.592749476432800293e-01,9.592279791831970215e-01,9.591809511184692383e-01,9.591339826583862305e-01,9.590869545936584473e-01,9.590400457382202148e-01,9.589930176734924316e-01,9.589460492134094238e-01,9.588991403579711914e-01,9.588521122932434082e-01
9.103885889053344727e-01,9.103462696075439453e-01,9.103038907051086426e-01,9.102616310119628906e-01,9.102193713188171387e-01,9.101769924163818359e-01,9.101347327232360840e-01,9.100923538208007812e-01,9.100500941276550293e-01,9.100077748298645020e-01,9.099655151367187500e-01,9.099232554435729980e-01,9.098809361457824707e-01,9.098386764526367188e-01,9.097963571548461914e-01,9.097540974617004395e-01,9.097117781639099121e-01,9.096695780754089355e-01,9.096273779869079590e-01,9.095850586891174316e-01,9.095427989959716797e-01,9.095005393028259277e-01,9.094583392143249512e-01,9.094160199165344238e-01,9.093738198280334473e-01,9.093316197395324707e-01,9.092893600463867188e-01,9.092471599578857422e-01,9.092049002647399902e-01,9.091627001762390137e-01,9.091204404830932617e-01,9.090782999992370605e-01,9.090360999107360840e-01,9.089938402175903320e-01,9.089516997337341309e-01,9.089094400405883789e-01,9.088672995567321777e-01,9.088250398635864258e-01,9.087828993797302246e-01,9.087407588958740234e-01,9.086985588073730469e-01,9.086564183235168457e-01,9.086142182350158691e-01,9.085720777511596680e-01,9.085298776626586914e-01,9.084877371788024902e-01,9.084456562995910645e-01,9.084034562110900879e-01,9.083613753318786621e-01,9.083191752433776855e-01,9.082770347595214844e-01,9.082348942756652832e-01,9.081928133964538574e-01,9.081506133079528809e-01,9.081085324287414551e-01,9.080664515495300293e-01,9.080243110656738281e-01,9.079822301864624023e-01,9.079400897026062012e-01,9.078980088233947754e-01,9.078558683395385742e-01,9.078137874603271484e-01,9.077717661857604980e-01,9.077296257019042969e-01,9.076876044273376465e-01,9.076454639434814453e-01,9.076034426689147949e-01,9.075613021850585938e-01,9.075192809104919434e-01,9.074772596359252930e-01,9.074351191520690918e-01,9.073931574821472168e-01,9.073510169982910156e-01,9.073089957237243652e-01,9.072669148445129395e-01,9.072249531745910645e-01,9.071829319000244141e-01,9.071408510208129883e-01,9.070988893508911133e-01,9.070568084716796875e-01
8.635689020156860352e-01,8.635308146476745605e-01,8.634927868843078613e-01,8.634546399116516113e-01,8.634166121482849121e-01,8.633785247802734375e-01,8.633404970169067383e-01,8.633023500442504883e-01,8.632643222808837891e-01,8.632262945175170898e-01,8.631882071495056152e-01,8.631501793861389160e-01,8.631120920181274414e-01,8.630740642547607422e-01,8.630359768867492676e-01,8.629980087280273438e-01,8.629599809646606445e-01,8.629218935966491699e-01,8.628839254379272461e-01,8.628458380699157715e-01,8.628078699111938477e-01,8.627697825431823730e-01,8.627318143844604492e-01,8.626938462257385254e-01,8.626557588577270508e-01,8.626177906990051270e-01,8.625797629356384277e-01,8.625417947769165039e-01,8.625037670135498047e-01,8.624657988548278809e-01,8.624278306961059570e-01,8.623898029327392578e-01,8.623518943786621094e-01,8.623138070106506348e-01,8.622758984565734863e-01,8.622378706932067871e-01,8.621999621391296387e-01,8.621619939804077148e-01,8.621240258216857910e-01,8.620860576629638672e-01,8.620480895042419434e-01,8.620101809501647949e-01,8.619721531867980957e-01,8.619342446327209473e-01,8.618962764739990234e-01,8.618583679199218750e-01,8.618204593658447266e-01,8.617824912071228027e-01,8.617445826530456543e-01,8.617066144943237305e-01,8.616687655448913574e-01,8.616307377815246582e-01,8.615928888320922852e-01,8.615550398826599121e-01,8.615170717239379883e-01,8.614791631698608398e-01,8.614412546157836914e-01,8.614034056663513184e-01,8.613654375076293945e-01,8.613275885581970215e-01,8.612897396087646484e-01,8.612517714500427246e-01,8.612139225006103516e-01,8.611760139465332031e-01,8.611381649971008301e-01,8.611002564430236816e-01,8.610624074935913086e-01,8.610246181488037109e-01,8.609867095947265625e-01,8.609488606452941895e-01,8.609109520912170410e-01,8.608731627464294434e-01,8.608352541923522949e-01,8.607974648475646973e-01,8.607596158981323242e-01,8.607217669486999512e-01,8.606839776039123535e-01,8.606460690498352051e-01,8.606082797050476074e-01,8.605704307556152344e-01
8.213294148445129395e-01,8.212949633598327637e-01,8.212605118751525879e-01,8.212260603904724121e-01,8.211916089057922363e-01,8.211571574211120605e-01,8.211227655410766602e-01,8.210883140563964844e-01,8.210538625717163086e-01,8.210194706916809082e-01,8.209850192070007324e-01,8.209506273269653320e-01,8.209161758422851562e-01,8.208817839622497559e-01,8.208473920822143555e-01,8.208129405975341797e-01,8.207785487174987793e-01,8.207440972328186035e-01,8.207097649574279785e-01,8.206753134727478027e-01,8.206409215927124023e-01,8.206065893173217773e-01,8.205721378326416016e-01,8.205378055572509766e-01,8.205033540725708008e-01,8.204690217971801758e-01,8.204345703125000000e-01,8.204002380371093750e-01,8.203659057617187500e-01,8.203315138816833496e-01,8.202971816062927246e-01,8.202627301216125488e-01,8.202283978462219238e-01,8.201940059661865234e-01,8.201596736907958984e-01,8.201254010200500488e-01,8.200910091400146484e-01,8.200566768646240234e-01,8.200222849845886230e-01,8.199879527091979980e-01,8.199535608291625977e-01,8.199192881584167480e-01,8.198848962783813477e-01,8.198506236076354980e-01,8.198162913322448730e-01,8.197819590568542480e-01,8.197476863861083984e-01,8.197132945060729980e-01,8.196790218353271484e-01,8.196446299552917480e-01,8.196103572845458984e-01,8.195760846138000488e-01,8.195417523384094238e-01,8.195074796676635742e-01,8.194731473922729492e-01,8.194388747215270996e-01,8.194045424461364746e-01,8.193702697753906250e-01,8.193360567092895508e-01,8.193017244338989258e-01,8.192674517631530762e-01,8.192331194877624512e-01,8.191989064216613770e-01,8.191645741462707520e-01,8.191303610801696777e-01,8.190960884094238281e-01,8.190618157386779785e-01,8.190275430679321289e-01,8.189932703971862793e-01,8.189590573310852051e-01,8.189247250556945801e-01,8.188905119895935059e-01,8.188562989234924316e-01,8.188220262527465820e-01,8.187878131866455078e-01,8.187535405158996582e-01,8.187193274497985840e-01,8.186850547790527344e-01,8.186508417129516602e-01,8.186166882514953613e-01
