5.000000000000000000e+00,5.000000000000000000e+00,5.000000000000000000e+00,5.000000000000000000e+00,5.000000000000000000e+00,5.000000000000000000e+00,5.000000000000000000e+00,5.000000000000000000e+00,5.000000000000000000e+00,5.000000000000000000e+00,5.000000000000000000e+00,5.000000000000000000e+00,5.000000000000000000e+00,5.000000000000000000e+00,5.000000000000000000e+00,5.000000000000000000e+00,5.000000000000000000e+00,5.000000000000000000e+00,5.000000000000000000e+00,5.000000000000000000e+00,5.000000000000000000e+00,5.000000000000000000e+00,5.000000000000000000e+00,5.000000000000000000e+00,5.000000000000000000e+00,5.000000000000000000e+00,5.000000000000000000e+00,2.676706314086914062e+00,2.646799564361572266e+00,2.660384893417358398e+00,2.620703697204589844e+00,2.623654842376708984e+00,2.622208356857299805e+00,2.643907546997070312e+00,2.669857025146484375e+00,2.726262569427490234e+00,2.822837114334106445e+00,2.873998641967773438e+00,5.000000000000000000e+00,4.863189697265625000e+00,4.672134399414062500e+00,4.495523929595947266e+00,4.331779003143310547e+00,4.179543018341064453e+00,4.037643909454345703e+00,3.905064105987548828e+00,3.780914306640625000e+00,3.664414882659912109e+00,3.554880619049072266e+00,3.451704025268554688e+00,3.354347944259643555e+00,3.262332916259765625e+00,3.175231695175170898e+00,3.092660188674926758e+00,3.014274597167968750e+00,2.939764261245727539e+00,2.868848562240600586e+00,2.801273584365844727e+00,2.736809015274047852e+00,2.675244569778442383e+00,2.616389274597167969e+00,2.560067415237426758e+00,2.506119489669799805e+00,2.454398155212402344e+00,2.404768705368041992e+00,2.357106685638427734e+00,2.311296939849853516e+00,2.267233848571777344e+00,2.224819660186767578e+00,2.183963060379028320e+00,2.144580125808715820e+00,2.106592178344726562e+00,2.069926738739013672e+00,2.034515857696533203e+00,2.000296115875244141e+00,1.967208385467529297e+00,1.935197472572326660e+00,1.904211759567260742e+00,1.874202728271484375e+00,1.845124602317810059e+00
5.000000000000000000e+00,5.000000000000000000e+00,5.000000000000000000e+00,5.000000000000000000e+00,5.000000000000000000e+00,5.000000000000000000e+00,5.000000000000000000e+00,5.000000000000000000e+00,5.000000000000000000e+00,5.000000000000000000e+00,5.000000000000000000e+00,5.000000000000000000e+00,5.000000000000000000e+00,5.000000000000000000e+00,5.000000000000000000e+00,5.000000000000000000e+00,5.000000000000000000e+00,5.000000000000000000e+00,5.000000000000000000e+00,5.000000000000000000e+00,5.000000000000000000e+00,5.000000000000000000e+00,5.000000000000000000e+00,5.000000000000000000e+00,5.000000000000000000e+00,5.000000000000000000e+00,5.000000000000000000e+00,5.000000000000000000e+00,2.655360221862792969e+00,2.665532350540161133e+00,2.627191781997680664e+00,2.618495702743530273e+00,2.621785163879394531e+00,2.638531923294067383e+00,2.672587394714355469e+00,2.748977899551391602e+00,2.813229799270629883e+00,2.860684156417846680e+00,5.000000000000000000e+00,4.863327980041503906e+00,4.672262668609619141e+00,4.495642185211181641e+00,4.331888675689697266e+00,4.179645061492919922e+00,4.037739753723144531e+00,3.905153751373291016e+00,3.780997991561889648e+00,3.664493799209594727e+00,3.554954290390014648e+00,3.451773881912231445e+00,3.354413747787475586e+00,3.262395381927490234e+00,3.175290584564208984e+00,3.092716217041015625e+00,3.014327764511108398e+00,2.939814805984497070e+00,2.868896722793579102e+00,2.801319837570190430e+00,2.736852884292602539e+00,2.675286769866943359e+00,2.616429090499877930e+00,2.560105800628662109e+00,2.506156206130981445e+00,2.454433679580688477e+00,2.404802560806274414e+00,2.357139348983764648e+00,2.311328172683715820e+00,2.267264127731323242e+00,2.224848508834838867e+00,2.183991193771362305e+00,2.144606828689575195e+00,2.106618404388427734e+00,2.069951772689819336e+00,2.034540176391601562e+00,2.000319480895996094e+00,1.967231154441833496e+00,1.935219407081604004e+00,1.904232978820800781e+00,1.874223232269287109e+00,1.845144629478454590e+00
5.000000000000000000e+00,5.000000000000000000e+00,5.000000000000000000e+00,5.000000000000000000e+00,5.000000000000000000e+00,5.000000000000000000e+00,5.000000000000000000e+00,5.000000000000000000e+00,5.000000000000000000e+00,5.000000000000000000e+00,5.000000000000000000e+00,5.000000000000000000e+00,5.000000000000000000e+00,5.000000000000000000e+00,5.000000000000000000e+00,5.000000000000000000e+00,5.000000000000000000e+00,5.000000000000000000e+00,5.000000000000000000e+00,5.000000000000000000e+00,5.000000000000000000e+00,5.000000000000000000e+00,5.000000000000000000e+00,5.000000000000000000e+00,5.000000000000000000e+00,5.000000000000000000e+00,5.000000000000000000e+00,5.000000000000000000e+00,2.663794279098510742e+00,2.663773536682128906e+00,2.639361619949340820e+00,2.618639230728149414e+00,2.622359275817871094e+00,2.640071868896484375e+00,2.672319173812866211e+00,2.753265380859375000e+00,2.814858198165893555e+00,2.847736358642578125e+00,5.000000000000000000e+00,4.863466739654541016e+00,4.672390460968017578e+00,4.495760440826416016e+00,4.331998348236083984e+00,4.179747581481933594e+00,4.037835121154785156e+00,3.905242919921875000e+00,3.781081914901733398e+00,3.664572238922119141e+00,3.555028438568115234e+00,3.451843500137329102e+00,3.354479789733886719e+00,3.262457609176635742e+00,3.175349712371826172e+00,3.092772245407104492e+00,3.014380931854248047e+00,2.939865350723266602e+00,2.868945121765136719e+00,2.801365613937377930e+00,2.736896753311157227e+00,2.675328493118286133e+00,2.616469383239746094e+00,2.560144186019897461e+00,2.506193161010742188e+00,2.454468727111816406e+00,2.404836654663085938e+00,2.357171773910522461e+00,2.311359643936157227e+00,2.267294168472290039e+00,2.224877595901489258e+00,2.184018850326538086e+00,2.144634008407592773e+00,2.106644153594970703e+00,2.069976806640625000e+00,2.034564256668090820e+00,2.000342845916748047e+00,1.967253804206848145e+00,1.935241460800170898e+00,1.904254198074340820e+00,1.874243736267089844e+00,1.845164537429809570e+00
5.000000000000000000e+00,5.000000000000000000e+00,5.000000000000000000e+00,5.000000000000000000e+00,5.000000000000000000e+00,5.000000000000000000e+00,5.000000000000000000e+00,5.000000000000000000e+00,5.000000000000000000e+00,5.000000000000000000e+00,5.000000000000000000e+00,5.000000000000000000e+00,5.000000000000000000e+00,5.000000000000000000e+00,5.000000000000000000e+00,5.000000000000000000e+00,5.000000000000000000e+00,5.000000000000000000e+00,5.000000000000000000e+00,5.000000000000000000e+00,5.000000000000000000e+00,5.000000000000000000e+00,5.000000000000000000e+00,5.000000000000000000e+00,5.000000000000000000e+00,5.000000000000000000e+00,5.000000000000000000e+00,5.000000000000000000e+00,2.673292636871337891e+00,2.681527376174926758e+00,2.627304315567016602e+00,2.607885360717773438e+00,2.613772153854370117e+00,2.646797180175781250e+00,2.672877550125122070e+00,5.000000000000000000e+00,2.830411672592163086e+00,2.844220876693725586e+00,5.000000000000000000e+00,4.863605022430419922e+00,4.672518253326416016e+00,4.495879173278808594e+00,4.332108497619628906e+00,4.179850101470947266e+00,4.037930488586425781e+00,3.905332326889038086e+00,3.781165361404418945e+00,3.664651155471801758e+00,3.555102348327636719e+00,3.451913356781005859e+00,3.354545593261718750e+00,3.262520074844360352e+00,3.175408601760864258e+00,3.092828273773193359e+00,3.014434099197387695e+00,2.939916133880615234e+00,2.868993043899536133e+00,2.801411628723144531e+00,2.736940622329711914e+00,2.675370454788208008e+00,2.616509437561035156e+00,2.560182571411132812e+00,2.506229877471923828e+00,2.454504251480102539e+00,2.404870271682739258e+00,2.357204198837280273e+00,2.311390876770019531e+00,2.267324209213256836e+00,2.224906444549560547e+00,2.184046983718872070e+00,2.144660711288452148e+00,2.106670379638671875e+00,2.070001840591430664e+00,2.034588575363159180e+00,2.000366449356079102e+00,1.967276453971862793e+00,1.935263395309448242e+00,1.904275536537170410e+00,1.874264240264892578e+00,1.845184445381164551e+00
5.000000000000000000e+00,5.000000000000000000e+00,5.000000000000000000e+00,5.000000000000000000e+00,5.000000000000000000e+00,5.000000000000000000e+00,5.000000000000000000e+00,5.000000000000000000e+00,5.000000000000000000e+00,5.000000000000000000e+00,5.000000000000000000e+00,5.000000000000000000e+00,5.000000000000000000e+00,5.000000000000000000e+00,5.000000000000000000e+00,5.000000000000000000e+00,5.000000000000000000e+00,5.000000000000000000e+00,5.000000000000000000e+00,5.000000000000000000e+00,5.000000000000000000e+00,5.000000000000000000e+00,5.000000000000000000e+00,5.000000000000000000e+00,5.000000000000000000e+00,5.000000000000000000e+00,5.000000000000000000e+00,5.000000000000000000e+00,2.684420585632324219e+00,2.661853790283203125e+00,2.624524116516113281e+00,2.604654073715209961e+00,2.609109878540039062e+00,2.631932258605957031e+00,2.661850929260253906e+00,5.000000000000000000e+00,2.844870328903198242e+00,2.850893735885620117e+00,5.000000000000000000e+00,4.863743782043457031e+00,4.672646045684814453e+00,4.495997428894042969e+00,4.332218170166015625e+00,4.179952144622802734e+00,4.038025856018066406e+00,3.905421495437622070e+00,3.781249284744262695e+00,3.664729595184326172e+00,3.555176496505737305e+00,3.451982975006103516e+00,3.354611635208129883e+00,3.262582302093505859e+00,3.175467967987060547e+00,3.092884302139282227e+00,3.014487504959106445e+00,2.939966678619384766e+00,2.869041442871093750e+00,2.801457405090332031e+00,2.736984491348266602e+00,2.675412416458129883e+00,2.616549491882324219e+00,2.560220956802368164e+00,2.506266593933105469e+00,2.454539299011230469e+00,2.404904365539550781e+00,2.357236862182617188e+00,2.311422109603881836e+00,2.267354249954223633e+00,2.224935531616210938e+00,2.184074878692626953e+00,2.144687891006469727e+00,2.106696128845214844e+00,2.070027112960815430e+00,2.034612655639648438e+00,2.000389814376831055e+00,1.967298984527587891e+00,1.935285210609436035e+00,1.904296755790710449e+00,1.874284982681274414e+00,1.845204353332519531e+00
5.000000000000000000e+00,5.000000000000000000e+00,5.000000000000000000e+00,5.000000000000000000e+00,5.000000000000000000e+00,5.000000000000000000e+00,5.000000000000000000e+00,5.000000000000000000e+00,5.000000000000000000e+00,5.000000000000000000e+00,5.000000000000000000e+00,5.000000000000000000e+00,5.000000000000000000e+00,5.000000000000000000e+00,5.000000000000000000e+00,5.000000000000000000e+00,5.000000000000000000e+00,5.000000000000000000e+00,5.000000000000000000e+00,5.000000000000000000e+00,5.000000000000000000e+00,5.000000000000000000e+00,5.000000000000000000e+00,5.000000000000000000e+00,5.000000000000000000e+00,5.000000000000000000e+00,5.000000000000000000e+00,5.000000000000000000e+00,2.677711963653564453e+00,2.664177656173706055e+00,2.627268075942993164e+00,2.620533704757690430e+00,2.621710062026977539e+00,2.638707399368286133e+00,2.672925710678100586e+00,2.752226352691650391e+00,2.835143566131591797e+00,2.812854766845703125e+00,5.000000000000000000e+00,4.863882064819335938e+00,4.672773838043212891e+00,4.496115684509277344e+00,4.332328319549560547e+00,4.180054664611816406e+00,4.038121700286865234e+00,3.905510902404785156e+00,3.781332731246948242e+00,3.664808273315429688e+00,3.555250406265258789e+00,3.452053070068359375e+00,3.354677200317382812e+00,3.262644767761230469e+00,3.175526857376098633e+00,3.092940330505371094e+00,3.014540433883666992e+00,2.940017461776733398e+00,2.869089603424072266e+00,2.801503658294677734e+00,2.737028360366821289e+00,2.675454378128051758e+00,2.616589546203613281e+00,2.560259342193603516e+00,2.506303310394287109e+00,2.454574823379516602e+00,2.404937982559204102e+00,2.357269287109375000e+00,2.311453342437744141e+00,2.267384529113769531e+00,2.224964618682861328e+00,2.184102773666381836e+00,2.144714593887329102e+00,2.106722354888916016e+00,2.070052146911621094e+00,2.034636974334716797e+00,2.000413179397583008e+00,1.967321872711181641e+00,1.935307145118713379e+00,1.904317975044250488e+00,1.874305486679077148e+00,1.845224380493164062e+00
5.000000000000000000e+00,5.000000000000000000e+00,5.000000000000000000e+00,5.000000000000000000e+00,5.000000000000000000e+00,5.000000000000000000e+00,5.000000000000000000e+00,5.000000000000000000e+00,5.000000000000000000e+00,5.000000000000000000e+00,5.000000000000000000e+00,5.000000000000000000e+00,5.000000000000000000e+00,5.000000000000000000e+00,5.000000000000000000e+00,5.000000000000000000e+00,5.000000000000000000e+00,5.000000000000000000e+00,5.000000000000000000e+00,5.000000000000000000e+00,5.000000000000000000e+00,5.000000000000000000e+00,5.000000000000000000e+00,5.000000000000000000e+00,5.000000000000000000e+00,5.000000000000000000e+00,5.000000000000000000e+00,5.000000000000000000e+00,2.664899587631225586e+00,2.682867527008056641e+00,2.619025468826293945e+00,2.620295763015747070e+00,2.637264966964721680e+00,2.650116682052612305e+00,2.676948070526123047e+00,2.736542224884033203e+00,5.000000000000000000e+00,2.803564310073852539e+00,2.799427270889282227e+00,4.864020824432373047e+00,4.672901630401611328e+00,4.496233940124511719e+00,4.332437992095947266e+00,4.180156707763671875e+00,4.038217067718505859e+00,3.905600070953369141e+00,3.781416893005371094e+00,3.664886713027954102e+00,3.555324554443359375e+00,3.452122688293457031e+00,3.354743480682373047e+00,3.262706995010375977e+00,3.175585985183715820e+00,3.092996358871459961e+00,3.014593839645385742e+00,2.940067768096923828e+00,2.869137763977050781e+00,2.801549434661865234e+00,2.737072229385375977e+00,2.675496101379394531e+00,2.616629838943481445e+00,2.560297727584838867e+00,2.506340265274047852e+00,2.454609870910644531e+00,2.404972076416015625e+00,2.357301950454711914e+00,2.311484813690185547e+00,2.267414569854736328e+00,2.224993705749511719e+00,2.184130668640136719e+00,2.144741773605346680e+00,2.106748104095458984e+00,2.070077180862426758e+00,2.034661293029785156e+00,2.000436782836914062e+00,1.967344403266906738e+00,1.935329198837280273e+00,1.904339075088500977e+00,1.874325990676879883e+00,1.845244288444519043e+00
5.000000000000000000e+00,5.000000000000000000e+00,5.000000000000000000e+00,5.000000000000000000e+00,5.000000000000000000e+00,5.000000000000000000e+00,5.000000000000000000e+00,5.000000000000000000e+00,5.000000000000000000e+00,5.000000000000000000e+00,5.000000000000000000e+00,5.000000000000000000e+00,5.000000000000000000e+00,5.000000000000000000e+00,5.000000000000000000e+00,5.000000000000000000e+00,5.000000000000000000e+00,5.000000000000000000e+00,5.000000000000000000e+00,5.000000000000000000e+00,5.000000000000000000e+00,5.000000000000000000e+00,5.000000000000000000e+00,5.000000000000000000e+00,5.000000000000000000e+00,5.000000000000000000e+00,5.000000000000000000e+00,5.000000000000000000e+00,2.660108566284179688e+00,2.673203229904174805e+00,2.578277349472045898e+00,2.566557168960571289e+00,2.566982984542846680e+00,2.671216487884521484e+00,2.707684040069580078e+00,2.733948945999145508e+00,5.000000000000000000e+00,2.826413393020629883e+00,2.770386934280395508e+00,4.864159107208251953e+00,4.673029422760009766e+00,4.496352672576904297e+00,4.332548141479492188e+00,4.180259227752685547e+00,4.038312435150146484e+00,3.905689716339111328e+00,3.781500339508056641e+00,3.664965629577636719e+00,3.555398464202880859e+00,3.452192544937133789e+00,3.354809045791625977e+00,3.262769460678100586e+00,3.175644874572753906e+00,3.093052387237548828e+00,3.014647006988525391e+00,2.940118551254272461e+00,2.869185924530029297e+00,2.801595449447631836e+00,2.737116098403930664e+00,2.675538063049316406e+00,2.616669654846191406e+00,2.560336112976074219e+00,2.506376981735229492e+00,2.454645395278930664e+00,2.405005931854248047e+00,2.357334375381469727e+00,2.311515808105468750e+00,2.267444849014282227e+00,2.225022554397583008e+00,2.184158802032470703e+00,2.144768476486206055e+00,2.106774330139160156e+00,2.070102214813232422e+00,2.034685611724853516e+00,2.000460147857666016e+00,1.967367053031921387e+00,1.935351133346557617e+00,1.904360532760620117e+00,1.874346494674682617e+00,1.845264196395874023e+00
5.000000000000000000e+00,5.000000000000000000e+00,5.000000000000000000e+00,5.000000000000000000e+00,5.000000000000000000e+00,5.000000000000000000e+00,5.000000000000000000e+00,5.000000000000000000e+00,5.000000000000000000e+00,5.000000000000000000e+00,5.000000000000000000e+00,5.000000000000000000e+00,5.000000000000000000e+00,5.000000000000000000e+00,5.000000000000000000e+00,5.000000000000000000e+00,5.000000000000000000e+00,5.000000000000000000e+00,5.000000000000000000e+00,5.000000000000000000e+00,5.000000000000000000e+00,5.000000000000000000e+00,5.000000000000000000e+00,5.000000000000000000e+00,5.000000000000000000e+00,5.000000000000000000e+00,5.000000000000000000e+00,5.000000000000000000e+00,2.648964405059814453e+00,2.662194013595581055e+00,2.554169416427612305e+00,2.544844627380371094e+00,2.542990684509277344e+00,2.599868535995483398e+00,2.706266164779663086e+00,2.731932878494262695e+00,5.000000000000000000e+00,5.000000000000000000e+00,5.000000000000000000e+00,2.753731250762939453e+00,4.673157691955566406e+00,4.496470928192138672e+00,4.332658290863037109e+00,4.180361747741699219e+00,4.038407802581787109e+00,3.905778646469116211e+00,3.781584262847900391e+00,3.665044069290161133e+00,3.555472612380981445e+00,3.452262163162231445e+00,3.354875087738037109e+00,3.262831687927246094e+00,3.175704002380371094e+00,3.093108415603637695e+00,3.014700412750244141e+00,2.940169095993041992e+00,2.869234323501586914e+00,2.801641464233398438e+00,2.737159967422485352e+00,2.675580024719238281e+00,2.616709947586059570e+00,2.560374498367309570e+00,2.506413936614990234e+00,2.454680442810058594e+00,2.405039787292480469e+00,2.357367038726806641e+00,2.311547279357910156e+00,2.267474889755249023e+00,2.225051641464233398e+00,2.184186458587646484e+00,2.144795656204223633e+00,2.106800079345703125e+00,2.070127487182617188e+00,2.034709692001342773e+00,2.000483512878417969e+00,1.967389702796936035e+00,1.935372948646545410e+00,1.904381752014160156e+00,1.874367237091064453e+00,1.845284104347229004e+00
5.000000000000000000e+00,5.000000000000000000e+00,5.000000000000000000e+00,5.000000000000000000e+00,5.000000000000000000e+00,5.000000000000000000e+00,5.000000000000000000e+00,5.000000000000000000e+00,5.000000000000000000e+00,5.000000000000000000e+00,5.000000000000000000e+00,5.000000000000000000e+00,5.000000000000000000e+00,5.000000000000000000e+00,5.000000000000000000e+00,5.000000000000000000e+00,5.000000000000000000e+00,5.000000000000000000e+00,5.000000000000000000e+00,5.000000000000000000e+00,5.000000000000000000e+00,5.000000000000000000e+00,5.000000000000000000e+00,5.000000000000000000e+00,5.000000000000000000e+00,5.000000000000000000e+00,5.000000000000000000e+00,5.000000000000000000e+00,2.649644851684570312e+00,5.000000000000000000e+00,2.560904264450073242e+00,2.527697086334228516e+00,2.525112867355346680e+00,2.568281888961791992e+00,2.700392723083496094e+00,2.727196216583251953e+00,5.000000000000000000e+00,5.000000000000000000e+00,5.000000000000000000e+00,2.734035015106201172e+00,4.673285484313964844e+00,4.496589183807373047e+00,4.332767963409423828e+00,4.180463790893554688e+00,4.038503646850585938e+00,3.905868291854858398e+00,3.781667709350585938e+00,3.665122985839843750e+00,3.555546522140502930e+00,3.452332258224487305e+00,3.354940891265869141e+00,3.262894153594970703e+00,3.175762891769409180e+00,3.093164443969726562e+00,3.014753341674804688e+00,2.940219879150390625e+00,2.869282245635986328e+00,2.801687479019165039e+00,2.737203836441040039e+00,2.675621986389160156e+00,2.616750001907348633e+00,2.560412883758544922e+00,2.506450653076171875e+00,2.454715967178344727e+00,2.405073642730712891e+00,2.357399463653564453e+00,2.311578512191772461e+00,2.267504930496215820e+00,2.225080490112304688e+00,2.184214591979980469e+00,2.144822359085083008e+00,2.106826305389404297e+00,2.070152521133422852e+00,2.034734010696411133e+00,2.000506877899169922e+00,1.967412471771240234e+00,1.935394883155822754e+00,1.904402852058410645e+00,1.874387741088867188e+00,1.845304131507873535e+00
5.000000000000000000e+00,5.000000000000000000e+00,5.000000000000000000e+00,5.000000000000000000e+00,5.000000000000000000e+00,5.000000000000000000e+00,5.000000000000000000e+00,5.000000000000000000e+00,5.000000000000000000e+00,5.000000000000000000e+00,5.000000000000000000e+00,5.000000000000000000e+00,5.000000000000000000e+00,5.000000000000000000e+00,5.000000000000000000e+00,5.000000000000000000e+00,5.000000000000000000e+00,5.000000000000000000e+00,5.000000000000000000e+00,5.000000000000000000e+00,5.000000000000000000e+00,5.000000000000000000e+00,5.000000000000000000e+00,5.000000000000000000e+00,5.000000000000000000e+00,5.000000000000000000e+00,5.000000000000000000e+00,5.000000000000000000e+00,2.635800838470458984e+00,2.629637241363525391e+00,2.569023370742797852e+00,2.512440443038940430e+00,2.508420705795288086e+00,2.537017107009887695e+00,2.703682422637939453e+00,2.737361192703247070e+00,5.000000000000000000e+00,5.000000000000000000e+00,5.000000000000000000e+00,4.864574909210205078e+00,2.682382822036743164e+00,4.496707916259765625e+00,4.332878112792968750e+00,4.180566310882568359e+00,4.038599014282226562e+00,3.905957460403442383e+00,3.781751871109008789e+00,3.665201425552368164e+00,3.555620670318603516e+00,3.452401876449584961e+00,3.355006933212280273e+00,3.262956380844116211e+00,3.175822257995605469e+00,3.093220472335815430e+00,3.014806747436523438e+00,2.940270423889160156e+00,2.869330644607543945e+00,2.801733255386352539e+00,2.737247705459594727e+00,2.675663948059082031e+00,2.616790056228637695e+00,2.560451269149780273e+00,2.506487369537353516e+00,2.454751014709472656e+00,2.405107498168945312e+00,2.357432126998901367e+00,2.311609983444213867e+00,2.267534971237182617e+00,2.225109577178955078e+00,2.184242486953735352e+00,2.144849538803100586e+00,2.106852054595947266e+00,2.070177555084228516e+00,2.034758329391479492e+00,2.000530481338500977e+00,1.967435121536254883e+00,1.935416936874389648e+00,1.904424071311950684e+00,1.874408245086669922e+00,1.845324039459228516e+00
5.000000000000000000e+00,5.000000000000000000e+00,5.000000000000000000e+00,5.000000000000000000e+00,5.000000000000000000e+00,5.000000000000000000e+00,5.000000000000000000e+00,5.000000000000000000e+00,5.000000000000000000e+00,5.000000000000000000e+00,5.000000000000000000e+00,5.000000000000000000e+00,5.000000000000000000e+00,5.000000000000000000e+00,5.000000000000000000e+00,5.000000000000000000e+00,5.000000000000000000e+00,5.000000000000000000e+00,5.000000000000000000e+00,5.000000000000000000e+00,5.000000000000000000e+00,5.000000000000000000e+00,5.000000000000000000e+00,5.000000000000000000e+00,5.000000000000000000e+00,5.000000000000000000e+00,5.000000000000000000e+00,5.000000000000000000e+00,2.620982646942138672e+00,5.000000000000000000e+00,2.595616817474365234e+00,2.509118318557739258e+00,2.487910270690917969e+00,2.506861209869384766e+00,2.712390422821044922e+00,2.754230499267578125e+00,5.000000000000000000e+00,5.000000000000000000e+00,5.000000000000000000e+00,4.864713668823242188e+00,4.673541069030761719e+00,4.496826171875000000e+00,4.332987785339355469e+00,4.180668354034423828e+00,4.038694381713867188e+00,3.906047105789184570e+00,3.781835317611694336e+00,3.665280342102050781e+00,3.555694580078125000e+00,3.452471733093261719e+00,3.355072736740112305e+00,3.263018846511840820e+00,3.175881147384643555e+00,3.093276500701904297e+00,3.014859914779663086e+00,2.940320968627929688e+00,2.869378805160522461e+00,2.801779508590698242e+00,2.737291574478149414e+00,2.675705909729003906e+00,2.616830110549926758e+00,2.560489654541015625e+00,2.506524085998535156e+00,2.454786539077758789e+00,2.405141353607177734e+00,2.357464551925659180e+00,2.311640977859497070e+00,2.267565250396728516e+00,2.225138425827026367e+00,2.184270381927490234e+00,2.144876241683959961e+00,2.106878280639648438e+00,2.070202589035034180e+00,2.034782409667968750e+00,2.000553846359252930e+00,1.967457771301269531e+00,1.935438871383666992e+00,1.904445528984069824e+00,1.874428868293762207e+00,1.845343947410583496e+00
5.000000000000000000e+00,5.000000000000000000e+00,5.000000000000000000e+00,5.000000000000000000e+00,5.000000000000000000e+00,5.000000000000000000e+00,5.000000000000000000e+00,5.000000000000000000e+00,5.000000000000000000e+00,5.000000000000000000e+00,5.000000000000000000e+00,5.000000000000000000e+00,5.000000000000000000e+00,5.000000000000000000e+00,5.000000000000000000e+00,5.000000000000000000e+00,5.000000000000000000e+00,5.000000000000000000e+00,5.000000000000000000e+00,5.000000000000000000e+00,5.000000000000000000e+00,5.000000000000000000e+00,5.000000000000000000e+00,5.000000000000000000e+00,5.000000000000000000e+00,5.000000000000000000e+00,5.000000000000000000e+00,5.000000000000000000e+00,2.612215757369995117e+00,5.000000000000000000e+00,5.000000000000000000e+00,2.518340349197387695e+00,2.471432685852050781e+00,2.477609634399414062e+00,2.721143007278442383e+00,2.776009321212768555e+00,5.000000000000000000e+00,5.000000000000000000e+00,5.000000000000000000e+00,4.864851951599121094e+00,4.673669338226318359e+00,4.496944427490234375e+00,4.333097934722900391e+00,4.180770874023437500e+00,4.038790225982666016e+00,3.906136035919189453e+00,3.781919240951538086e+00,3.665358781814575195e+00,3.555768728256225586e+00,3.452541351318359375e+00,3.355138778686523438e+00,3.263081073760986328e+00,3.175940275192260742e+00,3.093332529067993164e+00,3.014913320541381836e+00,2.940371513366699219e+00,2.869427204132080078e+00,2.801825284957885742e+00,2.737335443496704102e+00,2.675747632980346680e+00,2.616870403289794922e+00,2.560528039932250977e+00,2.506561040878295898e+00,2.454821586608886719e+00,2.405175209045410156e+00,2.357497215270996094e+00,2.311672449111938477e+00,2.267595291137695312e+00,2.225167512893676758e+00,2.184298276901245117e+00,2.144903421401977539e+00,2.106904029846191406e+00,2.070227861404418945e+00,2.034806728363037109e+00,2.000577211380004883e+00,1.967480301856994629e+00,1.935460686683654785e+00,1.904466629028320312e+00,1.874449610710144043e+00,1.845363855361938477e+00
5.000000000000000000e+00,5.000000000000000000e+00,5.000000000000000000e+00,5.000000000000000000e+00,5.000000000000000000e+00,5.000000000000000000e+00,5.000000000000000000e+00,5.000000000000000000e+00,5.000000000000000000e+00,5.000000000000000000e+00,5.000000000000000000e+00,5.000000000000000000e+00,5.000000000000000000e+00,5.000000000000000000e+00,5.000000000000000000e+00,5.000000000000000000e+00,5.000000000000000000e+00,5.000000000000000000e+00,5.000000000000000000e+00,5.000000000000000000e+00,5.000000000000000000e+00,5.000000000000000000e+00,5.000000000000000000e+00,5.000000000000000000e+00,5.000000000000000000e+00,5.000000000000000000e+00,5.000000000000000000e+00,5.000000000000000000e+00,2.606680393218994141e+00,5.000000000000000000e+00,5.000000000000000000e+00,2.536130666732788086e+00,2.461423158645629883e+00,2.450886249542236328e+00,2.728585243225097656e+00,5.000000000000000000e+00,5.000000000000000000e+00,5.000000000000000000e+00,5.000000000000000000e+00,4.864990711212158203e+00,4.673797130584716797e+00,4.497063159942626953e+00,4.333207607269287109e+00,4.180873394012451172e+00,4.038885593414306641e+00,3.906225681304931641e+00,3.782002925872802734e+00,3.665437698364257812e+00,3.555842638015747070e+00,3.452611446380615234e+00,3.355204582214355469e+00,3.263143539428710938e+00,3.175999164581298828e+00,3.093388557434082031e+00,3.014966249465942383e+00,2.940422296524047852e+00,2.869475126266479492e+00,2.801871299743652344e+00,2.737379312515258789e+00,2.675789833068847656e+00,2.616910457611083984e+00,2.560566425323486328e+00,2.506597757339477539e+00,2.454857110977172852e+00,2.405209064483642578e+00,2.357529640197753906e+00,2.311703681945800781e+00,2.267625331878662109e+00,2.225196361541748047e+00,2.184326410293579102e+00,2.144930124282836914e+00,2.106930255889892578e+00,2.070252895355224609e+00,2.034831047058105469e+00,2.000600576400756836e+00,1.967503190040588379e+00,1.935482621192932129e+00,1.904487848281860352e+00,1.874470114707946777e+00,1.845383882522583008e+00
5.000000000000000000e+00,5.000000000000000000e+00,5.000000000000000000e+00,5.000000000000000000e+00,5.000000000000000000e+00,5.000000000000000000e+00,5.000000000000000000e+00,5.000000000000000000e+00,5.000000000000000000e+00,5.000000000000000000e+00,5.000000000000000000e+00,5.000000000000000000e+00,5.000000000000000000e+00,5.000000000000000000e+00,5.000000000000000000e+00,5.000000000000000000e+00,5.000000000000000000e+00,5.000000000000000000e+00,5.000000000000000000e+00,5.000000000000000000e+00,5.000000000000000000e+00,5.000000000000000000e+00,5.000000000000000000e+00,5.000000000000000000e+00,5.000000000000000000e+00,5.000000000000000000e+00,5.000000000000000000e+00,5.000000000000000000e+00,5.000000000000000000e+00,5.000000000000000000e+00,5.000000000000000000e+00,5.000000000000000000e+00,2.465116739273071289e+00,2.445965290069580078e+00,2.483759880065917969e+00,5.000000000000000000e+00,5.000000000000000000e+00,5.000000000000000000e+00,5.000000000000000000e+00,4.865129470825195312e+00,4.673924922943115234e+00,4.497181415557861328e+00,4.333317756652832031e+00,4.180975437164306641e+00,4.038980960845947266e+00,3.906314849853515625e+00,3.782086849212646484e+00,3.665516138076782227e+00,3.555917024612426758e+00,3.452681064605712891e+00,3.355270624160766602e+00,3.263205766677856445e+00,3.176058530807495117e+00,3.093444585800170898e+00,3.015019655227661133e+00,2.940472841262817383e+00,2.869523525238037109e+00,2.801917076110839844e+00,2.737423181533813477e+00,2.675831556320190430e+00,2.616950511932373047e+00,2.560604810714721680e+00,2.506634712219238281e+00,2.454892158508300781e+00,2.405242919921875000e+00,2.357562303543090820e+00,2.311735153198242188e+00,2.267655372619628906e+00,2.225225448608398438e+00,2.184354305267333984e+00,2.144957304000854492e+00,2.106956243515014648e+00,2.070277929306030273e+00,2.034855127334594727e+00,2.000624179840087891e+00,1.967525839805603027e+00,1.935504674911499023e+00,1.904509067535400391e+00,1.874490618705749512e+00,1.845403790473937988e+00
5.000000000000000000e+00,5.000000000000000000e+00,5.000000000000000000e+00,5.000000000000000000e+00,5.000000000000000000e+00,5.000000000000000000e+00,5.000000000000000000e+00,5.000000000000000000e+00,5.000000000000000000e+00,5.000000000000000000e+00,5.000000000000000000e+00,5.000000000000000000e+00,5.000000000000000000e+00,5.000000000000000000e+00,5.000000000000000000e+00,5.000000000000000000e+00,5.000000000000000000e+00,5.000000000000000000e+00,5.000000000000000000e+00,5.000000000000000000e+00,5.000000000000000000e+00,5.000000000000000000e+00,5.000000000000000000e+00,5.000000000000000000e+00,5.000000000000000000e+00,5.000000000000000000e+00,5.000000000000000000e+00,5.000000000000000000e+00,5.000000000000000000e+00,5.000000000000000000e+00,5.000000000000000000e+00,5.000000000000000000e+00,2.466349363327026367e+00,2.452834367752075195e+00,2.744342803955078125e+00,5.000000000000000000e+00,5.000000000000000000e+00,5.000000000000000000e+00,5.000000000000000000e+00,4.865267753601074219e+00,4.674052715301513672e+00,4.497299671173095703e+00,4.333427906036376953e+00,4.181077957153320312e+00,4.039076805114746094e+00,3.906404495239257812e+00,3.782170295715332031e+00,3.665595054626464844e+00,3.555990695953369141e+00,3.452750921249389648e+00,3.355336427688598633e+00,3.263268232345581055e+00,3.176117420196533203e+00,3.093500614166259766e+00,3.015072822570800781e+00,2.940523624420166016e+00,2.869571685791015625e+00,2.801963329315185547e+00,2.737467050552368164e+00,2.675873517990112305e+00,2.616990566253662109e+00,2.560643434524536133e+00,2.506671428680419922e+00,2.454927682876586914e+00,2.405276775360107422e+00,2.357594728469848633e+00,2.311766386032104492e+00,2.267685651779174805e+00,2.225254535675048828e+00,2.184382200241088867e+00,2.144984006881713867e+00,2.106982231140136719e+00,2.070302963256835938e+00,2.034879446029663086e+00,2.000647544860839844e+00,1.967548370361328125e+00,1.935526609420776367e+00,1.904530405998229980e+00,1.874511122703552246e+00,1.845423698425292969e+00
5.000000000000000000e+00,5.000000000000000000e+00,5.000000000000000000e+00,5.000000000000000000e+00,5.000000000000000000e+00,5.000000000000000000e+00,5.000000000000000000e+00,5.000000000000000000e+00,5.000000000000000000e+00,5.000000000000000000e+00,5.000000000000000000e+00,5.000000000000000000e+00,5.000000000000000000e+00,5.000000000000000000e+00,5.000000000000000000e+00,5.000000000000000000e+00,5.000000000000000000e+00,5.000000000000000000e+00,5.000000000000000000e+00,5.000000000000000000e+00,5.000000000000000000e+00,5.000000000000000000e+00,5.000000000000000000e+00,5.000000000000000000e+00,5.000000000000000000e+00,5.000000000000000000e+00,5.000000000000000000e+00,5.000000000000000000e+00,5.000000000000000000e+00,5.000000000000000000e+00,5.000000000000000000e+00,5.000000000000000000e+00,2.468853950500488281e+00,2.460159778594970703e+00,2.757220506668090820e+00,5.000000000000000000e+00,5.000000000000000000e+00,5.000000000000000000e+00,5.000000000000000000e+00,4.865406513214111328e+00,4.674180984497070312e+00,4.497418403625488281e+00,4.333537578582763672e+00,4.181180477142333984e+00,4.039172172546386719e+00,3.906493663787841797e+00,3.782254457473754883e+00,3.665673494338989258e+00,3.556065082550048828e+00,3.452820777893066406e+00,3.355402469635009766e+00,3.263330459594726562e+00,3.176176548004150391e+00,3.093556642532348633e+00,3.015126228332519531e+00,2.940574169158935547e+00,2.869620084762573242e+00,2.802009105682373047e+00,2.737511157989501953e+00,2.675915479660034180e+00,2.617030858993530273e+00,2.560681581497192383e+00,2.506708145141601562e+00,2.454962730407714844e+00,2.405310869216918945e+00,2.357627391815185547e+00,2.311797618865966797e+00,2.267715692520141602e+00,2.225283622741699219e+00,2.184410095214843750e+00,2.145011186599731445e+00,2.107007980346679688e+00,2.070328235626220703e+00,2.034903764724731445e+00,2.000671148300170898e+00,1.967571020126342773e+00,1.935548424720764160e+00,1.904551625251770020e+00,1.874531865119934082e+00,1.845443606376647949e+00
5.000000000000000000e+00,5.000000000000000000e+00,5.000000000000000000e+00,5.000000000000000000e+00,5.000000000000000000e+00,5.000000000000000000e+00,5.000000000000000000e+00,5.000000000000000000e+00,5.000000000000000000e+00,5.000000000000000000e+00,5.000000000000000000e+00,5.000000000000000000e+00,5.000000000000000000e+00,5.000000000000000000e+00,5.000000000000000000e+00,5.000000000000000000e+00,5.000000000000000000e+00,5.000000000000000000e+00,5.000000000000000000e+00,5.000000000000000000e+00,5.000000000000000000e+00,5.000000000000000000e+00,5.000000000000000000e+00,5.000000000000000000e+00,5.000000000000000000e+00,5.000000000000000000e+00,5.000000000000000000e+00,5.000000000000000000e+00,5.000000000000000000e+00,5.000000000000000000e+00,5.000000000000000000e+00,2.888577938079833984e+00,2.471060276031494141e+00,2.463141441345214844e+00,5.000000000000000000e+00,5.000000000000000000e+00,5.000000000000000000e+00,5.000000000000000000e+00,5.000000000000000000e+00,4.865544319152832031e+00,4.674308776855468750e+00,4.497536659240722656e+00,4.333647727966308594e+00,4.181282997131347656e+00,4.039267539978027344e+00,3.906583070755004883e+00,3.782337903976440430e+00,3.665752410888671875e+00,3.556138992309570312e+00,3.452890634536743164e+00,3.355468273162841797e+00,3.263392925262451172e+00,3.176235675811767578e+00,3.093612909317016602e+00,3.015179395675659180e+00,2.940624952316284180e+00,2.869668006896972656e+00,2.802055358886718750e+00,2.737554788589477539e+00,2.675957441329956055e+00,2.617070674896240234e+00,2.560720205307006836e+00,2.506744861602783203e+00,2.454998254776000977e+00,2.405344486236572266e+00,2.357660055160522461e+00,2.311828851699829102e+00,2.267745971679687500e+00,2.225312471389770508e+00,2.184437990188598633e+00,2.145037889480590820e+00,2.107034206390380859e+00,2.070353269577026367e+00,2.034928083419799805e+00,2.000694513320922852e+00,1.967593908309936523e+00,1.935570359230041504e+00,1.904572844505310059e+00,1.874552369117736816e+00,1.845463633537292480e+00
5.000000000000000000e+00,5.000000000000000000e+00,5.000000000000000000e+00,5.000000000000000000e+00,5.000000000000000000e+00,5.000000000000000000e+00,5.000000000000000000e+00,5.000000000000000000e+00,5.000000000000000000e+00,5.000000000000000000e+00,5.000000000000000000e+00,5.000000000000000000e+00,5.000000000000000000e+00,5.000000000000000000e+00,5.000000000000000000e+00,5.000000000000000000e+00,5.000000000000000000e+00,5.000000000000000000e+00,5.000000000000000000e+00,5.000000000000000000e+00,5.000000000000000000e+00,5.000000000000000000e+00,5.000000000000000000e+00,5.000000000000000000e+00,5.000000000000000000e+00,5.000000000000000000e+00,5.000000000000000000e+00,5.000000000000000000e+00,5.000000000000000000e+00,5.000000000000000000e+00,5.000000000000000000e+00,2.849229335784912109e+00,2.472314596176147461e+00,2.456450462341308594e+00,5.000000000000000000e+00,5.000000000000000000e+00,5.000000000000000000e+00,5.000000000000000000e+00,5.000000000000000000e+00,4.865683078765869141e+00,4.674435615539550781e+00,4.497655391693115234e+00,4.333757877349853516e+00,4.181385040283203125e+00,4.039363384246826172e+00,3.906672239303588867e+00,3.782421827316284180e+00,3.665830850601196289e+00,3.556213140487670898e+00,3.452960252761840820e+00,3.355534553527832031e+00,3.263455152511596680e+00,3.176294803619384766e+00,3.093668699264526367e+00,3.015232563018798828e+00,2.940675497055053711e+00,2.869716405868530273e+00,2.802101135253906250e+00,2.737598896026611328e+00,2.675999402999877930e+00,2.617110967636108398e+00,2.560758352279663086e+00,2.506781816482543945e+00,2.455033540725708008e+00,2.405378580093383789e+00,2.357692480087280273e+00,2.311860322952270508e+00,2.267776012420654297e+00,2.225341558456420898e+00,2.184465885162353516e+00,2.145065069198608398e+00,2.107059955596923828e+00,2.070378541946411133e+00,2.034952163696289062e+00,2.000717878341674805e+00,1.967616438865661621e+00,1.935592412948608398e+00,1.904593944549560547e+00,1.874572873115539551e+00,1.845483541488647461e+00
5.000000000000000000e+00,5.000000000000000000e+00,5.000000000000000000e+00,5.000000000000000000e+00,5.000000000000000000e+00,5.000000000000000000e+00,5.000000000000000000e+00,5.000000000000000000e+00,5.000000000000000000e+00,5.000000000000000000e+00,5.000000000000000000e+00,5.000000000000000000e+00,5.000000000000000000e+00,5.000000000000000000e+00,5.000000000000000000e+00,5.000000000000000000e+00,5.000000000000000000e+00,5.000000000000000000e+00,5.000000000000000000e+00,5.000000000000000000e+00,5.000000000000000000e+00,5.000000000000000000e+00,5.000000000000000000e+00,5.000000000000000000e+00,5.000000000000000000e+00,5.000000000000000000e+00,5.000000000000000000e+00,5.000000000000000000e+00,5.000000000000000000e+00,5.000000000000000000e+00,5.000000000000000000e+00,2.851822376251220703e+00,2.473582506179809570e+00,2.450176239013671875e+00,2.492554903030395508e+00,5.000000000000000000e+00,5.000000000000000000e+00,5.000000000000000000e+00,5.000000000000000000e+00,4.865822315216064453e+00,4.674563884735107422e+00,4.497773647308349609e+00,4.333867549896240234e+00,4.181487560272216797e+00,4.039458751678466797e+00,3.906761884689331055e+00,3.782505512237548828e+00,3.665909767150878906e+00,3.556287050247192383e+00,3.453030347824096680e+00,3.355600118637084961e+00,3.263517856597900391e+00,3.176353693008422852e+00,3.093724966049194336e+00,3.015285730361938477e+00,2.940726280212402344e+00,2.869764566421508789e+00,2.802147150039672852e+00,2.737642526626586914e+00,2.676041364669799805e+00,2.617151021957397461e+00,2.560796976089477539e+00,2.506818532943725586e+00,2.455068826675415039e+00,2.405412435531616211e+00,2.357725143432617188e+00,2.311891555786132812e+00,2.267806053161621094e+00,2.225370407104492188e+00,2.184494018554687500e+00,2.145091772079467773e+00,2.107086181640625000e+00,2.070403575897216797e+00,2.034976482391357422e+00,2.000741243362426758e+00,1.967639088630676270e+00,1.935614347457885742e+00,1.904615402221679688e+00,1.874593496322631836e+00,1.845503449440002441e+00
5.000000000000000000e+00,5.000000000000000000e+00,5.000000000000000000e+00,5.000000000000000000e+00,5.000000000000000000e+00,5.000000000000000000e+00,5.000000000000000000e+00,5.000000000000000000e+00,5.000000000000000000e+00,5.000000000000000000e+00,5.000000000000000000e+00,5.000000000000000000e+00,5.000000000000000000e+00,5.000000000000000000e+00,5.000000000000000000e+00,5.000000000000000000e+00,5.000000000000000000e+00,5.000000000000000000e+00,5.000000000000000000e+00,5.000000000000000000e+00,5.000000000000000000e+00,5.000000000000000000e+00,5.000000000000000000e+00,5.000000000000000000e+00,5.000000000000000000e+00,5.000000000000000000e+00,5.000000000000000000e+00,5.000000000000000000e+00,5.000000000000000000e+00,5.000000000000000000e+00,5.000000000000000000e+00,2.856903314590454102e+00,2.474851608276367188e+00,2.449209928512573242e+00,2.479237318038940430e+00,5.000000000000000000e+00,5.000000000000000000e+00,5.000000000000000000e+00,5.000000000000000000e+00,4.865960597991943359e+00,4.674692153930664062e+00,4.497891426086425781e+00,4.333977699279785156e+00,4.181590080261230469e+00,4.039554595947265625e+00,3.906851053237915039e+00,3.782589435577392578e+00,3.665988206863403320e+00,3.556361198425292969e+00,3.453099966049194336e+00,3.355666399002075195e+00,3.263579845428466797e+00,3.176413059234619141e+00,3.093780755996704102e+00,3.015339136123657227e+00,2.940776586532592773e+00,2.869812965393066406e+00,2.802193164825439453e+00,2.737686634063720703e+00,2.676083087921142578e+00,2.617191314697265625e+00,2.560835123062133789e+00,2.506855487823486328e+00,2.455104112625122070e+00,2.405446290969848633e+00,2.357757568359375000e+00,2.311922788619995117e+00,2.267836093902587891e+00,2.225399494171142578e+00,2.184521913528442383e+00,2.145118951797485352e+00,2.107112169265747070e+00,2.070428609848022461e+00,2.035000801086425781e+00,2.000764846801757812e+00,1.967661738395690918e+00,1.935636281967163086e+00,1.904636621475219727e+00,1.874614119529724121e+00,1.845523357391357422e+00
5.000000000000000000e+00,5.000000000000000000e+00,5.000000000000000000e+00,5.000000000000000000e+00,5.000000000000000000e+00,5.000000000000000000e+00,5.000000000000000000e+00,5.000000000000000000e+00,5.000000000000000000e+00,5.000000000000000000e+00,5.000000000000000000e+00,5.000000000000000000e+00,5.000000000000000000e+00,5.000000000000000000e+00,5.000000000000000000e+00,5.000000000000000000e+00,5.000000000000000000e+00,5.000000000000000000e+00,5.000000000000000000e+00,5.000000000000000000e+00,5.000000000000000000e+00,5.000000000000000000e+00,5.000000000000000000e+00,5.000000000000000000e+00,5.000000000000000000e+00,5.000000000000000000e+00,5.000000000000000000e+00,5.000000000000000000e+00,5.000000000000000000e+00,5.000000000000000000e+00,5.000000000000000000e+00,2.868060588836669922e+00,2.477513790130615234e+00,2.447808504104614258e+00,2.467370271682739258e+00,5.000000000000000000e+00,5.000000000000000000e+00,5.000000000000000000e+00,5.000000000000000000e+00,4.866099834442138672e+00,4.674820423126220703e+00,4.498010158538818359e+00,4.334086894989013672e+00,4.181692123413085938e+00,4.039649963378906250e+00,3.906940698623657227e+00,3.782673120498657227e+00,3.666067123413085938e+00,3.556435108184814453e+00,3.453170061111450195e+00,3.355732202529907227e+00,3.263642549514770508e+00,3.176471948623657227e+00,3.093837022781372070e+00,3.015392303466796875e+00,2.940827369689941406e+00,2.869860887527465820e+00,2.802239179611206055e+00,2.737730503082275391e+00,2.676125288009643555e+00,2.617231130599975586e+00,2.560873746871948242e+00,2.506892204284667969e+00,2.455139398574829102e+00,2.405480146408081055e+00,2.357790231704711914e+00,2.311954021453857422e+00,2.267866373062133789e+00,2.225428581237792969e+00,2.184549808502197266e+00,2.145145654678344727e+00,2.107138156890869141e+00,2.070453643798828125e+00,2.035025119781494141e+00,2.000788211822509766e+00,1.967684507369995117e+00,1.935658097267150879e+00,1.904657840728759766e+00,1.874634742736816406e+00,1.845543503761291504e+00
5.000000000000000000e+00,5.000000000000000000e+00,5.000000000000000000e+00,5.000000000000000000e+00,5.000000000000000000e+00,5.000000000000000000e+00,5.000000000000000000e+00,5.000000000000000000e+00,5.000000000000000000e+00,5.000000000000000000e+00,5.000000000000000000e+00,5.000000000000000000e+00,5.000000000000000000e+00,5.000000000000000000e+00,5.000000000000000000e+00,5.000000000000000000e+00,5.000000000000000000e+00,5.000000000000000000e+00,5.000000000000000000e+00,5.000000000000000000e+00,5.000000000000000000e+00,5.000000000000000000e+00,5.000000000000000000e+00,5.000000000000000000e+00,5.000000000000000000e+00,5.000000000000000000e+00,5.000000000000000000e+00,5.000000000000000000e+00,5.000000000000000000e+00,5.000000000000000000e+00,5.000000000000000000e+00,2.885244369506835938e+00,2.505374670028686523e+00,2.449140787124633789e+00,2.455616474151611328e+00,5.000000000000000000e+00,5.000000000000000000e+00,5.000000000000000000e+00,5.000000000000000000e+00,4.866238594055175781e+00,4.674948692321777344e+00,4.498128890991210938e+00,4.334197044372558594e+00,4.181794166564941406e+00,4.039745330810546875e+00,3.907029867172241211e+00,3.782757043838500977e+00,3.666145801544189453e+00,3.556509494781494141e+00,3.453239679336547852e+00,3.355798244476318359e+00,3.263704776763916016e+00,3.176531076431274414e+00,3.093892812728881836e+00,3.015445709228515625e+00,2.940877914428710938e+00,2.869909286499023438e+00,2.802284955978393555e+00,2.737774372100830078e+00,2.676167011260986328e+00,2.617271423339843750e+00,2.560912132263183594e+00,2.506928920745849609e+00,2.455174684524536133e+00,2.405514001846313477e+00,2.357822656631469727e+00,2.311985492706298828e+00,2.267896413803100586e+00,2.225457429885864258e+00,2.184577703475952148e+00,2.145172834396362305e+00,2.107164144515991211e+00,2.070478916168212891e+00,2.035049200057983398e+00,2.000811576843261719e+00,1.967707157135009766e+00,1.935680270195007324e+00,1.904678940773010254e+00,1.874655246734619141e+00,1.845563411712646484e+00
4.874402523040771484e+00,4.873204708099365234e+00,4.872007369995117188e+00,4.870810508728027344e+00,4.869614601135253906e+00,4.868419170379638672e+00,4.867224216461181641e+00,4.866029739379882812e+00,4.864836215972900391e+00,4.863643169403076172e+00,4.862450122833251953e+00,4.861258506774902344e+00,4.860066890716552734e+00,4.858876228332519531e+00,4.857686042785644531e+00,4.856496334075927734e+00,4.855307579040527344e+00,4.854118824005126953e+00,4.852931022644042969e+00,4.851743698120117188e+00,4.850556850433349609e+00,4.849370956420898438e+00,4.848185062408447266e+00,4.847000122070312500e+00,4.845816135406494141e+00,4.844632148742675781e+00,4.843449115753173828e+00,4.842266082763671875e+00,4.841084003448486328e+00,4.839902877807617188e+00,2.949228763580322266e+00,2.920491218566894531e+00,4.836361408233642578e+00,2.452089309692382812e+00,2.451173543930053711e+00,4.832825183868408203e+00,4.831647872924804688e+00,4.830471038818359375e+00,4.829294681549072266e+00,4.828118801116943359e+00,4.675076961517333984e+00,4.498247623443603516e+00,4.334307193756103516e+00,4.181896686553955078e+00,4.039841175079345703e+00,3.907119512557983398e+00,3.782840728759765625e+00,3.666224718093872070e+00,3.556583166122436523e+00,3.453309535980224609e+00,3.355864048004150391e+00,3.263767242431640625e+00,3.176590204238891602e+00,3.093949079513549805e+00,3.015498876571655273e+00,2.940928697586059570e+00,2.869957447052001953e+00,2.802331209182739258e+00,2.737818241119384766e+00,2.676208972930908203e+00,2.617311477661132812e+00,2.560950517654418945e+00,2.506965637207031250e+00,2.455209970474243164e+00,2.405547857284545898e+00,2.357855319976806641e+00,2.312016725540161133e+00,2.267926692962646484e+00,2.225486516952514648e+00,2.184605836868286133e+00,2.145199537277221680e+00,2.107190132141113281e+00,2.070503950119018555e+00,2.035073518753051758e+00,2.000835180282592773e+00,1.967729806900024414e+00,1.935702085494995117e+00,1.904700398445129395e+00,1.874675750732421875e+00,1.845583319664001465e+00
3.777410984039306641e+00,3.776691675186157227e+00,3.775972366333007812e+00,3.775253534317016602e+00,3.774535179138183594e+00,3.773816823959350586e+00,3.773098707199096680e+00,3.772381067276000977e+00,3.771663665771484375e+00,3.770946264266967773e+00,3.770229101181030273e+00,3.769512414932250977e+00,3.768795967102050781e+00,3.768079996109008789e+00,3.767364025115966797e+00,3.766648530960083008e+00,3.765933275222778320e+00,3.765218257904052734e+00,3.764503479003906250e+00,3.763788938522338867e+00,3.763074874877929688e+00,3.762360811233520508e+00,3.761647224426269531e+00,3.760933876037597656e+00,3.760220766067504883e+00,3.759507894515991211e+00,3.758795261383056641e+00,3.758083105087280273e+00,3.757370948791503906e+00,3.756659269332885742e+00,2.934624671936035156e+00,2.886332511901855469e+00,3.754525184631347656e+00,2.459146738052368164e+00,2.423305273056030273e+00,3.752393960952758789e+00,3.751683950424194336e+00,3.750974416732788086e+00,3.750265121459960938e+00,3.749556064605712891e+00,3.748847246170043945e+00,3.748138666152954102e+00,3.747430324554443359e+00,3.746722459793090820e+00,3.746014595031738281e+00,3.745307207107543945e+00,3.744600057601928711e+00,3.666303157806396484e+00,3.556657552719116211e+00,3.453379392623901367e+00,3.355930089950561523e+00,3.263829469680786133e+00,3.176649332046508789e+00,3.094005107879638672e+00,3.015552043914794922e+00,2.940979242324829102e+00,2.870005846023559570e+00,2.802376985549926758e+00,2.737862110137939453e+00,2.676250934600830078e+00,2.617351770401000977e+00,2.560988903045654297e+00,2.507002592086791992e+00,2.455245256423950195e+00,2.405581951141357422e+00,2.357887744903564453e+00,2.312047958374023438e+00,2.267956733703613281e+00,2.225515604019165039e+00,2.184633731842041016e+00,2.145226716995239258e+00,2.107216119766235352e+00,2.070528984069824219e+00,2.035097837448120117e+00,2.000858545303344727e+00,1.967752456665039062e+00,1.935724020004272461e+00,1.904721617698669434e+00,1.874696493148803711e+00,1.845603227615356445e+00
3.083471298217773438e+00,3.082991838455200195e+00,3.082512617111206055e+00,3.082033634185791016e+00,3.081554651260375977e+00,3.081075906753540039e+00,3.080597400665283203e+00,3.080118894577026367e+00,3.079640626907348633e+00,3.079162359237670898e+00,3.078684091567993164e+00,3.078206062316894531e+00,3.077728509902954102e+00,3.077250957489013672e+00,3.076773405075073242e+00,3.076296091079711914e+00,3.075819015502929688e+00,3.075341939926147461e+00,3.074865102767944336e+00,3.074388504028320312e+00,3.073911905288696289e+00,3.073435544967651367e+00,3.072959184646606445e+00,3.072483062744140625e+00,3.072007179260253906e+00,3.071531295776367188e+00,3.071055650711059570e+00,3.070580244064331055e+00,3.070104837417602539e+00,3.069629669189453125e+00,3.069154262542724609e+00,2.804460763931274414e+00,2.869432210922241211e+00,2.431262016296386719e+00,2.333530187606811523e+00,2.308782577514648438e+00,3.066307067871093750e+00,3.065833091735839844e+00,3.065359115600585938e+00,3.064885377883911133e+00,3.064411878585815430e+00,3.063938379287719727e+00,3.063465118408203125e+00,3.062991857528686523e+00,3.062518835067749023e+00,3.062046051025390625e+00,3.061573266983032227e+00,3.061100721359252930e+00,3.060628175735473633e+00,3.060155630111694336e+00,3.059683561325073242e+00,3.059211492538452148e+00,3.058739662170410156e+00,3.058268070220947266e+00,3.015605211257934570e+00,2.941030025482177734e+00,2.870054006576538086e+00,2.802423238754272461e+00,2.737905979156494141e+00,2.676292896270751953e+00,2.617391586303710938e+00,2.561027288436889648e+00,2.507039308547973633e+00,2.455280542373657227e+00,2.405615568161010742e+00,2.357920408248901367e+00,2.312079191207885742e+00,2.267986774444580078e+00,2.225544452667236328e+00,2.184661626815795898e+00,2.145253658294677734e+00,2.107242107391357422e+00,2.070554018020629883e+00,2.035121917724609375e+00,2.000881910324096680e+00,1.967775225639343262e+00,1.935745835304260254e+00,1.904742717742919922e+00,1.874716997146606445e+00,1.845623254776000977e+00
2.604926109313964844e+00,2.604583978652954102e+00,2.604241847991943359e+00,2.603899955749511719e+00,2.603558063507080078e+00,2.603216171264648438e+00,2.602874517440795898e+00,2.602533102035522461e+00,2.602191448211669922e+00,2.601850032806396484e+00,2.601508617401123047e+00,2.601167440414428711e+00,2.600826263427734375e+00,2.600485086441040039e+00,2.600144147872924805e+00,2.599803447723388672e+00,2.599462509155273438e+00,2.599121809005737305e+00,2.598781108856201172e+00,2.598440647125244141e+00,2.598100185394287109e+00,2.597759962081909180e+00,2.597419738769531250e+00,2.597079515457153320e+00,2.596739530563354492e+00,2.596399545669555664e+00,2.596059560775756836e+00,2.595719814300537109e+00,2.595380067825317383e+00,2.595040559768676758e+00,2.594700813293457031e+00,2.594361305236816406e+00,2.594022035598754883e+00,2.593682765960693359e+00,2.593343496322631836e+00,2.593004465103149414e+00,2.592665433883666992e+00,2.592326641082763672e+00,2.591987609863281250e+00,2.591649055480957031e+00,2.591310262680053711e+00,2.590971708297729492e+00,2.590633392333984375e+00,2.590294837951660156e+00,2.589956521987915039e+00,2.589618444442749023e+00,2.589280366897583008e+00,2.588942289352416992e+00,2.588604450225830078e+00,2.588266372680664062e+00,2.587928533554077148e+00,2.587590932846069336e+00,2.587253332138061523e+00,2.586915731430053711e+00,2.586578369140625000e+00,2.586241006851196289e+00,2.585903882980346680e+00,2.585566759109497070e+00,2.585229635238647461e+00,2.584892749786376953e+00,2.584555864334106445e+00,2.561065673828125000e+00,2.507076263427734375e+00,2.455315828323364258e+00,2.405649662017822266e+00,2.357952833175659180e+00,2.312110662460327148e+00,2.268016815185546875e+00,2.225573539733886719e+00,2.184689521789550781e+00,2.145280599594116211e+00,2.107268095016479492e+00,2.070579290390014648e+00,2.035146236419677734e+00,2.000905513763427734e+00,1.967797875404357910e+00,1.935768008232116699e+00,1.904763936996459961e+00,1.874737501144409180e+00,1.845643162727355957e+00
2.254999637603759766e+00,2.254741668701171875e+00,2.254483699798583984e+00,2.254225730895996094e+00,2.253968000411987305e+00,2.253710269927978516e+00,2.253452539443969727e+00,2.253194808959960938e+00,2.252937078475952148e+00,2.252679586410522461e+00,2.252422094345092773e+00,2.252164840698242188e+00,2.251907348632812500e+00,2.251650094985961914e+00,2.251392602920532227e+00,2.251135587692260742e+00,2.250878572463989258e+00,2.250621318817138672e+00,2.250364303588867188e+00,2.250107288360595703e+00,2.249850273132324219e+00,2.249593496322631836e+00,2.249336957931518555e+00,2.249080657958984375e+00,2.248825550079345703e+00,2.248570680618286133e+00,2.248315811157226562e+00,2.248060941696166992e+00,2.247806072235107422e+00,2.247551202774047852e+00,2.247296571731567383e+00,2.247041940689086914e+00,2.246787309646606445e+00,2.246532678604125977e+00,2.246278285980224609e+00,2.246023893356323242e+00,2.245769500732421875e+00,2.245515108108520508e+00,2.245260953903198242e+00,2.245006799697875977e+00,2.244752645492553711e+00,2.244498491287231445e+00,2.244244575500488281e+00,2.243990659713745117e+00,2.243736743927001953e+00,2.243482828140258789e+00,2.243229150772094727e+00,2.242975473403930664e+00,2.242721796035766602e+00,2.242468118667602539e+00,2.242214441299438477e+00,2.241961002349853516e+00,2.241707563400268555e+00,2.241454124450683594e+00,2.241200923919677734e+00,2.240947723388671875e+00,2.240694522857666016e+00,2.240441322326660156e+00,2.240188121795654297e+00,2.239935159683227539e+00,2.239682197570800781e+00,2.239429235458374023e+00,2.239176511764526367e+00,2.238923549652099609e+00,2.238670825958251953e+00,2.238418102264404297e+00,2.238165616989135742e+00,2.237912893295288086e+00,2.225602388381958008e+00,2.184717655181884766e+00,2.145307540893554688e+00,2.107294082641601562e+00,2.070604324340820312e+00,2.035170555114746094e+00,2.000928878784179688e+00,1.967820525169372559e+00,1.935789942741394043e+00,1.904785394668579102e+00,1.874758124351501465e+00,1.845663070678710938e+00
1.988024830818176270e+00,1.987824320793151855e+00,1.987623691558837891e+00,1.987423300743103027e+00,1.987223029136657715e+00,1.987022519111633301e+00,1.986822247505187988e+00,1.986621856689453125e+00,1.986421585083007812e+00,1.986221313476562500e+00,1.986021161079406738e+00,1.985821127891540527e+00,1.985620975494384766e+00,1.985420942306518555e+00,1.985220789909362793e+00,1.985020875930786133e+00,1.984821081161499023e+00,1.984621047973632812e+00,1.984421253204345703e+00,1.984221339225769043e+00,1.984021544456481934e+00,1.983821749687194824e+00,1.983622193336486816e+00,1.983422517776489258e+00,1.983222842216491699e+00,1.983023285865783691e+00,1.982823610305786133e+00,1.982624292373657227e+00,1.982424855232238770e+00,1.982225298881530762e+00,1.982026100158691406e+00,1.981826543807983398e+00,1.981627345085144043e+00,1.981428027153015137e+00,1.981228828430175781e+00,1.981029748916625977e+00,1.980830430984497070e+00,1.980631470680236816e+00,1.980432271957397461e+00,1.980233311653137207e+00,1.980034470558166504e+00,1.979835391044616699e+00,1.979636549949645996e+00,1.979437589645385742e+00,1.979238867759704590e+00,1.979040145874023438e+00,1.978841304779052734e+00,1.978642702102661133e+00,1.978443861007690430e+00,1.978245377540588379e+00,1.978046655654907227e+00,1.977848172187805176e+00,1.977649807929992676e+00,1.977451205253601074e+00,1.977252840995788574e+00,1.977054357528686523e+00,1.976856112480163574e+00,1.976657867431640625e+00,1.976459503173828125e+00,1.976261377334594727e+00,1.976063013076782227e+00,1.975865006446838379e+00,1.975666761398315430e+00,1.975468754768371582e+00,1.975270867347717285e+00,1.975072741508483887e+00,1.974874854087829590e+00,1.974676847457885742e+00,1.974479079246520996e+00,1.974281311035156250e+00,1.974083423614501953e+00,1.973885774612426758e+00,1.973687887191772461e+00,1.973490357398986816e+00,1.973292827606201172e+00,1.967843055725097656e+00,1.935811758041381836e+00,1.904806613922119141e+00,1.874778866767883301e+00,1.845682978630065918e+00
1.777573585510253906e+00,1.777413368225097656e+00,1.777252912521362305e+00,1.777092695236206055e+00,1.776932597160339355e+00,1.776772260665893555e+00,1.776612162590026855e+00,1.776451826095581055e+00,1.776291728019714355e+00,1.776131510734558105e+00,1.775971531867980957e+00,1.775811553001403809e+00,1.775651454925537109e+00,1.775491595268249512e+00,1.775331497192382812e+00,1.775171637535095215e+00,1.775011777877807617e+00,1.774851799011230469e+00,1.774692058563232422e+00,1.774532079696655273e+00,1.774372458457946777e+00,1.774212479591369629e+00,1.774052858352661133e+00,1.773893237113952637e+00,1.773733496665954590e+00,1.773573875427246094e+00,1.773414134979248047e+00,1.773254632949829102e+00,1.773095130920410156e+00,1.772935509681701660e+00,1.772776126861572266e+00,1.772616505622863770e+00,1.772457122802734375e+00,1.772297620773315430e+00,1.772138357162475586e+00,1.771978974342346191e+00,1.771819591522216797e+00,1.771660327911376953e+00,1.771500945091247559e+00,1.771341800689697266e+00,1.771182656288146973e+00,1.771023392677307129e+00,1.770864248275756836e+00,1.770704984664916992e+00,1.770545959472656250e+00,1.770387053489685059e+00,1.770227789878845215e+00,1.770068883895874023e+00,1.769909858703613281e+00,1.769750952720642090e+00,1.769591927528381348e+00,1.769433021545410156e+00,1.769274234771728516e+00,1.769115328788757324e+00,1.768956542015075684e+00,1.768797636032104492e+00,1.768638968467712402e+00,1.768480300903320312e+00,1.768321514129638672e+00,1.768162965774536133e+00,1.768004179000854492e+00,1.767845630645751953e+00,1.767686963081359863e+00,1.767528414726257324e+00,1.767369985580444336e+00,1.767211318016052246e+00,1.767053008079528809e+00,1.766894459724426270e+00,1.766736030578613281e+00,1.766577720642089844e+00,1.766419291496276855e+00,1.766261100769042969e+00,1.766102671623229980e+00,1.765944480895996094e+00,1.765786290168762207e+00,1.765627980232238770e+00,1.765469908714294434e+00,1.765311598777770996e+00,1.765153527259826660e+00,1.764995336532592773e+00
1.607413649559020996e+00,1.607282638549804688e+00,1.607151389122009277e+00,1.607020497322082520e+00,1.606889486312866211e+00,1.606758356094360352e+00,1.606627345085144043e+00,1.606496334075927734e+00,1.606365442276000977e+00,1.606234431266784668e+00,1.606103539466857910e+00,1.605972647666931152e+00,1.605841755867004395e+00,1.605710983276367188e+00,1.605579972267150879e+00,1.605449318885803223e+00,1.605318546295166016e+00,1.605187654495239258e+00,1.605057001113891602e+00,1.604926228523254395e+00,1.604795575141906738e+00,1.604664802551269531e+00,1.604534149169921875e+00,1.604403614997863770e+00,1.604272842407226562e+00,1.604142308235168457e+00,1.604011654853820801e+00,1.603881239891052246e+00,1.603750705718994141e+00,1.603620052337646484e+00,1.603489637374877930e+00,1.603359103202819824e+00,1.603228688240051270e+00,1.603098154067993164e+00,1.602967858314514160e+00,1.602837562561035156e+00,1.602707028388977051e+00,1.602576851844787598e+00,1.602446436882019043e+00,1.602316141128540039e+00,1.602185964584350586e+00,1.602055549621582031e+00,1.601925373077392578e+00,1.601795077323913574e+00,1.601665019989013672e+00,1.601534843444824219e+00,1.601404666900634766e+00,1.601274490356445312e+00,1.601144313812255859e+00,1.601014375686645508e+00,1.600884199142456055e+00,1.600754141807556152e+00,1.600624203681945801e+00,1.600494146347045898e+00,1.600364208221435547e+00,1.600234150886535645e+00,1.600104331970214844e+00,1.599974393844604492e+00,1.599844336509704590e+00,1.599714517593383789e+00,1.599584579467773438e+00,1.599454879760742188e+00,1.599324941635131836e+00,1.599195241928100586e+00,1.599065542221069336e+00,1.598935604095458984e+00,1.598806023597717285e+00,1.598676204681396484e+00,1.598546624183654785e+00,1.598416924476623535e+00,1.598287224769592285e+00,1.598157644271850586e+00,1.598027944564819336e+00,1.597898483276367188e+00,1.597768902778625488e+00,1.597639322280883789e+00,1.597509860992431641e+00,1.597380280494689941e+00,1.597250819206237793e+00,1.597121357917785645e+00
1.466985106468200684e+00,1.466875910758972168e+00,1.466766715049743652e+00,1.466657519340515137e+00,1.466548442840576172e+00,1.466439247131347656e+00,1.466330170631408691e+00,1.466220974922180176e+00,1.466112017631530762e+00,1.466002821922302246e+00,1.465893864631652832e+00,1.465784788131713867e+00,1.465675711631774902e+00,1.465566754341125488e+00,1.465457677841186523e+00,1.465348720550537109e+00,1.465239882469177246e+00,1.465130805969238281e+00,1.465021967887878418e+00,1.464913010597229004e+00,1.464804172515869141e+00,1.464695215225219727e+00,1.464586377143859863e+00,1.464477539062500000e+00,1.464368700981140137e+00,1.464259862899780273e+00,1.464151024818420410e+00,1.464042305946350098e+00,1.463933587074279785e+00,1.463824748992919922e+00,1.463716030120849609e+00,1.463607311248779297e+00,1.463498592376708984e+00,1.463389873504638672e+00,1.463281273841857910e+00,1.463172674179077148e+00,1.463063955307006836e+00,1.462955355644226074e+00,1.462846636772155762e+00,1.462738156318664551e+00,1.462629675865173340e+00,1.462520956993103027e+00,1.462412476539611816e+00,1.462303876876831055e+00,1.462195515632629395e+00,1.462087035179138184e+00,1.461978435516357422e+00,1.461870074272155762e+00,1.461761593818664551e+00,1.461653232574462891e+00,1.461544632911682129e+00,1.461436390876770020e+00,1.461328029632568359e+00,1.461219549179077148e+00,1.461111307144165039e+00,1.461002826690673828e+00,1.460894584655761719e+00,1.460786342620849609e+00,1.460677981376647949e+00,1.460569858551025391e+00,1.460461497306823730e+00,1.460353255271911621e+00,1.460245013236999512e+00,1.460136890411376953e+00,1.460028767585754395e+00,1.459920525550842285e+00,1.459812402725219727e+00,1.459704160690307617e+00,1.459596037864685059e+00,1.459488034248352051e+00,1.459379911422729492e+00,1.459271788597106934e+00,1.459163665771484375e+00,1.459055781364440918e+00,1.458947777748107910e+00,1.458839654922485352e+00,1.458731770515441895e+00,1.458623647689819336e+00,1.458515763282775879e+00,1.458407759666442871e+00
1.349121689796447754e+00,1.349029421806335449e+00,1.348936915397644043e+00,1.348844647407531738e+00,1.348752379417419434e+00,1.348659992218017578e+00,1.348567724227905273e+00,1.348475456237792969e+00,1.348383188247680664e+00,1.348290801048278809e+00,1.348198652267456055e+00,1.348106503486633301e+00,1.348014116287231445e+00,1.347921967506408691e+00,1.347829699516296387e+00,1.347737669944763184e+00,1.347645521163940430e+00,1.347553253173828125e+00,1.347461104393005371e+00,1.347368955612182617e+00,1.347276926040649414e+00,1.347184777259826660e+00,1.347092747688293457e+00,1.347000718116760254e+00,1.346908569335937500e+00,1.346816539764404297e+00,1.346724390983581543e+00,1.346632361412048340e+00,1.346540451049804688e+00,1.346448421478271484e+00,1.346356391906738281e+00,1.346264362335205078e+00,1.346172451972961426e+00,1.346080422401428223e+00,1.345988512039184570e+00,1.345896601676940918e+00,1.345804691314697266e+00,1.345712780952453613e+00,1.345620870590209961e+00,1.345528960227966309e+00,1.345437169075012207e+00,1.345345258712768555e+00,1.345253467559814453e+00,1.345161557197570801e+00,1.345069766044616699e+00,1.344977974891662598e+00,1.344886183738708496e+00,1.344794392585754395e+00,1.344702601432800293e+00,1.344610810279846191e+00,1.344519019126892090e+00,1.344427347183227539e+00,1.344335675239562988e+00,1.344243884086608887e+00,1.344152212142944336e+00,1.344060540199279785e+00,1.343968868255615234e+00,1.343877315521240234e+00,1.343785524368286133e+00,1.343693971633911133e+00,1.343602299690246582e+00,1.343510746955871582e+00,1.343419075012207031e+00,1.343327522277832031e+00,1.343235969543457031e+00,1.343144416809082031e+00,1.343052864074707031e+00,1.342961311340332031e+00,1.342869758605957031e+00,1.342778325080871582e+00,1.342686772346496582e+00,1.342595338821411133e+00,1.342503786087036133e+00,1.342412352561950684e+00,1.342320919036865234e+00,1.342229485511779785e+00,1.342138051986694336e+00,1.342046618461608887e+00,1.341955304145812988e+00,1.341863870620727539e+00
1.248789072036743164e+00,1.248709917068481445e+00,1.248630762100219727e+00,1.248551726341247559e+00,1.248472571372985840e+00,1.248393535614013672e+00,1.248314380645751953e+00,1.248235344886779785e+00,1.248156309127807617e+00,1.248077154159545898e+00,1.247998118400573730e+00,1.247919201850891113e+00,1.247840046882629395e+00,1.247761130332946777e+00,1.247682094573974609e+00,1.247603058815002441e+00,1.247524142265319824e+00,1.247445106506347656e+00,1.247366189956665039e+00,1.247287154197692871e+00,1.247208237648010254e+00,1.247129321098327637e+00,1.247050404548645020e+00,1.246971487998962402e+00,1.246892571449279785e+00,1.246813654899597168e+00,1.246734738349914551e+00,1.246655941009521484e+00,1.246577143669128418e+00,1.246498227119445801e+00,1.246419310569763184e+00,1.246340513229370117e+00,1.246261715888977051e+00,1.246182799339294434e+00,1.246104001998901367e+00,1.246025323867797852e+00,1.245946407318115234e+00,1.245867729187011719e+00,1.245788931846618652e+00,1.245710134506225586e+00,1.245631456375122070e+00,1.245552659034729004e+00,1.245473980903625488e+00,1.245395183563232422e+00,1.245316505432128906e+00,1.245237946510314941e+00,1.245159149169921875e+00,1.245080471038818359e+00,1.245001792907714844e+00,1.244923233985900879e+00,1.244844436645507812e+00,1.244765877723693848e+00,1.244687318801879883e+00,1.244608640670776367e+00,1.244530081748962402e+00,1.244451403617858887e+00,1.244372844696044922e+00,1.244294285774230957e+00,1.244215726852416992e+00,1.244137167930603027e+00,1.244058609008789062e+00,1.243980050086975098e+00,1.243901491165161133e+00,1.243823051452636719e+00,1.243744492530822754e+00,1.243666052818298340e+00,1.243587493896484375e+00,1.243509054183959961e+00,1.243430614471435547e+00,1.243352174758911133e+00,1.243273615837097168e+00,1.243195295333862305e+00,1.243116736412048340e+00,1.243038415908813477e+00,1.242960095405578613e+00,1.242881536483764648e+00,1.242803215980529785e+00,1.242724776268005371e+00,1.242646455764770508e+00,1.242568135261535645e+00
1.162346601486206055e+00,1.162278175354003906e+00,1.162209510803222656e+00,1.162141084671020508e+00,1.162072539329528809e+00,1.162003993988037109e+00,1.161935448646545410e+00,1.161866903305053711e+00,1.161798477172851562e+00,1.161729931831359863e+00,1.161661386489868164e+00,1.161592960357666016e+00,1.161524534225463867e+00,1.161456108093261719e+00,1.161387562751770020e+00,1.161319136619567871e+00,1.161250710487365723e+00,1.161182284355163574e+00,1.161113858222961426e+00,1.161045432090759277e+00,1.160977005958557129e+00,1.160908579826354980e+00,1.160840272903442383e+00,1.160771846771240234e+00,1.160703420639038086e+00,1.160635113716125488e+00,1.160566687583923340e+00,1.160498380661010742e+00,1.160430073738098145e+00,1.160361647605895996e+00,1.160293459892272949e+00,1.160225033760070801e+00,1.160156726837158203e+00,1.160088419914245605e+00,1.160020112991333008e+00,1.159951925277709961e+00,1.159883618354797363e+00,1.159815311431884766e+00,1.159747004508972168e+00,1.159678816795349121e+00,1.159610629081726074e+00,1.159542322158813477e+00,1.159474134445190430e+00,1.159405827522277832e+00,1.159337639808654785e+00,1.159269452095031738e+00,1.159201264381408691e+00,1.159133076667785645e+00,1.159064888954162598e+00,1.158996701240539551e+00,1.158928513526916504e+00,1.158860325813293457e+00,1.158792257308959961e+00,1.158724069595336914e+00,1.158656001091003418e+00,1.158587813377380371e+00,1.158519744873046875e+00,1.158451676368713379e+00,1.158383488655090332e+00,1.158315420150756836e+00,1.158247351646423340e+00,1.158179283142089844e+00,1.158111214637756348e+00,1.158043146133422852e+00,1.157975077629089355e+00,1.157907009124755859e+00,1.157839059829711914e+00,1.157770991325378418e+00,1.157702922821044922e+00,1.157634973526000977e+00,1.157566905021667480e+00,1.157498955726623535e+00,1.157430887222290039e+00,1.157362937927246094e+00,1.157295107841491699e+00,1.157227039337158203e+00,1.157159090042114258e+00,1.157091140747070312e+00,1.157023191452026367e+00,1.156955242156982422e+00
1.087096691131591797e+00,1.087036848068237305e+00,1.086976766586303711e+00,1.086916804313659668e+00,1.086856961250305176e+00,1.086796998977661133e+00,1.086737036705017090e+00,1.086677074432373047e+00,1.086617231369018555e+00,1.086557269096374512e+00,1.086497306823730469e+00,1.086437463760375977e+00,1.086377501487731934e+00,1.086317658424377441e+00,1.086257696151733398e+00,1.086197853088378906e+00,1.086138010025024414e+00,1.086078166961669922e+00,1.086018323898315430e+00,1.085958480834960938e+00,1.085898637771606445e+00,1.085838794708251953e+00,1.085778951644897461e+00,1.085719108581542969e+00,1.085659265518188477e+00,1.085599541664123535e+00,1.085539698600769043e+00,1.085479855537414551e+00,1.085420131683349609e+00,1.085360288619995117e+00,1.085300564765930176e+00,1.085240721702575684e+00,1.085180997848510742e+00,1.085121154785156250e+00,1.085061550140380859e+00,1.085001826286315918e+00,1.084941983222961426e+00,1.084882259368896484e+00,1.084822535514831543e+00,1.084762811660766602e+00,1.084703087806701660e+00,1.084643363952636719e+00,1.084583759307861328e+00,1.084524035453796387e+00,1.084464311599731445e+00,1.084404706954956055e+00,1.084344983100891113e+00,1.084285378456115723e+00,1.084225654602050781e+00,1.084166049957275391e+00,1.084106326103210449e+00,1.084046721458435059e+00,1.083987116813659668e+00,1.083927392959594727e+00,1.083867788314819336e+00,1.083808183670043945e+00,1.083748579025268555e+00,1.083689093589782715e+00,1.083629369735717773e+00,1.083569884300231934e+00,1.083510279655456543e+00,1.083450675010681152e+00,1.083391070365905762e+00,1.083331584930419922e+00,1.083271980285644531e+00,1.083212375640869141e+00,1.083152890205383301e+00,1.083093285560607910e+00,1.083033800125122070e+00,1.082974314689636230e+00,1.082914829254150391e+00,1.082855343818664551e+00,1.082795739173889160e+00,1.082736253738403320e+00,1.082676768302917480e+00,1.082617282867431641e+00,1.082557797431945801e+00,1.082498311996459961e+00,1.082438945770263672e+00,1.082379460334777832e+00
1.020997762680053711e+00,1.020944833755493164e+00,1.020891904830932617e+00,1.020839095115661621e+00,1.020786166191101074e+00,1.020733237266540527e+00,1.020680427551269531e+00,1.020627498626708984e+00,1.020574688911437988e+00,1.020521759986877441e+00,1.020468950271606445e+00,1.020416140556335449e+00,1.020363330841064453e+00,1.020310521125793457e+00,1.020257592201232910e+00,1.020204782485961914e+00,1.020151972770690918e+00,1.020099163055419922e+00,1.020046353340148926e+00,1.019993543624877930e+00,1.019940733909606934e+00,1.019887924194335938e+00,1.019835233688354492e+00,1.019782423973083496e+00,1.019729614257812500e+00,1.019676923751831055e+00,1.019624114036560059e+00,1.019571423530578613e+00,1.019518613815307617e+00,1.019465923309326172e+00,1.019413113594055176e+00,1.019360423088073730e+00,1.019307732582092285e+00,1.019254922866821289e+00,1.019202232360839844e+00,1.019149541854858398e+00,1.019096851348876953e+00,1.019044160842895508e+00,1.018991351127624512e+00,1.018938660621643066e+00,1.018886089324951172e+00,1.018833398818969727e+00,1.018780708312988281e+00,1.018728017807006836e+00,1.018675327301025391e+00,1.018622756004333496e+00,1.018570065498352051e+00,1.018517374992370605e+00,1.018464684486389160e+00,1.018412113189697266e+00,1.018359422683715820e+00,1.018306851387023926e+00,1.018254280090332031e+00,1.018201589584350586e+00,1.018149018287658691e+00,1.018096327781677246e+00,1.018043756484985352e+00,1.017991185188293457e+00,1.017938613891601562e+00,1.017886042594909668e+00,1.017833471298217773e+00,1.017780900001525879e+00,1.017728328704833984e+00,1.017675757408142090e+00,1.017623186111450195e+00,1.017570614814758301e+00,1.017518162727355957e+00,1.017465591430664062e+00,1.017413020133972168e+00,1.017360568046569824e+00,1.017307996749877930e+00,1.017255544662475586e+00,1.017202973365783691e+00,1.017150402069091797e+00,1.017097949981689453e+00,1.017045497894287109e+00,1.016993045806884766e+00,1.016940474510192871e+00,1.016888022422790527e+00,1.016835451126098633e+00
9.624760150909423828e-01,9.624291062355041504e-01,9.623820781707763672e-01,9.623350501060485840e-01,9.622880816459655762e-01,9.622411131858825684e-01,9.621940851211547852e-01,9.621470570564270020e-01,9.621001482009887695e-01,9.620531797409057617e-01,9.620061516761779785e-01,9.619592428207397461e-01,9.619122743606567383e-01,9.618653059005737305e-01,9.618183374404907227e-01,9.617714285850524902e-01,9.617244601249694824e-01,9.616774916648864746e-01,9.616306424140930176e-01,9.615836739540100098e-01,9.615367650985717773e-01,9.614897966384887695e-01,9.614429473876953125e-01,9.613960385322570801e-01,9.613490700721740723e-01,9.613022804260253906e-01,9.612553715705871582e-01,9.612084031105041504e-01,9.611616134643554688e-01,9.611147046089172363e-01,9.610677957534790039e-01,9.610208868980407715e-01,9.609740972518920898e-01,9.609271883964538574e-01,9.608803391456604004e-01,9.608335494995117188e-01,9.607866406440734863e-01,9.607397913932800293e-01,9.606929421424865723e-01,9.606461524963378906e-01,9.605993032455444336e-01,9.605524539947509766e-01,9.605057239532470703e-01,9.604588747024536133e-01,9.604120254516601562e-01,9.603652954101562500e-01,9.603184461593627930e-01,9.602715969085693359e-01,9.602248072624206543e-01,9.601780772209167480e-01,9.601312279701232910e-01,9.600844383239746094e-01,9.600377678871154785e-01,9.599909186363220215e-01,9.599441289901733398e-01,9.598973393440246582e-01,9.598506689071655273e-01,9.598038792610168457e-01,9.597570896148681641e-01,9.597104191780090332e-01,9.596636891365051270e-01,9.596168994903564453e-01,9.595701098442077637e-01,9.595234990119934082e-01,9.594767093658447266e-01,9.594299793243408203e-01,9.593833684921264648e-01,9.593365788459777832e-01,9.592898488044738770e-01,9.592432379722595215e-01,9.591965079307556152e-01,9.591497778892517090e-01,9.591031074523925781e-01,9.590564966201782227e-01,9.590097665786743164e-01,9.589630961418151855e-01,9.589164853096008301e-01,9.588698148727416992e-01,9.588230848312377930e-01,9.587764143943786621e-01
9.102993607521057129e-01,9.102573990821838379e-01,9.102153182029724121e-01,9.101732373237609863e-01,9.101312756538391113e-01,9.100891947746276855e-01,9.100471735000610352e-01,9.100050926208496094e-01,9.099631309509277344e-01,9.099211096763610840e-01,9.098790287971496582e-01,9.098371267318725586e-01,9.097950458526611328e-01,9.097530245780944824e-01,9.097110033035278320e-01,9.096691012382507324e-01,9.096270799636840820e-01,9.095850586891174316e-01,9.095430970191955566e-01,9.095011353492736816e-01,9.094591140747070312e-01,9.094170928001403809e-01,9.093751907348632812e-01,9.093332290649414062e-01,9.092912077903747559e-01,9.092493653297424316e-01,9.092073440551757812e-01,9.091653823852539062e-01,9.091234803199768066e-01,9.090815186500549316e-01,9.090395569801330566e-01,9.089975953102111816e-01,9.089557528495788574e-01,9.089137911796569824e-01,9.088718295097351074e-01,9.088299870491027832e-01,9.087880253791809082e-01,9.087461233139038086e-01,9.087041616439819336e-01,9.086623191833496094e-01,9.086204171180725098e-01,9.085784554481506348e-01,9.085366725921630859e-01,9.084947705268859863e-01,9.084528088569641113e-01,9.084110260009765625e-01,9.083691239356994629e-01,9.083272218704223633e-01,9.082853198051452637e-01,9.082435369491577148e-01,9.082016348838806152e-01,9.081597328186035156e-01,9.081179499626159668e-01,9.080761075019836426e-01,9.080342054367065430e-01,9.079923629760742188e-01,9.079505801200866699e-01,9.079087376594543457e-01,9.078668355941772461e-01,9.078251123428344727e-01,9.077832698822021484e-01,9.077414274215698242e-01,9.076995849609375000e-01,9.076578021049499512e-01,9.076159596443176270e-01,9.075741767883300781e-01,9.075324535369873047e-01,9.074906110763549805e-01,9.074487686157226562e-01,9.074070453643798828e-01,9.073652625083923340e-01,9.073234200477600098e-01,9.072816371917724609e-01,9.072399139404296875e-01,9.071981310844421387e-01,9.071563482284545898e-01,9.071146845817565918e-01,9.070729017257690430e-01,9.070311188697814941e-01,9.069893360137939453e-01
8.634889125823974609e-01,8.634511232376098633e-01,8.634132742881774902e-01,8.633753657341003418e-01,8.633376359939575195e-01,8.632997870445251465e-01,8.632619380950927734e-01,8.632240891456604004e-01,8.631863594055175781e-01,8.631485104560852051e-01,8.631106615066528320e-01,8.630729317665100098e-01,8.630350828170776367e-01,8.629972934722900391e-01,8.629594445228576660e-01,8.629217147827148438e-01,8.628839254379272461e-01,8.628461360931396484e-01,8.628084063529968262e-01,8.627705574035644531e-01,8.627327680587768555e-01,8.626949787139892578e-01,8.626573085784912109e-01,8.626195192337036133e-01,8.625817298889160156e-01,8.625440001487731934e-01,8.625062108039855957e-01,8.624684810638427734e-01,8.624307513236999512e-01,8.623930215835571289e-01,8.623552322387695312e-01,8.623174428939819336e-01,8.622797727584838867e-01,8.622420430183410645e-01,8.622043132781982422e-01,8.621666431427001953e-01,8.621288537979125977e-01,8.620911240577697754e-01,8.620533943176269531e-01,8.620157241821289062e-01,8.619779944419860840e-01,8.619402647018432617e-01,8.619026541709899902e-01,8.618649244308471680e-01,8.618271946907043457e-01,8.617895841598510742e-01,8.617518544197082520e-01,8.617141246795654297e-01,8.616764545440673828e-01,8.616388440132141113e-01,8.616011142730712891e-01,8.615634441375732422e-01,8.615258336067199707e-01,8.614881038665771484e-01,8.614504337310791016e-01,8.614127635955810547e-01,8.613751530647277832e-01,8.613374829292297363e-01,8.612998127937316895e-01,8.612622022628784180e-01,8.612245321273803711e-01,8.611869215965270996e-01,8.611492514610290527e-01,8.611116409301757812e-01,8.610740303993225098e-01,8.610363602638244629e-01,8.609988093376159668e-01,8.609611392021179199e-01,8.609235286712646484e-01,8.608859777450561523e-01,8.608483076095581055e-01,8.608106970787048340e-01,8.607730865478515625e-01,8.607355356216430664e-01,8.606979250907897949e-01,8.606603145599365234e-01,8.606227636337280273e-01,8.605851531028747559e-01,8.605475425720214844e-01,8.605099320411682129e-01
8.212572336196899414e-01,8.212230801582336426e-01,8.211888074874877930e-01,8.211545944213867188e-01,8.211203813552856445e-01,8.210861682891845703e-01,8.210519552230834961e-01,8.210176825523376465e-01,8.209835290908813477e-01,8.209493160247802734e-01,8.209151029586791992e-01,8.208809494972229004e-01,8.208467364311218262e-01,8.208125233650207520e-01,8.207783102989196777e-01,8.207442164421081543e-01,8.207100033760070801e-01,8.206757903099060059e-01,8.206416368484497070e-01,8.206074833869934082e-01,8.205732703208923340e-01,8.205390572547912598e-01,8.205049633979797363e-01,8.204708099365234375e-01,8.204365968704223633e-01,8.204025030136108398e-01,8.203682899475097656e-01,8.203341364860534668e-01,8.203000426292419434e-01,8.202658891677856445e-01,8.202317357063293457e-01,8.201975226402282715e-01,8.201634883880615234e-01,8.201293349266052246e-01,8.200951814651489258e-01,8.200610876083374023e-01,8.200269341468811035e-01,8.199927806854248047e-01,8.199586272239685059e-01,8.199245929718017578e-01,8.198904395103454590e-01,8.198562860488891602e-01,8.198222517967224121e-01,8.197880983352661133e-01,8.197540044784545898e-01,8.197199702262878418e-01,8.196858167648315430e-01,8.196517229080200195e-01,8.196175694465637207e-01,8.195835351943969727e-01,8.195494413375854492e-01,8.195153474807739258e-01,8.194813132286071777e-01,8.194472193717956543e-01,8.194131255149841309e-01,8.193790316581726074e-01,8.193449974060058594e-01,8.193109035491943359e-01,8.192768096923828125e-01,8.192428350448608398e-01,8.192087411880493164e-01,8.191746473312377930e-01,8.191405534744262695e-01,8.191065788269042969e-01,8.190724849700927734e-01,8.190384507179260254e-01,8.190044760704040527e-01,8.189703822135925293e-01,8.189363479614257812e-01,8.189023733139038086e-01,8.188682794570922852e-01,8.188342452049255371e-01,8.188002109527587891e-01,8.187662363052368164e-01,8.187322020530700684e-01,8.186981678009033203e-01,8.186641931533813477e-01,8.186301589012145996e-01,8.185961246490478516e-01,8.185620903968811035e-01
7.829639315605163574e-01,7.829328775405883789e-01,7.829017639160156250e-01,7.828705906867980957e-01,7.828395366668701172e-01,7.828084230422973633e-01,7.827773094177246094e-01,7.827461957931518555e-01,7.827151417732238770e-01,7.826840281486511230e-01,7.826529741287231445e-01,7.826219201087951660e-01,7.825908064842224121e-01,7.825596928596496582e-01,7.825286388397216797e-01,7.824975848197937012e-01,7.824664711952209473e-01,7.824354171752929688e-01,7.824043631553649902e-01,7.823733091354370117e-01,7.823421955108642578e-01,7.823111414909362793e-01,7.822801470756530762e-01,7.822490334510803223e-01,7.822179794311523438e-01,7.821869850158691406e-01,7.821559309959411621e-01,7.821248173713684082e-01,7.820938229560852051e-01,7.820627689361572266e-01,7.820317149162292480e-01,7.820006608963012695e-01,7.819696664810180664e-01,7.819386124610900879e-01,7.819076180458068848e-01,7.818766236305236816e-01,7.818455696105957031e-01,7.818145155906677246e-01,7.817834615707397461e-01,7.817525267601013184e-01,7.817214727401733398e-01,7.816904783248901367e-01,7.816594839096069336e-01,7.816284894943237305e-01,7.815974354743957520e-01,7.815665006637573242e-01,7.815355062484741211e-01,7.815044522285461426e-01,7.814734578132629395e-01,7.814425230026245117e-01,7.814114689826965332e-01,7.813804745674133301e-01,7.813495397567749023e-01,7.813185453414916992e-01,7.812875509262084961e-01,7.812565565109252930e-01,7.812256217002868652e-01,7.811946272850036621e-01,7.811636328697204590e-01,7.811327576637268066e-01,7.811017632484436035e-01,7.810707688331604004e-01,7.810397744178771973e-01,7.810088992118835449e-01,7.809779047966003418e-01,7.809469103813171387e-01,7.809160351753234863e-01,7.808850407600402832e-01,7.808541059494018555e-01,7.808232307434082031e-01,7.807922363281250000e-01,7.807613015174865723e-01,7.807303667068481445e-01,7.806994318962097168e-01,7.806684970855712891e-01,7.806375622749328613e-01,7.806066870689392090e-01,7.805757522583007812e-01,7.805448174476623535e-01,7.805138826370239258e-01
7.480825781822204590e-01,7.480542063713073730e-01,7.480257749557495117e-01,7.479974031448364258e-01,7.479690313339233398e-01,7.479405999183654785e-01,7.479122281074523926e-01,7.478837966918945312e-01,7.478554844856262207e-01,7.478270530700683594e-01,7.477986812591552734e-01,7.477703690528869629e-01,7.477419376373291016e-01,7.477135658264160156e-01,7.476851940155029297e-01,7.476568222045898438e-01,7.476284503936767578e-01,7.476000785827636719e-01,7.475717663764953613e-01,7.475433945655822754e-01,7.475150227546691895e-01,7.474866509437561035e-01,7.474583387374877930e-01,7.474299669265747070e-01,7.474015951156616211e-01,7.473732829093933105e-01,7.473449110984802246e-01,7.473165392875671387e-01,7.472882270812988281e-01,7.472599148750305176e-01,7.472315430641174316e-01,7.472031712532043457e-01,7.471749186515808105e-01,7.471465468406677246e-01,7.471181750297546387e-01,7.470899224281311035e-01,7.470616102218627930e-01,7.470332384109497070e-01,7.470049262046813965e-01,7.469766139984130859e-01,7.469483017921447754e-01,7.469199895858764648e-01,7.468916773796081543e-01,7.468633651733398438e-01,7.468350529670715332e-01,7.468068003654479980e-01,7.467784881591796875e-01,7.467501163482666016e-01,7.467218041419982910e-01,7.466935515403747559e-01,7.466652393341064453e-01,7.466369271278381348e-01,7.466087341308593750e-01,7.465804219245910645e-01,7.465521097183227539e-01,7.465237975120544434e-01,7.464955449104309082e-01,7.464672923088073730e-01,7.464389801025390625e-01,7.464107275009155273e-01,7.463824748992919922e-01,7.463541626930236816e-01,7.463258504867553711e-01,7.462976574897766113e-01,7.462693452835083008e-01,7.462410926818847656e-01,7.462128996849060059e-01,7.461845874786376953e-01,7.461563348770141602e-01,7.461281418800354004e-01,7.460998296737670898e-01,7.460715770721435547e-01,7.460433244705200195e-01,7.460151314735412598e-01,7.459868788719177246e-01,7.459585666656494141e-01,7.459303736686706543e-01,7.459021210670471191e-01,7.458738684654235840e-01,7.458456158638000488e-01
7.161766290664672852e-01,7.161506414413452148e-01,7.161245942115783691e-01,7.160985469818115234e-01,7.160725593566894531e-01,7.160465121269226074e-01,7.160204648971557617e-01,7.159944176673889160e-01,7.159684896469116211e-01,7.159424424171447754e-01,7.159163951873779297e-01,7.158904671669006348e-01,7.158644199371337891e-01,7.158383727073669434e-01,7.158123850822448730e-01,7.157863974571228027e-01,7.157604098320007324e-01,7.157343626022338867e-01,7.157084345817565918e-01,7.156823873519897461e-01,7.156563997268676758e-01,7.156304121017456055e-01,7.156044244766235352e-01,7.155784368515014648e-01,7.155524492263793945e-01,7.155265212059020996e-01,7.155005335807800293e-01,7.154744863510131836e-01,7.154485583305358887e-01,7.154225707054138184e-01,7.153965830802917480e-01,7.153705954551696777e-01,7.153446674346923828e-01,7.153186798095703125e-01,7.152926921844482422e-01,7.152667641639709473e-01,7.152407765388488770e-01,7.152148485183715820e-01,7.151888608932495117e-01,7.151629328727722168e-01,7.151369452476501465e-01,7.151110172271728516e-01,7.150850892066955566e-01,7.150591015815734863e-01,7.150331735610961914e-01,7.150072455406188965e-01,7.149813175201416016e-01,7.149553298950195312e-01,7.149294018745422363e-01,7.149034738540649414e-01,7.148775458335876465e-01,7.148515582084655762e-01,7.148256897926330566e-01,7.147997617721557617e-01,7.147737741470336914e-01,7.147478461265563965e-01,7.147219777107238770e-01,7.146960496902465820e-01,7.146701216697692871e-01,7.146441936492919922e-01,7.146182656288146973e-01,7.145923376083374023e-01,7.145664095878601074e-01,7.145405411720275879e-01,7.145146131515502930e-01,7.144886851310729980e-01,7.144628167152404785e-01,7.144368886947631836e-01,7.144110202789306641e-01,7.143851518630981445e-01,7.143592238426208496e-01,7.143332958221435547e-01,7.143073678016662598e-01,7.142815589904785156e-01,7.142556309700012207e-01,7.142297029495239258e-01,7.142038941383361816e-01,7.141779661178588867e-01,7.141520977020263672e-01,7.141261696815490723e-01
6.868809461593627930e-01,6.868570446968078613e-01,6.868330836296081543e-01,6.868091225624084473e-01,6.867852210998535156e-01,6.867612600326538086e-01,6.867372989654541016e-01,6.867133378982543945e-01,6.866894364356994629e-01,6.866655349731445312e-01,6.866415739059448242e-01,6.866176724433898926e-01,6.865937709808349609e-01,6.865698099136352539e-01,6.865458488464355469e-01,6.865220069885253906e-01,6.864980459213256836e-01,6.864741444587707520e-01,6.864502429962158203e-01,6.864263415336608887e-01,6.864023804664611816e-01,6.863784790039062500e-01,6.863545775413513184e-01,6.863306760787963867e-01,6.863067746162414551e-01,6.862828731536865234e-01,6.862589716911315918e-01,6.862350702285766602e-01,6.862112283706665039e-01,6.861872673034667969e-01,6.861633658409118652e-01,6.861394643783569336e-01,6.861156225204467773e-01,6.860917210578918457e-01,6.860678195953369141e-01,6.860439777374267578e-01,6.860200762748718262e-01,6.859961748123168945e-01,6.859722733497619629e-01,6.859484314918518066e-01,6.859245300292968750e-01,6.859006285667419434e-01,6.858767867088317871e-01,6.858529448509216309e-01,6.858290433883666992e-01,6.858052015304565430e-01,6.857813000679016113e-01,6.857574582099914551e-01,6.857335567474365234e-01,6.857097148895263672e-01,6.856858730316162109e-01,6.856619715690612793e-01,6.856381893157958984e-01,6.856142878532409668e-01,6.855904459953308105e-01,6.855665445327758789e-01,6.855427622795104980e-01,6.855188608169555664e-01,6.854950189590454102e-01,6.854711771011352539e-01,6.854473352432250977e-01,6.854234933853149414e-01,6.853996515274047852e-01,6.853758096694946289e-01,6.853519678115844727e-01,6.853281259536743164e-01,6.853043437004089355e-01,6.852805018424987793e-01,6.852566599845886230e-01,6.852328181266784668e-01,6.852089762687683105e-01,6.851851344108581543e-01,6.851612925529479980e-01,6.851375102996826172e-01,6.851136684417724609e-01,6.850898861885070801e-01,6.850661039352416992e-01,6.850422620773315430e-01,6.850184202194213867e-01,6.849945783615112305e-01
6.598877906799316406e-01,6.598656773567199707e-01,6.598436236381530762e-01,6.598215103149414062e-01,6.597994565963745117e-01,6.597773432731628418e-01,6.597552299499511719e-01,6.597331166267395020e-01,6.597110629081726074e-01,6.596889495849609375e-01,6.596668958663940430e-01,6.596448421478271484e-01,6.596227288246154785e-01,6.596006155014038086e-01,6.595785617828369141e-01,6.595565080642700195e-01,6.595343947410583496e-01,6.595123410224914551e-01,6.594902873039245605e-01,6.594681739807128906e-01,6.594461202621459961e-01,6.594240069389343262e-01,6.594020128250122070e-01,6.593798995018005371e-01,6.593578457832336426e-01,6.593357920646667480e-01,6.593137383460998535e-01,6.592916846275329590e-01,6.592696309089660645e-01,6.592475771903991699e-01,6.592255234718322754e-01,6.592034101486206055e-01,6.591814160346984863e-01,6.591593623161315918e-01,6.591373085975646973e-01,6.591152548789978027e-01,6.590932011604309082e-01,6.590711474418640137e-01,6.590490937232971191e-01,6.590270996093750000e-01,6.590050458908081055e-01,6.589829921722412109e-01,6.589609980583190918e-01,6.589389443397521973e-01,6.589168906211853027e-01,6.588948965072631836e-01,6.588728427886962891e-01,6.588507890701293945e-01,6.588287353515625000e-01,6.588067412376403809e-01,6.587847471237182617e-01,6.587626934051513672e-01,6.587406992912292480e-01,6.587186455726623535e-01,6.586966514587402344e-01,6.586745977401733398e-01,6.586526036262512207e-01,6.586306095123291016e-01,6.586085557937622070e-01,6.585865616798400879e-01,6.585645675659179688e-01,6.585425138473510742e-01,6.585205197334289551e-01,6.584985256195068359e-01,6.584765315055847168e-01,6.584544777870178223e-01,6.584325432777404785e-01,6.584104895591735840e-01,6.583884954452514648e-01,6.583665609359741211e-01,6.583445072174072266e-01,6.583225131034851074e-01,6.583005189895629883e-01,6.582785844802856445e-01,6.582565307617187500e-01,6.582345366477966309e-01,6.582126021385192871e-01,6.581906080245971680e-01,6.581686139106750488e-01,6.581466197967529297e-01
6.349359154701232910e-01,6.349155306816101074e-01,6.348950266838073730e-01,6.348745822906494141e-01,6.348541378974914551e-01,6.348336935043334961e-01,6.348132491111755371e-01,6.347927451133728027e-01,6.347723603248596191e-01,6.347518563270568848e-01,6.347314119338989258e-01,6.347110271453857422e-01,6.346905827522277832e-01,6.346700787544250488e-01,6.346496343612670898e-01,6.346292495727539062e-01,6.346088051795959473e-01,6.345883607864379883e-01,6.345679163932800293e-01,6.345474720001220703e-01,6.345270276069641113e-01,6.345065832138061523e-01,6.344861984252929688e-01,6.344657540321350098e-01,6.344453096389770508e-01,6.344249248504638672e-01,6.344044804573059082e-01,6.343840360641479492e-01,6.343636512756347656e-01,6.343432068824768066e-01,6.343227624893188477e-01,6.343023777008056641e-01,6.342819929122924805e-01,6.342615485191345215e-01,6.342411041259765625e-01,6.342207193374633789e-01,6.342002749443054199e-01,6.341798901557922363e-01,6.341594457626342773e-01,6.341390609741210938e-01,6.341186761856079102e-01,6.340982317924499512e-01,6.340778470039367676e-01,6.340574622154235840e-01,6.340370178222656250e-01,6.340166926383972168e-01,6.339962482452392578e-01,6.339758634567260742e-01,6.339554190635681152e-01,6.339350938796997070e-01,6.339146494865417480e-01,6.338942646980285645e-01,6.338738799095153809e-01,6.338534951210021973e-01,6.338331103324890137e-01,6.338127255439758301e-01,6.337923407554626465e-01,6.337719559669494629e-01,6.337515711784362793e-01,6.337311863899230957e-01,6.337108016014099121e-01,6.336904168128967285e-01,6.336700320243835449e-01,6.336496472358703613e-01,6.336292624473571777e-01,6.336088776588439941e-01,6.335885524749755859e-01,6.335681676864624023e-01,6.335477828979492188e-01,6.335274577140808105e-01,6.335070729255676270e-01,6.334866881370544434e-01,6.334663033485412598e-01,6.334459781646728516e-01,6.334255933761596680e-01,6.334052085876464844e-01,6.333848834037780762e-01,6.333645582199096680e-01,6.333441734313964844e-01,6.333237886428833008e-01
