5.000000000000000000e+00,5.000000000000000000e+00,5.000000000000000000e+00,5.000000000000000000e+00,5.000000000000000000e+00,5.000000000000000000e+00,5.000000000000000000e+00,5.000000000000000000e+00,5.000000000000000000e+00,5.000000000000000000e+00,5.000000000000000000e+00,5.000000000000000000e+00,5.000000000000000000e+00,5.000000000000000000e+00,5.000000000000000000e+00,5.000000000000000000e+00,5.000000000000000000e+00,5.000000000000000000e+00,5.000000000000000000e+00,5.000000000000000000e+00,5.000000000000000000e+00,5.000000000000000000e+00,5.000000000000000000e+00,5.000000000000000000e+00,5.000000000000000000e+00,5.000000000000000000e+00,5.000000000000000000e+00,5.000000000000000000e+00,5.000000000000000000e+00,5.000000000000000000e+00,5.000000000000000000e+00,5.000000000000000000e+00,5.000000000000000000e+00,5.000000000000000000e+00,5.000000000000000000e+00,5.000000000000000000e+00,5.000000000000000000e+00,5.000000000000000000e+00,5.000000000000000000e+00,5.000000000000000000e+00,5.000000000000000000e+00,5.000000000000000000e+00,4.321215152740478516e+00,4.169772624969482422e+00,4.028584957122802734e+00,3.896645545959472656e+00,3.773074626922607422e+00,3.657099723815917969e+00,3.548042058944702148e+00,3.445300102233886719e+00,3.348341226577758789e+00,3.256690263748168945e+00,3.169922828674316406e+00,3.087659120559692383e+00,3.009557008743286133e+00,2.935308456420898438e+00,2.864635229110717773e+00,2.797285318374633789e+00,2.733029603958129883e+00,2.671659469604492188e+00,2.612985134124755859e+00,2.556832551956176758e+00,2.503042459487915039e+00,2.451468944549560547e+00,2.401978015899658203e+00,2.354445695877075195e+00,2.308758020401000977e+00,2.264809846878051758e+00,2.222503662109375000e+00,2.181748867034912109e+00,2.142461776733398438e+00,2.104564666748046875e+00,2.067984819412231445e+00,2.032655000686645508e+00,1.998511910438537598e+00,1.965497136116027832e+00,1.933555364608764648e+00,1.902634859085083008e+00,1.872687935829162598e+00,1.843669176101684570e+00
5.000000000000000000e+00,5.000000000000000000e+00,5.000000000000000000e+00,5.000000000000000000e+00,5.000000000000000000e+00,5.000000000000000000e+00,5.000000000000000000e+00,5.000000000000000000e+00,5.000000000000000000e+00,5.000000000000000000e+00,5.000000000000000000e+00,5.000000000000000000e+00,5.000000000000000000e+00,5.000000000000000000e+00,5.000000000000000000e+00,5.000000000000000000e+00,5.000000000000000000e+00,5.000000000000000000e+00,5.000000000000000000e+00,5.000000000000000000e+00,5.000000000000000000e+00,5.000000000000000000e+00,5.000000000000000000e+00,5.000000000000000000e+00,5.000000000000000000e+00,5.000000000000000000e+00,5.000000000000000000e+00,5.000000000000000000e+00,5.000000000000000000e+00,5.000000000000000000e+00,5.000000000000000000e+00,5.000000000000000000e+00,5.000000000000000000e+00,5.000000000000000000e+00,5.000000000000000000e+00,5.000000000000000000e+00,5.000000000000000000e+00,5.000000000000000000e+00,5.000000000000000000e+00,5.000000000000000000e+00,5.000000000000000000e+00,4.484192371368408203e+00,4.321325302124023438e+00,4.169875144958496094e+00,4.028680324554443359e+00,3.896735191345214844e+00,3.773158550262451172e+00,3.657178878784179688e+00,3.548116207122802734e+00,3.445370197296142578e+00,3.348407506942749023e+00,3.256752967834472656e+00,3.169982194900512695e+00,3.087715148925781250e+00,3.009610414505004883e+00,2.935359239578247070e+00,2.864683628082275391e+00,2.797331571578979492e+00,2.733073711395263672e+00,2.671701669692993164e+00,2.613025426864624023e+00,2.556871175765991211e+00,2.503079414367675781e+00,2.451504468917846680e+00,2.402012109756469727e+00,2.354478359222412109e+00,2.308789491653442383e+00,2.264840126037597656e+00,2.222532749176025391e+00,2.181777000427246094e+00,2.142488956451416016e+00,2.104590892791748047e+00,2.068010091781616211e+00,2.032679319381713867e+00,1.998535513877868652e+00,1.965519905090332031e+00,1.933577418327331543e+00,1.902656316757202148e+00,1.872708678245544434e+00,1.843689322471618652e+00
5.000000000000000000e+00,5.000000000000000000e+00,5.000000000000000000e+00,5.000000000000000000e+00,5.000000000000000000e+00,5.000000000000000000e+00,5.000000000000000000e+00,5.000000000000000000e+00,5.000000000000000000e+00,5.000000000000000000e+00,5.000000000000000000e+00,5.000000000000000000e+00,5.000000000000000000e+00,5.000000000000000000e+00,5.000000000000000000e+00,5.000000000000000000e+00,5.000000000000000000e+00,5.000000000000000000e+00,5.000000000000000000e+00,5.000000000000000000e+00,5.000000000000000000e+00,5.000000000000000000e+00,5.000000000000000000e+00,5.000000000000000000e+00,5.000000000000000000e+00,5.000000000000000000e+00,5.000000000000000000e+00,5.000000000000000000e+00,5.000000000000000000e+00,5.000000000000000000e+00,5.000000000000000000e+00,5.000000000000000000e+00,5.000000000000000000e+00,5.000000000000000000e+00,5.000000000000000000e+00,5.000000000000000000e+00,5.000000000000000000e+00,5.000000000000000000e+00,5.000000000000000000e+00,5.000000000000000000e+00,4.659944534301757812e+00,4.484311103820800781e+00,4.321435451507568359e+00,4.169977664947509766e+00,4.028776168823242188e+00,3.896824836730957031e+00,3.773242235183715820e+00,3.657257795333862305e+00,3.548190593719482422e+00,3.445440053939819336e+00,3.348473548889160156e+00,3.256815433502197266e+00,3.170041322708129883e+00,3.087771415710449219e+00,3.009663820266723633e+00,2.935410261154174805e+00,2.864732027053833008e+00,2.797377824783325195e+00,2.733117818832397461e+00,2.671743869781494141e+00,2.613065481185913086e+00,2.556909561157226562e+00,2.503116369247436523e+00,2.451539993286132812e+00,2.402045965194702148e+00,2.354511260986328125e+00,2.308820962905883789e+00,2.264870405197143555e+00,2.222561836242675781e+00,2.181804895401000977e+00,2.142515897750854492e+00,2.104616880416870117e+00,2.068035364151000977e+00,2.032703876495361328e+00,1.998558998107910156e+00,1.965542793273925781e+00,1.933599472045898438e+00,1.902677655220031738e+00,1.872729301452636719e+00,1.843709349632263184e+00
5.000000000000000000e+00,5.000000000000000000e+00,5.000000000000000000e+00,5.000000000000000000e+00,5.000000000000000000e+00,5.000000000000000000e+00,5.000000000000000000e+00,5.000000000000000000e+00,5.000000000000000000e+00,5.000000000000000000e+00,5.000000000000000000e+00,5.000000000000000000e+00,5.000000000000000000e+00,5.000000000000000000e+00,5.000000000000000000e+00,5.000000000000000000e+00,5.000000000000000000e+00,5.000000000000000000e+00,5.000000000000000000e+00,5.000000000000000000e+00,5.000000000000000000e+00,5.000000000000000000e+00,5.000000000000000000e+00,5.000000000000000000e+00,5.000000000000000000e+00,5.000000000000000000e+00,5.000000000000000000e+00,5.000000000000000000e+00,5.000000000000000000e+00,5.000000000000000000e+00,5.000000000000000000e+00,5.000000000000000000e+00,5.000000000000000000e+00,5.000000000000000000e+00,5.000000000000000000e+00,5.000000000000000000e+00,5.000000000000000000e+00,5.000000000000000000e+00,5.000000000000000000e+00,4.850035667419433594e+00,4.660072803497314453e+00,4.484429359436035156e+00,4.321545600891113281e+00,4.170080184936523438e+00,4.028872013092041016e+00,3.896914482116699219e+00,3.773326158523559570e+00,3.657336711883544922e+00,3.548264741897583008e+00,3.445510149002075195e+00,3.348539590835571289e+00,3.256878137588500977e+00,3.170100688934326172e+00,3.087827682495117188e+00,3.009717226028442383e+00,2.935461044311523438e+00,2.864780426025390625e+00,2.797423601150512695e+00,2.733161926269531250e+00,2.671785831451416016e+00,2.613105773925781250e+00,2.556948184967041016e+00,2.503153324127197266e+00,2.451575279235839844e+00,2.402080059051513672e+00,2.354543924331665039e+00,2.308852434158325195e+00,2.264900684356689453e+00,2.222590923309326172e+00,2.181833028793334961e+00,2.142543077468872070e+00,2.104643106460571289e+00,2.068060636520385742e+00,2.032728195190429688e+00,1.998582601547241211e+00,1.965565562248229980e+00,1.933621525764465332e+00,1.902698993682861328e+00,1.872750163078308105e+00,1.843729496002197266e+00
5.000000000000000000e+00,5.000000000000000000e+00,5.000000000000000000e+00,5.000000000000000000e+00,5.000000000000000000e+00,5.000000000000000000e+00,5.000000000000000000e+00,5.000000000000000000e+00,5.000000000000000000e+00,5.000000000000000000e+00,5.000000000000000000e+00,5.000000000000000000e+00,5.000000000000000000e+00,5.000000000000000000e+00,5.000000000000000000e+00,5.000000000000000000e+00,5.000000000000000000e+00,5.000000000000000000e+00,5.000000000000000000e+00,5.000000000000000000e+00,5.000000000000000000e+00,5.000000000000000000e+00,5.000000000000000000e+00,5.000000000000000000e+00,5.000000000000000000e+00,5.000000000000000000e+00,5.000000000000000000e+00,5.000000000000000000e+00,5.000000000000000000e+00,5.000000000000000000e+00,5.000000000000000000e+00,5.000000000000000000e+00,5.000000000000000000e+00,5.000000000000000000e+00,5.000000000000000000e+00,5.000000000000000000e+00,5.000000000000000000e+00,5.000000000000000000e+00,5.000000000000000000e+00,4.850174427032470703e+00,4.660201072692871094e+00,4.484548091888427734e+00,4.321656227111816406e+00,4.170182704925537109e+00,4.028967857360839844e+00,3.897004127502441406e+00,3.773410320281982422e+00,3.657415628433227539e+00,3.548339128494262695e+00,3.445580244064331055e+00,3.348605632781982422e+00,3.256940603256225586e+00,3.170160055160522461e+00,3.087883949279785156e+00,3.009770870208740234e+00,2.935511827468872070e+00,2.864828824996948242e+00,2.797469854354858398e+00,2.733205795288085938e+00,2.671828031539916992e+00,2.613146066665649414e+00,2.556986570358276367e+00,2.503190279006958008e+00,2.451610803604125977e+00,2.402113914489746094e+00,2.354576587677001953e+00,2.308883905410766602e+00,2.264930963516235352e+00,2.222620010375976562e+00,2.181861162185668945e+00,2.142570018768310547e+00,2.104669094085693359e+00,2.068085670471191406e+00,2.032752513885498047e+00,1.998606204986572266e+00,1.965588331222534180e+00,1.933643579483032227e+00,1.902720332145690918e+00,1.872770905494689941e+00,1.843749523162841797e+00
5.000000000000000000e+00,5.000000000000000000e+00,5.000000000000000000e+00,5.000000000000000000e+00,5.000000000000000000e+00,5.000000000000000000e+00,5.000000000000000000e+00,5.000000000000000000e+00,5.000000000000000000e+00,5.000000000000000000e+00,5.000000000000000000e+00,5.000000000000000000e+00,5.000000000000000000e+00,5.000000000000000000e+00,5.000000000000000000e+00,5.000000000000000000e+00,5.000000000000000000e+00,5.000000000000000000e+00,5.000000000000000000e+00,5.000000000000000000e+00,5.000000000000000000e+00,5.000000000000000000e+00,5.000000000000000000e+00,5.000000000000000000e+00,5.000000000000000000e+00,5.000000000000000000e+00,5.000000000000000000e+00,5.000000000000000000e+00,5.000000000000000000e+00,5.000000000000000000e+00,5.000000000000000000e+00,5.000000000000000000e+00,5.000000000000000000e+00,5.000000000000000000e+00,5.000000000000000000e+00,5.000000000000000000e+00,5.000000000000000000e+00,5.000000000000000000e+00,5.000000000000000000e+00,4.850313186645507812e+00,4.660328865051269531e+00,4.484666824340820312e+00,4.321766376495361328e+00,4.170285224914550781e+00,4.029063701629638672e+00,3.897093534469604492e+00,3.773494243621826172e+00,3.657494068145751953e+00,3.548413515090942383e+00,3.445650339126586914e+00,3.348671913146972656e+00,3.257003307342529297e+00,3.170219421386718750e+00,3.087940216064453125e+00,3.009824037551879883e+00,2.935562610626220703e+00,2.864877462387084961e+00,2.797516107559204102e+00,2.733249902725219727e+00,2.671870231628417969e+00,2.613186359405517578e+00,2.557025194168090820e+00,2.503227233886718750e+00,2.451646327972412109e+00,2.402148008346557617e+00,2.354609251022338867e+00,2.308915376663208008e+00,2.264961242675781250e+00,2.222649097442626953e+00,2.181889295578002930e+00,2.142597198486328125e+00,2.104695320129394531e+00,2.068110942840576172e+00,2.032776832580566406e+00,1.998629808425903320e+00,1.965611100196838379e+00,1.933665633201599121e+00,1.902741789817810059e+00,1.872791528701782227e+00,1.843769431114196777e+00
5.000000000000000000e+00,5.000000000000000000e+00,5.000000000000000000e+00,5.000000000000000000e+00,5.000000000000000000e+00,5.000000000000000000e+00,5.000000000000000000e+00,5.000000000000000000e+00,5.000000000000000000e+00,5.000000000000000000e+00,5.000000000000000000e+00,5.000000000000000000e+00,5.000000000000000000e+00,5.000000000000000000e+00,5.000000000000000000e+00,5.000000000000000000e+00,5.000000000000000000e+00,5.000000000000000000e+00,5.000000000000000000e+00,5.000000000000000000e+00,5.000000000000000000e+00,5.000000000000000000e+00,5.000000000000000000e+00,5.000000000000000000e+00,5.000000000000000000e+00,5.000000000000000000e+00,5.000000000000000000e+00,5.000000000000000000e+00,5.000000000000000000e+00,5.000000000000000000e+00,5.000000000000000000e+00,5.000000000000000000e+00,5.000000000000000000e+00,5.000000000000000000e+00,5.000000000000000000e+00,5.000000000000000000e+00,5.000000000000000000e+00,5.000000000000000000e+00,5.000000000000000000e+00,4.850451946258544922e+00,4.660456657409667969e+00,4.484785556793212891e+00,4.321876049041748047e+00,4.170387744903564453e+00,4.029159545898437500e+00,3.897183179855346680e+00,3.773578166961669922e+00,3.657572984695434570e+00,3.548487663269042969e+00,3.445720434188842773e+00,3.348737955093383789e+00,3.257065773010253906e+00,3.170278549194335938e+00,3.087996482849121094e+00,3.009877443313598633e+00,2.935613632202148438e+00,2.864925861358642578e+00,2.797562122344970703e+00,2.733293771743774414e+00,2.671912193298339844e+00,2.613226890563964844e+00,2.557063817977905273e+00,2.503264188766479492e+00,2.451681852340698242e+00,2.402182102203369141e+00,2.354641914367675781e+00,2.308946847915649414e+00,2.264991521835327148e+00,2.222678422927856445e+00,2.181917428970336914e+00,2.142624378204345703e+00,2.104721307754516602e+00,2.068136215209960938e+00,2.032801389694213867e+00,1.998653292655944824e+00,1.965633988380432129e+00,1.933687686920166016e+00,1.902763128280639648e+00,1.872812271118164062e+00,1.843789458274841309e+00
5.000000000000000000e+00,5.000000000000000000e+00,5.000000000000000000e+00,5.000000000000000000e+00,5.000000000000000000e+00,5.000000000000000000e+00,5.000000000000000000e+00,5.000000000000000000e+00,5.000000000000000000e+00,5.000000000000000000e+00,5.000000000000000000e+00,5.000000000000000000e+00,5.000000000000000000e+00,5.000000000000000000e+00,5.000000000000000000e+00,5.000000000000000000e+00,5.000000000000000000e+00,5.000000000000000000e+00,5.000000000000000000e+00,5.000000000000000000e+00,5.000000000000000000e+00,5.000000000000000000e+00,5.000000000000000000e+00,5.000000000000000000e+00,5.000000000000000000e+00,5.000000000000000000e+00,5.000000000000000000e+00,5.000000000000000000e+00,5.000000000000000000e+00,5.000000000000000000e+00,5.000000000000000000e+00,5.000000000000000000e+00,5.000000000000000000e+00,5.000000000000000000e+00,5.000000000000000000e+00,5.000000000000000000e+00,5.000000000000000000e+00,5.000000000000000000e+00,5.000000000000000000e+00,4.850590705871582031e+00,4.660584926605224609e+00,4.484904289245605469e+00,4.321986198425292969e+00,4.170490264892578125e+00,4.029254913330078125e+00,3.897272825241088867e+00,3.773662328720092773e+00,3.657651901245117188e+00,3.548562049865722656e+00,3.445790529251098633e+00,3.348804235458374023e+00,3.257128238677978516e+00,3.170337915420532227e+00,3.088052749633789062e+00,3.009930849075317383e+00,2.935664415359497070e+00,2.864974260330200195e+00,2.797608375549316406e+00,2.733337879180908203e+00,2.671954393386840820e+00,2.613267183303833008e+00,2.557102441787719727e+00,2.503301143646240234e+00,2.451717138290405273e+00,2.402216196060180664e+00,2.354674577713012695e+00,2.308978319168090820e+00,2.265021800994873047e+00,2.222707509994506836e+00,2.181945323944091797e+00,2.142651319503784180e+00,2.104747533798217773e+00,2.068161249160766602e+00,2.032825708389282227e+00,1.998676896095275879e+00,1.965656757354736328e+00,1.933709502220153809e+00,1.902784466743469238e+00,1.872832894325256348e+00,1.843809485435485840e+00
5.000000000000000000e+00,5.000000000000000000e+00,5.000000000000000000e+00,5.000000000000000000e+00,5.000000000000000000e+00,5.000000000000000000e+00,5.000000000000000000e+00,5.000000000000000000e+00,5.000000000000000000e+00,5.000000000000000000e+00,5.000000000000000000e+00,5.000000000000000000e+00,5.000000000000000000e+00,5.000000000000000000e+00,5.000000000000000000e+00,5.000000000000000000e+00,5.000000000000000000e+00,5.000000000000000000e+00,5.000000000000000000e+00,5.000000000000000000e+00,5.000000000000000000e+00,5.000000000000000000e+00,5.000000000000000000e+00,5.000000000000000000e+00,5.000000000000000000e+00,5.000000000000000000e+00,5.000000000000000000e+00,5.000000000000000000e+00,5.000000000000000000e+00,5.000000000000000000e+00,5.000000000000000000e+00,5.000000000000000000e+00,5.000000000000000000e+00,5.000000000000000000e+00,5.000000000000000000e+00,5.000000000000000000e+00,5.000000000000000000e+00,5.000000000000000000e+00,5.000000000000000000e+00,4.850729465484619141e+00,4.660713195800781250e+00,4.485023021697998047e+00,4.322096824645996094e+00,4.170593261718750000e+00,4.029350757598876953e+00,3.897362470626831055e+00,3.773746252059936523e+00,3.657731056213378906e+00,3.548636436462402344e+00,3.445860385894775391e+00,3.348870277404785156e+00,3.257190704345703125e+00,3.170397281646728516e+00,3.088109016418457031e+00,3.009984254837036133e+00,2.935714960098266602e+00,2.865022659301757812e+00,2.797654628753662109e+00,2.733381986618041992e+00,2.671996593475341797e+00,2.613307476043701172e+00,2.557140827178955078e+00,2.503338098526000977e+00,2.451752662658691406e+00,2.402250289916992188e+00,2.354707241058349609e+00,2.309009790420532227e+00,2.265052080154418945e+00,2.222736597061157227e+00,2.181973457336425781e+00,2.142678499221801758e+00,2.104773759841918945e+00,2.068186521530151367e+00,2.032850027084350586e+00,1.998700499534606934e+00,1.965679526329040527e+00,1.933731675148010254e+00,1.902805805206298828e+00,1.872853636741638184e+00,1.843829631805419922e+00
3.204492092132568359e+00,3.226703643798828125e+00,3.266141176223754883e+00,5.000000000000000000e+00,5.000000000000000000e+00,5.000000000000000000e+00,5.000000000000000000e+00,5.000000000000000000e+00,5.000000000000000000e+00,5.000000000000000000e+00,5.000000000000000000e+00,5.000000000000000000e+00,5.000000000000000000e+00,5.000000000000000000e+00,5.000000000000000000e+00,5.000000000000000000e+00,5.000000000000000000e+00,5.000000000000000000e+00,5.000000000000000000e+00,5.000000000000000000e+00,5.000000000000000000e+00,5.000000000000000000e+00,5.000000000000000000e+00,5.000000000000000000e+00,5.000000000000000000e+00,5.000000000000000000e+00,5.000000000000000000e+00,5.000000000000000000e+00,5.000000000000000000e+00,5.000000000000000000e+00,5.000000000000000000e+00,5.000000000000000000e+00,5.000000000000000000e+00,5.000000000000000000e+00,5.000000000000000000e+00,5.000000000000000000e+00,5.000000000000000000e+00,5.000000000000000000e+00,5.000000000000000000e+00,4.850868225097656250e+00,4.660841464996337891e+00,4.485141277313232422e+00,4.322206974029541016e+00,4.170695781707763672e+00,4.029446601867675781e+00,3.897452116012573242e+00,3.773830413818359375e+00,3.657809972763061523e+00,3.548710346221923828e+00,3.445930480957031250e+00,3.348936557769775391e+00,3.257253408432006836e+00,3.170456647872924805e+00,3.088165283203125000e+00,3.010037899017333984e+00,2.935765743255615234e+00,2.865071058273315430e+00,2.797700881958007812e+00,2.733426094055175781e+00,2.672038555145263672e+00,2.613347768783569336e+00,2.557179450988769531e+00,2.503375053405761719e+00,2.451788187026977539e+00,2.402284383773803711e+00,2.354739904403686523e+00,2.309041023254394531e+00,2.265082359313964844e+00,2.222765684127807617e+00,2.182001590728759766e+00,2.142705678939819336e+00,2.104799747467041016e+00,2.068211793899536133e+00,2.032874345779418945e+00,1.998724102973937988e+00,1.965702295303344727e+00,1.933753728866577148e+00,1.902827262878417969e+00,1.872874379158020020e+00,1.843849658966064453e+00
3.162117242813110352e+00,3.213917732238769531e+00,3.243646383285522461e+00,3.324223756790161133e+00,5.000000000000000000e+00,5.000000000000000000e+00,5.000000000000000000e+00,5.000000000000000000e+00,5.000000000000000000e+00,5.000000000000000000e+00,5.000000000000000000e+00,5.000000000000000000e+00,5.000000000000000000e+00,5.000000000000000000e+00,5.000000000000000000e+00,5.000000000000000000e+00,5.000000000000000000e+00,5.000000000000000000e+00,5.000000000000000000e+00,5.000000000000000000e+00,5.000000000000000000e+00,5.000000000000000000e+00,5.000000000000000000e+00,5.000000000000000000e+00,5.000000000000000000e+00,5.000000000000000000e+00,5.000000000000000000e+00,5.000000000000000000e+00,5.000000000000000000e+00,5.000000000000000000e+00,5.000000000000000000e+00,5.000000000000000000e+00,5.000000000000000000e+00,5.000000000000000000e+00,5.000000000000000000e+00,5.000000000000000000e+00,5.000000000000000000e+00,5.000000000000000000e+00,5.000000000000000000e+00,4.851006984710693359e+00,4.660969734191894531e+00,4.485260009765625000e+00,4.322317123413085938e+00,4.170798301696777344e+00,4.029542446136474609e+00,3.897541284561157227e+00,3.773914337158203125e+00,3.657888889312744141e+00,3.548784494400024414e+00,3.446000576019287109e+00,3.349002599716186523e+00,3.257315874099731445e+00,3.170515537261962891e+00,3.088221549987792969e+00,3.010091304779052734e+00,2.935816764831542969e+00,2.865119457244873047e+00,2.797746896743774414e+00,2.733470201492309570e+00,2.672080516815185547e+00,2.613388061523437500e+00,2.557218074798583984e+00,2.503412008285522461e+00,2.451823711395263672e+00,2.402318239212036133e+00,2.354772806167602539e+00,2.309072494506835938e+00,2.265112638473510742e+00,2.222795009613037109e+00,2.182029485702514648e+00,2.142732620239257812e+00,2.104825973510742188e+00,2.068237066268920898e+00,2.032898664474487305e+00,1.998747587203979492e+00,1.965725183486938477e+00,1.933775782585144043e+00,1.902848601341247559e+00,1.872895002365112305e+00,1.843869686126708984e+00
3.155586481094360352e+00,3.214067220687866211e+00,3.252555131912231445e+00,3.295054435729980469e+00,5.000000000000000000e+00,5.000000000000000000e+00,5.000000000000000000e+00,5.000000000000000000e+00,5.000000000000000000e+00,5.000000000000000000e+00,5.000000000000000000e+00,5.000000000000000000e+00,5.000000000000000000e+00,5.000000000000000000e+00,5.000000000000000000e+00,5.000000000000000000e+00,5.000000000000000000e+00,5.000000000000000000e+00,5.000000000000000000e+00,5.000000000000000000e+00,5.000000000000000000e+00,5.000000000000000000e+00,5.000000000000000000e+00,5.000000000000000000e+00,5.000000000000000000e+00,5.000000000000000000e+00,5.000000000000000000e+00,5.000000000000000000e+00,5.000000000000000000e+00,5.000000000000000000e+00,5.000000000000000000e+00,5.000000000000000000e+00,5.000000000000000000e+00,5.000000000000000000e+00,5.000000000000000000e+00,5.000000000000000000e+00,5.000000000000000000e+00,5.000000000000000000e+00,5.000000000000000000e+00,4.851145744323730469e+00,4.661098003387451172e+00,4.485378742218017578e+00,4.322427272796630859e+00,4.170900821685791016e+00,4.029638290405273438e+00,3.897630929946899414e+00,3.773998498916625977e+00,3.657967805862426758e+00,3.548858880996704102e+00,3.446070671081542969e+00,3.349068880081176758e+00,3.257378578186035156e+00,3.170574903488159180e+00,3.088277816772460938e+00,3.010144710540771484e+00,2.935867547988891602e+00,2.865168094635009766e+00,2.797793149948120117e+00,2.733514308929443359e+00,2.672122716903686523e+00,2.613428354263305664e+00,2.557256698608398438e+00,2.503448963165283203e+00,2.451858997344970703e+00,2.402352333068847656e+00,2.354805469512939453e+00,2.309103965759277344e+00,2.265142917633056641e+00,2.222824096679687500e+00,2.182057619094848633e+00,2.142759561538696289e+00,2.104852199554443359e+00,2.068262338638305664e+00,2.032923221588134766e+00,1.998771190643310547e+00,1.965747952461242676e+00,1.933797836303710938e+00,1.902869939804077148e+00,1.872915744781494141e+00,1.843889832496643066e+00
3.161663770675659180e+00,3.245130300521850586e+00,3.253174543380737305e+00,3.292200088500976562e+00,5.000000000000000000e+00,5.000000000000000000e+00,5.000000000000000000e+00,5.000000000000000000e+00,5.000000000000000000e+00,5.000000000000000000e+00,5.000000000000000000e+00,5.000000000000000000e+00,5.000000000000000000e+00,5.000000000000000000e+00,5.000000000000000000e+00,5.000000000000000000e+00,5.000000000000000000e+00,5.000000000000000000e+00,5.000000000000000000e+00,5.000000000000000000e+00,5.000000000000000000e+00,5.000000000000000000e+00,5.000000000000000000e+00,5.000000000000000000e+00,5.000000000000000000e+00,5.000000000000000000e+00,5.000000000000000000e+00,5.000000000000000000e+00,5.000000000000000000e+00,5.000000000000000000e+00,5.000000000000000000e+00,5.000000000000000000e+00,5.000000000000000000e+00,5.000000000000000000e+00,5.000000000000000000e+00,5.000000000000000000e+00,5.000000000000000000e+00,5.000000000000000000e+00,5.000000000000000000e+00,4.851284980773925781e+00,4.661225795745849609e+00,4.485497474670410156e+00,4.322537422180175781e+00,4.171003341674804688e+00,4.029734134674072266e+00,3.897720575332641602e+00,3.774082422256469727e+00,3.658046722412109375e+00,3.548933267593383789e+00,3.446140527725219727e+00,3.349135160446166992e+00,3.257441282272338867e+00,3.170634269714355469e+00,3.088334083557128906e+00,3.010198116302490234e+00,2.935918331146240234e+00,2.865216255187988281e+00,2.797839403152465820e+00,2.733558416366577148e+00,2.672164916992187500e+00,2.613468647003173828e+00,2.557295322418212891e+00,2.503485918045043945e+00,2.451894283294677734e+00,2.402386426925659180e+00,2.354838132858276367e+00,2.309135437011718750e+00,2.265173196792602539e+00,2.222853183746337891e+00,2.182085752487182617e+00,2.142786741256713867e+00,2.104878187179565430e+00,2.068287611007690430e+00,2.032947540283203125e+00,1.998794794082641602e+00,1.965770721435546875e+00,1.933819890022277832e+00,1.902891278266906738e+00,1.872936367988586426e+00,1.843909859657287598e+00
3.168341159820556641e+00,5.000000000000000000e+00,3.247180938720703125e+00,3.287197351455688477e+00,5.000000000000000000e+00,5.000000000000000000e+00,5.000000000000000000e+00,5.000000000000000000e+00,5.000000000000000000e+00,5.000000000000000000e+00,5.000000000000000000e+00,5.000000000000000000e+00,5.000000000000000000e+00,5.000000000000000000e+00,5.000000000000000000e+00,5.000000000000000000e+00,5.000000000000000000e+00,5.000000000000000000e+00,5.000000000000000000e+00,5.000000000000000000e+00,5.000000000000000000e+00,5.000000000000000000e+00,5.000000000000000000e+00,5.000000000000000000e+00,5.000000000000000000e+00,5.000000000000000000e+00,5.000000000000000000e+00,5.000000000000000000e+00,5.000000000000000000e+00,5.000000000000000000e+00,5.000000000000000000e+00,5.000000000000000000e+00,5.000000000000000000e+00,5.000000000000000000e+00,5.000000000000000000e+00,5.000000000000000000e+00,5.000000000000000000e+00,5.000000000000000000e+00,5.000000000000000000e+00,4.851423740386962891e+00,4.661354064941406250e+00,4.485616207122802734e+00,4.322647571563720703e+00,4.171106338500976562e+00,4.029829502105712891e+00,3.897810220718383789e+00,3.774166584014892578e+00,3.658125638961791992e+00,3.549007654190063477e+00,3.446210384368896484e+00,3.349201202392578125e+00,3.257503747940063477e+00,3.170693635940551758e+00,3.088390350341796875e+00,3.010251760482788086e+00,2.935969352722167969e+00,2.865264654159545898e+00,2.797885656356811523e+00,2.733602523803710938e+00,2.672206878662109375e+00,2.613508701324462891e+00,2.557333946228027344e+00,2.503522872924804688e+00,2.451929807662963867e+00,2.402420520782470703e+00,2.354870796203613281e+00,2.309166908264160156e+00,2.265203237533569336e+00,2.222882509231567383e+00,2.182113885879516602e+00,2.142813920974731445e+00,2.104904413223266602e+00,2.068312883377075195e+00,2.032971858978271484e+00,1.998818397521972656e+00,1.965793609619140625e+00,1.933841943740844727e+00,1.902912616729736328e+00,1.872957110404968262e+00,1.843929886817932129e+00
3.176408529281616211e+00,5.000000000000000000e+00,3.251702070236206055e+00,3.286556243896484375e+00,5.000000000000000000e+00,5.000000000000000000e+00,5.000000000000000000e+00,5.000000000000000000e+00,5.000000000000000000e+00,5.000000000000000000e+00,5.000000000000000000e+00,5.000000000000000000e+00,5.000000000000000000e+00,5.000000000000000000e+00,5.000000000000000000e+00,5.000000000000000000e+00,5.000000000000000000e+00,5.000000000000000000e+00,5.000000000000000000e+00,5.000000000000000000e+00,5.000000000000000000e+00,5.000000000000000000e+00,5.000000000000000000e+00,5.000000000000000000e+00,5.000000000000000000e+00,5.000000000000000000e+00,5.000000000000000000e+00,5.000000000000000000e+00,5.000000000000000000e+00,5.000000000000000000e+00,5.000000000000000000e+00,5.000000000000000000e+00,5.000000000000000000e+00,5.000000000000000000e+00,5.000000000000000000e+00,5.000000000000000000e+00,5.000000000000000000e+00,5.000000000000000000e+00,5.000000000000000000e+00,4.851562023162841797e+00,4.661481857299804688e+00,4.485734939575195312e+00,4.322757720947265625e+00,4.171208858489990234e+00,4.029925346374511719e+00,3.897899866104125977e+00,3.774250268936157227e+00,3.658204793930053711e+00,3.549081802368164062e+00,3.446280479431152344e+00,3.349267482757568359e+00,3.257566452026367188e+00,3.170752763748168945e+00,3.088446378707885742e+00,3.010305166244506836e+00,2.936020135879516602e+00,2.865313053131103516e+00,2.797931909561157227e+00,2.733646631240844727e+00,2.672249078750610352e+00,2.613548994064331055e+00,2.557372570037841797e+00,2.503559827804565430e+00,2.451965332031250000e+00,2.402454614639282227e+00,2.354903697967529297e+00,2.309198379516601562e+00,2.265233516693115234e+00,2.222911596298217773e+00,2.182142019271850586e+00,2.142840862274169922e+00,2.104930400848388672e+00,2.068338155746459961e+00,2.032996177673339844e+00,1.998841881752014160e+00,1.965816378593444824e+00,1.933863997459411621e+00,1.902934074401855469e+00,1.872977614402770996e+00,1.843950033187866211e+00
3.168109178543090820e+00,5.000000000000000000e+00,3.268715858459472656e+00,3.285757064819335938e+00,5.000000000000000000e+00,5.000000000000000000e+00,5.000000000000000000e+00,5.000000000000000000e+00,5.000000000000000000e+00,5.000000000000000000e+00,5.000000000000000000e+00,5.000000000000000000e+00,5.000000000000000000e+00,5.000000000000000000e+00,5.000000000000000000e+00,5.000000000000000000e+00,5.000000000000000000e+00,5.000000000000000000e+00,5.000000000000000000e+00,5.000000000000000000e+00,5.000000000000000000e+00,5.000000000000000000e+00,5.000000000000000000e+00,5.000000000000000000e+00,5.000000000000000000e+00,5.000000000000000000e+00,5.000000000000000000e+00,5.000000000000000000e+00,5.000000000000000000e+00,5.000000000000000000e+00,5.000000000000000000e+00,5.000000000000000000e+00,5.000000000000000000e+00,5.000000000000000000e+00,5.000000000000000000e+00,5.000000000000000000e+00,5.000000000000000000e+00,5.000000000000000000e+00,5.000000000000000000e+00,4.851701259613037109e+00,4.661610126495361328e+00,4.485853195190429688e+00,4.322868347167968750e+00,4.171311378479003906e+00,4.030021190643310547e+00,3.897989511489868164e+00,3.774334192276000977e+00,3.658283710479736328e+00,3.549156188964843750e+00,3.446350574493408203e+00,3.349333524703979492e+00,3.257629156112670898e+00,3.170812129974365234e+00,3.088502645492553711e+00,3.010358572006225586e+00,2.936071157455444336e+00,2.865361452102661133e+00,2.797977685928344727e+00,2.733690738677978516e+00,2.672291278839111328e+00,2.613589286804199219e+00,2.557410955429077148e+00,2.503596782684326172e+00,2.452000856399536133e+00,2.402488470077514648e+00,2.354936361312866211e+00,2.309229850769042969e+00,2.265263795852661133e+00,2.222940683364868164e+00,2.182170152664184570e+00,2.142868041992187500e+00,2.104956626892089844e+00,2.068363189697265625e+00,2.033020734786987305e+00,1.998865485191345215e+00,1.965839147567749023e+00,1.933886051177978516e+00,1.902955412864685059e+00,1.872998356819152832e+00,1.843970060348510742e+00
3.172301530838012695e+00,5.000000000000000000e+00,3.246041297912597656e+00,3.250247955322265625e+00,5.000000000000000000e+00,5.000000000000000000e+00,5.000000000000000000e+00,5.000000000000000000e+00,5.000000000000000000e+00,5.000000000000000000e+00,5.000000000000000000e+00,5.000000000000000000e+00,5.000000000000000000e+00,5.000000000000000000e+00,5.000000000000000000e+00,5.000000000000000000e+00,5.000000000000000000e+00,5.000000000000000000e+00,5.000000000000000000e+00,5.000000000000000000e+00,5.000000000000000000e+00,5.000000000000000000e+00,5.000000000000000000e+00,5.000000000000000000e+00,5.000000000000000000e+00,5.000000000000000000e+00,5.000000000000000000e+00,5.000000000000000000e+00,5.000000000000000000e+00,5.000000000000000000e+00,5.000000000000000000e+00,5.000000000000000000e+00,5.000000000000000000e+00,5.000000000000000000e+00,5.000000000000000000e+00,5.000000000000000000e+00,5.000000000000000000e+00,5.000000000000000000e+00,5.000000000000000000e+00,4.851840019226074219e+00,4.661738395690917969e+00,4.485972404479980469e+00,4.322978496551513672e+00,4.171413898468017578e+00,4.030117034912109375e+00,3.898079156875610352e+00,3.774418354034423828e+00,3.658362627029418945e+00,3.549230575561523438e+00,3.446420669555664062e+00,3.349399566650390625e+00,3.257691621780395508e+00,3.170871496200561523e+00,3.088558912277221680e+00,3.010411977767944336e+00,2.936121940612792969e+00,2.865410089492797852e+00,2.798023939132690430e+00,2.733734846115112305e+00,2.672333478927612305e+00,2.613629579544067383e+00,2.557449579238891602e+00,2.503633975982666016e+00,2.452036380767822266e+00,2.402522563934326172e+00,2.354969024658203125e+00,2.309261322021484375e+00,2.265294075012207031e+00,2.222969770431518555e+00,2.182198286056518555e+00,2.142894983291625977e+00,2.104982614517211914e+00,2.068388462066650391e+00,2.033045053482055664e+00,1.998889088630676270e+00,1.965861678123474121e+00,1.933908104896545410e+00,1.902976751327514648e+00,1.873018980026245117e+00,1.843990087509155273e+00
3.167275905609130859e+00,5.000000000000000000e+00,5.000000000000000000e+00,3.219980478286743164e+00,5.000000000000000000e+00,5.000000000000000000e+00,5.000000000000000000e+00,5.000000000000000000e+00,5.000000000000000000e+00,5.000000000000000000e+00,5.000000000000000000e+00,5.000000000000000000e+00,5.000000000000000000e+00,5.000000000000000000e+00,5.000000000000000000e+00,5.000000000000000000e+00,5.000000000000000000e+00,5.000000000000000000e+00,5.000000000000000000e+00,5.000000000000000000e+00,5.000000000000000000e+00,5.000000000000000000e+00,5.000000000000000000e+00,5.000000000000000000e+00,5.000000000000000000e+00,5.000000000000000000e+00,5.000000000000000000e+00,5.000000000000000000e+00,5.000000000000000000e+00,5.000000000000000000e+00,5.000000000000000000e+00,5.000000000000000000e+00,5.000000000000000000e+00,5.000000000000000000e+00,5.000000000000000000e+00,5.000000000000000000e+00,5.000000000000000000e+00,5.000000000000000000e+00,5.000000000000000000e+00,4.851978778839111328e+00,4.661866664886474609e+00,4.486091136932373047e+00,4.323088645935058594e+00,4.171516418457031250e+00,4.030212879180908203e+00,3.898168802261352539e+00,3.774502277374267578e+00,3.658441543579101562e+00,3.549304962158203125e+00,3.446490764617919922e+00,3.349465608596801758e+00,3.257754325866699219e+00,3.170930862426757812e+00,3.088615179061889648e+00,3.010465383529663086e+00,2.936172723770141602e+00,2.865458488464355469e+00,2.798070192337036133e+00,2.733778953552246094e+00,2.672375440597534180e+00,2.613669872283935547e+00,2.557487964630126953e+00,2.503670930862426758e+00,2.452071666717529297e+00,2.402556657791137695e+00,2.355001688003540039e+00,2.309292793273925781e+00,2.265324354171752930e+00,2.222998857498168945e+00,2.182226181030273438e+00,2.142922163009643555e+00,2.105008840560913086e+00,2.068413734436035156e+00,2.033069372177124023e+00,1.998912692070007324e+00,1.965884566307067871e+00,1.933930277824401855e+00,1.902998089790344238e+00,1.873039722442626953e+00,1.844010114669799805e+00
3.168272495269775391e+00,5.000000000000000000e+00,5.000000000000000000e+00,3.204527854919433594e+00,5.000000000000000000e+00,5.000000000000000000e+00,5.000000000000000000e+00,5.000000000000000000e+00,5.000000000000000000e+00,5.000000000000000000e+00,5.000000000000000000e+00,5.000000000000000000e+00,5.000000000000000000e+00,5.000000000000000000e+00,5.000000000000000000e+00,5.000000000000000000e+00,5.000000000000000000e+00,5.000000000000000000e+00,5.000000000000000000e+00,5.000000000000000000e+00,5.000000000000000000e+00,5.000000000000000000e+00,5.000000000000000000e+00,5.000000000000000000e+00,5.000000000000000000e+00,5.000000000000000000e+00,5.000000000000000000e+00,5.000000000000000000e+00,5.000000000000000000e+00,5.000000000000000000e+00,5.000000000000000000e+00,5.000000000000000000e+00,5.000000000000000000e+00,5.000000000000000000e+00,5.000000000000000000e+00,5.000000000000000000e+00,5.000000000000000000e+00,5.000000000000000000e+00,5.000000000000000000e+00,4.852118015289306641e+00,4.661994934082031250e+00,4.486209869384765625e+00,4.323198795318603516e+00,4.171619415283203125e+00,4.030308723449707031e+00,3.898258447647094727e+00,3.774586439132690430e+00,3.658520221710205078e+00,3.549379110336303711e+00,3.446560859680175781e+00,3.349531888961791992e+00,3.257817029953002930e+00,3.170990228652954102e+00,3.088671445846557617e+00,3.010518789291381836e+00,2.936223745346069336e+00,2.865506887435913086e+00,2.798116445541381836e+00,2.733823060989379883e+00,2.672417640686035156e+00,2.613710165023803711e+00,2.557526588439941406e+00,2.503707885742187500e+00,2.452107191085815430e+00,2.402590513229370117e+00,2.355034351348876953e+00,2.309324264526367188e+00,2.265354633331298828e+00,2.223028182983398438e+00,2.182254314422607422e+00,2.142949342727661133e+00,2.105035066604614258e+00,2.068439006805419922e+00,2.033093929290771484e+00,1.998936295509338379e+00,1.965907335281372070e+00,1.933952331542968750e+00,1.903019547462463379e+00,1.873060464859008789e+00,1.844030261039733887e+00
3.168195724487304688e+00,3.249996423721313477e+00,5.000000000000000000e+00,3.160719156265258789e+00,3.221868515014648438e+00,5.000000000000000000e+00,5.000000000000000000e+00,5.000000000000000000e+00,5.000000000000000000e+00,5.000000000000000000e+00,5.000000000000000000e+00,5.000000000000000000e+00,5.000000000000000000e+00,5.000000000000000000e+00,5.000000000000000000e+00,5.000000000000000000e+00,5.000000000000000000e+00,5.000000000000000000e+00,5.000000000000000000e+00,5.000000000000000000e+00,5.000000000000000000e+00,5.000000000000000000e+00,5.000000000000000000e+00,5.000000000000000000e+00,5.000000000000000000e+00,5.000000000000000000e+00,5.000000000000000000e+00,5.000000000000000000e+00,5.000000000000000000e+00,5.000000000000000000e+00,5.000000000000000000e+00,5.000000000000000000e+00,5.000000000000000000e+00,5.000000000000000000e+00,5.000000000000000000e+00,5.000000000000000000e+00,5.000000000000000000e+00,5.000000000000000000e+00,5.000000000000000000e+00,4.852256774902343750e+00,4.662122726440429688e+00,4.486328601837158203e+00,4.323308944702148438e+00,4.171721935272216797e+00,4.030404567718505859e+00,3.898348331451416016e+00,3.774670600891113281e+00,3.658599138259887695e+00,3.549453496932983398e+00,3.446630954742431641e+00,3.349598169326782227e+00,3.257879257202148438e+00,3.171049594879150391e+00,3.088727712631225586e+00,3.010572195053100586e+00,2.936274528503417969e+00,2.865555286407470703e+00,2.798162698745727539e+00,2.733866930007934570e+00,2.672459840774536133e+00,2.613750457763671875e+00,2.557565212249755859e+00,2.503744840621948242e+00,2.452142715454101562e+00,2.402624607086181641e+00,2.355067014694213867e+00,2.309355735778808594e+00,2.265384912490844727e+00,2.223057270050048828e+00,2.182282447814941406e+00,2.142976284027099609e+00,2.105061054229736328e+00,2.068464040756225586e+00,2.033118247985839844e+00,1.998959779739379883e+00,1.965930104255676270e+00,1.933974385261535645e+00,1.903040885925292969e+00,1.873081088066101074e+00,1.844050288200378418e+00
3.171926736831665039e+00,3.251495599746704102e+00,5.000000000000000000e+00,5.000000000000000000e+00,3.172459602355957031e+00,5.000000000000000000e+00,5.000000000000000000e+00,5.000000000000000000e+00,5.000000000000000000e+00,5.000000000000000000e+00,5.000000000000000000e+00,5.000000000000000000e+00,5.000000000000000000e+00,5.000000000000000000e+00,5.000000000000000000e+00,5.000000000000000000e+00,5.000000000000000000e+00,5.000000000000000000e+00,5.000000000000000000e+00,5.000000000000000000e+00,5.000000000000000000e+00,5.000000000000000000e+00,5.000000000000000000e+00,5.000000000000000000e+00,5.000000000000000000e+00,5.000000000000000000e+00,5.000000000000000000e+00,5.000000000000000000e+00,5.000000000000000000e+00,5.000000000000000000e+00,5.000000000000000000e+00,5.000000000000000000e+00,5.000000000000000000e+00,5.000000000000000000e+00,5.000000000000000000e+00,5.000000000000000000e+00,5.000000000000000000e+00,5.000000000000000000e+00,5.000000000000000000e+00,4.852395534515380859e+00,4.662250995635986328e+00,4.486447334289550781e+00,4.323419094085693359e+00,4.171824455261230469e+00,4.030500411987304688e+00,3.898437976837158203e+00,3.774754524230957031e+00,3.658678054809570312e+00,3.549527883529663086e+00,3.446701049804687500e+00,3.349664211273193359e+00,3.257941961288452148e+00,3.171108961105346680e+00,3.088784217834472656e+00,3.010625839233398438e+00,2.936325311660766602e+00,2.865603685379028320e+00,2.798208713531494141e+00,2.733911037445068359e+00,2.672502040863037109e+00,2.613790750503540039e+00,2.557603836059570312e+00,2.503781557083129883e+00,2.452178239822387695e+00,2.402658700942993164e+00,2.355099916458129883e+00,2.309387207031250000e+00,2.265415191650390625e+00,2.223086357116699219e+00,2.182310342788696289e+00,2.143003463745117188e+00,2.105087280273437500e+00,2.068489313125610352e+00,2.033142566680908203e+00,1.998983383178710938e+00,1.965952992439270020e+00,1.933996438980102539e+00,1.903062224388122559e+00,1.873101830482482910e+00,1.844070315361022949e+00
3.182631731033325195e+00,5.000000000000000000e+00,5.000000000000000000e+00,5.000000000000000000e+00,3.142292976379394531e+00,5.000000000000000000e+00,5.000000000000000000e+00,5.000000000000000000e+00,5.000000000000000000e+00,5.000000000000000000e+00,5.000000000000000000e+00,5.000000000000000000e+00,5.000000000000000000e+00,5.000000000000000000e+00,5.000000000000000000e+00,5.000000000000000000e+00,5.000000000000000000e+00,5.000000000000000000e+00,5.000000000000000000e+00,5.000000000000000000e+00,5.000000000000000000e+00,5.000000000000000000e+00,5.000000000000000000e+00,5.000000000000000000e+00,5.000000000000000000e+00,5.000000000000000000e+00,5.000000000000000000e+00,5.000000000000000000e+00,5.000000000000000000e+00,5.000000000000000000e+00,5.000000000000000000e+00,5.000000000000000000e+00,5.000000000000000000e+00,5.000000000000000000e+00,5.000000000000000000e+00,5.000000000000000000e+00,5.000000000000000000e+00,5.000000000000000000e+00,5.000000000000000000e+00,4.852534294128417969e+00,4.662379264831542969e+00,4.486565589904785156e+00,4.323529720306396484e+00,4.171927452087402344e+00,4.030596256256103516e+00,3.898527622222900391e+00,3.774838685989379883e+00,3.658757209777832031e+00,3.549601793289184570e+00,3.446771144866943359e+00,3.349730491638183594e+00,3.258004426956176758e+00,3.171168088912963867e+00,3.088840484619140625e+00,3.010679244995117188e+00,2.936376094818115234e+00,2.865652322769165039e+00,2.798254966735839844e+00,2.733955144882202148e+00,2.672544002532958984e+00,2.613831043243408203e+00,2.557642459869384766e+00,2.503818511962890625e+00,2.452213764190673828e+00,2.402692794799804688e+00,2.355132579803466797e+00,2.309418678283691406e+00,2.265445470809936523e+00,2.223115444183349609e+00,2.182338476181030273e+00,2.143030643463134766e+00,2.105113506317138672e+00,2.068514585494995117e+00,2.033166885375976562e+00,1.999006986618041992e+00,1.965975761413574219e+00,1.934018492698669434e+00,1.903083682060241699e+00,1.873122572898864746e+00,1.844090461730957031e+00
3.195928812026977539e+00,5.000000000000000000e+00,5.000000000000000000e+00,5.000000000000000000e+00,5.000000000000000000e+00,5.000000000000000000e+00,5.000000000000000000e+00,5.000000000000000000e+00,5.000000000000000000e+00,5.000000000000000000e+00,5.000000000000000000e+00,5.000000000000000000e+00,5.000000000000000000e+00,5.000000000000000000e+00,5.000000000000000000e+00,5.000000000000000000e+00,5.000000000000000000e+00,5.000000000000000000e+00,5.000000000000000000e+00,5.000000000000000000e+00,5.000000000000000000e+00,5.000000000000000000e+00,5.000000000000000000e+00,5.000000000000000000e+00,5.000000000000000000e+00,5.000000000000000000e+00,5.000000000000000000e+00,5.000000000000000000e+00,5.000000000000000000e+00,5.000000000000000000e+00,5.000000000000000000e+00,5.000000000000000000e+00,5.000000000000000000e+00,5.000000000000000000e+00,5.000000000000000000e+00,5.000000000000000000e+00,5.000000000000000000e+00,5.000000000000000000e+00,5.000000000000000000e+00,4.852673053741455078e+00,4.662507534027099609e+00,4.486684322357177734e+00,4.323639869689941406e+00,4.172029972076416016e+00,4.030692100524902344e+00,3.898617267608642578e+00,3.774922847747802734e+00,3.658836126327514648e+00,3.549676179885864258e+00,3.446841239929199219e+00,3.349796772003173828e+00,3.258067131042480469e+00,3.171227455139160156e+00,3.088896751403808594e+00,3.010732650756835938e+00,2.936426877975463867e+00,2.865700721740722656e+00,2.798301219940185547e+00,2.733999252319335938e+00,2.672585964202880859e+00,2.613871574401855469e+00,2.557681083679199219e+00,2.503855705261230469e+00,2.452249288558959961e+00,2.402726888656616211e+00,2.355165243148803711e+00,2.309449911117553711e+00,2.265475749969482422e+00,2.223144769668579102e+00,2.182366609573364258e+00,2.143057584762573242e+00,2.105139493942260742e+00,2.068539857864379883e+00,2.033191204071044922e+00,1.999030590057373047e+00,1.965998530387878418e+00,1.934040546417236328e+00,1.903105020523071289e+00,1.873143196105957031e+00,1.844110488891601562e+00
3.208104372024536133e+00,5.000000000000000000e+00,5.000000000000000000e+00,5.000000000000000000e+00,5.000000000000000000e+00,5.000000000000000000e+00,5.000000000000000000e+00,5.000000000000000000e+00,5.000000000000000000e+00,5.000000000000000000e+00,5.000000000000000000e+00,5.000000000000000000e+00,5.000000000000000000e+00,5.000000000000000000e+00,5.000000000000000000e+00,5.000000000000000000e+00,5.000000000000000000e+00,5.000000000000000000e+00,5.000000000000000000e+00,5.000000000000000000e+00,5.000000000000000000e+00,5.000000000000000000e+00,5.000000000000000000e+00,5.000000000000000000e+00,5.000000000000000000e+00,5.000000000000000000e+00,5.000000000000000000e+00,5.000000000000000000e+00,5.000000000000000000e+00,5.000000000000000000e+00,5.000000000000000000e+00,5.000000000000000000e+00,5.000000000000000000e+00,5.000000000000000000e+00,5.000000000000000000e+00,5.000000000000000000e+00,5.000000000000000000e+00,5.000000000000000000e+00,5.000000000000000000e+00,4.852812290191650391e+00,4.662636280059814453e+00,4.486803054809570312e+00,4.323750019073486328e+00,4.172132492065429688e+00,4.030787944793701172e+00,3.898706436157226562e+00,3.775006771087646484e+00,3.658915042877197266e+00,3.549750566482543945e+00,3.446911334991455078e+00,3.349863052368164062e+00,3.258129835128784180e+00,3.171286582946777344e+00,3.088953018188476562e+00,3.010786294937133789e+00,2.936477899551391602e+00,2.865749120712280273e+00,2.798347473144531250e+00,2.734043359756469727e+00,2.672628164291381836e+00,2.613911867141723633e+00,2.557719707489013672e+00,2.503892660140991211e+00,2.452284574508666992e+00,2.402760982513427734e+00,2.355197906494140625e+00,2.309481382369995117e+00,2.265506029129028320e+00,2.223173856735229492e+00,2.182394742965698242e+00,2.143084764480590820e+00,2.105165719985961914e+00,2.068565130233764648e+00,2.033215761184692383e+00,1.999054074287414551e+00,1.966021418571472168e+00,1.934062719345092773e+00,1.903126120567321777e+00,1.873163938522338867e+00,9.941527247428894043e-01
3.220627546310424805e+00,5.000000000000000000e+00,5.000000000000000000e+00,5.000000000000000000e+00,5.000000000000000000e+00,5.000000000000000000e+00,5.000000000000000000e+00,5.000000000000000000e+00,5.000000000000000000e+00,5.000000000000000000e+00,5.000000000000000000e+00,5.000000000000000000e+00,5.000000000000000000e+00,5.000000000000000000e+00,5.000000000000000000e+00,5.000000000000000000e+00,5.000000000000000000e+00,5.000000000000000000e+00,5.000000000000000000e+00,5.000000000000000000e+00,5.000000000000000000e+00,5.000000000000000000e+00,5.000000000000000000e+00,5.000000000000000000e+00,5.000000000000000000e+00,5.000000000000000000e+00,5.000000000000000000e+00,5.000000000000000000e+00,5.000000000000000000e+00,5.000000000000000000e+00,5.000000000000000000e+00,5.000000000000000000e+00,5.000000000000000000e+00,5.000000000000000000e+00,5.000000000000000000e+00,5.000000000000000000e+00,5.000000000000000000e+00,5.000000000000000000e+00,5.000000000000000000e+00,4.852951049804687500e+00,4.662764072418212891e+00,4.486922264099121094e+00,4.323860645294189453e+00,4.172235012054443359e+00,4.030883789062500000e+00,3.898796319961547852e+00,3.775090932846069336e+00,3.658994197845458984e+00,3.549824953079223633e+00,3.446981668472290039e+00,3.349929094314575195e+00,3.258192300796508789e+00,3.171345949172973633e+00,3.089009284973144531e+00,3.010839700698852539e+00,2.936528682708740234e+00,2.865797281265258789e+00,2.798393726348876953e+00,2.734087467193603516e+00,2.672670364379882812e+00,2.613952159881591797e+00,2.557758331298828125e+00,2.503929615020751953e+00,2.452320098876953125e+00,2.402795076370239258e+00,2.355230808258056641e+00,2.309512853622436523e+00,2.265536308288574219e+00,2.223202943801879883e+00,2.182422876358032227e+00,2.143111705780029297e+00,2.105191946029663086e+00,2.068590402603149414e+00,2.033240079879760742e+00,1.999077677726745605e+00,1.966044187545776367e+00,1.934084773063659668e+00,1.903147578239440918e+00,1.002429127693176270e+00,9.803680181503295898e-01
3.278210163116455078e+00,5.000000000000000000e+00,5.000000000000000000e+00,5.000000000000000000e+00,5.000000000000000000e+00,5.000000000000000000e+00,5.000000000000000000e+00,5.000000000000000000e+00,5.000000000000000000e+00,5.000000000000000000e+00,5.000000000000000000e+00,5.000000000000000000e+00,5.000000000000000000e+00,5.000000000000000000e+00,5.000000000000000000e+00,5.000000000000000000e+00,5.000000000000000000e+00,5.000000000000000000e+00,5.000000000000000000e+00,5.000000000000000000e+00,5.000000000000000000e+00,5.000000000000000000e+00,5.000000000000000000e+00,5.000000000000000000e+00,5.000000000000000000e+00,5.000000000000000000e+00,5.000000000000000000e+00,5.000000000000000000e+00,5.000000000000000000e+00,5.000000000000000000e+00,5.000000000000000000e+00,5.000000000000000000e+00,5.000000000000000000e+00,5.000000000000000000e+00,5.000000000000000000e+00,5.000000000000000000e+00,5.000000000000000000e+00,5.000000000000000000e+00,5.000000000000000000e+00,4.853090286254882812e+00,4.662892341613769531e+00,4.487040996551513672e+00,4.323970794677734375e+00,4.172338008880615234e+00,4.030979633331298828e+00,3.898885965347290039e+00,3.775175094604492188e+00,3.659073114395141602e+00,3.549899339675903320e+00,3.447051286697387695e+00,3.349995374679565430e+00,3.258255004882812500e+00,3.171405315399169922e+00,3.089065551757812500e+00,3.010893106460571289e+00,2.936579465866088867e+00,2.865845918655395508e+00,2.798439741134643555e+00,2.734131574630737305e+00,2.672712564468383789e+00,2.613992452621459961e+00,2.557796955108642578e+00,2.503966569900512695e+00,2.452355384826660156e+00,2.402829170227050781e+00,2.355263471603393555e+00,2.309544324874877930e+00,2.265566349029541016e+00,2.223232269287109375e+00,2.182451009750366211e+00,2.143138885498046875e+00,2.105218172073364258e+00,2.068615674972534180e+00,2.033264398574829102e+00,1.999101042747497559e+00,1.966066956520080566e+00,1.934106826782226562e+00,1.015268087387084961e+00,9.947468638420104980e-01,9.775651693344116211e-01
3.299646377563476562e+00,5.000000000000000000e+00,5.000000000000000000e+00,5.000000000000000000e+00,5.000000000000000000e+00,5.000000000000000000e+00,5.000000000000000000e+00,5.000000000000000000e+00,5.000000000000000000e+00,5.000000000000000000e+00,5.000000000000000000e+00,5.000000000000000000e+00,5.000000000000000000e+00,5.000000000000000000e+00,5.000000000000000000e+00,5.000000000000000000e+00,5.000000000000000000e+00,5.000000000000000000e+00,5.000000000000000000e+00,5.000000000000000000e+00,5.000000000000000000e+00,5.000000000000000000e+00,5.000000000000000000e+00,5.000000000000000000e+00,5.000000000000000000e+00,5.000000000000000000e+00,5.000000000000000000e+00,5.000000000000000000e+00,5.000000000000000000e+00,5.000000000000000000e+00,5.000000000000000000e+00,5.000000000000000000e+00,5.000000000000000000e+00,5.000000000000000000e+00,5.000000000000000000e+00,5.000000000000000000e+00,5.000000000000000000e+00,5.000000000000000000e+00,5.000000000000000000e+00,4.853228569030761719e+00,4.663020610809326172e+00,4.487159729003906250e+00,4.324080944061279297e+00,4.172440528869628906e+00,4.031075477600097656e+00,3.898975610733032227e+00,3.775258779525756836e+00,3.659152030944824219e+00,3.549973726272583008e+00,3.447121381759643555e+00,3.350061655044555664e+00,3.258317708969116211e+00,3.171464681625366211e+00,3.089121580123901367e+00,3.010946750640869141e+00,2.936630487442016602e+00,2.865894317626953125e+00,2.798485994338989258e+00,2.734175682067871094e+00,2.672754526138305664e+00,2.614032506942749023e+00,2.557835578918457031e+00,2.504003524780273438e+00,2.452390909194946289e+00,2.402863264083862305e+00,2.355296134948730469e+00,2.309575796127319336e+00,2.265596628189086914e+00,2.223261356353759766e+00,2.182479143142700195e+00,2.143166065216064453e+00,2.105244159698486328e+00,2.068640947341918945e+00,2.033288955688476562e+00,1.999124646186828613e+00,1.966089844703674316e+00,1.028440117835998535e+00,1.009553909301757812e+00,9.920742511749267578e-01,9.739936590194702148e-01
3.358712673187255859e+00,5.000000000000000000e+00,5.000000000000000000e+00,5.000000000000000000e+00,5.000000000000000000e+00,5.000000000000000000e+00,5.000000000000000000e+00,5.000000000000000000e+00,5.000000000000000000e+00,5.000000000000000000e+00,5.000000000000000000e+00,5.000000000000000000e+00,5.000000000000000000e+00,5.000000000000000000e+00,5.000000000000000000e+00,5.000000000000000000e+00,5.000000000000000000e+00,5.000000000000000000e+00,5.000000000000000000e+00,5.000000000000000000e+00,5.000000000000000000e+00,5.000000000000000000e+00,5.000000000000000000e+00,5.000000000000000000e+00,5.000000000000000000e+00,5.000000000000000000e+00,5.000000000000000000e+00,5.000000000000000000e+00,5.000000000000000000e+00,5.000000000000000000e+00,5.000000000000000000e+00,5.000000000000000000e+00,5.000000000000000000e+00,5.000000000000000000e+00,5.000000000000000000e+00,5.000000000000000000e+00,5.000000000000000000e+00,5.000000000000000000e+00,5.000000000000000000e+00,4.853366374969482422e+00,4.663148880004882812e+00,4.487278461456298828e+00,4.324191093444824219e+00,4.172543525695800781e+00,4.031171321868896484e+00,3.899065256118774414e+00,3.775342941284179688e+00,3.659231185913085938e+00,3.550048112869262695e+00,3.447191476821899414e+00,3.350127935409545898e+00,3.258380413055419922e+00,3.171524047851562500e+00,3.089177846908569336e+00,3.011000156402587891e+00,2.936681270599365234e+00,2.865942716598510742e+00,2.798532247543334961e+00,2.734219789505004883e+00,2.672796726226806641e+00,2.614072799682617188e+00,2.557873964309692383e+00,2.504040718078613281e+00,2.452426433563232422e+00,2.402897119522094727e+00,2.355329036712646484e+00,2.309607267379760742e+00,2.265626907348632812e+00,2.223290443420410156e+00,2.182507276535034180e+00,2.143193006515502930e+00,2.105270147323608398e+00,2.068666219711303711e+00,2.033313274383544922e+00,1.999148249626159668e+00,1.966112613677978516e+00,1.024808406829833984e+00,1.006801247596740723e+00,9.895247220993041992e-01,9.783466458320617676e-01
3.421218395233154297e+00,5.000000000000000000e+00,5.000000000000000000e+00,5.000000000000000000e+00,5.000000000000000000e+00,5.000000000000000000e+00,5.000000000000000000e+00,5.000000000000000000e+00,5.000000000000000000e+00,5.000000000000000000e+00,5.000000000000000000e+00,5.000000000000000000e+00,5.000000000000000000e+00,5.000000000000000000e+00,5.000000000000000000e+00,5.000000000000000000e+00,5.000000000000000000e+00,5.000000000000000000e+00,5.000000000000000000e+00,5.000000000000000000e+00,5.000000000000000000e+00,5.000000000000000000e+00,5.000000000000000000e+00,5.000000000000000000e+00,5.000000000000000000e+00,5.000000000000000000e+00,5.000000000000000000e+00,5.000000000000000000e+00,5.000000000000000000e+00,5.000000000000000000e+00,5.000000000000000000e+00,5.000000000000000000e+00,5.000000000000000000e+00,5.000000000000000000e+00,5.000000000000000000e+00,5.000000000000000000e+00,5.000000000000000000e+00,5.000000000000000000e+00,5.000000000000000000e+00,4.853504657745361328e+00,4.663276195526123047e+00,4.487397193908691406e+00,4.324301719665527344e+00,4.172646045684814453e+00,4.031267166137695312e+00,3.899155139923095703e+00,3.775426864624023438e+00,3.659310102462768555e+00,3.550122261047363281e+00,3.447261810302734375e+00,3.350193738937377930e+00,3.258442878723144531e+00,3.171583414077758789e+00,3.089234352111816406e+00,3.011053562164306641e+00,2.936732292175292969e+00,2.865991353988647461e+00,2.798578262329101562e+00,2.734263896942138672e+00,2.672838926315307617e+00,2.614113092422485352e+00,2.557912588119506836e+00,2.504077672958374023e+00,2.452461957931518555e+00,2.402931213378906250e+00,2.355361700057983398e+00,2.309638738632202148e+00,2.265657186508178711e+00,2.223319768905639648e+00,2.182535409927368164e+00,2.143220186233520508e+00,2.105296373367309570e+00,2.068691492080688477e+00,1.100551128387451172e+00,1.081950426101684570e+00,1.062903285026550293e+00,1.038185954093933105e+00,1.007471084594726562e+00,9.959596395492553711e-01,9.847081303596496582e-01
5.000000000000000000e+00,5.000000000000000000e+00,5.000000000000000000e+00,5.000000000000000000e+00,5.000000000000000000e+00,5.000000000000000000e+00,5.000000000000000000e+00,5.000000000000000000e+00,5.000000000000000000e+00,5.000000000000000000e+00,5.000000000000000000e+00,5.000000000000000000e+00,5.000000000000000000e+00,5.000000000000000000e+00,5.000000000000000000e+00,5.000000000000000000e+00,5.000000000000000000e+00,5.000000000000000000e+00,5.000000000000000000e+00,5.000000000000000000e+00,5.000000000000000000e+00,5.000000000000000000e+00,5.000000000000000000e+00,5.000000000000000000e+00,5.000000000000000000e+00,5.000000000000000000e+00,5.000000000000000000e+00,5.000000000000000000e+00,5.000000000000000000e+00,5.000000000000000000e+00,5.000000000000000000e+00,5.000000000000000000e+00,5.000000000000000000e+00,5.000000000000000000e+00,5.000000000000000000e+00,5.000000000000000000e+00,5.000000000000000000e+00,5.000000000000000000e+00,5.000000000000000000e+00,4.853642940521240234e+00,4.663403511047363281e+00,4.487515449523925781e+00,4.324411869049072266e+00,4.172748565673828125e+00,4.031363010406494141e+00,3.899244785308837891e+00,3.775511026382446289e+00,3.659389257431030273e+00,3.550196647644042969e+00,3.447331905364990234e+00,3.350260019302368164e+00,3.258505582809448242e+00,3.171642780303955078e+00,3.089290618896484375e+00,3.011107206344604492e+00,2.936783075332641602e+00,2.866039752960205078e+00,2.798624515533447266e+00,2.734308004379272461e+00,2.672881126403808594e+00,2.614153623580932617e+00,2.557951211929321289e+00,2.504114627838134766e+00,2.452497482299804688e+00,2.402965307235717773e+00,2.355394363403320312e+00,2.309670209884643555e+00,2.265687465667724609e+00,2.223348855972290039e+00,2.182563304901123047e+00,2.143247365951538086e+00,2.105322599411010742e+00,1.108927845954895020e+00,1.089811682701110840e+00,1.070997953414916992e+00,1.052369117736816406e+00,1.035177946090698242e+00,1.020698666572570801e+00,1.002686381340026855e+00,9.912834763526916504e-01
5.000000000000000000e+00,5.000000000000000000e+00,5.000000000000000000e+00,5.000000000000000000e+00,5.000000000000000000e+00,5.000000000000000000e+00,5.000000000000000000e+00,5.000000000000000000e+00,5.000000000000000000e+00,5.000000000000000000e+00,5.000000000000000000e+00,5.000000000000000000e+00,5.000000000000000000e+00,5.000000000000000000e+00,5.000000000000000000e+00,5.000000000000000000e+00,5.000000000000000000e+00,5.000000000000000000e+00,5.000000000000000000e+00,5.000000000000000000e+00,5.000000000000000000e+00,5.000000000000000000e+00,5.000000000000000000e+00,5.000000000000000000e+00,5.000000000000000000e+00,5.000000000000000000e+00,5.000000000000000000e+00,5.000000000000000000e+00,5.000000000000000000e+00,5.000000000000000000e+00,5.000000000000000000e+00,5.000000000000000000e+00,5.000000000000000000e+00,5.000000000000000000e+00,5.000000000000000000e+00,5.000000000000000000e+00,5.000000000000000000e+00,5.000000000000000000e+00,5.000000000000000000e+00,4.853780746459960938e+00,4.663531303405761719e+00,4.487633228302001953e+00,4.324522018432617188e+00,4.172851562500000000e+00,4.031458854675292969e+00,3.899334430694580078e+00,3.775595188140869141e+00,3.659467697143554688e+00,3.550271034240722656e+00,3.447402000427246094e+00,3.350326299667358398e+00,3.258568286895751953e+00,3.171702146530151367e+00,3.089346885681152344e+00,3.011160373687744141e+00,2.936834096908569336e+00,2.866088151931762695e+00,2.798670768737792969e+00,2.734352111816406250e+00,2.672923326492309570e+00,2.614193916320800781e+00,2.557989597320556641e+00,2.504151582717895508e+00,2.452533006668090820e+00,2.402999162673950195e+00,2.355427265167236328e+00,2.309701681137084961e+00,2.265717744827270508e+00,2.223377943038940430e+00,2.182591438293457031e+00,2.143274307250976562e+00,2.105348587036132812e+00,1.102842092514038086e+00,1.083427309989929199e+00,1.065835714340209961e+00,1.050570964813232422e+00,1.036900997161865234e+00,1.027526736259460449e+00,1.019678950309753418e+00,9.979470968246459961e-01
5.000000000000000000e+00,5.000000000000000000e+00,5.000000000000000000e+00,5.000000000000000000e+00,5.000000000000000000e+00,5.000000000000000000e+00,5.000000000000000000e+00,5.000000000000000000e+00,5.000000000000000000e+00,5.000000000000000000e+00,5.000000000000000000e+00,5.000000000000000000e+00,5.000000000000000000e+00,5.000000000000000000e+00,5.000000000000000000e+00,5.000000000000000000e+00,5.000000000000000000e+00,5.000000000000000000e+00,5.000000000000000000e+00,5.000000000000000000e+00,5.000000000000000000e+00,5.000000000000000000e+00,5.000000000000000000e+00,5.000000000000000000e+00,5.000000000000000000e+00,5.000000000000000000e+00,5.000000000000000000e+00,5.000000000000000000e+00,5.000000000000000000e+00,5.000000000000000000e+00,5.000000000000000000e+00,5.000000000000000000e+00,5.000000000000000000e+00,5.000000000000000000e+00,5.000000000000000000e+00,5.000000000000000000e+00,5.000000000000000000e+00,5.000000000000000000e+00,5.000000000000000000e+00,4.853919029235839844e+00,4.663658618927001953e+00,4.487751483917236328e+00,4.324631214141845703e+00,4.172954082489013672e+00,4.031554698944091797e+00,3.899424314498901367e+00,3.775679349899291992e+00,3.659546852111816406e+00,3.550345420837402344e+00,3.447472095489501953e+00,3.350392341613769531e+00,3.258630990982055664e+00,3.171761512756347656e+00,3.089403152465820312e+00,3.011213779449462891e+00,2.936884880065917969e+00,2.866136550903320312e+00,2.798716783523559570e+00,2.734395980834960938e+00,2.672965526580810547e+00,2.614234209060668945e+00,2.558028221130371094e+00,2.504188537597656250e+00,2.452568531036376953e+00,2.403033256530761719e+00,2.355459690093994141e+00,2.309733152389526367e+00,2.265748023986816406e+00,2.223407030105590820e+00,2.182619571685791016e+00,2.143301486968994141e+00,2.105374813079833984e+00,2.068767070770263672e+00,1.078146100044250488e+00,1.063080668449401855e+00,1.050317168235778809e+00,1.041496276855468750e+00,1.034929633140563965e+00,1.027912855148315430e+00,1.844290971755981445e+00
4.875279903411865234e+00,4.874069213867187500e+00,4.872859001159667969e+00,4.871650218963623047e+00,4.870441436767578125e+00,4.869233131408691406e+00,4.868025779724121094e+00,4.866818904876708984e+00,4.865612506866455078e+00,4.864407062530517578e+00,4.863201618194580078e+00,4.861997604370117188e+00,4.860793590545654297e+00,4.859590053558349609e+00,4.858387470245361328e+00,4.857185363769531250e+00,4.855984210968017578e+00,4.854783058166503906e+00,4.853582859039306641e+00,4.852383136749267578e+00,4.851184368133544922e+00,4.849985599517822266e+00,4.848787307739257812e+00,4.847590446472167969e+00,4.846393108367919922e+00,4.845197200775146484e+00,4.844001770019531250e+00,4.842806816101074219e+00,4.841612339019775391e+00,4.840418815612792969e+00,4.839225292205810547e+00,4.838032245635986328e+00,4.836840629577636719e+00,4.835649013519287109e+00,4.834458351135253906e+00,4.833267688751220703e+00,4.832078456878662109e+00,4.830888748168945312e+00,4.829700469970703125e+00,4.828512668609619141e+00,4.663786411285400391e+00,4.487869739532470703e+00,4.324740886688232422e+00,4.173056125640869141e+00,4.031650543212890625e+00,3.899513959884643555e+00,3.775763511657714844e+00,3.659625768661499023e+00,3.550419807434082031e+00,3.447542190551757812e+00,3.350458621978759766e+00,3.258693218231201172e+00,3.171820878982543945e+00,3.089459657669067383e+00,3.011267423629760742e+00,2.936935901641845703e+00,2.866185188293457031e+00,2.798763036727905273e+00,2.734440088272094727e+00,2.673007488250732422e+00,2.614274501800537109e+00,2.558066844940185547e+00,2.504225730895996094e+00,2.452603816986083984e+00,2.403067350387573242e+00,2.355492591857910156e+00,2.309764623641967773e+00,2.265778303146362305e+00,2.223436355590820312e+00,2.182647705078125000e+00,2.143328666687011719e+00,2.105401039123535156e+00,2.068792343139648438e+00,1.073022365570068359e+00,1.059104323387145996e+00,1.049862623214721680e+00,1.041494727134704590e+00,1.036533832550048828e+00,1.039096593856811523e+00,1.844310998916625977e+00
3.778102636337280273e+00,3.777375221252441406e+00,3.776648521423339844e+00,3.775922298431396484e+00,3.775195837020874023e+00,3.774470090866088867e+00,3.773744583129882812e+00,3.773019313812255859e+00,3.772294044494628906e+00,3.771569490432739258e+00,3.770845174789428711e+00,3.770121097564697266e+00,3.769396781921386719e+00,3.768673181533813477e+00,3.767950057983398438e+00,3.767226696014404297e+00,3.766504049301147461e+00,3.765781641006469727e+00,3.765059471130371094e+00,3.764337062835693359e+00,3.763615608215332031e+00,3.762894153594970703e+00,3.762172698974609375e+00,3.761451959609985352e+00,3.760731697082519531e+00,3.760011434555053711e+00,3.759290933609008789e+00,3.758571386337280273e+00,3.757852077484130859e+00,3.757133007049560547e+00,3.756413698196411133e+00,3.755695104598999023e+00,3.754976749420166016e+00,3.754258394241333008e+00,3.753540754318237305e+00,3.752823352813720703e+00,3.752105951309204102e+00,3.751388788223266602e+00,3.750672101974487305e+00,3.749955654144287109e+00,3.749239206314086914e+00,3.748523473739624023e+00,3.747807979583740234e+00,3.747092723846435547e+00,3.746377229690551758e+00,3.745662450790405273e+00,3.744948148727416992e+00,3.659704923629760742e+00,3.550494194030761719e+00,3.447612285614013672e+00,3.350524902343750000e+00,3.258755922317504883e+00,3.171880245208740234e+00,3.089515924453735352e+00,3.011320829391479492e+00,2.936986446380615234e+00,2.866233587265014648e+00,2.798809289932250977e+00,2.734484195709228516e+00,2.673049688339233398e+00,2.614314794540405273e+00,2.558105468750000000e+00,2.504262447357177734e+00,2.452639341354370117e+00,2.403101444244384766e+00,2.355525255203247070e+00,2.309796094894409180e+00,2.265808582305908203e+00,2.223465442657470703e+00,2.182675600051879883e+00,2.143355607986450195e+00,2.105427265167236328e+00,2.068817615509033203e+00,1.069394588470458984e+00,1.055337786674499512e+00,1.048625946044921875e+00,1.041684508323669434e+00,1.037542819976806641e+00,1.873371005058288574e+00,1.844331026077270508e+00
3.084041595458984375e+00,3.083557128906250000e+00,3.083072900772094727e+00,3.082588911056518555e+00,3.082104682922363281e+00,3.081620931625366211e+00,3.081137418746948242e+00,3.080653905868530273e+00,3.080170392990112305e+00,3.079687118530273438e+00,3.079204082489013672e+00,3.078721284866333008e+00,3.078238248825073242e+00,3.077755928039550781e+00,3.077273368835449219e+00,3.076790809631347656e+00,3.076308727264404297e+00,3.075826883316040039e+00,3.075345039367675781e+00,3.074863195419311523e+00,3.074381589889526367e+00,3.073900461196899414e+00,3.073418855667114258e+00,3.072937965393066406e+00,3.072457075119018555e+00,3.071976184844970703e+00,3.071495294570922852e+00,3.071014881134033203e+00,3.070534706115722656e+00,3.070054531097412109e+00,3.069574356079101562e+00,3.069094419479370117e+00,3.068614721298217773e+00,3.068135023117065430e+00,3.067655563354492188e+00,3.067176342010498047e+00,3.066697359085083008e+00,3.066218137741088867e+00,3.065739393234252930e+00,3.065260887145996094e+00,3.064782142639160156e+00,3.064303874969482422e+00,3.063825607299804688e+00,3.063347578048706055e+00,3.062869310379028320e+00,3.062391757965087891e+00,3.061914205551147461e+00,3.061436653137207031e+00,3.060959100723266602e+00,3.060482025146484375e+00,3.060004949569702148e+00,3.059527873992919922e+00,3.059051275253295898e+00,3.058574676513671875e+00,3.011374473571777344e+00,2.937037229537963867e+00,2.866281986236572266e+00,2.798855543136596680e+00,2.734528303146362305e+00,2.673091888427734375e+00,2.614355087280273438e+00,2.558144092559814453e+00,2.504299402236938477e+00,2.452674865722656250e+00,2.403135538101196289e+00,2.355557918548583984e+00,2.309827566146850586e+00,2.265839099884033203e+00,2.223494529724121094e+00,2.182703733444213867e+00,2.143382787704467773e+00,2.105453252792358398e+00,2.068842887878417969e+00,1.065583825111389160e+00,1.052375078201293945e+00,1.047049760818481445e+00,1.042770385742187500e+00,1.041096329689025879e+00,1.873391747474670410e+00,1.844351172447204590e+00
2.605411529541015625e+00,2.605065584182739258e+00,2.604719877243041992e+00,2.604374408721923828e+00,2.604028940200805664e+00,2.603683471679687500e+00,2.603338241577148438e+00,2.602993011474609375e+00,2.602647781372070312e+00,2.602302789688110352e+00,2.601958036422729492e+00,2.601613283157348633e+00,2.601268291473388672e+00,2.600923776626586914e+00,2.600579261779785156e+00,2.600234746932983398e+00,2.599890470504760742e+00,2.599546194076538086e+00,2.599201917648315430e+00,2.598857641220092773e+00,2.598513841629028320e+00,2.598169803619384766e+00,2.597826004028320312e+00,2.597482204437255859e+00,2.597138643264770508e+00,2.596795082092285156e+00,2.596451520919799805e+00,2.596108198165893555e+00,2.595765113830566406e+00,2.595421791076660156e+00,2.595078706741333008e+00,2.594735622406005859e+00,2.594392776489257812e+00,2.594049930572509766e+00,2.593707084655761719e+00,2.593364477157592773e+00,2.593022108078002930e+00,2.592679500579833984e+00,2.592337131500244141e+00,2.591995000839233398e+00,2.591652631759643555e+00,2.591310501098632812e+00,2.590968608856201172e+00,2.590626716613769531e+00,2.590284824371337891e+00,2.589942932128906250e+00,2.589601516723632812e+00,2.589259862899780273e+00,2.588918209075927734e+00,2.588577032089233398e+00,2.588235855102539062e+00,2.587894439697265625e+00,2.587553262710571289e+00,2.587212324142456055e+00,2.586871385574340820e+00,2.586530447006225586e+00,2.586189746856689453e+00,2.585849285125732422e+00,2.585508584976196289e+00,2.585168123245239258e+00,2.584827661514282227e+00,2.558182716369628906e+00,2.504336357116699219e+00,2.452710390090942383e+00,2.403169631958007812e+00,2.355590581893920898e+00,2.309859037399291992e+00,2.265869379043579102e+00,2.223523855209350586e+00,2.182731866836547852e+00,2.143409967422485352e+00,2.105479478836059570e+00,2.068867921829223633e+00,1.060070157051086426e+00,1.047772526741027832e+00,1.044631838798522949e+00,1.043776273727416992e+00,1.043757796287536621e+00,1.873412370681762695e+00,1.844371199607849121e+00
2.255405902862548828e+00,2.255146026611328125e+00,2.254886150360107422e+00,2.254626035690307617e+00,2.254366397857666016e+00,2.254106521606445312e+00,2.253846883773803711e+00,2.253587245941162109e+00,2.253327608108520508e+00,2.253068208694458008e+00,2.252808809280395508e+00,2.252549409866333008e+00,2.252290010452270508e+00,2.252030611038208008e+00,2.251771450042724609e+00,2.251512289047241211e+00,2.251253366470336914e+00,2.250994205474853516e+00,2.250735282897949219e+00,2.250476360321044922e+00,2.250217437744140625e+00,2.249958753585815430e+00,2.249700069427490234e+00,2.249441385269165039e+00,2.249183416366577148e+00,2.248925685882568359e+00,2.248667955398559570e+00,2.248410463333129883e+00,2.248152971267700195e+00,2.247895717620849609e+00,2.247638225555419922e+00,2.247380971908569336e+00,2.247123718261718750e+00,2.246866464614868164e+00,2.246609210968017578e+00,2.246352195739746094e+00,2.246095180511474609e+00,2.245838165283203125e+00,2.245581388473510742e+00,2.245324611663818359e+00,2.245067596435546875e+00,2.244810819625854492e+00,2.244554281234741211e+00,2.244297742843627930e+00,2.244040966033935547e+00,2.243784666061401367e+00,2.243528127670288086e+00,2.243271827697753906e+00,2.243015527725219727e+00,2.242759227752685547e+00,2.242503166198730469e+00,2.242246866226196289e+00,2.241990804672241211e+00,2.241734743118286133e+00,2.241478919982910156e+00,2.241222858428955078e+00,2.240967035293579102e+00,2.240711212158203125e+00,2.240455389022827148e+00,2.240199804306030273e+00,2.239944219589233398e+00,2.239688873291015625e+00,2.239433050155639648e+00,2.239177703857421875e+00,2.238922357559204102e+00,2.238667249679565430e+00,2.238411664962768555e+00,2.238156557083129883e+00,2.223552942276000977e+00,2.182760000228881836e+00,2.143436908721923828e+00,2.105505704879760742e+00,2.068893194198608398e+00,2.033532619476318359e+00,1.043423652648925781e+00,1.042431473731994629e+00,1.043331265449523926e+00,1.045629262924194336e+00,1.873433113098144531e+00,1.844391226768493652e+00
1.988340973854064941e+00,1.988139033317565918e+00,1.987936973571777344e+00,1.987734913825988770e+00,1.987533092498779297e+00,1.987331032752990723e+00,1.987129330635070801e+00,1.986927390098571777e+00,1.986725568771362305e+00,1.986523985862731934e+00,1.986322164535522461e+00,1.986120700836181641e+00,1.985918998718261719e+00,1.985717296600341797e+00,1.985515832901000977e+00,1.985314249992370605e+00,1.985113024711608887e+00,1.984911441802978516e+00,1.984709978103637695e+00,1.984508872032165527e+00,1.984307408332824707e+00,1.984106302261352539e+00,1.983904957771301270e+00,1.983703732490539551e+00,1.983502745628356934e+00,1.983301639556884766e+00,1.983100652694702148e+00,1.982899546623229980e+00,1.982698559761047363e+00,1.982497692108154297e+00,1.982296824455261230e+00,1.982096076011657715e+00,1.981895208358764648e+00,1.981694340705871582e+00,1.981493711471557617e+00,1.981292963027954102e+00,1.981092453002929688e+00,1.980891823768615723e+00,1.980691075325012207e+00,1.980490684509277344e+00,1.980290174484252930e+00,1.980089902877807617e+00,1.979889392852783203e+00,1.979688882827758789e+00,1.979488730430603027e+00,1.979288339614868164e+00,1.979088306427001953e+00,1.978888034820556641e+00,1.978687763214111328e+00,1.978487730026245117e+00,1.978287577629089355e+00,1.978087663650512695e+00,1.977887630462646484e+00,1.977687597274780273e+00,1.977487802505493164e+00,1.977287769317626953e+00,1.977088093757629395e+00,1.976888179779052734e+00,1.976688385009765625e+00,1.976488828659057617e+00,1.976289033889770508e+00,1.976089596748352051e+00,1.975889921188354492e+00,1.975690245628356934e+00,1.975490927696228027e+00,1.975291252136230469e+00,1.975092053413391113e+00,1.974892497062683105e+00,1.974693059921264648e+00,1.974493980407714844e+00,1.974294543266296387e+00,1.974095463752746582e+00,1.973896145820617676e+00,1.973696947097778320e+00,1.046182990074157715e+00,1.033360242843627930e+00,1.040176630020141602e+00,1.046535372734069824e+00,1.053254127502441406e+00,1.844411373138427734e+00
1.777826786041259766e+00,1.777665138244628906e+00,1.777503728866577148e+00,1.777342200279235840e+00,1.777180790901184082e+00,1.777019262313842773e+00,1.776857852935791016e+00,1.776696562767028809e+00,1.776535153388977051e+00,1.776373982429504395e+00,1.776212573051452637e+00,1.776051282882690430e+00,1.775890111923217773e+00,1.775728940963745117e+00,1.775567889213562012e+00,1.775406599044799805e+00,1.775245428085327148e+00,1.775084495544433594e+00,1.774923324584960938e+00,1.774762392044067383e+00,1.774601340293884277e+00,1.774440288543701172e+00,1.774279475212097168e+00,1.774118542671203613e+00,1.773957729339599609e+00,1.773796796798706055e+00,1.773635983467102051e+00,1.773475289344787598e+00,1.773314476013183594e+00,1.773153781890869141e+00,1.772993087768554688e+00,1.772832274436950684e+00,1.772671699523925781e+00,1.772511124610900879e+00,1.772350549697875977e+00,1.772189974784851074e+00,1.772029399871826172e+00,1.771868944168090820e+00,1.771708369255065918e+00,1.771548151969909668e+00,1.771387577056884766e+00,1.771227121353149414e+00,1.771066904067993164e+00,1.770906567573547363e+00,1.770746350288391113e+00,1.770586013793945312e+00,1.770425677299499512e+00,1.770265579223632812e+00,1.770105361938476562e+00,1.769945263862609863e+00,1.769785046577453613e+00,1.769624948501586914e+00,1.769464969635009766e+00,1.769304871559143066e+00,1.769145011901855469e+00,1.768984913825988770e+00,1.768824934959411621e+00,1.768665075302124023e+00,1.768505096435546875e+00,1.768345355987548828e+00,1.768185496330261230e+00,1.768025636672973633e+00,1.767865896224975586e+00,1.767706155776977539e+00,1.767546534538269043e+00,1.767386794090270996e+00,1.767227053642272949e+00,1.767067432403564453e+00,1.766907811164855957e+00,1.766748309135437012e+00,1.766588687896728516e+00,1.766429185867309570e+00,1.766269803047180176e+00,1.766110301017761230e+00,1.765950918197631836e+00,1.035342335700988770e+00,1.033873796463012695e+00,1.042285442352294922e+00,1.049088597297668457e+00,1.765154242515563965e+00
1.607620954513549805e+00,1.607488870620727539e+00,1.607356905937194824e+00,1.607224702835083008e+00,1.607092618942260742e+00,1.606960773468017578e+00,1.606828689575195312e+00,1.606696844100952148e+00,1.606564760208129883e+00,1.606432795524597168e+00,1.606300950050354004e+00,1.606169104576110840e+00,1.606037259101867676e+00,1.605905413627624512e+00,1.605773448944091797e+00,1.605641841888427734e+00,1.605509996414184570e+00,1.605378270149230957e+00,1.605246543884277344e+00,1.605114698410034180e+00,1.604983091354370117e+00,1.604851365089416504e+00,1.604719877243041992e+00,1.604588150978088379e+00,1.604456543922424316e+00,1.604325056076049805e+00,1.604193449020385742e+00,1.604061961174011230e+00,1.603930354118347168e+00,1.603798866271972656e+00,1.603667497634887695e+00,1.603536009788513184e+00,1.603404641151428223e+00,1.603273153305053711e+00,1.603141665458679199e+00,1.603010416030883789e+00,1.602879047393798828e+00,1.602747797966003418e+00,1.602616429328918457e+00,1.602485060691833496e+00,1.602353930473327637e+00,1.602222681045532227e+00,1.602091550827026367e+00,1.601960301399230957e+00,1.601829051971435547e+00,1.601698040962219238e+00,1.601566791534423828e+00,1.601435780525207520e+00,1.601304650306701660e+00,1.601173520088195801e+00,1.601042628288269043e+00,1.600911498069763184e+00,1.600780606269836426e+00,1.600649595260620117e+00,1.600518584251403809e+00,1.600387692451477051e+00,1.600256800651550293e+00,1.600125908851623535e+00,1.599995017051696777e+00,1.599864006042480469e+00,1.599733352661132812e+00,1.599602460861206055e+00,1.599471807479858398e+00,1.599340915679931641e+00,1.599210143089294434e+00,1.599079489707946777e+00,1.598948717117309570e+00,1.598818182945251465e+00,1.598687410354614258e+00,1.598556756973266602e+00,1.598426222801208496e+00,1.598295569419860840e+00,1.598165154457092285e+00,1.598034501075744629e+00,1.597903966903686523e+00,1.044769525527954102e+00,1.039374828338623047e+00,1.040755391120910645e+00,1.049492955207824707e+00,1.597251653671264648e+00
1.467158079147338867e+00,1.467047929763793945e+00,1.466937899589538574e+00,1.466827988624572754e+00,1.466717958450317383e+00,1.466608047485351562e+00,1.466498136520385742e+00,1.466388106346130371e+00,1.466278314590454102e+00,1.466168284416198730e+00,1.466058492660522461e+00,1.465948581695556641e+00,1.465838789939880371e+00,1.465728998184204102e+00,1.465619087219238281e+00,1.465509414672851562e+00,1.465399622917175293e+00,1.465289711952209473e+00,1.465180039405822754e+00,1.465070366859436035e+00,1.464960694313049316e+00,1.464850902557373047e+00,1.464741230010986328e+00,1.464631557464599609e+00,1.464521884918212891e+00,1.464412331581115723e+00,1.464302659034729004e+00,1.464193105697631836e+00,1.464083552360534668e+00,1.463973879814147949e+00,1.463864445686340332e+00,1.463754892349243164e+00,1.463645339012145996e+00,1.463535904884338379e+00,1.463426351547241211e+00,1.463316917419433594e+00,1.463207483291625977e+00,1.463098049163818359e+00,1.462988615036010742e+00,1.462879180908203125e+00,1.462769865989685059e+00,1.462660431861877441e+00,1.462551116943359375e+00,1.462441802024841309e+00,1.462332487106323242e+00,1.462223291397094727e+00,1.462113857269287109e+00,1.462004542350769043e+00,1.461895465850830078e+00,1.461786150932312012e+00,1.461676955223083496e+00,1.461567759513854980e+00,1.461458444595336914e+00,1.461349368095397949e+00,1.461240172386169434e+00,1.461131095886230469e+00,1.461022019386291504e+00,1.460912823677062988e+00,1.460803747177124023e+00,1.460694670677185059e+00,1.460585713386535645e+00,1.460476636886596680e+00,1.460367560386657715e+00,1.460258603096008301e+00,1.460149526596069336e+00,1.460040688514709473e+00,1.459931612014770508e+00,1.459822654724121094e+00,1.459713816642761230e+00,1.459604859352111816e+00,1.459496021270751953e+00,1.459387063980102539e+00,1.459278225898742676e+00,1.459169387817382812e+00,1.459060549736022949e+00,1.458951830863952637e+00,1.052043914794921875e+00,1.052747249603271484e+00,1.051874995231628418e+00,1.458516597747802734e+00
1.349268078804016113e+00,1.349175095558166504e+00,1.349081993103027344e+00,1.348989009857177734e+00,1.348895907402038574e+00,1.348802924156188965e+00,1.348709940910339355e+00,1.348616957664489746e+00,1.348524093627929688e+00,1.348431110382080078e+00,1.348338127136230469e+00,1.348245263099670410e+00,1.348152279853820801e+00,1.348059415817260742e+00,1.347966551780700684e+00,1.347873568534851074e+00,1.347780823707580566e+00,1.347687959671020508e+00,1.347595095634460449e+00,1.347502231597900391e+00,1.347409486770629883e+00,1.347316741943359375e+00,1.347223877906799316e+00,1.347131252288818359e+00,1.347038388252258301e+00,1.346945643424987793e+00,1.346852898597717285e+00,1.346760153770446777e+00,1.346667528152465820e+00,1.346574783325195312e+00,1.346482038497924805e+00,1.346389532089233398e+00,1.346296787261962891e+00,1.346204161643981934e+00,1.346111536026000977e+00,1.346018910408020020e+00,1.345926284790039062e+00,1.345833659172058105e+00,1.345741152763366699e+00,1.345648527145385742e+00,1.345556020736694336e+00,1.345463514328002930e+00,1.345370888710021973e+00,1.345278501510620117e+00,1.345185875892639160e+00,1.345093369483947754e+00,1.345000982284545898e+00,1.344908475875854492e+00,1.344816088676452637e+00,1.344723582267761230e+00,1.344631075859069824e+00,1.344538807868957520e+00,1.344446301460266113e+00,1.344354033470153809e+00,1.344261527061462402e+00,1.344169139862060547e+00,1.344076871871948242e+00,1.343984484672546387e+00,1.343892216682434082e+00,1.343799829483032227e+00,1.343707561492919922e+00,1.343615293502807617e+00,1.343523025512695312e+00,1.343430757522583008e+00,1.343338489532470703e+00,1.343246221542358398e+00,1.343154072761535645e+00,1.343061804771423340e+00,1.342969655990600586e+00,1.342877388000488281e+00,1.342785239219665527e+00,1.342693090438842773e+00,1.342600941658020020e+00,1.342508792877197266e+00,1.342416644096374512e+00,1.342324495315551758e+00,1.342232465744018555e+00,1.342140316963195801e+00,1.342048287391662598e+00,1.341956257820129395e+00
1.248914599418640137e+00,1.248834967613220215e+00,1.248755216598510742e+00,1.248675465583801270e+00,1.248595833778381348e+00,1.248516082763671875e+00,1.248436450958251953e+00,1.248356819152832031e+00,1.248277068138122559e+00,1.248197555541992188e+00,1.248117804527282715e+00,1.248038291931152344e+00,1.247958660125732422e+00,1.247878909111022949e+00,1.247799396514892578e+00,1.247719764709472656e+00,1.247640252113342285e+00,1.247560739517211914e+00,1.247481107711791992e+00,1.247401595115661621e+00,1.247322082519531250e+00,1.247242569923400879e+00,1.247163057327270508e+00,1.247083425521850586e+00,1.247004032135009766e+00,1.246924519538879395e+00,1.246845126152038574e+00,1.246765613555908203e+00,1.246686100959777832e+00,1.246606707572937012e+00,1.246527194976806641e+00,1.246447920799255371e+00,1.246368408203125000e+00,1.246289014816284180e+00,1.246209621429443359e+00,1.246130228042602539e+00,1.246050953865051270e+00,1.245971560478210449e+00,1.245892167091369629e+00,1.245812892913818359e+00,1.245733499526977539e+00,1.245654225349426270e+00,1.245574831962585449e+00,1.245495557785034180e+00,1.245416283607482910e+00,1.245337009429931641e+00,1.245257735252380371e+00,1.245178461074829102e+00,1.245099186897277832e+00,1.245020031929016113e+00,1.244940757751464844e+00,1.244861602783203125e+00,1.244782328605651855e+00,1.244703054428100586e+00,1.244623899459838867e+00,1.244544744491577148e+00,1.244465589523315430e+00,1.244386434555053711e+00,1.244307279586791992e+00,1.244228124618530273e+00,1.244148969650268555e+00,1.244069933891296387e+00,1.243990778923034668e+00,1.243911623954772949e+00,1.243832588195800781e+00,1.243753552436828613e+00,1.243674516677856445e+00,1.243595361709594727e+00,1.243516325950622559e+00,1.243437290191650391e+00,1.243358254432678223e+00,1.243279337882995605e+00,1.243200302124023438e+00,1.243121266365051270e+00,1.243042230606079102e+00,1.242963314056396484e+00,1.242884397506713867e+00,1.242805361747741699e+00,1.242726325988769531e+00,1.242647528648376465e+00
1.162455677986145020e+00,1.162386536598205566e+00,1.162317514419555664e+00,1.162248373031616211e+00,1.162179470062255859e+00,1.162110328674316406e+00,1.162041306495666504e+00,1.161972284317016602e+00,1.161903262138366699e+00,1.161834359169006348e+00,1.161765336990356445e+00,1.161696314811706543e+00,1.161627292633056641e+00,1.161558389663696289e+00,1.161489367485046387e+00,1.161420464515686035e+00,1.161351442337036133e+00,1.161282539367675781e+00,1.161213636398315430e+00,1.161144733428955078e+00,1.161075830459594727e+00,1.161006808280944824e+00,1.160938024520874023e+00,1.160869002342224121e+00,1.160800218582153320e+00,1.160731315612792969e+00,1.160662412643432617e+00,1.160593628883361816e+00,1.160524725914001465e+00,1.160455942153930664e+00,1.160387039184570312e+00,1.160318255424499512e+00,1.160249471664428711e+00,1.160180568695068359e+00,1.160111784934997559e+00,1.160043001174926758e+00,1.159974217414855957e+00,1.159905433654785156e+00,1.159836649894714355e+00,1.159767985343933105e+00,1.159699201583862305e+00,1.159630417823791504e+00,1.159561753273010254e+00,1.159492969512939453e+00,1.159424304962158203e+00,1.159355521202087402e+00,1.159286737442016602e+00,1.159218192100524902e+00,1.159149408340454102e+00,1.159080743789672852e+00,1.159012079238891602e+00,1.158943414688110352e+00,1.158874750137329102e+00,1.158806085586547852e+00,1.158737540245056152e+00,1.158668875694274902e+00,1.158600211143493652e+00,1.158531665802001953e+00,1.158463001251220703e+00,1.158394455909729004e+00,1.158325910568237305e+00,1.158257246017456055e+00,1.158188700675964355e+00,1.158120155334472656e+00,1.158051609992980957e+00,1.157983064651489258e+00,1.157914519309997559e+00,1.157845973968505859e+00,1.157777428627014160e+00,1.157709002494812012e+00,1.157640457153320312e+00,1.157571911811828613e+00,1.157503485679626465e+00,1.157434940338134766e+00,1.157366514205932617e+00,1.157297968864440918e+00,1.157229542732238770e+00,1.157161116600036621e+00,1.157092690467834473e+00,1.157024264335632324e+00
1.087192177772521973e+00,1.087131738662719727e+00,1.087071418762207031e+00,1.087010979652404785e+00,1.086950540542602539e+00,1.086890220642089844e+00,1.086829781532287598e+00,1.086769461631774902e+00,1.086709022521972656e+00,1.086648583412170410e+00,1.086588382720947266e+00,1.086527943611145020e+00,1.086467623710632324e+00,1.086407303810119629e+00,1.086346983909606934e+00,1.086286664009094238e+00,1.086226344108581543e+00,1.086166024208068848e+00,1.086105704307556152e+00,1.086045384407043457e+00,1.085985183715820312e+00,1.085924863815307617e+00,1.085864543914794922e+00,1.085804343223571777e+00,1.085744023323059082e+00,1.085683822631835938e+00,1.085623502731323242e+00,1.085563302040100098e+00,1.085503101348876953e+00,1.085442781448364258e+00,1.085382580757141113e+00,1.085322380065917969e+00,1.085262179374694824e+00,1.085201978683471680e+00,1.085141777992248535e+00,1.085081577301025391e+00,1.085021376609802246e+00,1.084961295127868652e+00,1.084901094436645508e+00,1.084840893745422363e+00,1.084780812263488770e+00,1.084720611572265625e+00,1.084660530090332031e+00,1.084600329399108887e+00,1.084540128707885742e+00,1.084480047225952148e+00,1.084419965744018555e+00,1.084359884262084961e+00,1.084299802780151367e+00,1.084239602088928223e+00,1.084179639816284180e+00,1.084119439125061035e+00,1.084059476852416992e+00,1.083999395370483398e+00,1.083939313888549805e+00,1.083879232406616211e+00,1.083819150924682617e+00,1.083759188652038574e+00,1.083699107170104980e+00,1.083639025688171387e+00,1.083579063415527344e+00,1.083519101142883301e+00,1.083459019660949707e+00,1.083399057388305664e+00,1.083338975906372070e+00,1.083279132843017578e+00,1.083219051361083984e+00,1.083159089088439941e+00,1.083099126815795898e+00,1.083039164543151855e+00,1.082979202270507812e+00,1.082919239997863770e+00,1.082859396934509277e+00,1.082799434661865234e+00,1.082739472389221191e+00,1.082679510116577148e+00,1.082619547843933105e+00,1.082559704780578613e+00,1.082499861717224121e+00,1.082439899444580078e+00
1.021082043647766113e+00,1.021028757095336914e+00,1.020975351333618164e+00,1.020922183990478516e+00,1.020868897438049316e+00,1.020815610885620117e+00,1.020762324333190918e+00,1.020709037780761719e+00,1.020655870437622070e+00,1.020602583885192871e+00,1.020549297332763672e+00,1.020496129989624023e+00,1.020442843437194824e+00,1.020389676094055176e+00,1.020336389541625977e+00,1.020283222198486328e+00,1.020230054855346680e+00,1.020176768302917480e+00,1.020123600959777832e+00,1.020070433616638184e+00,1.020017266273498535e+00,1.019963979721069336e+00,1.019910812377929688e+00,1.019857764244079590e+00,1.019804477691650391e+00,1.019751429557800293e+00,1.019698262214660645e+00,1.019645094871520996e+00,1.019591927528381348e+00,1.019538760185241699e+00,1.019485712051391602e+00,1.019432544708251953e+00,1.019379377365112305e+00,1.019326329231262207e+00,1.019273161888122559e+00,1.019220113754272461e+00,1.019166946411132812e+00,1.019113898277282715e+00,1.019060850143432617e+00,1.019007682800292969e+00,1.018954634666442871e+00,1.018901586532592773e+00,1.018848538398742676e+00,1.018795490264892578e+00,1.018742442131042480e+00,1.018689393997192383e+00,1.018636345863342285e+00,1.018583297729492188e+00,1.018530249595642090e+00,1.018477201461791992e+00,1.018424272537231445e+00,1.018371224403381348e+00,1.018318176269531250e+00,1.018265247344970703e+00,1.018212199211120605e+00,1.018159270286560059e+00,1.018106222152709961e+00,1.018053174018859863e+00,1.018000245094299316e+00,1.017947316169738770e+00,1.017894387245178223e+00,1.017841339111328125e+00,1.017788410186767578e+00,1.017735481262207031e+00,1.017682433128356934e+00,1.017629623413085938e+00,1.017576575279235840e+00,1.017523646354675293e+00,1.017470836639404297e+00,1.017417907714843750e+00,1.017364978790283203e+00,1.017312049865722656e+00,1.017259120941162109e+00,1.017206311225891113e+00,1.017153382301330566e+00,1.017100572586059570e+00,1.017047643661499023e+00,1.016994714736938477e+00,1.016941905021667480e+00,1.016888976097106934e+00
9.625509977340698242e-01,9.625037908554077148e-01,9.624564051628112793e-01,9.624090194702148438e-01,9.623616337776184082e-01,9.623142480850219727e-01,9.622670412063598633e-01,9.622196555137634277e-01,9.621723294258117676e-01,9.621250033378601074e-01,9.620776772499084473e-01,9.620304107666015625e-01,9.619830846786499023e-01,9.619357585906982422e-01,9.618884325027465820e-01,9.618411660194396973e-01,9.617939591407775879e-01,9.617466330528259277e-01,9.616993665695190430e-01,9.616520404815673828e-01,9.616047739982604980e-01,9.615575671195983887e-01,9.615103006362915039e-01,9.614630341529846191e-01,9.614157676696777344e-01,9.613685011863708496e-01,9.613213539123535156e-01,9.612740874290466309e-01,9.612268209457397461e-01,9.611795544624328613e-01,9.611323475837707520e-01,9.610852003097534180e-01,9.610379338264465332e-01,9.609907269477844238e-01,9.609435200691223145e-01,9.608962535858154297e-01,9.608491659164428711e-01,9.608019590377807617e-01,9.607547521591186523e-01,9.607075452804565430e-01,9.606603384017944336e-01,9.606132507324218750e-01,9.605661034584045410e-01,9.605188965797424316e-01,9.604716897010803223e-01,9.604245424270629883e-01,9.603774547576904297e-01,9.603303074836730957e-01,9.602831602096557617e-01,9.602360129356384277e-01,9.601888656616210938e-01,9.601417779922485352e-01,9.600946307182312012e-01,9.600475430488586426e-01,9.600003957748413086e-01,9.599532485008239746e-01,9.599062204360961914e-01,9.598591327667236328e-01,9.598119854927062988e-01,9.597648978233337402e-01,9.597178101539611816e-01,9.596707820892333984e-01,9.596236944198608398e-01,9.595766067504882812e-01,9.595295190811157227e-01,9.594824314117431641e-01,9.594354629516601562e-01,9.593883752822875977e-01,9.593413472175598145e-01,9.592942595481872559e-01,9.592471718788146973e-01,9.592002630233764648e-01,9.591531753540039062e-01,9.591061472892761230e-01,9.590591192245483398e-01,9.590120911598205566e-01,9.589651823043823242e-01,9.589180946350097656e-01,9.588711261749267578e-01,9.588240981101989746e-01
