5.000000000000000000e+00,5.000000000000000000e+00,5.000000000000000000e+00,5.000000000000000000e+00,5.000000000000000000e+00,5.000000000000000000e+00,5.000000000000000000e+00,5.000000000000000000e+00,5.000000000000000000e+00,5.000000000000000000e+00,5.000000000000000000e+00,5.000000000000000000e+00,5.000000000000000000e+00,5.000000000000000000e+00,5.000000000000000000e+00,5.000000000000000000e+00,5.000000000000000000e+00,5.000000000000000000e+00,5.000000000000000000e+00,5.000000000000000000e+00,5.000000000000000000e+00,5.000000000000000000e+00,5.000000000000000000e+00,5.000000000000000000e+00,5.000000000000000000e+00,5.000000000000000000e+00,5.000000000000000000e+00,5.000000000000000000e+00,5.000000000000000000e+00,5.000000000000000000e+00,5.000000000000000000e+00,5.000000000000000000e+00,5.000000000000000000e+00,5.000000000000000000e+00,5.000000000000000000e+00,5.000000000000000000e+00,5.000000000000000000e+00,5.000000000000000000e+00,5.000000000000000000e+00,4.854368686676025391e+00,4.664051532745361328e+00,4.488094329833984375e+00,4.324931144714355469e+00,4.173214912414550781e+00,4.031782150268554688e+00,3.899622201919555664e+00,3.775851011276245117e+00,3.659695386886596680e+00,3.550472497940063477e+00,3.447580575942993164e+00,3.350483894348144531e+00,3.258706808090209961e+00,3.171823501586914062e+00,3.089452981948852539e+00,3.011252641677856445e+00,2.936913013458251953e+00,2.866155624389648438e+00,2.798727273941040039e+00,2.734398603439331055e+00,2.672960758209228516e+00,2.614223241806030273e+00,2.558011293411254883e+00,2.504166126251220703e+00,2.452540874481201172e+00,2.403001546859741211e+00,2.355423688888549805e+00,1.092707157135009766e+00,1.075214862823486328e+00,1.057988047599792480e+00,1.045364260673522949e+00,1.035459518432617188e+00,1.046925425529479980e+00,1.044431328773498535e+00,1.197954177856445312e+00,1.177058696746826172e+00,1.026403427124023438e+00,1.011697053909301758e+00,9.977645277976989746e-01,9.843043088912963867e-01,9.712024927139282227e-01
5.000000000000000000e+00,5.000000000000000000e+00,5.000000000000000000e+00,5.000000000000000000e+00,5.000000000000000000e+00,5.000000000000000000e+00,5.000000000000000000e+00,5.000000000000000000e+00,5.000000000000000000e+00,5.000000000000000000e+00,5.000000000000000000e+00,5.000000000000000000e+00,5.000000000000000000e+00,5.000000000000000000e+00,5.000000000000000000e+00,5.000000000000000000e+00,5.000000000000000000e+00,5.000000000000000000e+00,5.000000000000000000e+00,5.000000000000000000e+00,5.000000000000000000e+00,5.000000000000000000e+00,5.000000000000000000e+00,5.000000000000000000e+00,5.000000000000000000e+00,5.000000000000000000e+00,5.000000000000000000e+00,5.000000000000000000e+00,5.000000000000000000e+00,5.000000000000000000e+00,5.000000000000000000e+00,5.000000000000000000e+00,5.000000000000000000e+00,5.000000000000000000e+00,5.000000000000000000e+00,5.000000000000000000e+00,5.000000000000000000e+00,5.000000000000000000e+00,5.000000000000000000e+00,4.854506492614746094e+00,4.664178371429443359e+00,4.488212108612060547e+00,4.325040340423583984e+00,4.173316478729248047e+00,4.031877040863037109e+00,3.899711132049560547e+00,3.775934219360351562e+00,3.659773588180541992e+00,3.550546169281005859e+00,3.447649955749511719e+00,3.350549459457397461e+00,3.258769035339355469e+00,3.171882629394531250e+00,3.089508771896362305e+00,3.011305570602416992e+00,2.936963319778442383e+00,2.866203546524047852e+00,2.798772811889648438e+00,2.734442234039306641e+00,2.673002481460571289e+00,2.614263057708740234e+00,2.558049678802490234e+00,2.504202842712402344e+00,2.452576160430908203e+00,2.403035163879394531e+00,2.355456113815307617e+00,1.102100491523742676e+00,1.078550934791564941e+00,1.053922414779663086e+00,2.182597875595092773e+00,1.029136419296264648e+00,2.105345964431762695e+00,1.044916868209838867e+00,1.199069142341613770e+00,1.177085518836975098e+00,1.067236065864562988e+00,1.015646934509277344e+00,1.001703262329101562e+00,9.881374835968017578e-01,9.749340415000915527e-01
5.000000000000000000e+00,5.000000000000000000e+00,5.000000000000000000e+00,5.000000000000000000e+00,5.000000000000000000e+00,5.000000000000000000e+00,5.000000000000000000e+00,5.000000000000000000e+00,5.000000000000000000e+00,5.000000000000000000e+00,5.000000000000000000e+00,5.000000000000000000e+00,5.000000000000000000e+00,5.000000000000000000e+00,5.000000000000000000e+00,5.000000000000000000e+00,5.000000000000000000e+00,5.000000000000000000e+00,5.000000000000000000e+00,5.000000000000000000e+00,5.000000000000000000e+00,5.000000000000000000e+00,5.000000000000000000e+00,5.000000000000000000e+00,5.000000000000000000e+00,5.000000000000000000e+00,5.000000000000000000e+00,5.000000000000000000e+00,5.000000000000000000e+00,5.000000000000000000e+00,5.000000000000000000e+00,5.000000000000000000e+00,5.000000000000000000e+00,5.000000000000000000e+00,5.000000000000000000e+00,5.000000000000000000e+00,5.000000000000000000e+00,5.000000000000000000e+00,5.000000000000000000e+00,4.854643821716308594e+00,4.664305686950683594e+00,4.488329887390136719e+00,4.325149536132812500e+00,4.173418521881103516e+00,4.031971931457519531e+00,3.899799823760986328e+00,3.776017427444458008e+00,3.659851789474487305e+00,3.550619840621948242e+00,3.447719335556030273e+00,3.350615262985229492e+00,3.258831024169921875e+00,3.171941280364990234e+00,3.089564561843872070e+00,3.011358499526977539e+00,2.937013626098632812e+00,2.866251468658447266e+00,2.798818588256835938e+00,2.734485864639282227e+00,2.673044204711914062e+00,2.614303112030029297e+00,2.558087825775146484e+00,2.504239559173583984e+00,2.452611207962036133e+00,2.403069019317626953e+00,2.355488777160644531e+00,1.105203509330749512e+00,1.075266599655151367e+00,1.052051186561584473e+00,2.182625770568847656e+00,1.025777101516723633e+00,2.105371952056884766e+00,2.068759918212890625e+00,1.200186133384704590e+00,1.177351355552673340e+00,1.157199144363403320e+00,1.029237985610961914e+00,1.005125522613525391e+00,9.920005202293395996e-01,9.786944389343261719e-01
5.000000000000000000e+00,5.000000000000000000e+00,5.000000000000000000e+00,5.000000000000000000e+00,5.000000000000000000e+00,5.000000000000000000e+00,5.000000000000000000e+00,5.000000000000000000e+00,5.000000000000000000e+00,5.000000000000000000e+00,5.000000000000000000e+00,5.000000000000000000e+00,5.000000000000000000e+00,5.000000000000000000e+00,5.000000000000000000e+00,5.000000000000000000e+00,5.000000000000000000e+00,5.000000000000000000e+00,5.000000000000000000e+00,5.000000000000000000e+00,5.000000000000000000e+00,5.000000000000000000e+00,5.000000000000000000e+00,5.000000000000000000e+00,5.000000000000000000e+00,5.000000000000000000e+00,5.000000000000000000e+00,5.000000000000000000e+00,5.000000000000000000e+00,5.000000000000000000e+00,5.000000000000000000e+00,5.000000000000000000e+00,5.000000000000000000e+00,5.000000000000000000e+00,5.000000000000000000e+00,5.000000000000000000e+00,5.000000000000000000e+00,5.000000000000000000e+00,5.000000000000000000e+00,4.854781627655029297e+00,4.664432525634765625e+00,4.488447666168212891e+00,4.325258731842041016e+00,4.173520088195800781e+00,4.032067298889160156e+00,3.899888753890991211e+00,3.776100873947143555e+00,3.659929990768432617e+00,3.550693750381469727e+00,3.447788715362548828e+00,3.350680828094482422e+00,3.258893013000488281e+00,3.172000169754028320e+00,3.089620351791381836e+00,3.011411428451538086e+00,2.937064170837402344e+00,2.866299390792846680e+00,2.798864364624023438e+00,2.734529733657836914e+00,2.673085927963256836e+00,2.614342927932739258e+00,2.558125972747802734e+00,2.504276037216186523e+00,2.452646493911743164e+00,2.403102636337280273e+00,2.355520963668823242e+00,1.102004766464233398e+00,1.072360038757324219e+00,1.048855304718017578e+00,2.182653665542602539e+00,1.024240612983703613e+00,2.105397939682006836e+00,2.068784952163696289e+00,1.201305150985717773e+00,1.178428173065185547e+00,1.157225251197814941e+00,1.144927501678466797e+00,1.007634401321411133e+00,9.947791695594787598e-01,9.822477698326110840e-01
5.000000000000000000e+00,5.000000000000000000e+00,5.000000000000000000e+00,5.000000000000000000e+00,5.000000000000000000e+00,5.000000000000000000e+00,5.000000000000000000e+00,5.000000000000000000e+00,5.000000000000000000e+00,5.000000000000000000e+00,5.000000000000000000e+00,5.000000000000000000e+00,5.000000000000000000e+00,5.000000000000000000e+00,5.000000000000000000e+00,5.000000000000000000e+00,5.000000000000000000e+00,5.000000000000000000e+00,5.000000000000000000e+00,5.000000000000000000e+00,5.000000000000000000e+00,5.000000000000000000e+00,5.000000000000000000e+00,5.000000000000000000e+00,5.000000000000000000e+00,5.000000000000000000e+00,5.000000000000000000e+00,5.000000000000000000e+00,5.000000000000000000e+00,5.000000000000000000e+00,5.000000000000000000e+00,5.000000000000000000e+00,5.000000000000000000e+00,5.000000000000000000e+00,5.000000000000000000e+00,5.000000000000000000e+00,5.000000000000000000e+00,5.000000000000000000e+00,5.000000000000000000e+00,4.854919433593750000e+00,4.664559841156005859e+00,4.488564968109130859e+00,4.325367927551269531e+00,4.173621654510498047e+00,4.032162189483642578e+00,3.899977684020996094e+00,3.776184558868408203e+00,3.660008192062377930e+00,3.550767421722412109e+00,3.447858095169067383e+00,3.350746393203735352e+00,3.258955001831054688e+00,3.172058820724487305e+00,3.089676141738891602e+00,3.011464357376098633e+00,2.937114477157592773e+00,2.866347551345825195e+00,2.798910140991210938e+00,2.734573364257812500e+00,2.673127651214599609e+00,2.614382743835449219e+00,2.558164358139038086e+00,2.504312753677368164e+00,2.452681779861450195e+00,2.403136491775512695e+00,2.355553388595581055e+00,2.309818029403686523e+00,1.068757534027099609e+00,1.048381090164184570e+00,2.182681322097778320e+00,2.143356561660766602e+00,2.105423688888549805e+00,2.068809986114501953e+00,1.202426433563232422e+00,1.179401040077209473e+00,1.158077239990234375e+00,1.145667672157287598e+00,1.032029509544372559e+00,9.972365498542785645e-01,9.846435189247131348e-01
5.000000000000000000e+00,5.000000000000000000e+00,5.000000000000000000e+00,5.000000000000000000e+00,5.000000000000000000e+00,5.000000000000000000e+00,5.000000000000000000e+00,5.000000000000000000e+00,5.000000000000000000e+00,5.000000000000000000e+00,5.000000000000000000e+00,5.000000000000000000e+00,5.000000000000000000e+00,5.000000000000000000e+00,5.000000000000000000e+00,5.000000000000000000e+00,5.000000000000000000e+00,5.000000000000000000e+00,5.000000000000000000e+00,5.000000000000000000e+00,5.000000000000000000e+00,5.000000000000000000e+00,5.000000000000000000e+00,5.000000000000000000e+00,5.000000000000000000e+00,5.000000000000000000e+00,5.000000000000000000e+00,5.000000000000000000e+00,5.000000000000000000e+00,5.000000000000000000e+00,5.000000000000000000e+00,5.000000000000000000e+00,5.000000000000000000e+00,5.000000000000000000e+00,5.000000000000000000e+00,5.000000000000000000e+00,5.000000000000000000e+00,5.000000000000000000e+00,5.000000000000000000e+00,4.855056762695312500e+00,4.664687156677246094e+00,4.488682746887207031e+00,4.325477123260498047e+00,4.173723697662353516e+00,4.032257080078125000e+00,3.900066375732421875e+00,3.776267766952514648e+00,3.660086393356323242e+00,3.550841093063354492e+00,3.447927713394165039e+00,3.350811958312988281e+00,3.259016990661621094e+00,3.172117710113525391e+00,3.089731693267822266e+00,3.011517286300659180e+00,2.937164783477783203e+00,2.866395473480224609e+00,2.798955917358398438e+00,2.734616994857788086e+00,2.673169374465942383e+00,2.614422798156738281e+00,2.558202743530273438e+00,2.504349231719970703e+00,2.452716827392578125e+00,2.403170108795166016e+00,2.355585813522338867e+00,2.309849023818969727e+00,2.265854835510253906e+00,2.223505020141601562e+00,2.182709217071533203e+00,2.143383264541625977e+00,2.105449676513671875e+00,2.068835020065307617e+00,1.202819943428039551e+00,1.179590940475463867e+00,1.158234596252441406e+00,1.145821690559387207e+00,1.133671998977661133e+00,1.004868626594543457e+00,9.870510697364807129e-01
5.000000000000000000e+00,5.000000000000000000e+00,5.000000000000000000e+00,5.000000000000000000e+00,5.000000000000000000e+00,5.000000000000000000e+00,5.000000000000000000e+00,5.000000000000000000e+00,5.000000000000000000e+00,5.000000000000000000e+00,5.000000000000000000e+00,5.000000000000000000e+00,5.000000000000000000e+00,5.000000000000000000e+00,5.000000000000000000e+00,5.000000000000000000e+00,5.000000000000000000e+00,5.000000000000000000e+00,5.000000000000000000e+00,5.000000000000000000e+00,5.000000000000000000e+00,5.000000000000000000e+00,5.000000000000000000e+00,5.000000000000000000e+00,5.000000000000000000e+00,5.000000000000000000e+00,5.000000000000000000e+00,5.000000000000000000e+00,5.000000000000000000e+00,5.000000000000000000e+00,5.000000000000000000e+00,5.000000000000000000e+00,5.000000000000000000e+00,5.000000000000000000e+00,5.000000000000000000e+00,5.000000000000000000e+00,5.000000000000000000e+00,5.000000000000000000e+00,5.000000000000000000e+00,4.855194568634033203e+00,4.664813995361328125e+00,4.488800525665283203e+00,4.325586795806884766e+00,4.173825740814208984e+00,4.032352447509765625e+00,3.900155305862426758e+00,3.776351213455200195e+00,3.660164833068847656e+00,3.550914764404296875e+00,3.447997093200683594e+00,3.350877523422241211e+00,3.259079217910766602e+00,3.172176361083984375e+00,3.089787483215332031e+00,3.011570453643798828e+00,2.937215328216552734e+00,2.866443395614624023e+00,2.799001693725585938e+00,2.734660625457763672e+00,2.673211336135864258e+00,2.614462614059448242e+00,2.558240890502929688e+00,2.504385948181152344e+00,2.452752113342285156e+00,2.403203964233398438e+00,2.355618238449096680e+00,2.309880256652832031e+00,2.265884637832641602e+00,2.223533868789672852e+00,2.182737112045288086e+00,2.143410205841064453e+00,2.105475425720214844e+00,2.068860054016113281e+00,1.205016851425170898e+00,1.179780840873718262e+00,1.158391952514648438e+00,1.145975708961486816e+00,1.133822798728942871e+00,1.034836292266845703e+00,9.894703030586242676e-01
5.000000000000000000e+00,5.000000000000000000e+00,5.000000000000000000e+00,5.000000000000000000e+00,5.000000000000000000e+00,5.000000000000000000e+00,5.000000000000000000e+00,5.000000000000000000e+00,5.000000000000000000e+00,5.000000000000000000e+00,5.000000000000000000e+00,5.000000000000000000e+00,5.000000000000000000e+00,5.000000000000000000e+00,5.000000000000000000e+00,5.000000000000000000e+00,5.000000000000000000e+00,5.000000000000000000e+00,5.000000000000000000e+00,5.000000000000000000e+00,5.000000000000000000e+00,5.000000000000000000e+00,5.000000000000000000e+00,5.000000000000000000e+00,5.000000000000000000e+00,5.000000000000000000e+00,5.000000000000000000e+00,5.000000000000000000e+00,5.000000000000000000e+00,5.000000000000000000e+00,5.000000000000000000e+00,5.000000000000000000e+00,5.000000000000000000e+00,5.000000000000000000e+00,5.000000000000000000e+00,5.000000000000000000e+00,5.000000000000000000e+00,5.000000000000000000e+00,5.000000000000000000e+00,4.855332374572753906e+00,4.664941310882568359e+00,4.488918304443359375e+00,4.325695991516113281e+00,4.173927307128906250e+00,4.032447338104248047e+00,3.900244235992431641e+00,3.776434421539306641e+00,3.660243034362792969e+00,3.550988435745239258e+00,3.448066473007202148e+00,3.350943088531494141e+00,3.259141206741333008e+00,3.172235250473022461e+00,3.089843273162841797e+00,3.011623382568359375e+00,2.937265634536743164e+00,2.866491556167602539e+00,2.799047708511352539e+00,2.734704494476318359e+00,2.673253059387207031e+00,2.614502668380737305e+00,2.558279037475585938e+00,2.504422664642333984e+00,2.452787160873413086e+00,2.403237581253051758e+00,2.355650663375854492e+00,2.309911489486694336e+00,2.265914678573608398e+00,2.223562717437744141e+00,2.182764768600463867e+00,2.143436908721923828e+00,2.105501413345336914e+00,2.068885087966918945e+00,1.208481431007385254e+00,1.179970979690551758e+00,1.158549427986145020e+00,1.146129846572875977e+00,1.135175704956054688e+00,1.125701546669006348e+00,1.005414724349975586e+00
5.000000000000000000e+00,5.000000000000000000e+00,5.000000000000000000e+00,5.000000000000000000e+00,5.000000000000000000e+00,5.000000000000000000e+00,5.000000000000000000e+00,5.000000000000000000e+00,5.000000000000000000e+00,5.000000000000000000e+00,5.000000000000000000e+00,5.000000000000000000e+00,5.000000000000000000e+00,5.000000000000000000e+00,5.000000000000000000e+00,5.000000000000000000e+00,5.000000000000000000e+00,5.000000000000000000e+00,5.000000000000000000e+00,5.000000000000000000e+00,5.000000000000000000e+00,5.000000000000000000e+00,5.000000000000000000e+00,5.000000000000000000e+00,5.000000000000000000e+00,5.000000000000000000e+00,5.000000000000000000e+00,5.000000000000000000e+00,5.000000000000000000e+00,5.000000000000000000e+00,5.000000000000000000e+00,5.000000000000000000e+00,5.000000000000000000e+00,5.000000000000000000e+00,5.000000000000000000e+00,5.000000000000000000e+00,5.000000000000000000e+00,5.000000000000000000e+00,5.000000000000000000e+00,4.855470180511474609e+00,4.665068626403808594e+00,4.489036083221435547e+00,4.325805664062500000e+00,4.174029350280761719e+00,4.032542228698730469e+00,3.900332927703857422e+00,3.776517629623413086e+00,3.660321235656738281e+00,3.551062107086181641e+00,3.448136091232299805e+00,3.351008653640747070e+00,3.259203195571899414e+00,3.172293901443481445e+00,3.089899063110351562e+00,3.011676311492919922e+00,2.937315940856933594e+00,2.866539478302001953e+00,2.799093484878540039e+00,2.734748125076293945e+00,2.673294782638549805e+00,2.614542484283447266e+00,2.558317422866821289e+00,2.504459142684936523e+00,2.452822208404541016e+00,2.403271436691284180e+00,2.355683088302612305e+00,2.309942722320556641e+00,2.265944719314575195e+00,2.223591566085815430e+00,2.182792663574218750e+00,2.143463850021362305e+00,2.105527400970458984e+00,2.068910121917724609e+00,1.211966156959533691e+00,1.181921720504760742e+00,1.158706903457641602e+00,1.146751642227172852e+00,1.137084126472473145e+00,1.127578139305114746e+00,1.120960354804992676e+00
5.000000000000000000e+00,5.000000000000000000e+00,5.000000000000000000e+00,5.000000000000000000e+00,5.000000000000000000e+00,5.000000000000000000e+00,5.000000000000000000e+00,5.000000000000000000e+00,5.000000000000000000e+00,5.000000000000000000e+00,5.000000000000000000e+00,5.000000000000000000e+00,5.000000000000000000e+00,5.000000000000000000e+00,5.000000000000000000e+00,5.000000000000000000e+00,5.000000000000000000e+00,5.000000000000000000e+00,5.000000000000000000e+00,5.000000000000000000e+00,5.000000000000000000e+00,5.000000000000000000e+00,5.000000000000000000e+00,5.000000000000000000e+00,5.000000000000000000e+00,5.000000000000000000e+00,5.000000000000000000e+00,5.000000000000000000e+00,5.000000000000000000e+00,5.000000000000000000e+00,5.000000000000000000e+00,5.000000000000000000e+00,5.000000000000000000e+00,5.000000000000000000e+00,5.000000000000000000e+00,5.000000000000000000e+00,5.000000000000000000e+00,5.000000000000000000e+00,5.000000000000000000e+00,4.855607986450195312e+00,4.665195941925048828e+00,4.489153861999511719e+00,4.325914859771728516e+00,4.174130916595458984e+00,4.032637119293212891e+00,3.900421857833862305e+00,3.776601076126098633e+00,3.660399436950683594e+00,3.551135778427124023e+00,3.448205471038818359e+00,3.351074457168579102e+00,3.259265184402465820e+00,3.172352790832519531e+00,3.089954853057861328e+00,3.011729240417480469e+00,2.937366724014282227e+00,2.866587400436401367e+00,2.799139261245727539e+00,2.734791755676269531e+00,2.673336505889892578e+00,2.614582538604736328e+00,2.558355569839477539e+00,2.504495859146118164e+00,2.452857494354248047e+00,2.403305053710937500e+00,2.355715513229370117e+00,2.309973716735839844e+00,2.265974760055541992e+00,2.223620414733886719e+00,2.182820558547973633e+00,2.143490791320800781e+00,2.105553150177001953e+00,2.068935155868530273e+00,1.215470910072326660e+00,1.185254693031311035e+00,1.158864498138427734e+00,1.148699164390563965e+00,1.138998866081237793e+00,1.129461050033569336e+00,1.018403172492980957e+00
5.000000000000000000e+00,5.000000000000000000e+00,5.000000000000000000e+00,5.000000000000000000e+00,5.000000000000000000e+00,5.000000000000000000e+00,5.000000000000000000e+00,5.000000000000000000e+00,5.000000000000000000e+00,5.000000000000000000e+00,5.000000000000000000e+00,5.000000000000000000e+00,5.000000000000000000e+00,5.000000000000000000e+00,5.000000000000000000e+00,5.000000000000000000e+00,5.000000000000000000e+00,5.000000000000000000e+00,5.000000000000000000e+00,5.000000000000000000e+00,5.000000000000000000e+00,5.000000000000000000e+00,5.000000000000000000e+00,5.000000000000000000e+00,5.000000000000000000e+00,5.000000000000000000e+00,5.000000000000000000e+00,5.000000000000000000e+00,5.000000000000000000e+00,5.000000000000000000e+00,5.000000000000000000e+00,5.000000000000000000e+00,5.000000000000000000e+00,5.000000000000000000e+00,5.000000000000000000e+00,5.000000000000000000e+00,5.000000000000000000e+00,5.000000000000000000e+00,5.000000000000000000e+00,4.855745792388916016e+00,4.665322780609130859e+00,4.489271640777587891e+00,4.326024055480957031e+00,4.174232959747314453e+00,4.032732009887695312e+00,3.900510787963867188e+00,3.776684284210205078e+00,3.660477876663208008e+00,3.551209449768066406e+00,3.448274850845336914e+00,3.351140022277832031e+00,3.259327411651611328e+00,3.172411441802978516e+00,3.090010881423950195e+00,3.011782169342041016e+00,2.937417030334472656e+00,2.866635322570800781e+00,2.799185037612915039e+00,2.734835386276245117e+00,2.673378467559814453e+00,2.614622354507446289e+00,2.558393716812133789e+00,2.504532575607299805e+00,2.452892541885375977e+00,2.403338909149169922e+00,2.355747938156127930e+00,2.310004949569702148e+00,2.266004800796508789e+00,2.223649501800537109e+00,2.182848453521728516e+00,2.143517732620239258e+00,2.105579137802124023e+00,2.068960189819335938e+00,1.217813611030578613e+00,1.186532378196716309e+00,1.160260319709777832e+00,1.150455713272094727e+00,1.140815377235412598e+00,1.131335496902465820e+00,1.008636593818664551e+00
5.000000000000000000e+00,5.000000000000000000e+00,5.000000000000000000e+00,5.000000000000000000e+00,5.000000000000000000e+00,5.000000000000000000e+00,5.000000000000000000e+00,5.000000000000000000e+00,5.000000000000000000e+00,5.000000000000000000e+00,5.000000000000000000e+00,5.000000000000000000e+00,5.000000000000000000e+00,5.000000000000000000e+00,5.000000000000000000e+00,5.000000000000000000e+00,5.000000000000000000e+00,5.000000000000000000e+00,5.000000000000000000e+00,5.000000000000000000e+00,5.000000000000000000e+00,5.000000000000000000e+00,5.000000000000000000e+00,5.000000000000000000e+00,5.000000000000000000e+00,5.000000000000000000e+00,5.000000000000000000e+00,5.000000000000000000e+00,5.000000000000000000e+00,5.000000000000000000e+00,5.000000000000000000e+00,5.000000000000000000e+00,5.000000000000000000e+00,5.000000000000000000e+00,5.000000000000000000e+00,5.000000000000000000e+00,5.000000000000000000e+00,5.000000000000000000e+00,5.000000000000000000e+00,4.855883598327636719e+00,4.665450096130371094e+00,4.489389419555664062e+00,4.326133251190185547e+00,4.174334526062011719e+00,4.032827377319335938e+00,3.900599718093872070e+00,3.776767730712890625e+00,3.660556077957153320e+00,3.551283121109008789e+00,3.448344230651855469e+00,3.351205587387084961e+00,3.259389638900756836e+00,3.172470331192016602e+00,3.090066671371459961e+00,3.011835336685180664e+00,2.937467575073242188e+00,2.866683483123779297e+00,2.799230813980102539e+00,2.734879016876220703e+00,2.673420190811157227e+00,2.614662408828735352e+00,2.558432102203369141e+00,2.504569292068481445e+00,2.452927589416503906e+00,2.403372526168823242e+00,2.355780363082885742e+00,2.310036182403564453e+00,2.266034603118896484e+00,2.223678350448608398e+00,2.182876110076904297e+00,2.143544435501098633e+00,2.105605125427246094e+00,1.241764068603515625e+00,1.212774991989135742e+00,1.182855486869812012e+00,1.163132429122924805e+00,1.152774453163146973e+00,1.143322110176086426e+00,1.134023666381835938e+00,9.963176250457763672e-01
5.000000000000000000e+00,5.000000000000000000e+00,5.000000000000000000e+00,5.000000000000000000e+00,5.000000000000000000e+00,5.000000000000000000e+00,5.000000000000000000e+00,5.000000000000000000e+00,5.000000000000000000e+00,5.000000000000000000e+00,5.000000000000000000e+00,5.000000000000000000e+00,5.000000000000000000e+00,5.000000000000000000e+00,5.000000000000000000e+00,5.000000000000000000e+00,5.000000000000000000e+00,5.000000000000000000e+00,5.000000000000000000e+00,5.000000000000000000e+00,5.000000000000000000e+00,5.000000000000000000e+00,5.000000000000000000e+00,5.000000000000000000e+00,5.000000000000000000e+00,5.000000000000000000e+00,5.000000000000000000e+00,5.000000000000000000e+00,5.000000000000000000e+00,5.000000000000000000e+00,5.000000000000000000e+00,5.000000000000000000e+00,5.000000000000000000e+00,5.000000000000000000e+00,5.000000000000000000e+00,5.000000000000000000e+00,5.000000000000000000e+00,5.000000000000000000e+00,5.000000000000000000e+00,4.856021404266357422e+00,4.665576934814453125e+00,4.489507198333740234e+00,4.326242923736572266e+00,4.174436092376708984e+00,4.032922267913818359e+00,3.900688409805297852e+00,3.776850938796997070e+00,3.660634279251098633e+00,3.551356554031372070e+00,3.448414087295532227e+00,3.351271152496337891e+00,3.259451627731323242e+00,3.172529220581054688e+00,3.090122461318969727e+00,3.011888265609741211e+00,2.937517881393432617e+00,2.866731405258178711e+00,2.799276590347290039e+00,2.734922885894775391e+00,2.673461914062500000e+00,2.614702224731445312e+00,2.558470249176025391e+00,2.504605770111083984e+00,2.452962875366210938e+00,2.403406381607055664e+00,2.355812788009643555e+00,2.310067415237426758e+00,2.266064643859863281e+00,2.223707199096679688e+00,2.182904005050659180e+00,2.143571376800537109e+00,1.257370233535766602e+00,1.228505015373229980e+00,1.200852990150451660e+00,1.181897640228271484e+00,1.169912815093994141e+00,1.158731222152709961e+00,1.147687673568725586e+00,1.137066006660461426e+00,9.951689839363098145e-01
5.000000000000000000e+00,5.000000000000000000e+00,5.000000000000000000e+00,5.000000000000000000e+00,5.000000000000000000e+00,5.000000000000000000e+00,5.000000000000000000e+00,5.000000000000000000e+00,5.000000000000000000e+00,5.000000000000000000e+00,5.000000000000000000e+00,5.000000000000000000e+00,5.000000000000000000e+00,5.000000000000000000e+00,5.000000000000000000e+00,5.000000000000000000e+00,5.000000000000000000e+00,5.000000000000000000e+00,5.000000000000000000e+00,5.000000000000000000e+00,5.000000000000000000e+00,5.000000000000000000e+00,5.000000000000000000e+00,5.000000000000000000e+00,5.000000000000000000e+00,5.000000000000000000e+00,5.000000000000000000e+00,5.000000000000000000e+00,5.000000000000000000e+00,5.000000000000000000e+00,5.000000000000000000e+00,5.000000000000000000e+00,5.000000000000000000e+00,5.000000000000000000e+00,5.000000000000000000e+00,5.000000000000000000e+00,5.000000000000000000e+00,5.000000000000000000e+00,5.000000000000000000e+00,4.856159210205078125e+00,4.665704250335693359e+00,4.489624977111816406e+00,4.326352119445800781e+00,4.174538135528564453e+00,4.033017158508300781e+00,3.900777339935302734e+00,3.776934385299682617e+00,3.660712957382202148e+00,3.551430463790893555e+00,3.448483705520629883e+00,3.351336717605590820e+00,3.259513854980468750e+00,3.172587871551513672e+00,3.090178251266479492e+00,3.011941194534301758e+00,2.937568426132202148e+00,2.866779565811157227e+00,2.799322366714477539e+00,2.734966516494750977e+00,2.673503637313842773e+00,2.614742279052734375e+00,2.558508634567260742e+00,2.504642486572265625e+00,2.452997922897338867e+00,2.403440237045288086e+00,2.355845212936401367e+00,2.310098648071289062e+00,2.266094684600830078e+00,2.223736047744750977e+00,1.299861311912536621e+00,1.272713661193847656e+00,1.243865847587585449e+00,1.221195578575134277e+00,1.206351518630981445e+00,1.191864013671875000e+00,1.177720308303833008e+00,1.163908243179321289e+00,1.152740836143493652e+00,1.045923352241516113e+00,9.940230250358581543e-01
5.000000000000000000e+00,5.000000000000000000e+00,5.000000000000000000e+00,5.000000000000000000e+00,5.000000000000000000e+00,5.000000000000000000e+00,5.000000000000000000e+00,5.000000000000000000e+00,5.000000000000000000e+00,5.000000000000000000e+00,5.000000000000000000e+00,5.000000000000000000e+00,5.000000000000000000e+00,5.000000000000000000e+00,5.000000000000000000e+00,5.000000000000000000e+00,5.000000000000000000e+00,5.000000000000000000e+00,5.000000000000000000e+00,5.000000000000000000e+00,5.000000000000000000e+00,5.000000000000000000e+00,5.000000000000000000e+00,5.000000000000000000e+00,5.000000000000000000e+00,5.000000000000000000e+00,5.000000000000000000e+00,5.000000000000000000e+00,5.000000000000000000e+00,5.000000000000000000e+00,5.000000000000000000e+00,5.000000000000000000e+00,5.000000000000000000e+00,5.000000000000000000e+00,5.000000000000000000e+00,5.000000000000000000e+00,5.000000000000000000e+00,5.000000000000000000e+00,5.000000000000000000e+00,4.856297016143798828e+00,4.665831565856933594e+00,4.489742755889892578e+00,4.326461315155029297e+00,4.174639701843261719e+00,4.033112049102783203e+00,3.900866270065307617e+00,3.777017593383789062e+00,3.660791158676147461e+00,3.551504135131835938e+00,3.448553085327148438e+00,3.351402282714843750e+00,3.259575843811035156e+00,3.172646760940551758e+00,3.090234041213989258e+00,3.011994123458862305e+00,2.937618732452392578e+00,2.866827487945556641e+00,2.799368143081665039e+00,2.735010147094726562e+00,2.673545360565185547e+00,2.614782094955444336e+00,2.558546781539916992e+00,2.504679203033447266e+00,2.453033208847045898e+00,2.403474092483520508e+00,2.355877637863159180e+00,2.310129880905151367e+00,2.266124725341796875e+00,1.321202754974365234e+00,1.288436174392700195e+00,1.263196825981140137e+00,1.247320771217346191e+00,1.231752395629882812e+00,1.216029405593872070e+00,1.200702786445617676e+00,1.185757637023925781e+00,1.175177931785583496e+00,1.173276424407958984e+00,1.013369083404541016e+00,9.928795695304870605e-01
5.000000000000000000e+00,5.000000000000000000e+00,5.000000000000000000e+00,5.000000000000000000e+00,5.000000000000000000e+00,5.000000000000000000e+00,5.000000000000000000e+00,5.000000000000000000e+00,5.000000000000000000e+00,5.000000000000000000e+00,5.000000000000000000e+00,5.000000000000000000e+00,5.000000000000000000e+00,5.000000000000000000e+00,5.000000000000000000e+00,5.000000000000000000e+00,5.000000000000000000e+00,5.000000000000000000e+00,5.000000000000000000e+00,5.000000000000000000e+00,5.000000000000000000e+00,5.000000000000000000e+00,5.000000000000000000e+00,5.000000000000000000e+00,5.000000000000000000e+00,5.000000000000000000e+00,5.000000000000000000e+00,5.000000000000000000e+00,5.000000000000000000e+00,5.000000000000000000e+00,5.000000000000000000e+00,5.000000000000000000e+00,5.000000000000000000e+00,5.000000000000000000e+00,5.000000000000000000e+00,5.000000000000000000e+00,5.000000000000000000e+00,5.000000000000000000e+00,5.000000000000000000e+00,4.856434345245361328e+00,4.665958404541015625e+00,4.489860534667968750e+00,4.326570987701416016e+00,4.174741744995117188e+00,4.033207416534423828e+00,3.900955677032470703e+00,3.777101039886474609e+00,3.660869598388671875e+00,3.551577806472778320e+00,3.448622465133666992e+00,3.351468086242675781e+00,3.259637832641601562e+00,3.172705411911010742e+00,3.090289831161499023e+00,3.012047290802001953e+00,2.937669038772583008e+00,2.866875410079956055e+00,2.799413919448852539e+00,2.735054016113281250e+00,2.673587083816528320e+00,2.614822387695312500e+00,2.558584928512573242e+00,2.504715919494628906e+00,2.453068256378173828e+00,2.403507709503173828e+00,2.355910062789916992e+00,2.310160875320434570e+00,1.347013235092163086e+00,1.312764525413513184e+00,1.285490036010742188e+00,1.269620537757873535e+00,1.253280282020568848e+00,1.237006425857543945e+00,1.222850441932678223e+00,1.213661551475524902e+00,1.204609632492065430e+00,1.202550292015075684e+00,1.202779412269592285e+00,1.014061331748962402e+00,9.930781722068786621e-01
5.000000000000000000e+00,5.000000000000000000e+00,5.000000000000000000e+00,5.000000000000000000e+00,5.000000000000000000e+00,5.000000000000000000e+00,5.000000000000000000e+00,5.000000000000000000e+00,5.000000000000000000e+00,5.000000000000000000e+00,5.000000000000000000e+00,5.000000000000000000e+00,5.000000000000000000e+00,5.000000000000000000e+00,5.000000000000000000e+00,5.000000000000000000e+00,5.000000000000000000e+00,5.000000000000000000e+00,5.000000000000000000e+00,5.000000000000000000e+00,5.000000000000000000e+00,5.000000000000000000e+00,5.000000000000000000e+00,5.000000000000000000e+00,5.000000000000000000e+00,5.000000000000000000e+00,5.000000000000000000e+00,5.000000000000000000e+00,5.000000000000000000e+00,5.000000000000000000e+00,5.000000000000000000e+00,5.000000000000000000e+00,5.000000000000000000e+00,5.000000000000000000e+00,5.000000000000000000e+00,5.000000000000000000e+00,5.000000000000000000e+00,5.000000000000000000e+00,5.000000000000000000e+00,4.856572151184082031e+00,4.666085720062255859e+00,4.489978313446044922e+00,4.326680183410644531e+00,4.174843788146972656e+00,4.033302307128906250e+00,3.901044368743896484e+00,3.777184247970581055e+00,3.660947799682617188e+00,3.551651477813720703e+00,3.448692083358764648e+00,3.351533651351928711e+00,3.259700059890747070e+00,3.172764301300048828e+00,3.090345621109008789e+00,3.012100219726562500e+00,2.937719583511352539e+00,2.866923570632934570e+00,2.799459695816040039e+00,2.735097646713256836e+00,2.673628807067871094e+00,2.614862203598022461e+00,2.558623313903808594e+00,2.504752635955810547e+00,2.453103542327880859e+00,2.403541564941406250e+00,2.355942487716674805e+00,2.310192108154296875e+00,1.338223099708557129e+00,1.305474877357482910e+00,1.289111256599426270e+00,1.273152709007263184e+00,1.259408593177795410e+00,1.254750728607177734e+00,1.245078086853027344e+00,1.235553503036499023e+00,1.233322501182556152e+00,1.934524416923522949e+00,1.903569817543029785e+00,1.016273379325866699e+00,9.957596659660339355e-01
5.000000000000000000e+00,5.000000000000000000e+00,5.000000000000000000e+00,5.000000000000000000e+00,5.000000000000000000e+00,5.000000000000000000e+00,5.000000000000000000e+00,5.000000000000000000e+00,5.000000000000000000e+00,5.000000000000000000e+00,5.000000000000000000e+00,5.000000000000000000e+00,5.000000000000000000e+00,5.000000000000000000e+00,5.000000000000000000e+00,5.000000000000000000e+00,5.000000000000000000e+00,5.000000000000000000e+00,5.000000000000000000e+00,5.000000000000000000e+00,5.000000000000000000e+00,5.000000000000000000e+00,5.000000000000000000e+00,5.000000000000000000e+00,5.000000000000000000e+00,5.000000000000000000e+00,5.000000000000000000e+00,5.000000000000000000e+00,5.000000000000000000e+00,5.000000000000000000e+00,5.000000000000000000e+00,5.000000000000000000e+00,5.000000000000000000e+00,5.000000000000000000e+00,5.000000000000000000e+00,5.000000000000000000e+00,5.000000000000000000e+00,5.000000000000000000e+00,5.000000000000000000e+00,4.856709957122802734e+00,4.666213035583496094e+00,4.490096092224121094e+00,4.326789855957031250e+00,4.174945354461669922e+00,4.033397674560546875e+00,3.901133298873901367e+00,3.777267694473266602e+00,3.661026000976562500e+00,3.551725149154663086e+00,3.448761463165283203e+00,3.351599216461181641e+00,3.259762048721313477e+00,3.172823190689086914e+00,3.090401411056518555e+00,3.012153148651123047e+00,2.937769889831542969e+00,2.866971492767333984e+00,2.799505472183227539e+00,2.735141515731811523e+00,2.673670530319213867e+00,2.614902257919311523e+00,2.558661460876464844e+00,2.504789352416992188e+00,2.453138589859008789e+00,2.403575181961059570e+00,2.355974912643432617e+00,1.364711642265319824e+00,1.329561591148376465e+00,1.309209585189819336e+00,1.292868256568908691e+00,1.277448892593383789e+00,1.274191021919250488e+00,1.269869923591613770e+00,1.265577912330627441e+00,1.999578475952148438e+00,1.966525077819824219e+00,1.934546232223510742e+00,1.903590917587280273e+00,1.018281102180480957e+00,9.984556436538696289e-01
5.000000000000000000e+00,5.000000000000000000e+00,5.000000000000000000e+00,5.000000000000000000e+00,5.000000000000000000e+00,5.000000000000000000e+00,5.000000000000000000e+00,5.000000000000000000e+00,5.000000000000000000e+00,5.000000000000000000e+00,5.000000000000000000e+00,5.000000000000000000e+00,5.000000000000000000e+00,5.000000000000000000e+00,5.000000000000000000e+00,5.000000000000000000e+00,5.000000000000000000e+00,5.000000000000000000e+00,5.000000000000000000e+00,5.000000000000000000e+00,5.000000000000000000e+00,5.000000000000000000e+00,5.000000000000000000e+00,5.000000000000000000e+00,5.000000000000000000e+00,5.000000000000000000e+00,5.000000000000000000e+00,5.000000000000000000e+00,5.000000000000000000e+00,5.000000000000000000e+00,5.000000000000000000e+00,5.000000000000000000e+00,5.000000000000000000e+00,5.000000000000000000e+00,5.000000000000000000e+00,5.000000000000000000e+00,5.000000000000000000e+00,5.000000000000000000e+00,5.000000000000000000e+00,4.856847286224365234e+00,4.666340351104736328e+00,4.490213871002197266e+00,4.326899051666259766e+00,4.175047397613525391e+00,4.033492565155029297e+00,3.901222229003906250e+00,3.777350902557373047e+00,3.661104440689086914e+00,3.551798820495605469e+00,3.448831081390380859e+00,3.351664781570434570e+00,3.259824037551879883e+00,3.172881841659545898e+00,3.090457201004028320e+00,3.012206315994262695e+00,2.937820434570312500e+00,2.867019653320312500e+00,2.799551248550415039e+00,2.735185146331787109e+00,2.673712491989135742e+00,2.614942073822021484e+00,2.558699607849121094e+00,2.504825830459594727e+00,2.453173637390136719e+00,2.403609037399291992e+00,1.392406582832336426e+00,1.355689764022827148e+00,1.329944491386413574e+00,1.313552141189575195e+00,1.297638416290283203e+00,1.292938232421875000e+00,1.289170145988464355e+00,1.284747004508972168e+00,2.033786535263061523e+00,1.999601840972900391e+00,1.966547727584838867e+00,1.934568166732788086e+00,1.903612136840820312e+00,1.020296573638916016e+00,1.001166105270385742e+00
5.000000000000000000e+00,5.000000000000000000e+00,5.000000000000000000e+00,5.000000000000000000e+00,5.000000000000000000e+00,5.000000000000000000e+00,5.000000000000000000e+00,5.000000000000000000e+00,5.000000000000000000e+00,5.000000000000000000e+00,5.000000000000000000e+00,5.000000000000000000e+00,5.000000000000000000e+00,5.000000000000000000e+00,5.000000000000000000e+00,5.000000000000000000e+00,5.000000000000000000e+00,5.000000000000000000e+00,5.000000000000000000e+00,5.000000000000000000e+00,5.000000000000000000e+00,5.000000000000000000e+00,5.000000000000000000e+00,5.000000000000000000e+00,5.000000000000000000e+00,5.000000000000000000e+00,5.000000000000000000e+00,5.000000000000000000e+00,5.000000000000000000e+00,5.000000000000000000e+00,5.000000000000000000e+00,5.000000000000000000e+00,5.000000000000000000e+00,5.000000000000000000e+00,5.000000000000000000e+00,5.000000000000000000e+00,5.000000000000000000e+00,5.000000000000000000e+00,5.000000000000000000e+00,4.856985569000244141e+00,4.666467666625976562e+00,4.490331649780273438e+00,4.327008724212646484e+00,4.175148963928222656e+00,4.033587455749511719e+00,3.901311159133911133e+00,3.777434349060058594e+00,3.661182641983032227e+00,3.551872491836547852e+00,3.448900461196899414e+00,3.351730346679687500e+00,3.259886264801025391e+00,3.172940731048583984e+00,3.090512990951538086e+00,3.012259483337402344e+00,2.937870740890502930e+00,2.867067813873291016e+00,2.799597024917602539e+00,2.735229015350341797e+00,2.673754215240478516e+00,2.614982128143310547e+00,2.558737993240356445e+00,2.504862546920776367e+00,2.453208923339843750e+00,1.423853278160095215e+00,1.383433222770690918e+00,1.352146863937377930e+00,1.334908485412597656e+00,1.318476557731628418e+00,1.311856508255004883e+00,1.308910250663757324e+00,1.304505586624145508e+00,2.069185256958007812e+00,2.033810853958129883e+00,1.999625205993652344e+00,1.966570258140563965e+00,1.934589982032775879e+00,1.903633236885070801e+00,1.022320270538330078e+00,1.003389000892639160e+00
5.000000000000000000e+00,5.000000000000000000e+00,5.000000000000000000e+00,5.000000000000000000e+00,5.000000000000000000e+00,5.000000000000000000e+00,5.000000000000000000e+00,5.000000000000000000e+00,5.000000000000000000e+00,5.000000000000000000e+00,5.000000000000000000e+00,5.000000000000000000e+00,5.000000000000000000e+00,5.000000000000000000e+00,5.000000000000000000e+00,5.000000000000000000e+00,5.000000000000000000e+00,5.000000000000000000e+00,5.000000000000000000e+00,5.000000000000000000e+00,5.000000000000000000e+00,5.000000000000000000e+00,5.000000000000000000e+00,5.000000000000000000e+00,5.000000000000000000e+00,5.000000000000000000e+00,5.000000000000000000e+00,5.000000000000000000e+00,5.000000000000000000e+00,5.000000000000000000e+00,5.000000000000000000e+00,5.000000000000000000e+00,5.000000000000000000e+00,5.000000000000000000e+00,5.000000000000000000e+00,5.000000000000000000e+00,5.000000000000000000e+00,5.000000000000000000e+00,5.000000000000000000e+00,4.857123851776123047e+00,4.666594505310058594e+00,4.490449428558349609e+00,4.327117919921875000e+00,4.175251007080078125e+00,4.033682823181152344e+00,3.901400089263916016e+00,3.777517795562744141e+00,3.661261081695556641e+00,3.551946163177490234e+00,3.448969841003417969e+00,3.351796150207519531e+00,3.259948253631591797e+00,3.172999858856201172e+00,3.090568780899047852e+00,3.012312412261962891e+00,2.937921285629272461e+00,2.867115736007690430e+00,2.799642801284790039e+00,2.735272645950317383e+00,2.673795938491821289e+00,2.615021944046020508e+00,2.558776140213012695e+00,2.504899263381958008e+00,1.458258390426635742e+00,1.412636041641235352e+00,1.377289652824401855e+00,1.358639359474182129e+00,1.340487241744995117e+00,1.331336617469787598e+00,1.328302145004272461e+00,1.324881434440612793e+00,2.105838298797607422e+00,2.069210290908813477e+00,2.033834934234619141e+00,1.999648571014404297e+00,1.966592907905578613e+00,1.934611797332763672e+00,1.903654456138610840e+00,1.024351835250854492e+00,1.005346059799194336e+00
5.000000000000000000e+00,5.000000000000000000e+00,5.000000000000000000e+00,5.000000000000000000e+00,5.000000000000000000e+00,5.000000000000000000e+00,5.000000000000000000e+00,5.000000000000000000e+00,5.000000000000000000e+00,5.000000000000000000e+00,5.000000000000000000e+00,5.000000000000000000e+00,5.000000000000000000e+00,5.000000000000000000e+00,5.000000000000000000e+00,5.000000000000000000e+00,5.000000000000000000e+00,5.000000000000000000e+00,5.000000000000000000e+00,5.000000000000000000e+00,5.000000000000000000e+00,5.000000000000000000e+00,5.000000000000000000e+00,5.000000000000000000e+00,5.000000000000000000e+00,5.000000000000000000e+00,5.000000000000000000e+00,5.000000000000000000e+00,5.000000000000000000e+00,5.000000000000000000e+00,5.000000000000000000e+00,5.000000000000000000e+00,5.000000000000000000e+00,5.000000000000000000e+00,5.000000000000000000e+00,5.000000000000000000e+00,5.000000000000000000e+00,5.000000000000000000e+00,5.000000000000000000e+00,4.857261657714843750e+00,4.666721820831298828e+00,4.490566730499267578e+00,4.327227115631103516e+00,4.175353050231933594e+00,4.033777713775634766e+00,3.901489019393920898e+00,3.777601003646850586e+00,3.661339282989501953e+00,3.552019834518432617e+00,3.449039459228515625e+00,3.351861953735351562e+00,3.260010242462158203e+00,3.173058748245239258e+00,3.090624570846557617e+00,3.012365579605102539e+00,2.937971591949462891e+00,2.867163896560668945e+00,2.799688577651977539e+00,2.735316276550292969e+00,2.673837661743164062e+00,2.615061998367309570e+00,2.558814525604248047e+00,2.504935741424560547e+00,1.445062756538391113e+00,1.403400659561157227e+00,1.384026288986206055e+00,1.365123629570007324e+00,1.352367043495178223e+00,1.348773598670959473e+00,1.345199465751647949e+00,2.143812894821166992e+00,2.105864048004150391e+00,2.069235324859619141e+00,2.033859014511108398e+00,1.999671936035156250e+00,1.966615438461303711e+00,1.934633731842041016e+00,1.903675675392150879e+00,1.026391625404357910e+00,1.007310748100280762e+00
5.000000000000000000e+00,5.000000000000000000e+00,5.000000000000000000e+00,5.000000000000000000e+00,5.000000000000000000e+00,5.000000000000000000e+00,5.000000000000000000e+00,5.000000000000000000e+00,5.000000000000000000e+00,5.000000000000000000e+00,5.000000000000000000e+00,5.000000000000000000e+00,5.000000000000000000e+00,5.000000000000000000e+00,5.000000000000000000e+00,5.000000000000000000e+00,5.000000000000000000e+00,5.000000000000000000e+00,5.000000000000000000e+00,5.000000000000000000e+00,5.000000000000000000e+00,5.000000000000000000e+00,5.000000000000000000e+00,5.000000000000000000e+00,5.000000000000000000e+00,5.000000000000000000e+00,5.000000000000000000e+00,5.000000000000000000e+00,5.000000000000000000e+00,5.000000000000000000e+00,5.000000000000000000e+00,5.000000000000000000e+00,5.000000000000000000e+00,5.000000000000000000e+00,5.000000000000000000e+00,5.000000000000000000e+00,5.000000000000000000e+00,5.000000000000000000e+00,5.000000000000000000e+00,4.857399940490722656e+00,4.666849613189697266e+00,4.490684986114501953e+00,4.327336311340332031e+00,4.175454616546630859e+00,4.033872604370117188e+00,3.901577949523925781e+00,3.777684450149536133e+00,3.661417722702026367e+00,3.552093505859375000e+00,3.449108839035034180e+00,3.351927757263183594e+00,3.260072469711303711e+00,3.173117399215698242e+00,3.090680360794067383e+00,3.012418508529663086e+00,2.938022136688232422e+00,2.867211818695068359e+00,2.799734354019165039e+00,2.735359907150268555e+00,2.673879384994506836e+00,2.615101814270019531e+00,2.558852672576904297e+00,2.504972457885742188e+00,1.433462023735046387e+00,1.410380005836486816e+00,1.390582799911499023e+00,1.375138640403747559e+00,1.370629787445068359e+00,1.366938948631286621e+00,2.183182477951049805e+00,2.143839836120605469e+00,2.105890035629272461e+00,2.069260120391845703e+00,2.033883333206176758e+00,1.999695301055908203e+00,1.966638088226318359e+00,1.934655547142028809e+00,1.903696775436401367e+00,1.036852955818176270e+00,1.009283185005187988e+00
5.000000000000000000e+00,5.000000000000000000e+00,5.000000000000000000e+00,5.000000000000000000e+00,5.000000000000000000e+00,5.000000000000000000e+00,5.000000000000000000e+00,5.000000000000000000e+00,5.000000000000000000e+00,5.000000000000000000e+00,5.000000000000000000e+00,5.000000000000000000e+00,5.000000000000000000e+00,5.000000000000000000e+00,5.000000000000000000e+00,5.000000000000000000e+00,5.000000000000000000e+00,5.000000000000000000e+00,5.000000000000000000e+00,5.000000000000000000e+00,5.000000000000000000e+00,5.000000000000000000e+00,5.000000000000000000e+00,5.000000000000000000e+00,5.000000000000000000e+00,5.000000000000000000e+00,5.000000000000000000e+00,5.000000000000000000e+00,5.000000000000000000e+00,5.000000000000000000e+00,5.000000000000000000e+00,5.000000000000000000e+00,5.000000000000000000e+00,5.000000000000000000e+00,5.000000000000000000e+00,5.000000000000000000e+00,5.000000000000000000e+00,5.000000000000000000e+00,5.000000000000000000e+00,4.857538223266601562e+00,4.666976928710937500e+00,4.490802764892578125e+00,4.327445983886718750e+00,4.175556659698486328e+00,4.033967971801757812e+00,3.901666879653930664e+00,3.777767658233642578e+00,3.661495923995971680e+00,3.552167654037475586e+00,3.449178457260131836e+00,3.351993322372436523e+00,3.260134458541870117e+00,3.173176288604736328e+00,3.090736150741577148e+00,3.012471437454223633e+00,2.938072443008422852e+00,2.867259740829467773e+00,2.799780130386352539e+00,2.735403776168823242e+00,2.673921108245849609e+00,2.615141868591308594e+00,1.526227235794067383e+00,1.478542208671569824e+00,1.437572956085205078e+00,1.417009830474853516e+00,1.399749398231506348e+00,1.393206000328063965e+00,2.266394853591918945e+00,2.224025011062622070e+00,2.183210372924804688e+00,2.143866539001464844e+00,2.105916023254394531e+00,2.069285154342651367e+00,2.033907413482666016e+00,1.999718666076660156e+00,1.966660618782043457e+00,1.934677481651306152e+00,1.903717994689941406e+00,1.050836324691772461e+00,1.011977076530456543e+00
4.874270439147949219e+00,4.873072624206542969e+00,4.871876239776611328e+00,4.870680332183837891e+00,4.869484424591064453e+00,4.868289947509765625e+00,4.867095470428466797e+00,4.865901947021484375e+00,4.864708423614501953e+00,4.863516330718994141e+00,4.862324237823486328e+00,4.861133098602294922e+00,4.859941959381103516e+00,4.858751773834228516e+00,4.857562065124511719e+00,4.856373310089111328e+00,4.855185031890869141e+00,4.853997230529785156e+00,4.852809906005859375e+00,4.851623058319091797e+00,4.850437164306640625e+00,4.849251270294189453e+00,4.848066329956054688e+00,4.846881866455078125e+00,4.845698356628417969e+00,4.844514846801757812e+00,4.843332290649414062e+00,4.842150211334228516e+00,4.840969085693359375e+00,4.839787960052490234e+00,4.838607788085937500e+00,4.837427616119384766e+00,4.836248397827148438e+00,4.835069656372070312e+00,4.833891868591308594e+00,4.832714557647705078e+00,4.831537246704101562e+00,4.830360889434814453e+00,4.829185009002685547e+00,4.828010082244873047e+00,4.667104721069335938e+00,4.490921020507812500e+00,4.327555656433105469e+00,4.175657749176025391e+00,4.034062862396240234e+00,3.901755809783935547e+00,3.777851581573486328e+00,3.661574125289916992e+00,3.552241325378417969e+00,3.449247837066650391e+00,3.352058887481689453e+00,3.260196685791015625e+00,3.173235177993774414e+00,3.090791940689086914e+00,3.012524604797363281e+00,2.938122987747192383e+00,2.867307901382446289e+00,2.799825906753540039e+00,2.735447406768798828e+00,2.673962831497192383e+00,1.546430945396423340e+00,1.507086157798767090e+00,1.469735026359558105e+00,1.452724933624267578e+00,1.425257205963134766e+00,1.416538238525390625e+00,2.310441493988037109e+00,2.266424894332885742e+00,2.224053859710693359e+00,2.183238267898559570e+00,2.143893480300903320e+00,2.105941772460937500e+00,2.069310188293457031e+00,2.033931493759155273e+00,1.999742031097412109e+00,1.966683268547058105e+00,1.934699296951293945e+00,1.903739094734191895e+00,1.065143704414367676e+00,1.015296816825866699e+00
3.777298688888549805e+00,3.776579856872558594e+00,3.775861024856567383e+00,3.775142431259155273e+00,3.774424314498901367e+00,3.773706436157226562e+00,3.772988796234130859e+00,3.772271156311035156e+00,3.771554231643676758e+00,3.770837545394897461e+00,3.770120620727539062e+00,3.769404411315917969e+00,3.768688440322875977e+00,3.767972946166992188e+00,3.767257213592529297e+00,3.766541957855224609e+00,3.765827178955078125e+00,3.765112638473510742e+00,3.764397859573364258e+00,3.763683795928955078e+00,3.762970209121704102e+00,3.762256622314453125e+00,3.761543035507202148e+00,3.760830163955688477e+00,3.760117530822753906e+00,3.759405136108398438e+00,3.758692741394042969e+00,3.757980823516845703e+00,3.757269144058227539e+00,3.756557464599609375e+00,3.755846500396728516e+00,3.755135774612426758e+00,3.754425287246704102e+00,3.753714561462402344e+00,3.753004550933837891e+00,3.752294778823852539e+00,3.751585483551025391e+00,3.750875949859619141e+00,3.750166893005371094e+00,3.749458312988281250e+00,3.748749494552612305e+00,3.748041391372680664e+00,3.747333765029907227e+00,3.746626138687133789e+00,3.745918512344360352e+00,3.745211362838745117e+00,3.744504690170288086e+00,3.661652565002441406e+00,3.552314996719360352e+00,3.449317455291748047e+00,3.352124452590942383e+00,3.260258674621582031e+00,3.173293828964233398e+00,3.090847730636596680e+00,3.012577533721923828e+00,2.938173294067382812e+00,2.867355823516845703e+00,2.799871683120727539e+00,2.735491037368774414e+00,2.674004793167114258e+00,2.615221738815307617e+00,1.495551228523254395e+00,1.469161152839660645e+00,1.454296469688415527e+00,2.403845310211181641e+00,2.356234550476074219e+00,2.310472726821899414e+00,2.266454935073852539e+00,2.224082708358764648e+00,2.183266162872314453e+00,2.143920421600341797e+00,2.105967760086059570e+00,2.069335222244262695e+00,2.033955812454223633e+00,1.999765396118164062e+00,1.966705918312072754e+00,1.934721112251281738e+00,1.903760313987731934e+00,1.873774886131286621e+00,1.018551468849182129e+00
3.083374500274658203e+00,3.082895517349243164e+00,3.082416534423828125e+00,3.081937551498413086e+00,3.081459045410156250e+00,3.080980539321899414e+00,3.080502271652221680e+00,3.080023765563964844e+00,3.079545736312866211e+00,3.079067945480346680e+00,3.078590154647827148e+00,3.078112363815307617e+00,3.077635049819946289e+00,3.077157735824584961e+00,3.076680660247802734e+00,3.076203346252441406e+00,3.075726509094238281e+00,3.075249910354614258e+00,3.074773073196411133e+00,3.074296712875366211e+00,3.073820352554321289e+00,3.073344230651855469e+00,3.072868108749389648e+00,3.072392225265502930e+00,3.071916580200195312e+00,3.071441173553466797e+00,3.070965528488159180e+00,3.070490360260009766e+00,3.070015192031860352e+00,3.069540262222290039e+00,3.069065332412719727e+00,3.068590641021728516e+00,3.068116188049316406e+00,3.067641735076904297e+00,3.067167520523071289e+00,3.066693544387817383e+00,3.066219568252563477e+00,3.065745592117309570e+00,3.065272092819213867e+00,3.064798593521118164e+00,3.064325332641601562e+00,3.063851833343505859e+00,3.063378810882568359e+00,3.062906026840209961e+00,3.062433242797851562e+00,3.061960458755493164e+00,3.061488151550292969e+00,3.061015844345092773e+00,3.060543298721313477e+00,3.060071468353271484e+00,3.059599637985229492e+00,3.059127807617187500e+00,3.058655977249145508e+00,3.058184623718261719e+00,3.012630462646484375e+00,2.938223838806152344e+00,2.867403984069824219e+00,2.799917459487915039e+00,2.735534906387329102e+00,2.674046754837036133e+00,2.615261793136596680e+00,1.490444540977478027e+00,1.460402011871337891e+00,1.454528808593750000e+00,2.403878927230834961e+00,2.356266975402832031e+00,2.310503959655761719e+00,2.266484975814819336e+00,2.224111557006835938e+00,2.183293819427490234e+00,2.143947124481201172e+00,2.105993747711181641e+00,2.069360256195068359e+00,2.033979892730712891e+00,1.999788999557495117e+00,1.966728448867797852e+00,1.934743046760559082e+00,1.903781414031982422e+00,1.873795390129089355e+00,1.021314263343811035e+00
2.604841470718383789e+00,2.604499578475952148e+00,2.604157686233520508e+00,2.603816032409667969e+00,2.603474140167236328e+00,2.603132724761962891e+00,2.602791309356689453e+00,2.602449893951416016e+00,2.602108478546142578e+00,2.601767301559448242e+00,2.601426124572753906e+00,2.601084947586059570e+00,2.600744009017944336e+00,2.600403070449829102e+00,2.600062370300292969e+00,2.599721670150756836e+00,2.599380970001220703e+00,2.599040508270263672e+00,2.598700046539306641e+00,2.598359584808349609e+00,2.598019361495971680e+00,2.597679376602172852e+00,2.597339391708374023e+00,2.596999168395996094e+00,2.596659421920776367e+00,2.596319675445556641e+00,2.595979690551757812e+00,2.595640182495117188e+00,2.595300674438476562e+00,2.594961166381835938e+00,2.594621658325195312e+00,2.594282388687133789e+00,2.593943357467651367e+00,2.593604326248168945e+00,2.593265056610107422e+00,2.592926263809204102e+00,2.592587471008300781e+00,2.592248916625976562e+00,2.591910123825073242e+00,2.591571569442749023e+00,2.591233015060424805e+00,2.590894460678100586e+00,2.590556383132934570e+00,2.590218067169189453e+00,2.589879989624023438e+00,2.589541912078857422e+00,2.589204072952270508e+00,2.588866233825683594e+00,2.588528394699096680e+00,2.588190555572509766e+00,2.587853193283081055e+00,2.587515592575073242e+00,2.587178230285644531e+00,2.586840867996215820e+00,2.586503505706787109e+00,2.586166620254516602e+00,2.585829257965087891e+00,2.585492372512817383e+00,2.585155487060546875e+00,2.584818840026855469e+00,2.584481954574584961e+00,1.485193967819213867e+00,1.453343272209167480e+00,1.455727338790893555e+00,2.403912782669067383e+00,2.356299400329589844e+00,2.310535192489624023e+00,2.266514778137207031e+00,2.224140644073486328e+00,2.183321714401245117e+00,2.143974065780639648e+00,2.106019496917724609e+00,2.069385290145874023e+00,2.034004211425781250e+00,1.999812364578247070e+00,1.966751098632812500e+00,1.934764862060546875e+00,1.903802633285522461e+00,1.873815894126892090e+00,1.024092078208923340e+00
2.254930019378662109e+00,2.254672050476074219e+00,2.254414081573486328e+00,2.254155874252319336e+00,2.253898143768310547e+00,2.253640174865722656e+00,2.253382444381713867e+00,2.253124713897705078e+00,2.252866983413696289e+00,2.252609491348266602e+00,2.252351999282836914e+00,2.252094268798828125e+00,2.251837015151977539e+00,2.251579523086547852e+00,2.251322269439697266e+00,2.251065015792846680e+00,2.250807762145996094e+00,2.250550508499145508e+00,2.250293493270874023e+00,2.250036478042602539e+00,2.249779462814331055e+00,2.249522686004638672e+00,2.249265909194946289e+00,2.249008893966674805e+00,2.248754024505615234e+00,2.248499155044555664e+00,2.248244285583496094e+00,2.247989416122436523e+00,2.247734785079956055e+00,2.247480154037475586e+00,2.247225761413574219e+00,2.246971130371093750e+00,2.246716737747192383e+00,2.246462345123291016e+00,2.246207952499389648e+00,2.245953559875488281e+00,2.245699405670166016e+00,2.245445251464843750e+00,2.245191097259521484e+00,2.244937181472778320e+00,2.244683027267456055e+00,2.244429349899291992e+00,2.244175195693969727e+00,2.243921518325805664e+00,2.243667840957641602e+00,2.243414163589477539e+00,2.243160247802734375e+00,2.242906808853149414e+00,2.242653369903564453e+00,2.242399692535400391e+00,2.242146253585815430e+00,2.241893053054809570e+00,2.241639614105224609e+00,2.241386413574218750e+00,2.241133213043212891e+00,2.240880012512207031e+00,2.240627050399780273e+00,2.240373849868774414e+00,2.240121126174926758e+00,2.239868164062500000e+00,2.239615440368652344e+00,1.459242224693298340e+00,1.444671869277954102e+00,1.455777764320373535e+00,2.238604307174682617e+00,2.238351821899414062e+00,2.238099336624145508e+00,2.237847089767456055e+00,2.224169492721557617e+00,2.183349609375000000e+00,2.144000768661499023e+00,2.106045484542846680e+00,2.069410324096679688e+00,2.034028291702270508e+00,1.999835729598999023e+00,1.966773629188537598e+00,1.934786796569824219e+00,1.903823852539062500e+00,1.873836398124694824e+00,1.026885151863098145e+00
1.987973928451538086e+00,1.987773537635803223e+00,1.987572908401489258e+00,1.987372279167175293e+00,1.987171888351440430e+00,1.986971378326416016e+00,1.986770987510681152e+00,1.986570715904235840e+00,1.986370325088500977e+00,1.986170053482055664e+00,1.985969901084899902e+00,1.985769629478454590e+00,1.985569477081298828e+00,1.985369324684143066e+00,1.985169410705566406e+00,1.984969258308410645e+00,1.984769225120544434e+00,1.984569430351257324e+00,1.984369397163391113e+00,1.984169483184814453e+00,1.983969807624816895e+00,1.983769893646240234e+00,1.983570098876953125e+00,1.983370542526245117e+00,1.983170747756958008e+00,1.982971072196960449e+00,1.982771635055541992e+00,1.982571959495544434e+00,1.982372403144836426e+00,1.982173085212707520e+00,1.981973648071289062e+00,1.981774091720581055e+00,1.981574892997741699e+00,1.981375575065612793e+00,1.981176257133483887e+00,1.980977177619934082e+00,1.980777859687805176e+00,1.980578660964965820e+00,1.980379700660705566e+00,1.980180501937866211e+00,1.979981422424316406e+00,1.979782581329345703e+00,1.979583621025085449e+00,1.979384541511535645e+00,1.979185819625854492e+00,1.978986978530883789e+00,1.978788137435913086e+00,1.978589534759521484e+00,1.978390693664550781e+00,1.978191971778869629e+00,1.977993488311767578e+00,1.977794766426086426e+00,1.977596163749694824e+00,1.977397799491882324e+00,1.977199316024780273e+00,1.977000713348388672e+00,1.976802587509155273e+00,1.976604104042053223e+00,1.976405739784240723e+00,1.976207613945007324e+00,1.976009249687194824e+00,1.449924707412719727e+00,1.437808394432067871e+00,1.454567313194274902e+00,1.975216627120971680e+00,1.975018739700317383e+00,1.974820733070373535e+00,1.974622726440429688e+00,1.974424958229064941e+00,1.974226951599121094e+00,1.974029064178466797e+00,1.973831176757812500e+00,1.973633527755737305e+00,1.973435759544372559e+00,1.973237991333007812e+00,1.966796278953552246e+00,1.934808611869812012e+00,1.903844952583312988e+00,1.873856902122497559e+00,1.029693603515625000e+00
1.777535557746887207e+00,1.777375102043151855e+00,1.777214884757995605e+00,1.777054548263549805e+00,1.776894211769104004e+00,1.776733994483947754e+00,1.776573777198791504e+00,1.776413440704345703e+00,1.776253461837768555e+00,1.776093244552612305e+00,1.775933027267456055e+00,1.775773048400878906e+00,1.775612950325012207e+00,1.775452852249145508e+00,1.775292992591857910e+00,1.775132894515991211e+00,1.774972915649414062e+00,1.774813175201416016e+00,1.774653196334838867e+00,1.774493217468261719e+00,1.774333596229553223e+00,1.774173736572265625e+00,1.774013876914978027e+00,1.773854255676269531e+00,1.773694396018981934e+00,1.773534655570983887e+00,1.773375153541564941e+00,1.773215532302856445e+00,1.773055791854858398e+00,1.772896409034729004e+00,1.772736787796020508e+00,1.772577166557312012e+00,1.772417783737182617e+00,1.772258281707763672e+00,1.772098779678344727e+00,1.771939516067504883e+00,1.771780133247375488e+00,1.771620631217956543e+00,1.771461486816406250e+00,1.771302103996276855e+00,1.771142840385437012e+00,1.770983695983886719e+00,1.770824432373046875e+00,1.770665168762207031e+00,1.770506143569946289e+00,1.770346999168395996e+00,1.770187854766845703e+00,1.770028710365295410e+00,1.769869804382324219e+00,1.769710779190063477e+00,1.769551753997802734e+00,1.769392967224121094e+00,1.769233942031860352e+00,1.769075036048889160e+00,1.768916249275207520e+00,1.768757343292236328e+00,1.768598556518554688e+00,1.768439888954162598e+00,1.768281102180480957e+00,1.768122315406799316e+00,1.767963767051696777e+00,1.450257182121276855e+00,1.422045588493347168e+00,1.433698177337646484e+00,1.767329216003417969e+00,1.767170548439025879e+00,1.767012238502502441e+00,1.766853690147399902e+00,1.766695141792297363e+00,1.766536831855773926e+00,1.766378402709960938e+00,1.766219973564147949e+00,1.766061782836914062e+00,1.765903353691101074e+00,1.765745043754577637e+00,1.765586853027343750e+00,1.765428662300109863e+00,1.765270352363586426e+00,1.765112280845642090e+00,1.764954090118408203e+00
1.607384681701660156e+00,1.607253551483154297e+00,1.607122540473937988e+00,1.606991291046142578e+00,1.606860160827636719e+00,1.606729269027709961e+00,1.606598138809204102e+00,1.606467127799987793e+00,1.606336236000061035e+00,1.606205224990844727e+00,1.606074213981628418e+00,1.605943322181701660e+00,1.605812430381774902e+00,1.605681419372558594e+00,1.605550646781921387e+00,1.605419754981994629e+00,1.605288863182067871e+00,1.605158209800720215e+00,1.605027318000793457e+00,1.604896545410156250e+00,1.604765892028808594e+00,1.604635119438171387e+00,1.604504346847534180e+00,1.604373812675476074e+00,1.604243159294128418e+00,1.604112386703491211e+00,1.603981733322143555e+00,1.603851318359375000e+00,1.603720664978027344e+00,1.603590011596679688e+00,1.603459596633911133e+00,1.603329062461853027e+00,1.603198528289794922e+00,1.603068232536315918e+00,1.602937698364257812e+00,1.602807164192199707e+00,1.602676868438720703e+00,1.602546453475952148e+00,1.602416038513183594e+00,1.602285861968994141e+00,1.602155447006225586e+00,1.602025151252746582e+00,1.601894974708557129e+00,1.601764678955078125e+00,1.601634383201599121e+00,1.601504325866699219e+00,1.601374030113220215e+00,1.601243853569030762e+00,1.601113796234130859e+00,1.600983619689941406e+00,1.600853443145751953e+00,1.600723505020141602e+00,1.600593328475952148e+00,1.600463271141052246e+00,1.600333333015441895e+00,1.600203275680541992e+00,1.600073337554931641e+00,1.599943399429321289e+00,1.599813461303710938e+00,1.599683403968811035e+00,1.599553704261779785e+00,1.599423766136169434e+00,1.409291267395019531e+00,1.421693205833435059e+00,1.599034309387207031e+00,1.598904371261596680e+00,1.598774790763854980e+00,1.598644971847534180e+00,1.598515152931213379e+00,1.598385572433471680e+00,1.598255872726440430e+00,1.598126173019409180e+00,1.597996592521667480e+00,1.597866892814636230e+00,1.597737312316894531e+00,1.597607851028442383e+00,1.597478270530700684e+00,1.597348690032958984e+00,1.597219228744506836e+00,1.597089648246765137e+00
1.466962814331054688e+00,1.466853499412536621e+00,1.466744422912597656e+00,1.466635107994079590e+00,1.466525912284851074e+00,1.466416716575622559e+00,1.466307640075683594e+00,1.466198444366455078e+00,1.466089248657226562e+00,1.465980291366577148e+00,1.465871095657348633e+00,1.465762019157409668e+00,1.465653061866760254e+00,1.465543985366821289e+00,1.465434908866882324e+00,1.465325951576232910e+00,1.465216994285583496e+00,1.465107917785644531e+00,1.464999079704284668e+00,1.464890122413635254e+00,1.464781045913696289e+00,1.464672327041625977e+00,1.464563369750976562e+00,1.464454412460327148e+00,1.464345693588256836e+00,1.464236736297607422e+00,1.464127898216247559e+00,1.464019179344177246e+00,1.463910341262817383e+00,1.463801503181457520e+00,1.463692784309387207e+00,1.463584065437316895e+00,1.463475227355957031e+00,1.463366627693176270e+00,1.463257908821105957e+00,1.463149189949035645e+00,1.463040590286254883e+00,1.462931871414184570e+00,1.462823152542114258e+00,1.462714672088623047e+00,1.462606072425842285e+00,1.462497353553771973e+00,1.462388873100280762e+00,1.462280273437500000e+00,1.462171792984008789e+00,1.462063312530517578e+00,1.461954832077026367e+00,1.461846232414245605e+00,1.461737871170043945e+00,1.461629390716552734e+00,1.461520910263061523e+00,1.461412549018859863e+00,1.461304068565368652e+00,1.461195707321166992e+00,1.461087346076965332e+00,1.460978984832763672e+00,1.460870623588562012e+00,1.460762381553649902e+00,1.460654020309448242e+00,1.460545659065246582e+00,1.460437417030334473e+00,1.460329174995422363e+00,1.460220813751220703e+00,1.460112571716308594e+00,1.460004448890686035e+00,1.459896206855773926e+00,1.459787964820861816e+00,1.459679961204528809e+00,1.459571719169616699e+00,1.459463477134704590e+00,1.459355473518371582e+00,1.459247350692749023e+00,1.459139227867126465e+00,1.459031224250793457e+00,1.458923101425170898e+00,1.458815097808837891e+00,1.458707094192504883e+00,1.458599090576171875e+00,1.458491086959838867e+00,1.458383083343505859e+00
1.349104285240173340e+00,1.349011898040771484e+00,1.348919510841369629e+00,1.348827242851257324e+00,1.348734855651855469e+00,1.348642468452453613e+00,1.348550200462341309e+00,1.348457813262939453e+00,1.348365545272827148e+00,1.348273277282714844e+00,1.348181009292602539e+00,1.348088741302490234e+00,1.347996473312377930e+00,1.347904205322265625e+00,1.347811937332153320e+00,1.347719907760620117e+00,1.347627639770507812e+00,1.347535371780395508e+00,1.347443342208862305e+00,1.347351193428039551e+00,1.347258925437927246e+00,1.347166895866394043e+00,1.347074747085571289e+00,1.346982598304748535e+00,1.346890568733215332e+00,1.346798419952392578e+00,1.346706390380859375e+00,1.346614360809326172e+00,1.346522331237792969e+00,1.346430182456970215e+00,1.346338272094726562e+00,1.346246242523193359e+00,1.346154212951660156e+00,1.346062302589416504e+00,1.345970273017883301e+00,1.345878243446350098e+00,1.345786452293395996e+00,1.345694422721862793e+00,1.345602512359619141e+00,1.345510601997375488e+00,1.345418691635131836e+00,1.345326781272888184e+00,1.345234870910644531e+00,1.345143079757690430e+00,1.345051169395446777e+00,1.344959378242492676e+00,1.344867587089538574e+00,1.344775795936584473e+00,1.344683885574340820e+00,1.344592213630676270e+00,1.344500422477722168e+00,1.344408631324768066e+00,1.344316959381103516e+00,1.344225168228149414e+00,1.344133377075195312e+00,1.344041824340820312e+00,1.343950033187866211e+00,1.343858361244201660e+00,1.343766689300537109e+00,1.343675017356872559e+00,1.343583345413208008e+00,1.343491792678833008e+00,1.343400120735168457e+00,1.343308448791503906e+00,1.343216896057128906e+00,1.343125343322753906e+00,1.343033671379089355e+00,1.342942237854003906e+00,1.342850685119628906e+00,1.342759132385253906e+00,1.342667579650878906e+00,1.342576146125793457e+00,1.342484593391418457e+00,1.342393159866333008e+00,1.342301607131958008e+00,1.342210173606872559e+00,1.342118740081787109e+00,1.342027306556701660e+00,1.341935873031616211e+00,1.057763218879699707e+00
1.248775482177734375e+00,1.248696327209472656e+00,1.248617053031921387e+00,1.248538017272949219e+00,1.248458862304687500e+00,1.248379707336425781e+00,1.248300671577453613e+00,1.248221516609191895e+00,1.248142480850219727e+00,1.248063445091247559e+00,1.247984290122985840e+00,1.247905254364013672e+00,1.247826218605041504e+00,1.247747182846069336e+00,1.247668147087097168e+00,1.247589111328125000e+00,1.247510075569152832e+00,1.247431159019470215e+00,1.247352123260498047e+00,1.247273206710815430e+00,1.247194170951843262e+00,1.247115135192871094e+00,1.247036337852478027e+00,1.246957302093505859e+00,1.246878385543823242e+00,1.246799468994140625e+00,1.246720552444458008e+00,1.246641635894775391e+00,1.246562838554382324e+00,1.246483922004699707e+00,1.246405005455017090e+00,1.246326208114624023e+00,1.246247291564941406e+00,1.246168494224548340e+00,1.246089696884155273e+00,1.246010899543762207e+00,1.245931982994079590e+00,1.245853304862976074e+00,1.245774507522583008e+00,1.245695710182189941e+00,1.245616912841796875e+00,1.245538115501403809e+00,1.245459437370300293e+00,1.245380759239196777e+00,1.245301961898803711e+00,1.245223164558410645e+00,1.245144605636596680e+00,1.245065808296203613e+00,1.244987130165100098e+00,1.244908452033996582e+00,1.244829773902893066e+00,1.244751095771789551e+00,1.244672536849975586e+00,1.244593858718872070e+00,1.244515180587768555e+00,1.244436621665954590e+00,1.244357943534851074e+00,1.244279384613037109e+00,1.244200825691223145e+00,1.244122266769409180e+00,1.244043588638305664e+00,1.243965148925781250e+00,1.243886590003967285e+00,1.243808031082153320e+00,1.243729472160339355e+00,1.243650913238525391e+00,1.243572473526000977e+00,1.243494033813476562e+00,1.243415474891662598e+00,1.243336915969848633e+00,1.243258595466613770e+00,1.243180036544799805e+00,1.243101596832275391e+00,1.243023276329040527e+00,1.242944717407226562e+00,1.242866277694702148e+00,1.242787837982177734e+00,1.242709517478942871e+00,1.242631077766418457e+00,1.055674910545349121e+00
1.162335991859436035e+00,1.162267446517944336e+00,1.162198781967163086e+00,1.162130236625671387e+00,1.162061691284179688e+00,1.161993145942687988e+00,1.161924600601196289e+00,1.161856174468994141e+00,1.161787629127502441e+00,1.161719083786010742e+00,1.161650538444519043e+00,1.161582112312316895e+00,1.161513566970825195e+00,1.161445140838623047e+00,1.161376595497131348e+00,1.161308169364929199e+00,1.161239743232727051e+00,1.161171197891235352e+00,1.161102771759033203e+00,1.161034345626831055e+00,1.160965919494628906e+00,1.160897493362426758e+00,1.160829186439514160e+00,1.160760760307312012e+00,1.160692334175109863e+00,1.160623908042907715e+00,1.160555601119995117e+00,1.160487174987792969e+00,1.160418868064880371e+00,1.160350441932678223e+00,1.160282135009765625e+00,1.160213828086853027e+00,1.160145401954650879e+00,1.160077095031738281e+00,1.160008788108825684e+00,1.159940481185913086e+00,1.159872174263000488e+00,1.159803986549377441e+00,1.159735679626464844e+00,1.159667372703552246e+00,1.159599184989929199e+00,1.159530878067016602e+00,1.159462571144104004e+00,1.159394383430480957e+00,1.159326076507568359e+00,1.159257888793945312e+00,1.159189701080322266e+00,1.159121513366699219e+00,1.159053206443786621e+00,1.158985137939453125e+00,1.158916950225830078e+00,1.158848643302917480e+00,1.158780574798583984e+00,1.158712387084960938e+00,1.158644199371337891e+00,1.158576011657714844e+00,1.158507943153381348e+00,1.158439755439758301e+00,1.158371686935424805e+00,1.158303618431091309e+00,1.158235549926757812e+00,1.158167362213134766e+00,1.158099293708801270e+00,1.158031225204467773e+00,1.157963156700134277e+00,1.157895088195800781e+00,1.157827019691467285e+00,1.157758951187133789e+00,1.157691001892089844e+00,1.157622933387756348e+00,1.157554864883422852e+00,1.157486915588378906e+00,1.157418847084045410e+00,1.157350897789001465e+00,1.157282948493957520e+00,1.157214879989624023e+00,1.157146930694580078e+00,1.157078981399536133e+00,1.157011032104492188e+00,1.156943082809448242e+00
1.087088346481323242e+00,1.087028384208679199e+00,1.086968421936035156e+00,1.086908459663391113e+00,1.086848497390747070e+00,1.086788535118103027e+00,1.086728572845458984e+00,1.086668610572814941e+00,1.086608648300170898e+00,1.086548686027526855e+00,1.086488842964172363e+00,1.086428880691528320e+00,1.086368918418884277e+00,1.086309075355529785e+00,1.086249113082885742e+00,1.086189270019531250e+00,1.086129426956176758e+00,1.086069464683532715e+00,1.086009621620178223e+00,1.085949778556823730e+00,1.085889935493469238e+00,1.085829973220825195e+00,1.085770249366760254e+00,1.085710406303405762e+00,1.085650563240051270e+00,1.085590720176696777e+00,1.085530877113342285e+00,1.085471034049987793e+00,1.085411310195922852e+00,1.085351467132568359e+00,1.085291624069213867e+00,1.085231900215148926e+00,1.085172057151794434e+00,1.085112333297729492e+00,1.085052490234375000e+00,1.084992766380310059e+00,1.084933042526245117e+00,1.084873199462890625e+00,1.084813594818115234e+00,1.084753751754760742e+00,1.084694027900695801e+00,1.084634304046630859e+00,1.084574580192565918e+00,1.084514856338500977e+00,1.084455251693725586e+00,1.084395527839660645e+00,1.084335803985595703e+00,1.084276199340820312e+00,1.084216475486755371e+00,1.084156751632690430e+00,1.084097146987915039e+00,1.084037423133850098e+00,1.083977818489074707e+00,1.083918213844299316e+00,1.083858489990234375e+00,1.083798885345458984e+00,1.083739280700683594e+00,1.083679676055908203e+00,1.083620071411132812e+00,1.083560466766357422e+00,1.083500862121582031e+00,1.083441257476806641e+00,1.083381652832031250e+00,1.083322048187255859e+00,1.083262443542480469e+00,1.083202958106994629e+00,1.083143353462219238e+00,1.083083868026733398e+00,1.083024382591247559e+00,1.082964777946472168e+00,1.082905173301696777e+00,1.082845687866210938e+00,1.082786202430725098e+00,1.082726597785949707e+00,1.082667231559753418e+00,1.082607626914978027e+00,1.082548141479492188e+00,1.082488656044006348e+00,1.082429170608520508e+00,1.082369685173034668e+00
1.020991206169128418e+00,1.020938277244567871e+00,1.020885348320007324e+00,1.020832419395446777e+00,1.020779609680175781e+00,1.020726680755615234e+00,1.020673751831054688e+00,1.020620942115783691e+00,1.020568013191223145e+00,1.020515203475952148e+00,1.020462274551391602e+00,1.020409464836120605e+00,1.020356535911560059e+00,1.020303726196289062e+00,1.020250916481018066e+00,1.020198106765747070e+00,1.020145177841186523e+00,1.020092368125915527e+00,1.020039558410644531e+00,1.019986748695373535e+00,1.019933938980102539e+00,1.019881129264831543e+00,1.019828319549560547e+00,1.019775629043579102e+00,1.019722819328308105e+00,1.019670009613037109e+00,1.019617199897766113e+00,1.019564390182495117e+00,1.019511699676513672e+00,1.019458889961242676e+00,1.019406199455261230e+00,1.019353389739990234e+00,1.019300699234008789e+00,1.019247889518737793e+00,1.019195199012756348e+00,1.019142508506774902e+00,1.019089698791503906e+00,1.019037008285522461e+00,1.018984317779541016e+00,1.018931627273559570e+00,1.018878936767578125e+00,1.018826246261596680e+00,1.018773555755615234e+00,1.018720865249633789e+00,1.018668174743652344e+00,1.018615484237670898e+00,1.018562793731689453e+00,1.018510222434997559e+00,1.018457531929016113e+00,1.018404841423034668e+00,1.018352270126342773e+00,1.018299579620361328e+00,1.018246889114379883e+00,1.018194317817687988e+00,1.018141627311706543e+00,1.018089056015014648e+00,1.018036484718322754e+00,1.017983794212341309e+00,1.017931222915649414e+00,1.017878651618957520e+00,1.017826080322265625e+00,1.017773389816284180e+00,1.017720937728881836e+00,1.017668247222900391e+00,1.017615675926208496e+00,1.017563223838806152e+00,1.017510652542114258e+00,1.017458081245422363e+00,1.017405509948730469e+00,1.017352938652038574e+00,1.017300367355346680e+00,1.017247796058654785e+00,1.017195343971252441e+00,1.017142772674560547e+00,1.017090320587158203e+00,1.017037868499755859e+00,1.016985297203063965e+00,1.016932725906372070e+00,1.016880273818969727e+00,1.016827821731567383e+00
9.624710679054260254e-01,9.624240398406982422e-01,9.623769521713256836e-01,9.623299241065979004e-01,9.622828960418701172e-01,9.622359871864318848e-01,9.621890187263488770e-01,9.621419906616210938e-01,9.620949625968933105e-01,9.620479941368103027e-01,9.620009660720825195e-01,9.619540572166442871e-01,9.619070887565612793e-01,9.618601202964782715e-01,9.618131518363952637e-01,9.617661833763122559e-01,9.617192149162292480e-01,9.616723060607910156e-01,9.616253972053527832e-01,9.615784287452697754e-01,9.615314602851867676e-01,9.614844918251037598e-01,9.614375829696655273e-01,9.613907337188720703e-01,9.613438248634338379e-01,9.612968564033508301e-01,9.612499475479125977e-01,9.612030386924743652e-01,9.611561298370361328e-01,9.611092805862426758e-01,9.610623717308044434e-01,9.610155224800109863e-01,9.609686136245727539e-01,9.609217047691345215e-01,9.608747959136962891e-01,9.608280658721923828e-01,9.607811570167541504e-01,9.607343077659606934e-01,9.606873989105224609e-01,9.606405496597290039e-01,9.605937004089355469e-01,9.605469703674316406e-01,9.605000615119934082e-01,9.604532122611999512e-01,9.604064226150512695e-01,9.603595733642578125e-01,9.603127241134643555e-01,9.602658748626708984e-01,9.602192044258117676e-01,9.601723551750183105e-01,9.601255655288696289e-01,9.600787162780761719e-01,9.600319266319274902e-01,9.599851369857788086e-01,9.599384069442749023e-01,9.598916172981262207e-01,9.598448276519775391e-01,9.597980380058288574e-01,9.597513079643249512e-01,9.597045183181762695e-01,9.596578478813171387e-01,9.596110582351684570e-01,9.595643281936645508e-01,9.595175385475158691e-01,9.594708085060119629e-01,9.594240784645080566e-01,9.593774080276489258e-01,9.593306779861450195e-01,9.592839479446411133e-01,9.592372179031372070e-01,9.591904878616333008e-01,9.591437578201293945e-01,9.590971469879150391e-01,9.590504765510559082e-01,9.590037465095520020e-01,9.589570164680480957e-01,9.589103460311889648e-01,9.588636755943298340e-01,9.588170647621154785e-01,9.587703943252563477e-01
9.102956056594848633e-01,9.102535247802734375e-01,9.102114439010620117e-01,9.101693630218505859e-01,9.101273417472839355e-01,9.100853800773620605e-01,9.100432991981506348e-01,9.100012183189392090e-01,9.099591970443725586e-01,9.099171161651611328e-01,9.098750948905944824e-01,9.098331332206726074e-01,9.097911119461059570e-01,9.097490906715393066e-01,9.097070693969726562e-01,9.096650481224060059e-01,9.096230268478393555e-01,9.095810651779174805e-01,9.095391035079956055e-01,9.094970822334289551e-01,9.094550609588623047e-01,9.094130396842956543e-01,9.093710780143737793e-01,9.093291759490966797e-01,9.092871546745300293e-01,9.092451930046081543e-01,9.092032313346862793e-01,9.091612100601196289e-01,9.091192483901977539e-01,9.090772867202758789e-01,9.090354442596435547e-01,9.089934825897216797e-01,9.089515209197998047e-01,9.089095592498779297e-01,9.088675975799560547e-01,9.088256359100341797e-01,9.087837934494018555e-01,9.087418913841247559e-01,9.086999297142028809e-01,9.086580276489257812e-01,9.086160659790039062e-01,9.085741639137268066e-01,9.085323214530944824e-01,9.084904193878173828e-01,9.084485173225402832e-01,9.084066152572631836e-01,9.083647131919860840e-01,9.083228111267089844e-01,9.082809686660766602e-01,9.082391262054443359e-01,9.081972241401672363e-01,9.081553220748901367e-01,9.081134200096130371e-01,9.080715775489807129e-01,9.080297946929931641e-01,9.079879522323608398e-01,9.079460501670837402e-01,9.079042077064514160e-01,9.078623652458190918e-01,9.078204631805419922e-01,9.077787399291992188e-01,9.077368974685668945e-01,9.076950550079345703e-01,9.076532125473022461e-01,9.076113700866699219e-01,9.075695276260375977e-01,9.075278043746948242e-01,9.074859619140625000e-01,9.074441790580749512e-01,9.074023365974426270e-01,9.073605537414550781e-01,9.073187112808227539e-01,9.072770476341247559e-01,9.072352051734924316e-01,9.071934223175048828e-01,9.071516394615173340e-01,9.071098566055297852e-01,9.070680737495422363e-01,9.070264101028442383e-01,9.069846272468566895e-01
8.634861111640930176e-01,8.634482622146606445e-01,8.634104132652282715e-01,8.633725643157958984e-01,8.633347153663635254e-01,8.632968664169311523e-01,8.632590770721435547e-01,8.632212281227111816e-01,8.631833791732788086e-01,8.631455898284912109e-01,8.631077408790588379e-01,8.630698919296264648e-01,8.630321621894836426e-01,8.629943728446960449e-01,8.629565238952636719e-01,8.629187345504760742e-01,8.628808856010437012e-01,8.628430962562561035e-01,8.628053665161132812e-01,8.627675771713256836e-01,8.627297878265380859e-01,8.626919984817504883e-01,8.626542091369628906e-01,8.626164197921752930e-01,8.625786900520324707e-01,8.625409007072448730e-01,8.625031113624572754e-01,8.624653816223144531e-01,8.624275922775268555e-01,8.623898029327392578e-01,8.623521327972412109e-01,8.623143434524536133e-01,8.622766137123107910e-01,8.622388243675231934e-01,8.622010946273803711e-01,8.621633648872375488e-01,8.621256947517395020e-01,8.620879650115966797e-01,8.620501756668090820e-01,8.620124459266662598e-01,8.619747161865234375e-01,8.619369864463806152e-01,8.618993759155273438e-01,8.618616461753845215e-01,8.618239164352416992e-01,8.617861866950988770e-01,8.617485165596008301e-01,8.617107868194580078e-01,8.616731762886047363e-01,8.616354465484619141e-01,8.615977764129638672e-01,8.615600466728210449e-01,8.615223765373229980e-01,8.614846467971801758e-01,8.614470958709716797e-01,8.614093661308288574e-01,8.613716959953308105e-01,8.613340258598327637e-01,8.612963557243347168e-01,8.612586855888366699e-01,8.612211346626281738e-01,8.611834645271301270e-01,8.611457943916320801e-01,8.611081242561340332e-01,8.610704541206359863e-01,8.610328435897827148e-01,8.609951734542846680e-01,8.609576225280761719e-01,8.609199523925781250e-01,8.608823418617248535e-01,8.608447313308715820e-01,8.608070611953735352e-01,8.607694506645202637e-01,8.607318997383117676e-01,8.606942892074584961e-01,8.606566786766052246e-01,8.606190681457519531e-01,8.605814576148986816e-01,8.605438470840454102e-01,8.605062961578369141e-01
8.212552666664123535e-01,8.212210536003112793e-01,8.211867809295654297e-01,8.211525678634643555e-01,8.211182951927185059e-01,8.210840821266174316e-01,8.210499286651611328e-01,8.210157155990600586e-01,8.209814429283142090e-01,8.209472298622131348e-01,8.209130167961120605e-01,8.208788037300109863e-01,8.208446502685546875e-01,8.208104372024536133e-01,8.207762241363525391e-01,8.207420110702514648e-01,8.207077980041503906e-01,8.206735849380493164e-01,8.206394910812377930e-01,8.206052780151367188e-01,8.205711245536804199e-01,8.205369114875793457e-01,8.205026984214782715e-01,8.204685449600219727e-01,8.204344511032104492e-01,8.204002380371093750e-01,8.203660845756530762e-01,8.203318715095520020e-01,8.202977180480957031e-01,8.202635645866394043e-01,8.202294707298278809e-01,8.201953172683715820e-01,8.201611638069152832e-01,8.201270103454589844e-01,8.200928568840026855e-01,8.200587034225463867e-01,8.200246095657348633e-01,8.199904561042785645e-01,8.199563026428222656e-01,8.199221491813659668e-01,8.198880553245544434e-01,8.198539018630981445e-01,8.198197484016418457e-01,8.197857141494750977e-01,8.197515606880187988e-01,8.197174668312072754e-01,8.196833133697509766e-01,8.196492195129394531e-01,8.196151256561279297e-01,8.195810914039611816e-01,8.195469379425048828e-01,8.195128440856933594e-01,8.194787502288818359e-01,8.194446563720703125e-01,8.194105625152587891e-01,8.193765282630920410e-01,8.193424344062805176e-01,8.193083405494689941e-01,8.192742466926574707e-01,8.192401528358459473e-01,8.192061185836791992e-01,8.191720843315124512e-01,8.191379904747009277e-01,8.191039562225341797e-01,8.190698623657226562e-01,8.190358281135559082e-01,8.190017342567443848e-01,8.189677596092224121e-01,8.189337253570556641e-01,8.188996315002441406e-01,8.188655972480773926e-01,8.188315629959106445e-01,8.187974691390991211e-01,8.187634944915771484e-01,8.187294602394104004e-01,8.186954259872436523e-01,8.186613917350769043e-01,8.186273574829101562e-01,8.185933232307434082e-01,8.185594081878662109e-01
7.829626798629760742e-01,7.829315662384033203e-01,7.829003930091857910e-01,7.828692793846130371e-01,7.828381657600402832e-01,7.828070521354675293e-01,7.827759981155395508e-01,7.827448844909667969e-01,7.827137708663940430e-01,7.826826572418212891e-01,7.826515436172485352e-01,7.826204299926757812e-01,7.825894355773925781e-01,7.825583219528198242e-01,7.825272083282470703e-01,7.824961543083190918e-01,7.824650406837463379e-01,7.824339270591735840e-01,7.824028730392456055e-01,7.823718190193176270e-01,7.823407649993896484e-01,7.823096513748168945e-01,7.822785973548889160e-01,7.822475433349609375e-01,7.822164297103881836e-01,7.821854352951049805e-01,7.821543812751770020e-01,7.821233272552490234e-01,7.820922732353210449e-01,7.820611596107482910e-01,7.820301055908203125e-01,7.819991111755371094e-01,7.819681167602539062e-01,7.819370627403259277e-01,7.819060087203979492e-01,7.818749547004699707e-01,7.818439006805419922e-01,7.818129062652587891e-01,7.817819118499755859e-01,7.817508578300476074e-01,7.817198038101196289e-01,7.816887497901916504e-01,7.816577553749084473e-01,7.816268205642700195e-01,7.815957665443420410e-01,7.815647721290588379e-01,7.815337181091308594e-01,7.815027236938476562e-01,7.814717292785644531e-01,7.814407348632812500e-01,7.814097404479980469e-01,7.813787460327148438e-01,7.813477516174316406e-01,7.813167572021484375e-01,7.812857627868652344e-01,7.812548279762268066e-01,7.812238335609436035e-01,7.811928391456604004e-01,7.811618447303771973e-01,7.811308503150939941e-01,7.810998558998107910e-01,7.810689806938171387e-01,7.810379862785339355e-01,7.810069918632507324e-01,7.809759974479675293e-01,7.809450626373291016e-01,7.809140682220458984e-01,7.808831930160522461e-01,7.808521986007690430e-01,7.808212637901306152e-01,7.807902693748474121e-01,7.807593345642089844e-01,7.807283997535705566e-01,7.806975245475769043e-01,7.806665301322937012e-01,7.806355953216552734e-01,7.806046605110168457e-01,7.805737257003784180e-01,7.805427908897399902e-01,7.805118560791015625e-01
7.480818033218383789e-01,7.480534911155700684e-01,7.480250597000122070e-01,7.479966282844543457e-01,7.479682564735412598e-01,7.479398250579833984e-01,7.479113936424255371e-01,7.478830814361572266e-01,7.478546500205993652e-01,7.478262782096862793e-01,7.477978467941284180e-01,7.477694749832153320e-01,7.477411031723022461e-01,7.477127313613891602e-01,7.476843595504760742e-01,7.476559877395629883e-01,7.476276159286499023e-01,7.475991845130920410e-01,7.475708127021789551e-01,7.475425004959106445e-01,7.475141286849975586e-01,7.474857568740844727e-01,7.474573850631713867e-01,7.474290132522583008e-01,7.474006414413452148e-01,7.473723292350769043e-01,7.473439574241638184e-01,7.473156452178955078e-01,7.472872734069824219e-01,7.472589015960693359e-01,7.472305297851562500e-01,7.472022771835327148e-01,7.471739053726196289e-01,7.471455335617065430e-01,7.471172213554382324e-01,7.470888495445251465e-01,7.470605373382568359e-01,7.470322251319885254e-01,7.470039129257202148e-01,7.469755411148071289e-01,7.469472289085388184e-01,7.469189167022705078e-01,7.468905448913574219e-01,7.468622922897338867e-01,7.468339800834655762e-01,7.468056678771972656e-01,7.467773556709289551e-01,7.467490434646606445e-01,7.467206716537475586e-01,7.466924190521240234e-01,7.466641068458557129e-01,7.466357946395874023e-01,7.466075420379638672e-01,7.465792298316955566e-01,7.465509176254272461e-01,7.465226054191589355e-01,7.464943528175354004e-01,7.464660406112670898e-01,7.464377880096435547e-01,7.464094758033752441e-01,7.463811635971069336e-01,7.463529109954833984e-01,7.463246583938598633e-01,7.462964057922363281e-01,7.462680935859680176e-01,7.462398409843444824e-01,7.462115287780761719e-01,7.461832761764526367e-01,7.461550831794738770e-01,7.461267709732055664e-01,7.460985183715820312e-01,7.460702657699584961e-01,7.460419535636901855e-01,7.460137009620666504e-01,7.459855079650878906e-01,7.459572553634643555e-01,7.459290027618408203e-01,7.459007501602172852e-01,7.458724975585937500e-01,7.458442449569702148e-01
7.161763310432434082e-01,7.161503434181213379e-01,7.161243557929992676e-01,7.160983085632324219e-01,7.160722613334655762e-01,7.160462141036987305e-01,7.160201668739318848e-01,7.159941792488098145e-01,7.159681916236877441e-01,7.159421443939208984e-01,7.159160971641540527e-01,7.158900499343872070e-01,7.158640623092651367e-01,7.158380746841430664e-01,7.158120870590209961e-01,7.157860398292541504e-01,7.157600522041320801e-01,7.157340049743652344e-01,7.157080173492431641e-01,7.156820297241210938e-01,7.156560420989990234e-01,7.156300544738769531e-01,7.156040072441101074e-01,7.155780196189880371e-01,7.155520319938659668e-01,7.155261039733886719e-01,7.155000567436218262e-01,7.154740691184997559e-01,7.154480814933776855e-01,7.154220938682556152e-01,7.153961062431335449e-01,7.153701782226562500e-01,7.153441905975341797e-01,7.153182029724121094e-01,7.152922153472900391e-01,7.152662277221679688e-01,7.152402400970458984e-01,7.152142524719238281e-01,7.151883840560913086e-01,7.151623964309692383e-01,7.151364088058471680e-01,7.151104211807250977e-01,7.150844931602478027e-01,7.150585055351257324e-01,7.150326371192932129e-01,7.150066494941711426e-01,7.149806618690490723e-01,7.149547338485717773e-01,7.149287462234497070e-01,7.149028182029724121e-01,7.148769497871398926e-01,7.148509621620178223e-01,7.148250341415405273e-01,7.147990465164184570e-01,7.147731184959411621e-01,7.147471904754638672e-01,7.147213220596313477e-01,7.146953344345092773e-01,7.146694064140319824e-01,7.146434783935546875e-01,7.146175503730773926e-01,7.145916223526000977e-01,7.145657539367675781e-01,7.145398259162902832e-01,7.145138978958129883e-01,7.144879698753356934e-01,7.144620418548583984e-01,7.144361138343811035e-01,7.144102454185485840e-01,7.143843173980712891e-01,7.143584489822387695e-01,7.143325209617614746e-01,7.143065929412841797e-01,7.142806649208068848e-01,7.142548561096191406e-01,7.142289280891418457e-01,7.142030596733093262e-01,7.141771316528320312e-01,7.141512036323547363e-01,7.141253352165222168e-01
6.868810653686523438e-01,6.868571639060974121e-01,6.868332028388977051e-01,6.868093013763427734e-01,6.867853403091430664e-01,6.867613792419433594e-01,6.867374181747436523e-01,6.867135167121887207e-01,6.866895556449890137e-01,6.866656541824340820e-01,6.866416931152343750e-01,6.866177320480346680e-01,6.865938305854797363e-01,6.865698695182800293e-01,6.865459680557250977e-01,6.865220665931701660e-01,6.864981055259704590e-01,6.864742040634155273e-01,6.864502429962158203e-01,6.864263415336608887e-01,6.864024400711059570e-01,6.863785386085510254e-01,6.863545775413513184e-01,6.863306760787963867e-01,6.863067746162414551e-01,6.862828135490417480e-01,6.862589716911315918e-01,6.862350702285766602e-01,6.862111687660217285e-01,6.861872673034667969e-01,6.861633062362670898e-01,6.861394047737121582e-01,6.861155629158020020e-01,6.860916614532470703e-01,6.860677599906921387e-01,6.860438585281372070e-01,6.860199570655822754e-01,6.859960556030273438e-01,6.859722137451171875e-01,6.859483122825622559e-01,6.859244108200073242e-01,6.859005093574523926e-01,6.858766674995422363e-01,6.858527660369873047e-01,6.858289241790771484e-01,6.858050227165222168e-01,6.857811808586120605e-01,6.857572793960571289e-01,6.857333779335021973e-01,6.857095360755920410e-01,6.856856942176818848e-01,6.856617927551269531e-01,6.856379508972167969e-01,6.856140494346618652e-01,6.855902075767517090e-01,6.855663061141967773e-01,6.855425238609313965e-01,6.855186223983764648e-01,6.854947805404663086e-01,6.854709386825561523e-01,6.854470372200012207e-01,6.854231953620910645e-01,6.853994131088256836e-01,6.853755712509155273e-01,6.853516697883605957e-01,6.853278279304504395e-01,6.853039860725402832e-01,6.852801442146301270e-01,6.852563619613647461e-01,6.852325201034545898e-01,6.852086782455444336e-01,6.851848363876342773e-01,6.851609945297241211e-01,6.851371526718139648e-01,6.851133108139038086e-01,6.850895285606384277e-01,6.850656867027282715e-01,6.850418448448181152e-01,6.850180029869079590e-01,6.849942207336425781e-01
6.598882675170898438e-01,6.598661541938781738e-01,6.598441004753112793e-01,6.598219871520996094e-01,6.597998738288879395e-01,6.597778201103210449e-01,6.597557067871093750e-01,6.597335934638977051e-01,6.597115397453308105e-01,6.596894264221191406e-01,6.596673130989074707e-01,6.596452593803405762e-01,6.596231460571289062e-01,6.596010327339172363e-01,6.595789790153503418e-01,6.595569252967834473e-01,6.595348119735717773e-01,6.595127582550048828e-01,6.594906449317932129e-01,6.594685316085815430e-01,6.594465374946594238e-01,6.594244241714477539e-01,6.594023704528808594e-01,6.593802571296691895e-01,6.593582034111022949e-01,6.593361496925354004e-01,6.593140959739685059e-01,6.592920422554016113e-01,6.592699289321899414e-01,6.592478752136230469e-01,6.592258214950561523e-01,6.592037677764892578e-01,6.591817140579223633e-01,6.591596603393554688e-01,6.591376066207885742e-01,6.591155529022216797e-01,6.590934991836547852e-01,6.590714454650878906e-01,6.590493917465209961e-01,6.590273380279541016e-01,6.590052843093872070e-01,6.589832305908203125e-01,6.589611768722534180e-01,6.589391231536865234e-01,6.589171290397644043e-01,6.588950753211975098e-01,6.588730216026306152e-01,6.588510274887084961e-01,6.588289737701416016e-01,6.588069200515747070e-01,6.587848663330078125e-01,6.587628722190856934e-01,6.587408781051635742e-01,6.587188243865966797e-01,6.586967706680297852e-01,6.586747765541076660e-01,6.586527228355407715e-01,6.586307287216186523e-01,6.586087346076965332e-01,6.585866808891296387e-01,6.585646867752075195e-01,6.585426330566406250e-01,6.585206389427185059e-01,6.584986448287963867e-01,6.584765911102294922e-01,6.584545969963073730e-01,6.584326028823852539e-01,6.584105491638183594e-01,6.583885550498962402e-01,6.583666205406188965e-01,6.583445668220520020e-01,6.583225727081298828e-01,6.583005785942077637e-01,6.582785844802856445e-01,6.582565307617187500e-01,6.582345962524414062e-01,6.582126021385192871e-01,6.581906080245971680e-01,6.581686139106750488e-01,6.581466197967529297e-01
