3.447984457015991211e-01,2.522381246089935303e-01,2.302424907684326172e-01,2.033414244651794434e-01,1.824120581150054932e-01,1.792494058609008789e-01,1.835455000400543213e-01,1.859484612941741943e-01,1.883378922939300537e-01,1.894636750221252441e-01,1.914456188678741455e-01,1.904920637607574463e-01,1.923553645610809326e-01,1.910595297813415527e-01,1.850009262561798096e-01,1.813445687294006348e-01,1.770933568477630615e-01,1.745343506336212158e-01,1.742297708988189697e-01,1.735149919986724854e-01,1.726725399494171143e-01,1.746151745319366455e-01,1.779057681560516357e-01,1.816816926002502441e-01,1.871574521064758301e-01,1.956406235694885254e-01,2.007598280906677246e-01,2.055708467960357666e-01,2.086589932441711426e-01,2.112706005573272705e-01,2.143865227699279785e-01,2.157062590122222900e-01,2.163788378238677979e-01,2.166131734848022461e-01,2.166161835193634033e-01,2.166161835193634033e-01,2.166161835193634033e-01,2.166161835193634033e-01,2.166161835193634033e-01,2.166161835193634033e-01,2.166161835193634033e-01,2.166161835193634033e-01,2.166161835193634033e-01,2.166161835193634033e-01,2.166161835193634033e-01,2.166161835193634033e-01,2.166161835193634033e-01,2.166161835193634033e-01,2.166161835193634033e-01,2.166161835193634033e-01,2.166161835193634033e-01,2.166161835193634033e-01,2.166161835193634033e-01,2.166161835193634033e-01,2.166161835193634033e-01,2.166161835193634033e-01,2.166161835193634033e-01,2.166161835193634033e-01,2.166161835193634033e-01,2.166161835193634033e-01,2.166161835193634033e-01,2.166161835193634033e-01,2.166307270526885986e-01,2.165922820568084717e-01,2.164314091205596924e-01,2.161377966403961182e-01,2.156446576118469238e-01,2.148557901382446289e-01,2.137672305107116699e-01,2.122481167316436768e-01,2.101347446441650391e-01,2.075949013233184814e-01,2.051969170570373535e-01,2.017482817173004150e-01,1.937754750251770020e-01,1.962676942348480225e-01,2.193037271499633789e-01,2.474206089973449707e-01,3.175606131553649902e-01,3.670656681060791016e-01
3.447975516319274902e-01,2.522368431091308594e-01,2.302407920360565186e-01,2.033399939537048340e-01,1.824101805686950684e-01,1.792475879192352295e-01,1.835874319076538086e-01,1.858291625976562500e-01,1.883696019649505615e-01,1.896550059318542480e-01,1.912007331848144531e-01,1.901915669441223145e-01,1.907252967357635498e-01,1.897633373737335205e-01,1.847014725208282471e-01,1.798926591873168945e-01,1.766358613967895508e-01,1.721552908420562744e-01,1.715738773345947266e-01,1.713884770870208740e-01,1.711043715476989746e-01,1.722756922245025635e-01,1.749418377876281738e-01,1.793828010559082031e-01,1.859265565872192383e-01,1.933725774288177490e-01,2.001686692237854004e-01,2.047923505306243896e-01,2.077738046646118164e-01,2.111604511737823486e-01,2.139239013195037842e-01,2.158201336860656738e-01,2.162521779537200928e-01,2.165873944759368896e-01,2.166161835193634033e-01,2.166161835193634033e-01,2.166161835193634033e-01,2.166161835193634033e-01,2.166161835193634033e-01,2.166161835193634033e-01,2.166161835193634033e-01,2.166161835193634033e-01,2.166161835193634033e-01,2.166161835193634033e-01,2.166161835193634033e-01,2.166161835193634033e-01,2.166161835193634033e-01,2.166161835193634033e-01,2.166161835193634033e-01,2.166161835193634033e-01,2.166161835193634033e-01,2.166161835193634033e-01,2.166161835193634033e-01,2.166161835193634033e-01,2.166161835193634033e-01,2.166161835193634033e-01,2.166161835193634033e-01,2.166161835193634033e-01,2.166161835193634033e-01,2.166161835193634033e-01,2.166161835193634033e-01,2.166161835193634033e-01,2.166310548782348633e-01,2.165943384170532227e-01,2.164310812950134277e-01,2.161280810832977295e-01,2.156418859958648682e-01,2.148623764514923096e-01,2.137595713138580322e-01,2.122585475444793701e-01,2.101122736930847168e-01,2.075901329517364502e-01,2.052113115787506104e-01,2.017460465431213379e-01,1.937699913978576660e-01,1.962717771530151367e-01,2.193071246147155762e-01,2.474286854267120361e-01,3.175599575042724609e-01,3.670677542686462402e-01
3.447964787483215332e-01,2.522355318069458008e-01,2.302393615245819092e-01,2.033383548259735107e-01,1.824085414409637451e-01,1.792457699775695801e-01,1.835463047027587891e-01,1.859092116355895996e-01,1.884686052799224854e-01,1.901529729366302490e-01,1.911291182041168213e-01,1.909216046333312988e-01,1.907051503658294678e-01,1.884396672248840332e-01,1.853276789188385010e-01,1.776372194290161133e-01,1.751604974269866943e-01,1.720759570598602295e-01,1.702723503112792969e-01,1.707780063152313232e-01,1.699127852916717529e-01,1.717453896999359131e-01,1.752813160419464111e-01,1.789813041687011719e-01,1.848888993263244629e-01,1.937284171581268311e-01,1.984884440898895264e-01,2.047987580299377441e-01,2.072926163673400879e-01,2.119239568710327148e-01,2.140071094036102295e-01,2.158564031124114990e-01,2.163531184196472168e-01,2.166205644607543945e-01,2.166161835193634033e-01,2.166161835193634033e-01,2.166161835193634033e-01,2.166161835193634033e-01,2.166161835193634033e-01,2.166161835193634033e-01,2.166161835193634033e-01,2.166161835193634033e-01,2.166161835193634033e-01,2.166161835193634033e-01,2.166161835193634033e-01,2.166161835193634033e-01,2.166161835193634033e-01,2.166161835193634033e-01,2.166161835193634033e-01,2.166161835193634033e-01,2.166161835193634033e-01,2.166161835193634033e-01,2.166161835193634033e-01,2.166161835193634033e-01,2.166161835193634033e-01,2.166161835193634033e-01,2.166161835193634033e-01,2.166161835193634033e-01,2.166161835193634033e-01,2.166161835193634033e-01,2.166161835193634033e-01,2.166161835193634033e-01,2.166311442852020264e-01,2.165938317775726318e-01,2.164300680160522461e-01,2.161272168159484863e-01,2.156457602977752686e-01,2.148627042770385742e-01,2.137627005577087402e-01,2.122516930103302002e-01,2.101124823093414307e-01,2.075931429862976074e-01,2.052139937877655029e-01,2.017468512058258057e-01,1.937745213508605957e-01,1.962732672691345215e-01,2.193101346492767334e-01,2.474303841590881348e-01,3.175624012947082520e-01,3.670693039894104004e-01
3.447954356670379639e-01,2.522342205047607422e-01,2.302375733852386475e-01,2.033365964889526367e-01,1.824066936969757080e-01,1.792440116405487061e-01,1.835020482540130615e-01,1.861054897308349609e-01,1.886083483695983887e-01,1.900062859058380127e-01,1.909400820732116699e-01,1.913385093212127686e-01,1.905295550823211670e-01,1.890021860599517822e-01,1.851557791233062744e-01,1.789269149303436279e-01,1.750458776950836182e-01,1.715363264083862305e-01,1.705003082752227783e-01,1.697310805320739746e-01,1.701894998550415039e-01,1.713782846927642822e-01,1.745101511478424072e-01,1.807702779769897461e-01,1.844851970672607422e-01,1.933717727661132812e-01,1.984294950962066650e-01,2.040916681289672852e-01,2.075976729393005371e-01,2.107972502708435059e-01,2.138711810111999512e-01,2.158485352993011475e-01,2.164437174797058105e-01,2.165713608264923096e-01,2.166161835193634033e-01,2.166161835193634033e-01,2.166161835193634033e-01,2.166161835193634033e-01,2.166161835193634033e-01,2.166161835193634033e-01,2.166161835193634033e-01,2.166161835193634033e-01,2.166161835193634033e-01,2.166161835193634033e-01,2.166161835193634033e-01,2.166161835193634033e-01,2.166161835193634033e-01,2.166161835193634033e-01,2.166161835193634033e-01,2.166161835193634033e-01,2.166161835193634033e-01,2.166161835193634033e-01,2.166161835193634033e-01,2.166161835193634033e-01,2.166161835193634033e-01,2.166161835193634033e-01,2.166161835193634033e-01,2.166161835193634033e-01,2.166161835193634033e-01,2.166161835193634033e-01,2.166161835193634033e-01,2.166161835193634033e-01,2.166311442852020264e-01,2.165938019752502441e-01,2.164302468299865723e-01,2.161273658275604248e-01,2.156460285186767578e-01,2.148632705211639404e-01,2.137635946273803711e-01,2.122529447078704834e-01,2.101142108440399170e-01,2.075951695442199707e-01,2.052161097526550293e-01,2.017491459846496582e-01,1.937766075134277344e-01,1.962754130363464355e-01,2.193122804164886475e-01,2.474325895309448242e-01,3.175645172595977783e-01,3.670709133148193359e-01
3.447944521903991699e-01,2.522329092025756836e-01,2.302359938621520996e-01,2.033348977565765381e-01,1.824050545692443848e-01,1.792421638965606689e-01,1.834716796875000000e-01,1.860389113426208496e-01,1.886123418807983398e-01,1.897405982017517090e-01,1.910338997840881348e-01,1.919382512569427490e-01,1.902108788490295410e-01,1.886530816555023193e-01,1.862120628356933594e-01,1.784412562847137451e-01,1.754721999168395996e-01,1.713232994079589844e-01,1.708678603172302246e-01,1.706255674362182617e-01,1.697559058666229248e-01,1.708011031150817871e-01,1.754993200302124023e-01,1.803225278854370117e-01,1.855176091194152832e-01,1.921994984149932861e-01,1.997473239898681641e-01,2.052368521690368652e-01,2.077088952064514160e-01,2.111862301826477051e-01,2.142982780933380127e-01,2.158623337745666504e-01,2.163936197757720947e-01,2.165970206260681152e-01,2.166161835193634033e-01,2.166161835193634033e-01,2.166161835193634033e-01,2.166161835193634033e-01,2.166161835193634033e-01,2.166161835193634033e-01,2.166161835193634033e-01,2.166161835193634033e-01,2.166161835193634033e-01,2.166161835193634033e-01,2.166161835193634033e-01,2.166161835193634033e-01,2.166161835193634033e-01,2.166161835193634033e-01,2.166161835193634033e-01,2.166161835193634033e-01,2.166161835193634033e-01,2.166161835193634033e-01,2.166161835193634033e-01,2.166161835193634033e-01,2.166161835193634033e-01,2.166161835193634033e-01,2.166161835193634033e-01,2.166161835193634033e-01,2.166161835193634033e-01,2.166161835193634033e-01,2.166161835193634033e-01,2.166161835193634033e-01,2.166311740875244141e-01,2.165938019752502441e-01,2.164302468299865723e-01,2.161277830600738525e-01,2.156462967395782471e-01,2.148639261722564697e-01,2.137646079063415527e-01,2.122540175914764404e-01,2.101157307624816895e-01,2.075971662998199463e-01,2.052183449268341064e-01,2.017512321472167969e-01,1.937788426876068115e-01,1.962777972221374512e-01,2.193148434162139893e-01,2.474349439144134521e-01,3.175665438175201416e-01,3.670723736286163330e-01
3.447934389114379883e-01,2.522317171096801758e-01,2.302342951297760010e-01,2.033332586288452148e-01,1.824032962322235107e-01,1.792403161525726318e-01,1.834856569766998291e-01,1.859768927097320557e-01,1.885274946689605713e-01,1.898666024208068848e-01,1.908931434154510498e-01,1.916398108005523682e-01,1.904964148998260498e-01,1.884694993495941162e-01,1.857139766216278076e-01,1.782385408878326416e-01,1.751165688037872314e-01,1.723336577415466309e-01,1.707111001014709473e-01,1.706657111644744873e-01,1.698886156082153320e-01,1.707132458686828613e-01,1.757644712924957275e-01,1.813857853412628174e-01,1.850774586200714111e-01,1.943054795265197754e-01,1.979778409004211426e-01,2.056189477443695068e-01,2.074931859970092773e-01,2.106878161430358887e-01,2.142800092697143555e-01,2.157519161701202393e-01,2.163890004158020020e-01,2.165069878101348877e-01,2.166161835193634033e-01,2.166161835193634033e-01,2.166161835193634033e-01,2.166161835193634033e-01,2.166161835193634033e-01,2.166161835193634033e-01,2.166161835193634033e-01,2.166161835193634033e-01,2.166161835193634033e-01,2.166161835193634033e-01,2.166161835193634033e-01,2.166161835193634033e-01,2.166161835193634033e-01,2.166161835193634033e-01,2.166161835193634033e-01,2.166161835193634033e-01,2.166161835193634033e-01,2.166161835193634033e-01,2.166161835193634033e-01,2.166161835193634033e-01,2.166161835193634033e-01,2.166161835193634033e-01,2.166161835193634033e-01,2.166161835193634033e-01,2.166161835193634033e-01,2.166161835193634033e-01,2.166161835193634033e-01,2.166161835193634033e-01,2.166311740875244141e-01,2.165938317775726318e-01,2.164304256439208984e-01,2.161278724670410156e-01,2.156467735767364502e-01,2.148645520210266113e-01,2.137653529644012451e-01,2.122551500797271729e-01,2.101174592971801758e-01,2.075989246368408203e-01,2.052203118801116943e-01,2.017530500888824463e-01,1.937807202339172363e-01,1.962798237800598145e-01,2.193171381950378418e-01,2.474371790885925293e-01,3.175686597824096680e-01,3.670740127563476562e-01
3.447923064231872559e-01,2.522304058074951172e-01,2.302324771881103516e-01,2.033315002918243408e-01,1.824014484882354736e-01,1.792383193969726562e-01,1.834877133369445801e-01,1.859083473682403564e-01,1.883835494518280029e-01,1.895969510078430176e-01,1.908801794052124023e-01,1.912543177604675293e-01,1.905101835727691650e-01,1.887357532978057861e-01,1.843984425067901611e-01,1.786028742790222168e-01,1.746035516262054443e-01,1.724260151386260986e-01,1.707794368267059326e-01,1.712440848350524902e-01,1.692073345184326172e-01,1.719508469104766846e-01,1.758440732955932617e-01,1.814975440502166748e-01,1.868229508399963379e-01,1.950950920581817627e-01,1.988606452941894531e-01,2.033307254314422607e-01,2.092466056346893311e-01,2.117192149162292480e-01,2.137368321418762207e-01,2.155531048774719238e-01,2.163174748420715332e-01,2.165890634059906006e-01,2.166161835193634033e-01,2.166161835193634033e-01,2.166161835193634033e-01,2.166161835193634033e-01,2.166161835193634033e-01,2.166161835193634033e-01,2.166161835193634033e-01,2.166161835193634033e-01,2.166161835193634033e-01,2.166161835193634033e-01,2.166161835193634033e-01,2.166161835193634033e-01,2.166161835193634033e-01,2.166161835193634033e-01,2.166161835193634033e-01,2.166161835193634033e-01,2.166161835193634033e-01,2.166161835193634033e-01,2.166161835193634033e-01,2.166161835193634033e-01,2.166161835193634033e-01,2.166161835193634033e-01,2.166161835193634033e-01,2.166161835193634033e-01,2.166161835193634033e-01,2.166161835193634033e-01,2.166161835193634033e-01,2.166161835193634033e-01,2.166311740875244141e-01,2.165938913822174072e-01,2.164305150508880615e-01,2.161280810832977295e-01,2.156471610069274902e-01,2.148652672767639160e-01,2.137663364410400391e-01,2.122565507888793945e-01,2.101192474365234375e-01,2.076008915901184082e-01,2.052223682403564453e-01,2.017551958560943604e-01,1.937827467918395996e-01,1.962820291519165039e-01,2.193193435668945312e-01,2.474393248558044434e-01,3.175707459449768066e-01,3.670755326747894287e-01
3.447912037372589111e-01,2.522288560867309570e-01,2.302308082580566406e-01,2.033298313617706299e-01,1.823996305465698242e-01,1.792364418506622314e-01,1.834757924079895020e-01,1.859197914600372314e-01,1.882985830307006836e-01,1.899251639842987061e-01,1.902695298194885254e-01,1.908499002456665039e-01,1.910535097122192383e-01,1.873325407505035400e-01,1.833176016807556152e-01,1.781663596630096436e-01,1.744180917739868164e-01,1.721009314060211182e-01,1.704280674457550049e-01,1.710898578166961670e-01,1.695359945297241211e-01,1.724379360675811768e-01,1.778661906719207764e-01,1.822659373283386230e-01,1.870430111885070801e-01,1.919763684272766113e-01,1.993086934089660645e-01,2.033776342868804932e-01,2.094080448150634766e-01,2.105059921741485596e-01,2.140750885009765625e-01,2.154847383499145508e-01,2.163513004779815674e-01,2.164661586284637451e-01,2.166161835193634033e-01,2.166161835193634033e-01,2.166161835193634033e-01,2.166161835193634033e-01,2.166161835193634033e-01,2.166161835193634033e-01,2.166161835193634033e-01,2.166161835193634033e-01,2.166161835193634033e-01,2.166161835193634033e-01,2.166161835193634033e-01,2.166161835193634033e-01,2.166161835193634033e-01,2.166161835193634033e-01,2.166161835193634033e-01,2.166161835193634033e-01,2.166161835193634033e-01,2.166161835193634033e-01,2.166161835193634033e-01,2.166161835193634033e-01,2.166161835193634033e-01,2.166161835193634033e-01,2.166161835193634033e-01,2.166161835193634033e-01,2.166161835193634033e-01,2.166161835193634033e-01,2.166161835193634033e-01,2.166161835193634033e-01,2.166311740875244141e-01,2.165939509868621826e-01,2.164306044578552246e-01,2.161284983158111572e-01,2.156475484371185303e-01,2.148657441139221191e-01,2.137671411037445068e-01,2.122577130794525146e-01,2.101206481456756592e-01,2.076028287410736084e-01,2.052245140075683594e-01,2.017573714256286621e-01,1.937849819660186768e-01,1.962841749191284180e-01,2.193216085433959961e-01,2.474416196346282959e-01,3.175727725028991699e-01,3.670769929885864258e-01
3.447899222373962402e-01,2.522271573543548584e-01,2.302289605140686035e-01,2.033282220363616943e-01,1.823976337909698486e-01,1.792344748973846436e-01,1.834079325199127197e-01,1.858566999435424805e-01,1.881623864173889160e-01,1.894351541996002197e-01,1.901878416538238525e-01,1.908382177352905273e-01,1.896992921829223633e-01,1.870480477809906006e-01,1.827217340469360352e-01,1.767064929008483887e-01,1.736689507961273193e-01,1.714944839477539062e-01,1.707915663719177246e-01,1.702335774898529053e-01,1.699357032775878906e-01,1.727898716926574707e-01,1.773515045642852783e-01,1.833122968673706055e-01,1.868462562561035156e-01,1.949656903743743896e-01,1.982070505619049072e-01,2.051765918731689453e-01,2.093648612499237061e-01,2.114127576351165771e-01,2.130028903484344482e-01,2.154484391212463379e-01,2.159421443939208984e-01,2.165665328502655029e-01,2.166161835193634033e-01,2.166161835193634033e-01,2.166161835193634033e-01,2.166161835193634033e-01,2.166161835193634033e-01,2.166161835193634033e-01,2.166161835193634033e-01,2.166161835193634033e-01,2.166161835193634033e-01,2.166161835193634033e-01,2.166161835193634033e-01,2.166161835193634033e-01,2.166161835193634033e-01,2.166161835193634033e-01,2.166161835193634033e-01,2.166161835193634033e-01,2.166161835193634033e-01,2.166161835193634033e-01,2.166161835193634033e-01,2.166161835193634033e-01,2.166161835193634033e-01,2.166161835193634033e-01,2.166161835193634033e-01,2.166161835193634033e-01,2.166161835193634033e-01,2.166161835193634033e-01,2.166161835193634033e-01,2.166161835193634033e-01,2.166310846805572510e-01,2.165939509868621826e-01,2.164308428764343262e-01,2.161286175251007080e-01,2.156479656696319580e-01,2.148664295673370361e-01,2.137679457664489746e-01,2.122586369514465332e-01,2.101222574710845947e-01,2.076045870780944824e-01,2.052263617515563965e-01,2.017593979835510254e-01,1.937869191169738770e-01,1.962862014770507812e-01,2.193239629268646240e-01,2.474438548088073730e-01,3.175749778747558594e-01,3.670784235000610352e-01
3.447886705398559570e-01,2.522256374359130859e-01,2.302267849445343018e-01,2.033262550830841064e-01,1.823956072330474854e-01,1.792322099208831787e-01,1.833733916282653809e-01,1.859287917613983154e-01,1.883231997489929199e-01,1.892149448394775391e-01,1.892953515052795410e-01,1.918843388557434082e-01,1.889205574989318848e-01,1.866300106048583984e-01,1.820230782032012939e-01,1.758214533329010010e-01,1.723250448703765869e-01,1.710438132286071777e-01,1.707922220230102539e-01,1.707451641559600830e-01,1.705742180347442627e-01,1.718409657478332520e-01,1.792666912078857422e-01,1.855215132236480713e-01,1.878109574317932129e-01,1.933565139770507812e-01,1.990510523319244385e-01,2.036124467849731445e-01,2.090681493282318115e-01,2.111165225505828857e-01,2.133704125881195068e-01,2.152044475078582764e-01,2.159318625926971436e-01,2.164066433906555176e-01,2.166161835193634033e-01,2.166161835193634033e-01,2.166161835193634033e-01,2.166161835193634033e-01,2.166161835193634033e-01,2.166161835193634033e-01,2.166161835193634033e-01,2.166161835193634033e-01,2.166161835193634033e-01,2.166161835193634033e-01,2.166161835193634033e-01,2.166161835193634033e-01,2.166161835193634033e-01,2.166161835193634033e-01,2.166161835193634033e-01,2.166161835193634033e-01,2.166161835193634033e-01,2.166161835193634033e-01,2.166161835193634033e-01,2.166161835193634033e-01,2.166161835193634033e-01,2.166161835193634033e-01,2.166161835193634033e-01,2.166161835193634033e-01,2.166161835193634033e-01,2.166161835193634033e-01,2.166161835193634033e-01,2.166161835193634033e-01,2.166310548782348633e-01,2.165940701961517334e-01,2.164309620857238770e-01,2.161288261413574219e-01,2.156480848789215088e-01,2.148668766021728516e-01,2.137686610221862793e-01,2.122600674629211426e-01,2.101238071918487549e-01,2.076066732406616211e-01,2.052286267280578613e-01,2.017614245414733887e-01,1.937890052795410156e-01,1.962884366512298584e-01,2.193260192871093750e-01,2.474462985992431641e-01,3.175770044326782227e-01,3.670800328254699707e-01
3.447874784469604492e-01,2.522239387035369873e-01,2.302247583866119385e-01,2.033241689205169678e-01,1.823934316635131836e-01,1.792298853397369385e-01,1.833882331848144531e-01,1.860238313674926758e-01,1.881617605686187744e-01,1.892766058444976807e-01,1.901480555534362793e-01,1.918933093547821045e-01,1.870757341384887695e-01,1.858016252517700195e-01,1.823940575122833252e-01,1.756618618965148926e-01,1.723658144474029541e-01,1.717280149459838867e-01,1.734827160835266113e-01,1.701272428035736084e-01,1.720925271511077881e-01,1.737102270126342773e-01,1.815345585346221924e-01,1.849182546138763428e-01,1.908241808414459229e-01,1.952777206897735596e-01,2.021502256393432617e-01,2.046916484832763672e-01,2.110839784145355225e-01,2.132470309734344482e-01,2.134806215763092041e-01,2.152059972286224365e-01,2.160860598087310791e-01,2.165016233921051025e-01,2.166161835193634033e-01,2.166161835193634033e-01,2.166161835193634033e-01,2.166161835193634033e-01,2.166161835193634033e-01,2.166161835193634033e-01,2.166161835193634033e-01,2.166161835193634033e-01,2.166161835193634033e-01,2.166161835193634033e-01,2.166161835193634033e-01,2.166161835193634033e-01,2.166161835193634033e-01,2.166161835193634033e-01,2.166161835193634033e-01,2.166161835193634033e-01,2.166161835193634033e-01,2.166161835193634033e-01,2.166161835193634033e-01,2.166161835193634033e-01,2.166161835193634033e-01,2.166161835193634033e-01,2.166161835193634033e-01,2.166161835193634033e-01,2.166161835193634033e-01,2.166161835193634033e-01,2.166161835193634033e-01,2.166161835193634033e-01,2.166310548782348633e-01,2.165940701961517334e-01,2.164310514926910400e-01,2.161291837692260742e-01,2.156485915184020996e-01,2.148674428462982178e-01,2.137695848941802979e-01,2.122611105442047119e-01,2.101256549358367920e-01,2.076084613800048828e-01,2.052307426929473877e-01,2.017636001110076904e-01,1.937909126281738281e-01,1.962905228137969971e-01,2.193284928798675537e-01,2.474483549594879150e-01,3.175792098045349121e-01,3.670815825462341309e-01
3.447861969470977783e-01,2.522222995758056641e-01,2.302229702472686768e-01,2.033220529556274414e-01,1.823912560939788818e-01,1.792275607585906982e-01,1.834329962730407715e-01,1.861344277858734131e-01,1.881324350833892822e-01,1.892265379428863525e-01,1.901498734951019287e-01,1.911522746086120605e-01,1.881307959556579590e-01,1.847338676452636719e-01,1.822270452976226807e-01,1.764898300170898438e-01,1.734657287597656250e-01,1.732796728610992432e-01,1.730484962463378906e-01,1.704954504966735840e-01,1.733118593692779541e-01,1.747864186763763428e-01,1.830210387706756592e-01,1.908143162727355957e-01,1.907605230808258057e-01,1.983758509159088135e-01,2.020542025566101074e-01,2.070953547954559326e-01,2.102649807929992676e-01,2.130737304687500000e-01,2.139884829521179199e-01,2.153522074222564697e-01,2.162587940692901611e-01,2.164712250232696533e-01,2.166161835193634033e-01,2.166161835193634033e-01,2.166161835193634033e-01,2.166161835193634033e-01,2.166161835193634033e-01,2.166161835193634033e-01,2.166161835193634033e-01,2.166161835193634033e-01,2.166161835193634033e-01,2.166161835193634033e-01,2.166161835193634033e-01,2.166161835193634033e-01,2.166161835193634033e-01,2.166161835193634033e-01,2.166161835193634033e-01,2.166161835193634033e-01,2.166161835193634033e-01,2.166161835193634033e-01,2.166161835193634033e-01,2.166161835193634033e-01,2.166161835193634033e-01,2.166161835193634033e-01,2.166161835193634033e-01,2.166161835193634033e-01,2.166161835193634033e-01,2.166161835193634033e-01,2.166161835193634033e-01,2.166161835193634033e-01,2.166311442852020264e-01,2.165940701961517334e-01,2.164310812950134277e-01,2.161293923854827881e-01,2.156490087509155273e-01,2.148681581020355225e-01,2.137703597545623779e-01,2.122622430324554443e-01,2.101272344589233398e-01,2.076103985309600830e-01,2.052328288555145264e-01,2.017656266689300537e-01,1.937930583953857422e-01,1.962926387786865234e-01,2.193306982517242432e-01,2.474505901336669922e-01,3.175811767578125000e-01,3.670831918716430664e-01
3.447848856449127197e-01,2.522206306457519531e-01,2.302208244800567627e-01,2.033201456069946289e-01,1.823890209197998047e-01,1.792253851890563965e-01,1.835490167140960693e-01,1.860906183719635010e-01,1.880213320255279541e-01,1.893887519836425781e-01,1.914913058280944824e-01,1.899144649505615234e-01,1.896492838859558105e-01,1.856444776058197021e-01,1.821282804012298584e-01,1.776388883590698242e-01,1.740690767765045166e-01,1.736426949501037598e-01,1.735634803771972656e-01,1.725423634052276611e-01,1.759476959705352783e-01,1.781876087188720703e-01,1.831122040748596191e-01,1.930907666683197021e-01,1.955804526805877686e-01,1.982612013816833496e-01,2.048917114734649658e-01,2.094500958919525146e-01,2.119242548942565918e-01,2.145508229732513428e-01,2.146507799625396729e-01,2.161784768104553223e-01,2.160026729106903076e-01,2.165782749652862549e-01,2.166161835193634033e-01,2.166161835193634033e-01,2.166161835193634033e-01,2.166161835193634033e-01,2.166161835193634033e-01,2.166161835193634033e-01,2.166161835193634033e-01,2.166161835193634033e-01,2.166161835193634033e-01,2.166161835193634033e-01,2.166161835193634033e-01,2.166161835193634033e-01,2.166161835193634033e-01,2.166161835193634033e-01,2.166161835193634033e-01,2.166161835193634033e-01,2.166161835193634033e-01,2.166161835193634033e-01,2.166161835193634033e-01,2.166161835193634033e-01,2.166161835193634033e-01,2.166161835193634033e-01,2.166161835193634033e-01,2.166161835193634033e-01,2.166161835193634033e-01,2.166161835193634033e-01,2.166161835193634033e-01,2.166161835193634033e-01,2.166310846805572510e-01,2.165940999984741211e-01,2.164313197135925293e-01,2.161296904087066650e-01,2.156492769718170166e-01,2.148686945438385010e-01,2.137711644172668457e-01,2.122633159160614014e-01,2.101288437843322754e-01,2.076123356819152832e-01,2.052347958087921143e-01,2.017676234245300293e-01,1.937950253486633301e-01,1.962947845458984375e-01,2.193330526351928711e-01,2.474529445171356201e-01,3.175834417343139648e-01,3.670847415924072266e-01
3.447837233543395996e-01,2.522193193435668945e-01,2.302187085151672363e-01,2.033179998397827148e-01,1.823868453502655029e-01,1.792229712009429932e-01,1.835701167583465576e-01,1.857953071594238281e-01,1.881609559059143066e-01,1.894004344940185547e-01,1.912855803966522217e-01,1.896737515926361084e-01,1.903803646564483643e-01,1.872207820415496826e-01,1.832548677921295166e-01,1.774802505970001221e-01,1.775195002555847168e-01,1.727298796176910400e-01,1.757625937461853027e-01,1.749190092086791992e-01,1.780458390712738037e-01,1.809966862201690674e-01,1.832647025585174561e-01,1.946907043457031250e-01,2.013177275657653809e-01,1.997303068637847900e-01,2.059146165847778320e-01,2.108022570610046387e-01,2.120533883571624756e-01,2.143645286560058594e-01,2.151976823806762695e-01,2.161456048488616943e-01,2.165244221687316895e-01,2.164517939090728760e-01,2.166161835193634033e-01,2.166161835193634033e-01,2.166161835193634033e-01,2.166161835193634033e-01,2.166161835193634033e-01,2.166161835193634033e-01,2.166161835193634033e-01,2.166161835193634033e-01,2.166161835193634033e-01,2.166161835193634033e-01,2.166161835193634033e-01,2.166161835193634033e-01,2.166161835193634033e-01,2.166161835193634033e-01,2.166161835193634033e-01,2.166161835193634033e-01,2.166161835193634033e-01,2.166161835193634033e-01,2.166161835193634033e-01,2.166161835193634033e-01,2.166161835193634033e-01,2.166161835193634033e-01,2.166161835193634033e-01,2.166161835193634033e-01,2.166161835193634033e-01,2.166161835193634033e-01,2.166161835193634033e-01,2.166161835193634033e-01,2.166310846805572510e-01,2.165940701961517334e-01,2.164315283298492432e-01,2.161298096179962158e-01,2.156497240066528320e-01,2.148695290088653564e-01,2.137721776962280273e-01,2.122644484043121338e-01,2.101303935050964355e-01,2.076143026351928711e-01,2.052367627620697021e-01,2.017697393894195557e-01,1.937972307205200195e-01,1.962969601154327393e-01,2.193352580070495605e-01,2.474549710750579834e-01,3.175854682922363281e-01,3.670862317085266113e-01
3.447826802730560303e-01,2.522175908088684082e-01,2.302166521549224854e-01,2.033158838748931885e-01,1.823849081993103027e-01,1.792206764221191406e-01,1.836110651493072510e-01,1.858493685722351074e-01,1.887371540069580078e-01,1.906424462795257568e-01,1.918999254703521729e-01,1.903980076313018799e-01,1.904940605163574219e-01,1.893243491649627686e-01,1.831307709217071533e-01,1.791365444660186768e-01,1.804695129394531250e-01,1.772560179233551025e-01,1.779480874538421631e-01,1.770995259284973145e-01,1.794468760490417480e-01,1.831650137901306152e-01,1.873961389064788818e-01,1.976572275161743164e-01,2.020200490951538086e-01,2.020422518253326416e-01,2.074649930000305176e-01,2.123991549015045166e-01,2.146261632442474365e-01,2.149291038513183594e-01,2.169517874717712402e-01,2.160999178886413574e-01,2.167020440101623535e-01,2.164914309978485107e-01,2.166161835193634033e-01,2.166161835193634033e-01,2.166161835193634033e-01,2.166161835193634033e-01,2.166161835193634033e-01,2.166161835193634033e-01,2.166161835193634033e-01,2.166161835193634033e-01,2.166161835193634033e-01,2.166161835193634033e-01,2.166161835193634033e-01,2.166161835193634033e-01,2.166161835193634033e-01,2.166161835193634033e-01,2.166161835193634033e-01,2.166161835193634033e-01,2.166161835193634033e-01,2.166161835193634033e-01,2.166161835193634033e-01,2.166161835193634033e-01,2.166161835193634033e-01,2.166161835193634033e-01,2.166161835193634033e-01,2.166161835193634033e-01,2.166161835193634033e-01,2.166161835193634033e-01,2.166161835193634033e-01,2.166161835193634033e-01,2.166310846805572510e-01,2.165941298007965088e-01,2.164315879344940186e-01,2.161300778388977051e-01,2.156500220298767090e-01,2.148700654506683350e-01,2.137729227542877197e-01,2.122655510902404785e-01,2.101322114467620850e-01,2.076161205768585205e-01,2.052389979362487793e-01,2.017720043659210205e-01,1.937991976737976074e-01,1.962990462779998779e-01,2.193377614021301270e-01,2.474574446678161621e-01,3.175877034664154053e-01,3.670878410339355469e-01
3.447813987731933594e-01,2.522161900997161865e-01,2.302146553993225098e-01,2.033141851425170898e-01,1.823826432228088379e-01,1.792183220386505127e-01,1.835265755653381348e-01,1.859457492828369141e-01,1.887548565864562988e-01,1.907295584678649902e-01,1.919101774692535400e-01,1.924339234828948975e-01,1.916564106941223145e-01,1.915815174579620361e-01,1.855655610561370850e-01,1.837142705917358398e-01,1.802203357219696045e-01,1.806085407733917236e-01,1.764669716358184814e-01,1.797899007797241211e-01,1.818229258060455322e-01,1.858417391777038574e-01,1.909433007240295410e-01,1.983993947505950928e-01,2.043562233448028564e-01,2.057101130485534668e-01,2.083911299705505371e-01,2.129069268703460693e-01,2.148409187793731689e-01,2.146004736423492432e-01,2.165237665176391602e-01,2.164278924465179443e-01,2.169033586978912354e-01,2.165830433368682861e-01,2.166419327259063721e-01,2.166421711444854736e-01,2.166424095630645752e-01,2.166424989700317383e-01,2.166427075862884521e-01,2.166428565979003906e-01,2.166430652141571045e-01,2.166432142257690430e-01,2.166434526443481445e-01,2.166436016559600830e-01,2.166437506675720215e-01,2.166439592838287354e-01,2.166441977024078369e-01,2.166443169116973877e-01,2.166444063186645508e-01,2.166446149349212646e-01,2.166449427604675293e-01,2.166450321674346924e-01,2.166452705860137939e-01,2.166453599929809570e-01,2.166455984115600586e-01,2.166458070278167725e-01,2.166459858417510986e-01,2.166461646556854248e-01,2.166462838649749756e-01,2.166464924812316895e-01,2.166467010974884033e-01,2.166468799114227295e-01,2.166619002819061279e-01,2.166253924369812012e-01,2.164632976055145264e-01,2.161616683006286621e-01,2.156788408756256104e-01,2.148923277854919434e-01,2.137869894504547119e-01,2.122762799263000488e-01,2.101433575153350830e-01,2.076271176338195801e-01,2.052522003650665283e-01,2.017811238765716553e-01,1.938043534755706787e-01,1.963031888008117676e-01,2.193419933319091797e-01,2.474601864814758301e-01,3.175898790359497070e-01,3.670895099639892578e-01
3.447804450988769531e-01,2.522146701812744141e-01,2.302129268646240234e-01,2.033120989799499512e-01,1.823822855949401855e-01,1.792228817939758301e-01,1.834946572780609131e-01,1.861111819744110107e-01,1.890415251255035400e-01,1.913832128047943115e-01,1.923068463802337646e-01,1.942130923271179199e-01,1.927344501018524170e-01,1.934565305709838867e-01,1.906337440013885498e-01,1.869129240512847900e-01,1.811348199844360352e-01,1.824692487716674805e-01,1.817896366119384766e-01,1.822642087936401367e-01,1.848262846469879150e-01,1.886492073535919189e-01,1.930250525474548340e-01,1.990310847759246826e-01,2.044689059257507324e-01,2.068299651145935059e-01,2.103182077407836914e-01,2.133907675743103027e-01,2.157555222511291504e-01,2.160520851612091064e-01,2.165752053260803223e-01,2.168014049530029297e-01,2.166580259799957275e-01,2.167779505252838135e-01,2.167159318923950195e-01,2.167153060436248779e-01,2.167148590087890625e-01,2.167142033576965332e-01,2.167136371135711670e-01,2.167132496833801270e-01,2.167127728462219238e-01,2.167121469974517822e-01,2.167115211486816406e-01,2.167109549045562744e-01,2.167105376720428467e-01,2.167099118232727051e-01,2.167094051837921143e-01,2.167088389396667480e-01,2.167082428932189941e-01,2.167077362537384033e-01,2.167071998119354248e-01,2.167065739631652832e-01,2.167062163352966309e-01,2.167055904865264893e-01,2.167050540447235107e-01,2.167044878005981445e-01,2.167038619518280029e-01,2.167033851146697998e-01,2.167027592658996582e-01,2.167024016380310059e-01,2.167017757892608643e-01,2.167012691497802734e-01,2.167160511016845703e-01,2.166789174079895020e-01,2.165178060531616211e-01,2.162171304225921631e-01,2.157345712184906006e-01,2.149582803249359131e-01,2.138594686985015869e-01,2.123481929302215576e-01,2.102203369140625000e-01,2.076970636844635010e-01,2.053070962429046631e-01,2.018314003944396973e-01,1.938546597957611084e-01,1.963441967964172363e-01,2.193824052810668945e-01,2.474922835826873779e-01,3.176276683807373047e-01,3.671487569808959961e-01
3.448207378387451172e-01,2.522502541542053223e-01,2.302659451961517334e-01,2.033641338348388672e-01,1.824394464492797852e-01,1.792760789394378662e-01,1.834930479526519775e-01,1.861680746078491211e-01,1.890767812728881836e-01,1.914850771427154541e-01,1.928461790084838867e-01,1.953772604465484619e-01,1.937663257122039795e-01,1.930480003356933594e-01,1.931408345699310303e-01,1.891404986381530762e-01,1.869089603424072266e-01,1.842005848884582520e-01,1.872873306274414062e-01,1.818908154964447021e-01,1.859350204467773438e-01,1.882963180541992188e-01,1.958493590354919434e-01,1.983798444271087646e-01,2.052890062332153320e-01,2.071965634822845459e-01,2.108447849750518799e-01,2.132584452629089355e-01,2.151630222797393799e-01,2.160159349441528320e-01,2.158707082271575928e-01,2.163953781127929688e-01,2.162817418575286865e-01,2.163001894950866699e-01,2.162744104862213135e-01,2.162743210792541504e-01,2.162744402885437012e-01,2.162743508815765381e-01,2.162744104862213135e-01,2.162744402885437012e-01,2.162744104862213135e-01,2.162744402885437012e-01,2.162744402885437012e-01,2.162744104862213135e-01,2.162744104862213135e-01,2.162744998931884766e-01,2.162745594978332520e-01,2.162745296955108643e-01,2.162746787071228027e-01,2.162746787071228027e-01,2.162746787071228027e-01,2.162746489048004150e-01,2.162747383117675781e-01,2.162746489048004150e-01,2.162747383117675781e-01,2.162746787071228027e-01,2.162747979164123535e-01,2.162748873233795166e-01,2.162748873233795166e-01,2.162746787071228027e-01,2.162749767303466797e-01,2.162750661373138428e-01,2.162892222404479980e-01,2.162572145462036133e-01,2.161002457141876221e-01,2.158181071281433105e-01,2.153478562831878662e-01,2.145587801933288574e-01,2.134742438793182373e-01,2.119856178760528564e-01,2.098515033721923828e-01,2.073706090450286865e-01,2.050132155418395996e-01,2.015729844570159912e-01,1.936393082141876221e-01,1.961622536182403564e-01,2.192410230636596680e-01,2.473354339599609375e-01,3.174737095832824707e-01,3.670207858085632324e-01
3.448791503906250000e-01,2.522386908531188965e-01,2.302262485027313232e-01,2.032664418220520020e-01,1.823241114616394043e-01,1.791107356548309326e-01,1.832735836505889893e-01,1.857998669147491455e-01,1.888721287250518799e-01,1.913135647773742676e-01,1.938274800777435303e-01,1.948960423469543457e-01,1.955264806747436523e-01,1.936672329902648926e-01,1.954003870487213135e-01,1.937996149063110352e-01,1.875459253787994385e-01,1.877569854259490967e-01,1.875820457935333252e-01,1.852740049362182617e-01,1.860665678977966309e-01,1.903814375400543213e-01,1.985315382480621338e-01,1.998345553874969482e-01,2.048384249210357666e-01,2.074168920516967773e-01,2.110874354839324951e-01,2.138473391532897949e-01,2.154403626918792725e-01,2.160648107528686523e-01,2.162500023841857910e-01,2.162912487983703613e-01,2.162368297576904297e-01,2.162711322307586670e-01,2.162691354751586914e-01,2.162690162658691406e-01,2.162688672542572021e-01,2.162686288356781006e-01,2.162686586380004883e-01,2.162686586380004883e-01,2.162683010101318359e-01,2.162682116031646729e-01,2.162682116031646729e-01,2.162678539752960205e-01,2.162678539752960205e-01,2.162677645683288574e-01,2.162676155567169189e-01,2.162675559520721436e-01,2.162675559520721436e-01,2.162671685218811035e-01,2.162671387195587158e-01,2.162669599056243896e-01,2.162667512893676758e-01,2.162668704986572266e-01,2.162667512893676758e-01,2.162664830684661865e-01,2.162664532661437988e-01,2.162662148475646973e-01,2.162662148475646973e-01,2.162660360336303711e-01,2.162659168243408203e-01,2.162657380104064941e-01,2.162781953811645508e-01,2.162504792213439941e-01,2.161087095737457275e-01,2.158280014991760254e-01,2.153902053833007812e-01,2.146324515342712402e-01,2.135407030582427979e-01,2.120346724987030029e-01,2.099049389362335205e-01,2.074128985404968262e-01,2.050768136978149414e-01,2.015770375728607178e-01,1.936303973197937012e-01,1.961481571197509766e-01,2.191683650016784668e-01,2.472708225250244141e-01,3.173251450061798096e-01,3.667536675930023193e-01
3.447894155979156494e-01,2.520489096641540527e-01,2.300585508346557617e-01,2.031202912330627441e-01,1.822071969509124756e-01,1.789470911026000977e-01,1.830996572971343994e-01,1.856281161308288574e-01,1.888660192489624023e-01,1.914457678794860840e-01,1.943058669567108154e-01,1.955307722091674805e-01,1.974875032901763916e-01,1.971508264541625977e-01,1.956230103969573975e-01,1.951597332954406738e-01,1.934502720832824707e-01,1.882916390895843506e-01,1.862753927707672119e-01,1.908408105373382568e-01,1.876077950000762939e-01,1.926166415214538574e-01,1.960813999176025391e-01,2.020842432975769043e-01,2.042830884456634521e-01,2.072623372077941895e-01,2.105605602264404297e-01,2.136979699134826660e-01,2.150857448577880859e-01,2.156883478164672852e-01,2.159175872802734375e-01,2.160171270370483398e-01,2.160020470619201660e-01,2.159665822982788086e-01,2.159767150878906250e-01,2.159755527973175049e-01,2.159743309020996094e-01,2.159730792045593262e-01,2.159718275070190430e-01,2.159706652164459229e-01,2.159693539142608643e-01,2.159681320190429688e-01,2.159670591354370117e-01,2.159657776355743408e-01,2.159643173217773438e-01,2.159631848335266113e-01,2.159619629383087158e-01,2.159606814384460449e-01,2.159595787525177002e-01,2.159582376480102539e-01,2.159571051597595215e-01,2.159557342529296875e-01,2.159547209739685059e-01,2.159534096717834473e-01,2.159522771835327148e-01,2.159510552883148193e-01,2.159497737884521484e-01,2.159487307071685791e-01,2.159473896026611328e-01,2.159461677074432373e-01,2.159448266029357910e-01,2.159436643123626709e-01,2.159553170204162598e-01,2.159317135810852051e-01,2.157988250255584717e-01,2.155454754829406738e-01,2.151211500167846680e-01,2.144262492656707764e-01,2.133943140506744385e-01,2.119218409061431885e-01,2.098898589611053467e-01,2.073854506015777588e-01,2.050563693046569824e-01,2.015925645828247070e-01,1.936697065830230713e-01,1.962165534496307373e-01,2.192319333553314209e-01,2.471441328525543213e-01,3.170545697212219238e-01,3.663382530212402344e-01
3.446836471557617188e-01,2.519039809703826904e-01,2.299797534942626953e-01,2.030618190765380859e-01,1.821549832820892334e-01,1.788299381732940674e-01,1.828941702842712402e-01,1.852661073207855225e-01,1.883409619331359863e-01,1.909954547882080078e-01,1.933953464031219482e-01,1.954095661640167236e-01,1.964647173881530762e-01,1.974393725395202637e-01,1.963433921337127686e-01,1.958899199962615967e-01,1.979262828826904297e-01,1.901794672012329102e-01,1.878536343574523926e-01,1.881996095180511475e-01,1.886384487152099609e-01,1.912455260753631592e-01,1.966485381126403809e-01,2.009227871894836426e-01,2.037279009819030762e-01,2.066117525100708008e-01,2.089933156967163086e-01,2.122487723827362061e-01,2.137239575386047363e-01,2.143014669418334961e-01,2.144572138786315918e-01,2.144707739353179932e-01,2.144495248794555664e-01,2.144565582275390625e-01,2.144491672515869141e-01,2.144455611705780029e-01,2.144419848918914795e-01,2.144384086132049561e-01,2.144347727298736572e-01,2.144313454627990723e-01,2.144277691841125488e-01,2.144242525100708008e-01,2.144206166267395020e-01,2.144168019294738770e-01,2.144134044647216797e-01,2.144098579883575439e-01,2.144064307212829590e-01,2.144029140472412109e-01,2.143993079662322998e-01,2.143956720829010010e-01,2.143921256065368652e-01,2.143885195255279541e-01,2.143851220607757568e-01,2.143815457820892334e-01,2.143780589103698730e-01,2.143745720386505127e-01,2.143708765506744385e-01,2.143673598766326904e-01,2.143636941909790039e-01,2.143602073192596436e-01,2.143568098545074463e-01,2.143532633781433105e-01,2.143619954586029053e-01,2.143387198448181152e-01,2.142167091369628906e-01,2.139665484428405762e-01,2.136155962944030762e-01,2.129701673984527588e-01,2.119591236114501953e-01,2.106374502182006836e-01,2.087727785110473633e-01,2.065015435218811035e-01,2.043025493621826172e-01,2.010692059993743896e-01,1.933858096599578857e-01,1.960838735103607178e-01,2.190011739730834961e-01,2.470315694808959961e-01,3.166270852088928223e-01,3.656035661697387695e-01
3.443170189857482910e-01,2.514670491218566895e-01,2.295686900615692139e-01,2.026745975017547607e-01,1.816540062427520752e-01,1.782108545303344727e-01,1.821602582931518555e-01,1.844292581081390381e-01,1.873092055320739746e-01,1.900905072689056396e-01,1.923007369041442871e-01,1.945421099662780762e-01,1.960819065570831299e-01,1.966258585453033447e-01,1.941471993923187256e-01,1.956035196781158447e-01,1.961987316608428955e-01,1.921733319759368896e-01,1.860556602478027344e-01,1.879061162471771240e-01,1.878811717033386230e-01,1.898291707038879395e-01,1.955279409885406494e-01,2.003055214881896973e-01,2.007693052291870117e-01,2.034692466259002686e-01,2.059482038021087646e-01,2.087766826152801514e-01,2.101189494132995605e-01,2.104664444923400879e-01,2.106178998947143555e-01,2.106117308139801025e-01,2.106051445007324219e-01,2.105987668037414551e-01,2.105925679206848145e-01,2.105861604213714600e-01,2.105796337127685547e-01,2.105734944343566895e-01,2.105669379234313965e-01,2.105606496334075928e-01,2.105541825294494629e-01,2.105479538440704346e-01,2.105417251586914062e-01,2.105351686477661133e-01,2.105288803577423096e-01,2.105225026607513428e-01,2.105163037776947021e-01,2.105098664760589600e-01,2.105036377906799316e-01,2.104973495006561279e-01,2.104909420013427734e-01,2.104847729206085205e-01,2.104783356189727783e-01,2.104721069335937500e-01,2.104657590389251709e-01,2.104593813419342041e-01,2.104531228542327881e-01,2.104468345642089844e-01,2.104404568672180176e-01,2.104341685771942139e-01,2.104280292987823486e-01,2.104218006134033203e-01,2.104325294494628906e-01,2.104211151599884033e-01,2.103299796581268311e-01,2.101306319236755371e-01,2.098179161548614502e-01,2.092292606830596924e-01,2.083498537540435791e-01,2.071111798286437988e-01,2.053892612457275391e-01,2.033933699131011963e-01,2.015521824359893799e-01,1.986331343650817871e-01,1.912441551685333252e-01,1.943600773811340332e-01,2.173103988170623779e-01,2.457079589366912842e-01,3.150779306888580322e-01,3.647496104240417480e-01
3.434206545352935791e-01,2.505660653114318848e-01,2.286560833454132080e-01,2.017270624637603760e-01,1.804441213607788086e-01,1.768161058425903320e-01,1.804710030555725098e-01,1.824387311935424805e-01,1.849746406078338623e-01,1.872692108154296875e-01,1.892840862274169922e-01,1.911773383617401123e-01,1.930310726165771484e-01,1.938464641571044922e-01,1.922231316566467285e-01,1.927364170551300049e-01,1.907889842987060547e-01,1.899742186069488525e-01,1.825757026672363281e-01,1.849538087844848633e-01,1.850746870040893555e-01,1.890661716461181641e-01,1.924411356449127197e-01,1.954762935638427734e-01,1.961598992347717285e-01,1.982563734054565430e-01,2.006391584873199463e-01,2.028544247150421143e-01,2.037243843078613281e-01,2.041127383708953857e-01,2.041895985603332520e-01,2.041810452938079834e-01,2.041727006435394287e-01,2.041642069816589355e-01,2.041557133197784424e-01,2.041472792625427246e-01,2.041388154029846191e-01,2.041304409503936768e-01,2.041218876838684082e-01,2.041133940219879150e-01,2.041049599647521973e-01,2.040966153144836426e-01,2.040881216526031494e-01,2.040797770023345947e-01,2.040714323520660400e-01,2.040628790855407715e-01,2.040546536445617676e-01,2.040462791919708252e-01,2.040376961231231689e-01,2.040293514728546143e-01,2.040210068225860596e-01,2.040126323699951172e-01,2.040041387081146240e-01,2.039957940578460693e-01,2.039874792098999023e-01,2.039790749549865723e-01,2.039707601070404053e-01,2.039625048637390137e-01,2.039538919925689697e-01,2.039456665515899658e-01,2.039372324943542480e-01,2.039288580417633057e-01,2.039400041103363037e-01,2.039322853088378906e-01,2.038445770740509033e-01,2.037048935890197754e-01,2.035372853279113770e-01,2.030240893363952637e-01,2.023150026798248291e-01,2.012871503829956055e-01,1.999312043190002441e-01,1.982352435588836670e-01,1.967626512050628662e-01,1.943006217479705811e-01,1.873761713504791260e-01,1.908046901226043701e-01,2.139789462089538574e-01,2.425264418125152588e-01,3.120052814483642578e-01,3.627783656120300293e-01
3.418009579181671143e-01,2.488232254981994629e-01,2.270114123821258545e-01,1.996729075908660889e-01,1.781868040561676025e-01,1.742925941944122314e-01,1.776310801506042480e-01,1.792643070220947266e-01,1.813072264194488525e-01,1.830825507640838623e-01,1.849710643291473389e-01,1.866683363914489746e-01,1.876096427440643311e-01,1.881420612335205078e-01,1.875607669353485107e-01,1.872596740722656250e-01,1.857815682888031006e-01,1.823776364326477051e-01,1.805979609489440918e-01,1.801747977733612061e-01,1.829480528831481934e-01,1.828347742557525635e-01,1.869997382164001465e-01,1.883754432201385498e-01,1.896467208862304688e-01,1.910344660282135010e-01,1.938039362430572510e-01,1.949919760227203369e-01,1.956861019134521484e-01,1.957911252975463867e-01,1.959152519702911377e-01,1.959064304828643799e-01,1.958973109722137451e-01,1.958884298801422119e-01,1.958793699741363525e-01,1.958706676959991455e-01,1.958619058132171631e-01,1.958526670932769775e-01,1.958438456058502197e-01,1.958349645137786865e-01,1.958259046077728271e-01,1.958171129226684570e-01,1.958082020282745361e-01,1.957991421222686768e-01,1.957904696464538574e-01,1.957816481590270996e-01,1.957726180553436279e-01,1.957637071609497070e-01,1.957548558712005615e-01,1.957459151744842529e-01,1.957371234893798828e-01,1.957283914089202881e-01,1.957193613052368164e-01,1.957103908061981201e-01,1.957018077373504639e-01,1.956928074359893799e-01,1.956838965415954590e-01,1.956751048564910889e-01,1.956662237644195557e-01,1.956574916839599609e-01,1.956487298011779785e-01,1.956397593021392822e-01,1.956478655338287354e-01,1.956335306167602539e-01,1.955769062042236328e-01,1.954293847084045410e-01,1.952731013298034668e-01,1.948533058166503906e-01,1.943246722221374512e-01,1.936324238777160645e-01,1.925081014633178711e-01,1.912220120429992676e-01,1.901836693286895752e-01,1.882943511009216309e-01,1.820942461490631104e-01,1.858023107051849365e-01,2.089361846446990967e-01,2.374897897243499756e-01,3.073139190673828125e-01,3.602663874626159668e-01
3.398096263408660889e-01,2.462441921234130859e-01,2.241222560405731201e-01,1.966420114040374756e-01,1.750520467758178711e-01,1.708357334136962891e-01,1.737382113933563232e-01,1.749165356159210205e-01,1.765531897544860840e-01,1.778822541236877441e-01,1.793185472488403320e-01,1.805417835712432861e-01,1.812282502651214600e-01,1.811131536960601807e-01,1.819616556167602539e-01,1.806518435478210449e-01,1.799509525299072266e-01,1.786927878856658936e-01,1.753127574920654297e-01,1.762159466743469238e-01,1.775394678115844727e-01,1.783869564533233643e-01,1.812303662300109863e-01,1.815323233604431152e-01,1.830685138702392578e-01,1.837821602821350098e-01,1.859523057937622070e-01,1.864415705204010010e-01,1.869752705097198486e-01,1.868852674961090088e-01,1.869660913944244385e-01,1.869557499885559082e-01,1.869455575942993164e-01,1.869352161884307861e-01,1.869248747825622559e-01,1.869146823883056641e-01,1.869042515754699707e-01,1.868939697742462158e-01,1.868836581707000732e-01,1.868732869625091553e-01,1.868630945682525635e-01,1.868527233600616455e-01,1.868424713611602783e-01,1.868322193622589111e-01,1.868219375610351562e-01,1.868116855621337891e-01,1.868014037609100342e-01,1.867910325527191162e-01,1.867807805538177490e-01,1.867704093456268311e-01,1.867602169513702393e-01,1.867500245571136475e-01,1.867396831512451172e-01,1.867295801639556885e-01,1.867193579673767090e-01,1.867091357707977295e-01,1.866988539695739746e-01,1.866886913776397705e-01,1.866784393787384033e-01,1.866683661937713623e-01,1.866581141948699951e-01,1.866477727890014648e-01,1.866535842418670654e-01,1.866388916969299316e-01,1.866095662117004395e-01,1.865345537662506104e-01,1.864076852798461914e-01,1.860750317573547363e-01,1.855815649032592773e-01,1.850447058677673340e-01,1.842848956584930420e-01,1.833680868148803711e-01,1.827305555343627930e-01,1.813590824604034424e-01,1.757926046848297119e-01,1.797917187213897705e-01,2.027415335178375244e-01,2.307833135128021240e-01,3.015480041503906250e-01,3.562942147254943848e-01
3.375416994094848633e-01,2.429738640785217285e-01,2.204514443874359131e-01,1.928415298461914062e-01,1.711010336875915527e-01,1.665847897529602051e-01,1.689217090606689453e-01,1.697605550289154053e-01,1.709511280059814453e-01,1.718287467956542969e-01,1.728265881538391113e-01,1.735997498035430908e-01,1.740517616271972656e-01,1.739128232002258301e-01,1.744439005851745605e-01,1.726960539817810059e-01,1.715687811374664307e-01,1.711086034774780273e-01,1.701492667198181152e-01,1.708841025829315186e-01,1.705706417560577393e-01,1.725719273090362549e-01,1.730548441410064697e-01,1.738036572933197021e-01,1.741929054260253906e-01,1.754128932952880859e-01,1.764625608921051025e-01,1.769144237041473389e-01,1.772137582302093506e-01,1.771179735660552979e-01,1.771440505981445312e-01,1.771352589130401611e-01,1.771266162395477295e-01,1.771179735660552979e-01,1.771094202995300293e-01,1.771008670330047607e-01,1.770922243595123291e-01,1.770834624767303467e-01,1.770748198032379150e-01,1.770662963390350342e-01,1.770578026771545410e-01,1.770489513874053955e-01,1.770405769348144531e-01,1.770318150520324707e-01,1.770234107971191406e-01,1.770147085189819336e-01,1.770061850547790527e-01,1.769976317882537842e-01,1.769888997077941895e-01,1.769801676273345947e-01,1.769716739654541016e-01,1.769632101058959961e-01,1.769545674324035645e-01,1.769461929798126221e-01,1.769376695156097412e-01,1.769289076328277588e-01,1.769203841686248779e-01,1.769119203090667725e-01,1.769033074378967285e-01,1.768947541713714600e-01,1.768861413002014160e-01,1.768776476383209229e-01,1.768775284290313721e-01,1.768666803836822510e-01,1.768455803394317627e-01,1.768212616443634033e-01,1.767517626285552979e-01,1.765734851360321045e-01,1.762906610965728760e-01,1.758981645107269287e-01,1.754854321479797363e-01,1.748990416526794434e-01,1.746195256710052490e-01,1.736740469932556152e-01,1.688522696495056152e-01,1.728765070438385010e-01,1.956519782543182373e-01,2.232239842414855957e-01,2.950144410133361816e-01,3.513855040073394775e-01
3.348174691200256348e-01,2.394106984138488770e-01,2.160420119762420654e-01,1.884752213954925537e-01,1.666635274887084961e-01,1.618554294109344482e-01,1.636754572391510010e-01,1.641477346420288086e-01,1.649276018142700195e-01,1.654256880283355713e-01,1.660691201686859131e-01,1.663864850997924805e-01,1.667564213275909424e-01,1.670623421669006348e-01,1.671959161758422852e-01,1.657434105873107910e-01,1.652879714965820312e-01,1.640087664127349854e-01,1.643760800361633301e-01,1.647156774997711182e-01,1.647252440452575684e-01,1.657638847827911377e-01,1.657271087169647217e-01,1.666719615459442139e-01,1.669032573699951172e-01,1.681155264377593994e-01,1.682259142398834229e-01,1.687968075275421143e-01,1.685376465320587158e-01,1.686643958091735840e-01,1.686152815818786621e-01,1.686069369316101074e-01,1.685987710952758789e-01,1.685904264450073242e-01,1.685821115970611572e-01,1.685738563537597656e-01,1.685655713081359863e-01,1.685571968555450439e-01,1.685490608215332031e-01,1.685408055782318115e-01,1.685323417186737061e-01,1.685242056846618652e-01,1.685158610343933105e-01,1.685078144073486328e-01,1.684994697570800781e-01,1.684913039207458496e-01,1.684830188751220703e-01,1.684746742248535156e-01,1.684666574001312256e-01,1.684582531452178955e-01,1.684501469135284424e-01,1.684417724609375000e-01,1.684336364269256592e-01,1.684253513813018799e-01,1.684171557426452637e-01,1.684089601039886475e-01,1.684007644653320312e-01,1.683924496173858643e-01,1.683840751647949219e-01,1.683760881423950195e-01,1.683679521083831787e-01,1.683597564697265625e-01,1.683565378189086914e-01,1.683529615402221680e-01,1.683464646339416504e-01,1.683287322521209717e-01,1.682935357093811035e-01,1.682116091251373291e-01,1.680540144443511963e-01,1.678389012813568115e-01,1.675466597080230713e-01,1.672139763832092285e-01,1.671857535839080811e-01,1.665695905685424805e-01,1.623392701148986816e-01,1.664537191390991211e-01,1.888699531555175781e-01,2.161187231540679932e-01,2.880827188491821289e-01,3.462316989898681641e-01
3.321764767169952393e-01,2.359400689601898193e-01,2.114673256874084473e-01,1.838451623916625977e-01,1.619594693183898926e-01,1.568833887577056885e-01,1.583357155323028564e-01,1.584728658199310303e-01,1.590082943439483643e-01,1.592671871185302734e-01,1.596015691757202148e-01,1.598057150840759277e-01,1.599055528640747070e-01,1.600842177867889404e-01,1.600612103939056396e-01,1.594447493553161621e-01,1.585407555103302002e-01,1.586991548538208008e-01,1.585571765899658203e-01,1.582556366920471191e-01,1.585695445537567139e-01,1.591894924640655518e-01,1.591599881649017334e-01,1.595429778099060059e-01,1.597479283809661865e-01,1.607606709003448486e-01,1.603040993213653564e-01,1.607532501220703125e-01,1.605987250804901123e-01,1.606184244155883789e-01,1.605862379074096680e-01,1.605795025825500488e-01,1.605729460716247559e-01,1.605661511421203613e-01,1.605595350265502930e-01,1.605528295040130615e-01,1.605461835861206055e-01,1.605394184589385986e-01,1.605327725410461426e-01,1.605260968208312988e-01,1.605194211006164551e-01,1.605127155780792236e-01,1.605061590671539307e-01,1.604994833469390869e-01,1.604927480220794678e-01,1.604861617088317871e-01,1.604793965816497803e-01,1.604728698730468750e-01,1.604662537574768066e-01,1.604595482349395752e-01,1.604527831077575684e-01,1.604461371898651123e-01,1.604396402835845947e-01,1.604328751564025879e-01,1.604262590408325195e-01,1.604196429252624512e-01,1.604131162166595459e-01,1.604065001010894775e-01,1.603997945785522461e-01,1.603931784629821777e-01,1.603865623474121094e-01,1.603798866271972656e-01,1.603739559650421143e-01,1.603697836399078369e-01,1.603668034076690674e-01,1.603586673736572266e-01,1.603442132472991943e-01,1.603159904479980469e-01,1.602487862110137939e-01,1.601721942424774170e-01,1.601101756095886230e-01,1.599920690059661865e-01,1.601446270942687988e-01,1.598008573055267334e-01,1.560472249984741211e-01,1.602314114570617676e-01,1.822531521320343018e-01,2.098400592803955078e-01,2.817454636096954346e-01,3.413934707641601562e-01
3.293901681900024414e-01,2.325938045978546143e-01,2.067983746528625488e-01,1.795919537544250488e-01,1.574889719486236572e-01,1.522072255611419678e-01,1.534298956394195557e-01,1.533875167369842529e-01,1.537275910377502441e-01,1.538162529468536377e-01,1.539176404476165771e-01,1.539564132690429688e-01,1.540167331695556641e-01,1.540336012840270996e-01,1.538597345352172852e-01,1.536141335964202881e-01,1.532538831233978271e-01,1.531136333942413330e-01,1.532946825027465820e-01,1.533541977405548096e-01,1.527821421623229980e-01,1.533664762973785400e-01,1.535752415657043457e-01,1.535743176937103271e-01,1.539902091026306152e-01,1.539686024188995361e-01,1.541611254215240479e-01,1.540850400924682617e-01,1.540415883064270020e-01,1.540332436561584473e-01,1.540329754352569580e-01,1.540279686450958252e-01,1.540230810642242432e-01,1.540180742740631104e-01,1.540130972862243652e-01,1.540083289146423340e-01,1.540031731128692627e-01,1.539981961250305176e-01,1.539932787418365479e-01,1.539883017539978027e-01,1.539834141731262207e-01,1.539784967899322510e-01,1.539735794067382812e-01,1.539684534072875977e-01,1.539636552333831787e-01,1.539586484432220459e-01,1.539537310600280762e-01,1.539488732814788818e-01,1.539439260959625244e-01,1.539389491081237793e-01,1.539338827133178711e-01,1.539290547370910645e-01,1.539240479469299316e-01,1.539190709590911865e-01,1.539141833782196045e-01,1.539094150066375732e-01,1.539044678211212158e-01,1.538994312286376953e-01,1.538944244384765625e-01,1.538895666599273682e-01,1.538847982883453369e-01,1.538796722888946533e-01,1.538754105567932129e-01,1.538696587085723877e-01,1.538700163364410400e-01,1.538661718368530273e-01,1.538572013378143311e-01,1.538314223289489746e-01,1.537972986698150635e-01,1.537202000617980957e-01,1.536598205566406250e-01,1.536072790622711182e-01,1.538296043872833252e-01,1.537250876426696777e-01,1.503362953662872314e-01,1.545361876487731934e-01,1.761713325977325439e-01,2.040026485919952393e-01,2.758304476737976074e-01,3.369124531745910645e-01
3.268737494945526123e-01,2.293634116649627686e-01,2.026112675666809082e-01,1.756805181503295898e-01,1.533489823341369629e-01,1.479425132274627686e-01,1.489157080650329590e-01,1.487616002559661865e-01,1.489841043949127197e-01,1.490230858325958252e-01,1.490705609321594238e-01,1.490974724292755127e-01,1.491746902465820312e-01,1.491417586803436279e-01,1.490993797779083252e-01,1.489137411117553711e-01,1.486470103263854980e-01,1.486973464488983154e-01,1.488011181354522705e-01,1.486231386661529541e-01,1.488749086856842041e-01,1.486836373805999756e-01,1.490893959999084473e-01,1.490454673767089844e-01,1.491067111492156982e-01,1.489775478839874268e-01,1.491185426712036133e-01,1.490916013717651367e-01,1.491048932075500488e-01,1.490648090839385986e-01,1.490710377693176270e-01,1.490671634674072266e-01,1.490635871887207031e-01,1.490598917007446289e-01,1.490562856197357178e-01,1.490525007247924805e-01,1.490489244461059570e-01,1.490452587604522705e-01,1.490417122840881348e-01,1.490379869937896729e-01,1.490342617034912109e-01,1.490307152271270752e-01,1.490269601345062256e-01,1.490232348442077637e-01,1.490196883678436279e-01,1.490159034729003906e-01,1.490122377872467041e-01,1.490085124969482422e-01,1.490049362182617188e-01,1.490012109279632568e-01,1.489976942539215088e-01,1.489940285682678223e-01,1.489904522895812988e-01,1.489867866039276123e-01,1.489830613136291504e-01,1.489795148372650146e-01,1.489757299423217773e-01,1.489721834659576416e-01,1.489684879779815674e-01,1.489648818969726562e-01,1.489611864089965820e-01,1.489575803279876709e-01,1.489541530609130859e-01,1.489517986774444580e-01,1.489481627941131592e-01,1.489417254924774170e-01,1.489424407482147217e-01,1.489403545856475830e-01,1.489291489124298096e-01,1.489178240299224854e-01,1.488841772079467773e-01,1.488492786884307861e-01,1.490318179130554199e-01,1.490004956722259521e-01,1.457941234111785889e-01,1.497913897037506104e-01,1.710289120674133301e-01,1.990929841995239258e-01,2.706750333309173584e-01,3.329580426216125488e-01
3.244136571884155273e-01,2.263502180576324463e-01,1.987083554267883301e-01,1.722353696823120117e-01,1.498068273067474365e-01,1.444217860698699951e-01,1.453046202659606934e-01,1.451272964477539062e-01,1.453012526035308838e-01,1.453112661838531494e-01,1.453222036361694336e-01,1.453220248222351074e-01,1.453746557235717773e-01,1.453199982643127441e-01,1.453436613082885742e-01,1.452285051345825195e-01,1.452544033527374268e-01,1.450803279876708984e-01,1.451401710510253906e-01,1.451826691627502441e-01,1.452884078025817871e-01,1.452902555465698242e-01,1.453426182270050049e-01,1.453072726726531982e-01,1.453661620616912842e-01,1.453316807746887207e-01,1.453573703765869141e-01,1.453424990177154541e-01,1.453228592872619629e-01,1.453319191932678223e-01,1.453254818916320801e-01,1.453226506710052490e-01,1.453197896480560303e-01,1.453166604042053223e-01,1.453138589859008789e-01,1.453110277652740479e-01,1.453081965446472168e-01,1.453052461147308350e-01,1.453022956848144531e-01,1.452994942665100098e-01,1.452964842319488525e-01,1.452937424182891846e-01,1.452905833721160889e-01,1.452877521514892578e-01,1.452849209308624268e-01,1.452820599079132080e-01,1.452791690826416016e-01,1.452761590480804443e-01,1.452732682228088379e-01,1.452702879905700684e-01,1.452673971652984619e-01,1.452645659446716309e-01,1.452617049217224121e-01,1.452588140964508057e-01,1.452560126781463623e-01,1.452530622482299805e-01,1.452501416206359863e-01,1.452473402023315430e-01,1.452443897724151611e-01,1.452416777610778809e-01,1.452386975288391113e-01,1.452358365058898926e-01,1.452330946922302246e-01,1.452300846576690674e-01,1.452273428440093994e-01,1.452247798442840576e-01,1.452215015888214111e-01,1.452156901359558105e-01,1.452116668224334717e-01,1.451977789402008057e-01,1.451826095581054688e-01,1.451646387577056885e-01,1.453151404857635498e-01,1.453442871570587158e-01,1.423049271106719971e-01,1.461725533008575439e-01,1.670928895473480225e-01,1.953178346157073975e-01,2.667324542999267578e-01,3.298878967761993408e-01
3.222765028476715088e-01,2.239445149898529053e-01,1.955710053443908691e-01,1.694256663322448730e-01,1.469840407371520996e-01,1.415792703628540039e-01,1.423900425434112549e-01,1.422073543071746826e-01,1.423607468605041504e-01,1.423606574535369873e-01,1.423665583133697510e-01,1.423700153827667236e-01,1.423666179180145264e-01,1.423437893390655518e-01,1.423864066600799561e-01,1.423375308513641357e-01,1.423593759536743164e-01,1.422924399375915527e-01,1.422259509563446045e-01,1.422242224216461182e-01,1.423310339450836182e-01,1.423313915729522705e-01,1.423659622669219971e-01,1.423374414443969727e-01,1.423567235469818115e-01,1.423475146293640137e-01,1.423495113849639893e-01,1.423368752002716064e-01,1.423349976539611816e-01,1.423345506191253662e-01,1.423322856426239014e-01,1.423300206661224365e-01,1.423276662826538086e-01,1.423254609107971191e-01,1.423231959342956543e-01,1.423208713531494141e-01,1.423186659812927246e-01,1.423162817955017090e-01,1.423140168190002441e-01,1.423117220401763916e-01,1.423095464706420898e-01,1.423071920871734619e-01,1.423049271106719971e-01,1.423026621341705322e-01,1.423003673553466797e-01,1.422979831695556641e-01,1.422958672046661377e-01,1.422935426235198975e-01,1.422913074493408203e-01,1.422890424728393555e-01,1.422866284847259521e-01,1.422844827175140381e-01,1.422822177410125732e-01,1.422797739505767822e-01,1.422776579856872559e-01,1.422753632068634033e-01,1.422730982303619385e-01,1.422708034515380859e-01,1.422684788703918457e-01,1.422661840915679932e-01,1.422640085220336914e-01,1.422617137432098389e-01,1.422594487667083740e-01,1.422573029994964600e-01,1.422548294067382812e-01,1.422523260116577148e-01,1.422490775585174561e-01,1.422474086284637451e-01,1.422453522682189941e-01,1.422452628612518311e-01,1.422427892684936523e-01,1.422379910945892334e-01,1.423749327659606934e-01,1.424531042575836182e-01,1.395276486873626709e-01,1.432754695415496826e-01,1.639013290405273438e-01,1.922569274902343750e-01,2.634982466697692871e-01,3.274168670177459717e-01
3.203935623168945312e-01,2.218549847602844238e-01,1.929286122322082520e-01,1.670929193496704102e-01,1.447035074234008789e-01,1.392869353294372559e-01,1.400533914566040039e-01,1.398536860942840576e-01,1.399946510791778564e-01,1.399923563003540039e-01,1.399906575679779053e-01,1.399866640567779541e-01,1.399848759174346924e-01,1.399798393249511719e-01,1.399796605110168457e-01,1.399709880352020264e-01,1.399981081485748291e-01,1.399398446083068848e-01,1.399545967578887939e-01,1.399247646331787109e-01,1.399426162242889404e-01,1.399751305580139160e-01,1.399720311164855957e-01,1.399507522583007812e-01,1.399630010128021240e-01,1.399604380130767822e-01,1.399670541286468506e-01,1.399572789669036865e-01,1.399553418159484863e-01,1.399537622928619385e-01,1.399520039558410645e-01,1.399500370025634766e-01,1.399483382701873779e-01,1.399464905261993408e-01,1.399446427822113037e-01,1.399427950382232666e-01,1.399410367012023926e-01,1.399392485618591309e-01,1.399373710155487061e-01,1.399356126785278320e-01,1.399337947368621826e-01,1.399318575859069824e-01,1.399301886558532715e-01,1.399282813072204590e-01,1.399265229701995850e-01,1.399246454238891602e-01,1.399227976799011230e-01,1.399209797382354736e-01,1.399192512035369873e-01,1.399174928665161133e-01,1.399154663085937500e-01,1.399136185646057129e-01,1.399117708206176758e-01,1.399100422859191895e-01,1.399083733558654785e-01,1.399063766002655029e-01,1.399045288562774658e-01,1.399027407169342041e-01,1.399011909961700439e-01,1.398991644382476807e-01,1.398973166942596436e-01,1.398955285549163818e-01,1.398936808109283447e-01,1.398918926715850830e-01,1.398899853229522705e-01,1.398882269859313965e-01,1.398865580558776855e-01,1.398846507072448730e-01,1.398828923702239990e-01,1.398810744285583496e-01,1.398791968822479248e-01,1.398774981498718262e-01,1.399973332881927490e-01,1.401047408580780029e-01,1.372743546962738037e-01,1.409426629543304443e-01,1.613326072692871094e-01,1.898490786552429199e-01,2.609480023384094238e-01,3.254362344741821289e-01
3.187939524650573730e-01,2.200913727283477783e-01,1.907557845115661621e-01,1.651800870895385742e-01,1.428309381008148193e-01,1.374020874500274658e-01,1.381372213363647461e-01,1.379308700561523438e-01,1.380603909492492676e-01,1.380587816238403320e-01,1.380572319030761719e-01,1.380561292171478271e-01,1.380538344383239746e-01,1.380514800548553467e-01,1.380494534969329834e-01,1.380538940429687500e-01,1.380494534969329834e-01,1.380514204502105713e-01,1.380418539047241211e-01,1.380327343940734863e-01,1.380382776260375977e-01,1.380378603935241699e-01,1.380389332771301270e-01,1.380402445793151855e-01,1.380365788936614990e-01,1.380355954170227051e-01,1.380340754985809326e-01,1.380317509174346924e-01,1.380308866500854492e-01,1.380290687084197998e-01,1.380274593830108643e-01,1.380259394645690918e-01,1.380244791507720947e-01,1.380229294300079346e-01,1.380214989185333252e-01,1.380201578140258789e-01,1.380185484886169434e-01,1.380169391632080078e-01,1.380154788494110107e-01,1.380138695240020752e-01,1.380125582218170166e-01,1.380109190940856934e-01,1.380096375942230225e-01,1.380079984664916992e-01,1.380065679550170898e-01,1.380050778388977051e-01,1.380035579204559326e-01,1.380019485950469971e-01,1.380005180835723877e-01,1.379990875720977783e-01,1.379974782466888428e-01,1.379960775375366211e-01,1.379945874214172363e-01,1.379931569099426270e-01,1.379917263984680176e-01,1.379902362823486328e-01,1.379888057708740234e-01,1.379873156547546387e-01,1.379857063293457031e-01,1.379842758178710938e-01,1.379827558994293213e-01,1.379812657833099365e-01,1.379798054695129395e-01,1.379783153533935547e-01,1.379768550395965576e-01,1.379754245281219482e-01,1.379739940166473389e-01,1.379723548889160156e-01,1.379708349704742432e-01,1.379694938659667969e-01,1.379679143428802490e-01,1.379663646221160889e-01,1.380706131458282471e-01,1.381993889808654785e-01,1.354456245899200439e-01,1.390579342842102051e-01,1.592401266098022461e-01,1.878704428672790527e-01,2.588323652744293213e-01,3.238377273082733154e-01
3.174702525138854980e-01,2.186166644096374512e-01,1.889503598213195801e-01,1.635878384113311768e-01,1.412796080112457275e-01,1.358394324779510498e-01,1.365564167499542236e-01,1.363444030284881592e-01,1.364654898643493652e-01,1.364642381668090820e-01,1.364629864692687988e-01,1.364618539810180664e-01,1.364603638648986816e-01,1.364592611789703369e-01,1.364579498767852783e-01,1.364568173885345459e-01,1.364553868770599365e-01,1.364541947841644287e-01,1.364529430866241455e-01,1.364517509937286377e-01,1.364505589008331299e-01,1.364491283893585205e-01,1.364480257034301758e-01,1.364468038082122803e-01,1.364454925060272217e-01,1.364442110061645508e-01,1.364430487155914307e-01,1.364418268203735352e-01,1.364405155181884766e-01,1.364393234252929688e-01,1.364380419254302979e-01,1.364367604255676270e-01,1.364355385303497314e-01,1.364343762397766113e-01,1.364330351352691650e-01,1.364317238330841064e-01,1.364305317401885986e-01,1.364293396472930908e-01,1.364280283451080322e-01,1.364268362522125244e-01,1.364254653453826904e-01,1.364243626594543457e-01,1.364230513572692871e-01,1.364217400550842285e-01,1.364206969738006592e-01,1.364193856716156006e-01,1.364180445671081543e-01,1.364167928695678711e-01,1.364156603813171387e-01,1.364144086837768555e-01,1.364132165908813477e-01,1.364118456840515137e-01,1.364106237888336182e-01,1.364095509052276611e-01,1.364083886146545410e-01,1.364070475101470947e-01,1.364057660102844238e-01,1.364044547080993652e-01,1.364034116268157959e-01,1.364019215106964111e-01,1.364007592201232910e-01,1.363995671272277832e-01,1.363982558250427246e-01,1.363970339298248291e-01,1.363959312438964844e-01,1.363946497440338135e-01,1.363935172557830811e-01,1.363921761512756348e-01,1.363910138607025146e-01,1.363897621631622314e-01,1.363885700702667236e-01,1.363872289657592773e-01,1.364796161651611328e-01,1.366246044635772705e-01,1.339361071586608887e-01,1.375022530555725098e-01,1.575162708759307861e-01,1.862279474735260010e-01,2.570728957653045654e-01,3.225133717060089111e-01
3.163571059703826904e-01,2.173764109611511230e-01,1.874326765537261963e-01,1.622487604618072510e-01,1.399780511856079102e-01,1.345263421535491943e-01,1.352288126945495605e-01,1.350119411945343018e-01,1.351260840892791748e-01,1.351248919963836670e-01,1.351238787174224854e-01,1.351228058338165283e-01,1.351218223571777344e-01,1.351206302642822266e-01,1.351196467876434326e-01,1.351185441017150879e-01,1.351174712181091309e-01,1.351165473461151123e-01,1.351153850555419922e-01,1.351143717765808105e-01,1.351132392883300781e-01,1.351121366024017334e-01,1.351111829280853271e-01,1.351101994514465332e-01,1.351090967655181885e-01,1.351080238819122314e-01,1.351068615913391113e-01,1.351060271263122559e-01,1.351048648357391357e-01,1.351038515567779541e-01,1.351026892662048340e-01,1.351017951965332031e-01,1.351006031036376953e-01,1.350995302200317383e-01,1.350985765457153320e-01,1.350975036621093750e-01,1.350964903831481934e-01,1.350954771041870117e-01,1.350944042205810547e-01,1.350932419300079346e-01,1.350922584533691406e-01,1.350910663604736328e-01,1.350901424884796143e-01,1.350892186164855957e-01,1.350879967212677002e-01,1.350869536399841309e-01,1.350858807563781738e-01,1.350848674774169922e-01,1.350837945938110352e-01,1.350828707218170166e-01,1.350817084312438965e-01,1.350806057453155518e-01,1.350797116756439209e-01,1.350786685943603516e-01,1.350775957107543945e-01,1.350766420364379883e-01,1.350754201412200928e-01,1.350744068622589111e-01,1.350734233856201172e-01,1.350723206996917725e-01,1.350712180137634277e-01,1.350701749324798584e-01,1.350691616535186768e-01,1.350681781768798828e-01,1.350669860839843750e-01,1.350660622119903564e-01,1.350649297237396240e-01,1.350640356540679932e-01,1.350628435611724854e-01,1.350618600845336914e-01,1.350607872009277344e-01,1.350596547126770020e-01,1.351430118083953857e-01,1.353011727333068848e-01,1.326683461666107178e-01,1.361957192420959473e-01,1.560702323913574219e-01,1.848417818546295166e-01,2.555854022502899170e-01,3.213967084884643555e-01
3.154067397117614746e-01,2.163172066211700439e-01,1.861381232738494873e-01,1.611065268516540527e-01,1.388699412345886230e-01,1.334072649478912354e-01,1.340976953506469727e-01,1.338767409324645996e-01,1.339848339557647705e-01,1.339838802814483643e-01,1.339828670024871826e-01,1.339820921421051025e-01,1.339811086654663086e-01,1.339802145957946777e-01,1.339794397354125977e-01,1.339785158634185791e-01,1.339776217937469482e-01,1.339767277240753174e-01,1.339758038520812988e-01,1.339747309684753418e-01,1.339738965034484863e-01,1.339731216430664062e-01,1.339721083641052246e-01,1.339712142944335938e-01,1.339701712131500244e-01,1.339693963527679443e-01,1.339684426784515381e-01,1.339675784111022949e-01,1.339667141437530518e-01,1.339657604694366455e-01,1.339650154113769531e-01,1.339640915393829346e-01,1.339631080627441406e-01,1.339621841907501221e-01,1.339614391326904297e-01,1.339603960514068604e-01,1.339595019817352295e-01,1.339585483074188232e-01,1.339577138423919678e-01,1.339567303657531738e-01,1.339558660984039307e-01,1.339550316333770752e-01,1.339539587497711182e-01,1.339531540870666504e-01,1.339523196220397949e-01,1.339513659477233887e-01,1.339505612850189209e-01,1.339496374130249023e-01,1.339486539363861084e-01,1.339477300643920898e-01,1.339467465877532959e-01,1.339459419250488281e-01,1.339450776576995850e-01,1.339442729949951172e-01,1.339432597160339355e-01,1.339422762393951416e-01,1.339413821697235107e-01,1.339405477046966553e-01,1.339396238327026367e-01,1.339387595653533936e-01,1.339378654956817627e-01,1.339370012283325195e-01,1.339361071586608887e-01,1.339351534843444824e-01,1.339341402053833008e-01,1.339333951473236084e-01,1.339325606822967529e-01,1.339315474033355713e-01,1.339305937290191650e-01,1.339297294616699219e-01,1.339288651943206787e-01,1.339279413223266602e-01,1.340037882328033447e-01,1.341724097728729248e-01,1.315883100032806396e-01,1.350828111171722412e-01,1.548392176628112793e-01,1.836558580398559570e-01,2.543109059333801270e-01,3.204419612884521484e-01
3.145849406719207764e-01,2.154014706611633301e-01,1.850207149982452393e-01,1.601203382015228271e-01,1.379149556159973145e-01,1.324418187141418457e-01,1.331225037574768066e-01,1.328979134559631348e-01,1.330008506774902344e-01,1.330000758171081543e-01,1.329990625381469727e-01,1.329983770847320557e-01,1.329975426197052002e-01,1.329968273639678955e-01,1.329959928989410400e-01,1.329951584339141846e-01,1.329943239688873291e-01,1.329936087131500244e-01,1.329928934574127197e-01,1.329919695854187012e-01,1.329912841320037842e-01,1.329904496669769287e-01,1.329896152019500732e-01,1.329890191555023193e-01,1.329882144927978516e-01,1.329873800277709961e-01,1.329865753650665283e-01,1.329858303070068359e-01,1.329849958419799805e-01,1.329843103885650635e-01,1.329834759235382080e-01,1.329826116561889648e-01,1.329818665981292725e-01,1.329810619354248047e-01,1.329802870750427246e-01,1.329796016216278076e-01,1.329787671566009521e-01,1.329779326915740967e-01,1.329771876335144043e-01,1.329764127731323242e-01,1.329756677150726318e-01,1.329748928546905518e-01,1.329740285873413086e-01,1.329732537269592285e-01,1.329725682735443115e-01,1.329718232154846191e-01,1.329709887504577637e-01,1.329701840877532959e-01,1.329693794250488281e-01,1.329686343669891357e-01,1.329678595066070557e-01,1.329669952392578125e-01,1.329662203788757324e-01,1.329655349254608154e-01,1.329647898674011230e-01,1.329638659954071045e-01,1.329631507396697998e-01,1.329622268676757812e-01,1.329615712165832520e-01,1.329608261585235596e-01,1.329600214958190918e-01,1.329592168331146240e-01,1.329584419727325439e-01,1.329576075077056885e-01,1.329569518566131592e-01,1.329561769962310791e-01,1.329553425312042236e-01,1.329544782638549805e-01,1.329536437988281250e-01,1.329529881477355957e-01,1.329522430896759033e-01,1.329514086246490479e-01,1.330211758613586426e-01,1.331987380981445312e-01,1.306568384170532227e-01,1.341232061386108398e-01,1.537780463695526123e-01,1.826291084289550781e-01,2.532057464122772217e-01,3.196156322956085205e-01
3.138668239116668701e-01,2.146013081073760986e-01,1.840459406375885010e-01,1.592599749565124512e-01,1.370834112167358398e-01,1.316003799438476562e-01,1.322727203369140625e-01,1.320450901985168457e-01,1.321432590484619141e-01,1.321425139904022217e-01,1.321420371532440186e-01,1.321413218975067139e-01,1.321406066417694092e-01,1.321398615837097168e-01,1.321391761302947998e-01,1.321384608745574951e-01,1.321377754211425781e-01,1.321370899677276611e-01,1.321364939212799072e-01,1.321357488632202148e-01,1.321350336074829102e-01,1.321344077587127686e-01,1.321336030960083008e-01,1.321331858634948730e-01,1.321324706077575684e-01,1.321316659450531006e-01,1.321309804916381836e-01,1.321302652359008789e-01,1.321295201778411865e-01,1.321289241313934326e-01,1.321282982826232910e-01,1.321275234222412109e-01,1.321268081665039062e-01,1.321261227130889893e-01,1.321254074573516846e-01,1.321247816085815430e-01,1.321241259574890137e-01,1.321234703063964844e-01,1.321227550506591797e-01,1.321221292018890381e-01,1.321213841438293457e-01,1.321207284927368164e-01,1.321201622486114502e-01,1.321193277835845947e-01,1.321187317371368408e-01,1.321179568767547607e-01,1.321173012256622314e-01,1.321165561676025391e-01,1.321159601211547852e-01,1.321151256561279297e-01,1.321144700050354004e-01,1.321139037609100342e-01,1.321131587028503418e-01,1.321125328540802002e-01,1.321117579936981201e-01,1.321111619472503662e-01,1.321104764938354492e-01,1.321096420288085938e-01,1.321091055870056152e-01,1.321083605289459229e-01,1.321077644824981689e-01,1.321071088314056396e-01,1.321063041687011719e-01,1.321055889129638672e-01,1.321050226688385010e-01,1.321042776107788086e-01,1.321035623550415039e-01,1.321029067039489746e-01,1.321021616458892822e-01,1.321014165878295898e-01,1.321007609367370605e-01,1.321002244949340820e-01,1.321648955345153809e-01,1.323498487472534180e-01,1.298451721668243408e-01,1.332871913909912109e-01,1.528538465499877930e-01,1.817316114902496338e-01,2.522382736206054688e-01,3.188931345939636230e-01
3.132334351539611816e-01,2.138961851596832275e-01,1.831883192062377930e-01,1.585028767585754395e-01,1.363524496555328369e-01,1.308604478836059570e-01,1.315256357192993164e-01,1.312952935695648193e-01,1.313896477222442627e-01,1.313890516757965088e-01,1.313883364200592041e-01,1.313877701759338379e-01,1.313871145248413086e-01,1.313865780830383301e-01,1.313860118389129639e-01,1.313852369785308838e-01,1.313845515251159668e-01,1.313840150833129883e-01,1.313833296298980713e-01,1.313829421997070312e-01,1.313822269439697266e-01,1.313816010951995850e-01,1.313811242580413818e-01,1.313804686069488525e-01,1.313798427581787109e-01,1.313791573047637939e-01,1.313787400722503662e-01,1.313779950141906738e-01,1.313774883747100830e-01,1.313769519329071045e-01,1.313762068748474121e-01,1.313756406307220459e-01,1.313750147819519043e-01,1.313744187355041504e-01,1.313736736774444580e-01,1.313731074333190918e-01,1.313726007938385010e-01,1.313719451427459717e-01,1.313713490962982178e-01,1.313706338405609131e-01,1.313701272010803223e-01,1.313695609569549561e-01,1.313689351081848145e-01,1.313682496547698975e-01,1.313676238059997559e-01,1.313670873641967773e-01,1.313662827014923096e-01,1.313658356666564941e-01,1.313652396202087402e-01,1.313647329807281494e-01,1.313640773296356201e-01,1.313635110855102539e-01,1.313627660274505615e-01,1.313623189926147461e-01,1.313616037368774414e-01,1.313610076904296875e-01,1.313604116439819336e-01,1.313598155975341797e-01,1.313591003417968750e-01,1.313585937023162842e-01,1.313580274581909180e-01,1.313574910163879395e-01,1.313568055629730225e-01,1.313562691211700439e-01,1.313556730747222900e-01,1.313549578189849854e-01,1.313544213771820068e-01,1.313538551330566406e-01,1.313531696796417236e-01,1.313525736331939697e-01,1.313519477844238281e-01,1.313513219356536865e-01,1.314117908477783203e-01,1.316031217575073242e-01,1.291317939758300781e-01,1.325524449348449707e-01,1.520413756370544434e-01,1.809401512145996094e-01,2.513837218284606934e-01,3.182559013366699219e-01
3.126704990863800049e-01,2.132700085639953613e-01,1.824277341365814209e-01,1.578312814235687256e-01,1.357052922248840332e-01,1.302043199539184570e-01,1.308639645576477051e-01,1.306309401988983154e-01,1.307215988636016846e-01,1.307210028171539307e-01,1.307204067707061768e-01,1.307199299335479736e-01,1.307194232940673828e-01,1.307189464569091797e-01,1.307183504104614258e-01,1.307178437709808350e-01,1.307173371315002441e-01,1.307168304920196533e-01,1.307163238525390625e-01,1.307157576084136963e-01,1.307152807712554932e-01,1.307145357131958008e-01,1.307139992713928223e-01,1.307135224342346191e-01,1.307129263877868652e-01,1.307124495506286621e-01,1.307118535041809082e-01,1.307113170623779297e-01,1.307108402252197266e-01,1.307102143764495850e-01,1.307095587253570557e-01,1.307091414928436279e-01,1.307086050510406494e-01,1.307080388069152832e-01,1.307077407836914062e-01,1.307070255279541016e-01,1.307064890861511230e-01,1.307059824466705322e-01,1.307054758071899414e-01,1.307049393653869629e-01,1.307042241096496582e-01,1.307038366794586182e-01,1.307033002376556396e-01,1.307027637958526611e-01,1.307021975517272949e-01,1.307017505168914795e-01,1.307010650634765625e-01,1.307005286216735840e-01,1.307000517845153809e-01,1.306996047496795654e-01,1.306989490985870361e-01,1.306983828544616699e-01,1.306978464126586914e-01,1.306972205638885498e-01,1.306968033313751221e-01,1.306962668895721436e-01,1.306957602500915527e-01,1.306953728199005127e-01,1.306947171688079834e-01,1.306940913200378418e-01,1.306935548782348633e-01,1.306929886341094971e-01,1.306925415992736816e-01,1.306919753551483154e-01,1.306914687156677246e-01,1.306911110877990723e-01,1.306903958320617676e-01,1.306897699832916260e-01,1.306892335414886475e-01,1.306886672973632812e-01,1.306882798671722412e-01,1.306877136230468750e-01,1.307444572448730469e-01,1.309410631656646729e-01,1.284993290901184082e-01,1.319012939929962158e-01,1.513214707374572754e-01,1.802367568016052246e-01,2.506234943866729736e-01,3.176894783973693848e-01
3.121666312217712402e-01,2.127096354961395264e-01,1.817483007907867432e-01,1.572313606739044189e-01,1.351278722286224365e-01,1.296187341213226318e-01,1.302729845046997070e-01,1.300382018089294434e-01,1.301256120204925537e-01,1.301249861717224121e-01,1.301246285438537598e-01,1.301240622997283936e-01,1.301237046718597412e-01,1.301231384277343750e-01,1.301227807998657227e-01,1.301222145557403564e-01,1.301217377185821533e-01,1.301212310791015625e-01,1.301209330558776855e-01,1.301201879978179932e-01,1.301197409629821777e-01,1.301192045211791992e-01,1.301188170909881592e-01,1.301184296607971191e-01,1.301178336143493652e-01,1.301174461841583252e-01,1.301168799400329590e-01,1.301164329051971436e-01,1.301160454750061035e-01,1.301153600215911865e-01,1.301149725914001465e-01,1.301145553588867188e-01,1.301139891147613525e-01,1.301135122776031494e-01,1.301130950450897217e-01,1.301125586032867432e-01,1.301120817661285400e-01,1.301116049289703369e-01,1.301112771034240723e-01,1.301107704639434814e-01,1.301102340221405029e-01,1.301096379756927490e-01,1.301091909408569336e-01,1.301088035106658936e-01,1.301081180572509766e-01,1.301076412200927734e-01,1.301071643829345703e-01,1.301067173480987549e-01,1.301063597202301025e-01,1.301058530807495117e-01,1.301053464412689209e-01,1.301048398017883301e-01,1.301043033599853516e-01,1.301040053367614746e-01,1.301034688949584961e-01,1.301028430461883545e-01,1.301025152206420898e-01,1.301020085811614990e-01,1.301015913486480713e-01,1.301010251045227051e-01,1.301005780696868896e-01,1.301000714302062988e-01,1.300997138023376465e-01,1.300991475582122803e-01,1.300987303256988525e-01,1.300981342792510986e-01,1.300977170467376709e-01,1.300971806049346924e-01,1.300967335700988770e-01,1.300962865352630615e-01,1.300958693027496338e-01,1.300952136516571045e-01,1.301487684249877930e-01,1.303503513336181641e-01,1.279350221157073975e-01,1.313206255435943604e-01,1.506792008876800537e-01,1.796077489852905273e-01,2.499425709247589111e-01,3.171823620796203613e-01
3.118183016777038574e-01,2.123115956783294678e-01,1.813252270221710205e-01,1.568608880043029785e-01,1.347558200359344482e-01,1.292504370212554932e-01,1.299234330654144287e-01,1.296932101249694824e-01,1.297776401042938232e-01,1.297774314880371094e-01,1.297768354415893555e-01,1.297764480113983154e-01,1.297760009765625000e-01,1.297754347324371338e-01,1.297751069068908691e-01,1.297747194766998291e-01,1.297742128372192383e-01,1.297737658023834229e-01,1.297733783721923828e-01,1.297729909420013428e-01,1.297724545001983643e-01,1.297720372676849365e-01,1.297714710235595703e-01,1.297710239887237549e-01,1.297706961631774902e-01,1.297702193260192871e-01,1.297698318958282471e-01,1.297693848609924316e-01,1.297689080238342285e-01,1.297685503959655762e-01,1.297681331634521484e-01,1.297677159309387207e-01,1.297671496868133545e-01,1.297666728496551514e-01,1.297662258148193359e-01,1.297658383846282959e-01,1.297654509544372559e-01,1.297648847103118896e-01,1.297644972801208496e-01,1.297642886638641357e-01,1.297638714313507080e-01,1.297633051872253418e-01,1.297628879547119141e-01,1.297624111175537109e-01,1.297619938850402832e-01,1.297615170478820801e-01,1.297610998153686523e-01,1.297608315944671631e-01,1.297604143619537354e-01,1.297598481178283691e-01,1.297594606876373291e-01,1.297589838504791260e-01,1.297585070133209229e-01,1.297580599784851074e-01,1.297576129436492920e-01,1.297572255134582520e-01,1.297566890716552734e-01,1.297563612461090088e-01,1.297557950019836426e-01,1.297554373741149902e-01,1.297549009323120117e-01,1.297545731067657471e-01,1.297540664672851562e-01,1.297537386417388916e-01,1.297532021999359131e-01,1.297528445720672607e-01,1.297523081302642822e-01,1.297519505023956299e-01,1.297516524791717529e-01,1.297511458396911621e-01,1.297507286071777344e-01,1.297501921653747559e-01,1.298027038574218750e-01,1.300061643123626709e-01,1.276073157787322998e-01,1.309839189052581787e-01,1.502355635166168213e-01,1.792209446430206299e-01,2.494848966598510742e-01,3.168775141239166260e-01
3.111397624015808105e-01,2.116869091987609863e-01,1.807509362697601318e-01,1.563097238540649414e-01,1.342018842697143555e-01,1.286920011043548584e-01,1.293112933635711670e-01,1.290591657161712646e-01,1.291370987892150879e-01,1.291366219520568848e-01,1.291363239288330078e-01,1.291359364986419678e-01,1.291354298591613770e-01,1.291351020336151123e-01,1.291346549987792969e-01,1.291341483592987061e-01,1.291339099407196045e-01,1.291335225105285645e-01,1.291330754756927490e-01,1.291326582431793213e-01,1.291323006153106689e-01,1.291318833827972412e-01,1.291314065456390381e-01,1.291309893131256104e-01,1.291307806968688965e-01,1.291303336620330811e-01,1.291300654411315918e-01,1.291295886039733887e-01,1.291291117668151855e-01,1.291287541389465332e-01,1.291283071041107178e-01,1.291279494762420654e-01,1.291275918483734131e-01,1.291273236274719238e-01,1.291269063949584961e-01,1.291264295578002930e-01,1.291260719299316406e-01,1.291256546974182129e-01,1.291253566741943359e-01,1.291249692440032959e-01,1.291246116161346436e-01,1.291241943836212158e-01,1.291236877441406250e-01,1.291233897209167480e-01,1.291230022907257080e-01,1.291224360466003418e-01,1.291221976280212402e-01,1.291218996047973633e-01,1.291214227676391602e-01,1.291210353374481201e-01,1.291207373142242432e-01,1.291202604770660400e-01,1.291199028491973877e-01,1.291194558143615723e-01,1.291190385818481445e-01,1.291186809539794922e-01,1.291182935237884521e-01,1.291179955005645752e-01,1.291176378726959229e-01,1.291171610355377197e-01,1.291168332099914551e-01,1.291164159774780273e-01,1.291159689426422119e-01,1.291156709194183350e-01,1.291152834892272949e-01,1.291148364543914795e-01,1.291144788265228271e-01,1.291140615940093994e-01,1.291137039661407471e-01,1.291133165359497070e-01,1.291129589080810547e-01,1.291124820709228516e-01,1.291631460189819336e-01,1.293480992317199707e-01,1.269493699073791504e-01,1.303477883338928223e-01,1.497487425804138184e-01,1.785835027694702148e-01,2.489459812641143799e-01,3.162114024162292480e-01
3.148865699768066406e-01,2.120695412158966064e-01,1.826682686805725098e-01,1.585095524787902832e-01,1.351011991500854492e-01,1.294087171554565430e-01,1.298451423645019531e-01,1.296212971210479736e-01,1.297031342983245850e-01,1.297026872634887695e-01,1.297022998332977295e-01,1.297019124031066895e-01,1.297015249729156494e-01,1.297012269496917725e-01,1.297008395195007324e-01,1.297004818916320801e-01,1.297000646591186523e-01,1.296997666358947754e-01,1.296995282173156738e-01,1.296989917755126953e-01,1.296986937522888184e-01,1.296983361244201660e-01,1.296980082988739014e-01,1.296977400779724121e-01,1.296972632408142090e-01,1.296969354152679443e-01,1.296967267990112305e-01,1.296961903572082520e-01,1.296957731246948242e-01,1.296954154968261719e-01,1.296950280666351318e-01,1.296947300434112549e-01,1.296943426132202148e-01,1.296939551830291748e-01,1.296935379505157471e-01,1.296932399272918701e-01,1.296929717063903809e-01,1.296925544738769531e-01,1.296921670436859131e-01,1.296916902065277100e-01,1.296913921833038330e-01,1.296912729740142822e-01,1.296907663345336914e-01,1.296903192996978760e-01,1.296901106834411621e-01,1.296896934509277344e-01,1.296893358230590820e-01,1.296891272068023682e-01,1.296887397766113281e-01,1.296882927417755127e-01,1.296879947185516357e-01,1.296876370906829834e-01,1.296873092651367188e-01,1.296869516372680664e-01,1.296864449977874756e-01,1.296860873699188232e-01,1.296857595443725586e-01,1.296854615211486816e-01,1.296852529048919678e-01,1.296848654747009277e-01,1.296844482421875000e-01,1.296841204166412354e-01,1.296837627887725830e-01,1.296834647655487061e-01,1.296829879283905029e-01,1.296825408935546875e-01,1.296821236610412598e-01,1.296818256378173828e-01,1.296816170215606689e-01,1.296812295913696289e-01,1.296808421611785889e-01,1.296803653240203857e-01,1.297211945056915283e-01,1.299287676811218262e-01,1.277337670326232910e-01,1.309966444969177246e-01,1.498531997203826904e-01,1.788346767425537109e-01,2.511988282203674316e-01,3.164348900318145752e-01
3.202417194843292236e-01,2.136640548706054688e-01,1.759432852268218994e-01,1.545632779598236084e-01,1.335857212543487549e-01,1.276829242706298828e-01,1.283464133739471436e-01,1.280921101570129395e-01,1.281660497188568115e-01,1.281657814979553223e-01,1.281654536724090576e-01,1.281651854515075684e-01,1.281648278236389160e-01,1.281644999980926514e-01,1.281642019748687744e-01,1.281639933586120605e-01,1.281635165214538574e-01,1.281632483005523682e-01,1.281629800796508789e-01,1.281625926494598389e-01,1.281622648239135742e-01,1.281619369983673096e-01,1.281615197658538818e-01,1.281613707542419434e-01,1.281609535217285156e-01,1.281605362892150879e-01,1.281603574752807617e-01,1.281599998474121094e-01,1.281597912311553955e-01,1.281593739986419678e-01,1.281589567661285400e-01,1.281587481498718262e-01,1.281584203243255615e-01,1.281581223011016846e-01,1.281578242778778076e-01,1.281574368476867676e-01,1.281571388244628906e-01,1.281567513942718506e-01,1.281565427780151367e-01,1.281561851501464844e-01,1.281557977199554443e-01,1.281555891036987305e-01,1.281552910804748535e-01,1.281550228595733643e-01,1.281546652317047119e-01,1.281543672084808350e-01,1.281540691852569580e-01,1.281537115573883057e-01,1.281533837318420410e-01,1.281530857086181641e-01,1.281526684761047363e-01,1.281524002552032471e-01,1.281520128250122070e-01,1.281518340110778809e-01,1.281514167785644531e-01,1.281510889530181885e-01,1.281508803367614746e-01,1.281504631042480469e-01,1.281501054763793945e-01,1.281497776508331299e-01,1.281495094299316406e-01,1.281490921974182129e-01,1.281489133834838867e-01,1.281485259532928467e-01,1.281482279300689697e-01,1.281480193138122559e-01,1.281475722789764404e-01,1.281472742557525635e-01,1.281470060348510742e-01,1.281466186046600342e-01,1.281462907791137695e-01,1.281460225582122803e-01,1.281683743000030518e-01,1.284445822238922119e-01,1.258987784385681152e-01,1.287997961044311523e-01,1.495797634124755859e-01,1.731258332729339600e-01,2.493329346179962158e-01,3.113790154457092285e-01
3.096934854984283447e-01,2.064529359340667725e-01,1.697976589202880859e-01,1.503065526485443115e-01,1.352151632308959961e-01,1.277407109737396240e-01,1.272583901882171631e-01,1.270284950733184814e-01,1.271136105060577393e-01,1.271132826805114746e-01,1.271130144596099854e-01,1.271126568317413330e-01,1.271124184131622314e-01,1.271122097969055176e-01,1.271119415760040283e-01,1.271117329597473145e-01,1.271114349365234375e-01,1.271111667156219482e-01,1.271109580993652344e-01,1.271106898784637451e-01,1.271104812622070312e-01,1.271102130413055420e-01,1.271098256111145020e-01,1.271094679832458496e-01,1.271093189716339111e-01,1.271091401576995850e-01,1.271088421344757080e-01,1.271086037158966064e-01,1.271082162857055664e-01,1.271080970764160156e-01,1.271077096462249756e-01,1.271075010299682617e-01,1.271072626113891602e-01,1.271070539951324463e-01,1.271067559719085693e-01,1.271064281463623047e-01,1.271061003208160400e-01,1.271058022975921631e-01,1.271055340766906738e-01,1.271053254604339600e-01,1.271050572395324707e-01,1.271048486232757568e-01,1.271045207977294922e-01,1.271043121814727783e-01,1.271041035652160645e-01,1.271037161350250244e-01,1.271035671234130859e-01,1.271032989025115967e-01,1.271029710769653320e-01,1.271027028560638428e-01,1.271023452281951904e-01,1.271021366119384766e-01,1.271018683910369873e-01,1.271016001701354980e-01,1.271012127399444580e-01,1.271010339260101318e-01,1.271007359027862549e-01,1.271004974842071533e-01,1.271001696586608887e-01,1.270999610424041748e-01,1.270996928215026855e-01,1.270994246006011963e-01,1.270992159843444824e-01,1.270988881587982178e-01,1.270985901355743408e-01,1.270984113216400146e-01,1.270981431007385254e-01,1.270978748798370361e-01,1.270976662635803223e-01,1.270972490310668945e-01,1.270969212055206299e-01,1.270966529846191406e-01,1.271212995052337646e-01,1.273245215415954590e-01,1.248663663864135742e-01,1.229493319988250732e-01,1.377097368240356445e-01,1.726503670215606689e-01,2.519678473472595215e-01,3.331213891506195068e-01
