5.886877179145812988e-01,6.142467260360717773e-01,6.568660736083984375e-01,6.576861143112182617e-01,6.812261939048767090e-01,7.054483294486999512e-01,7.421044111251831055e-01,7.638168334960937500e-01,7.819538116455078125e-01,7.945542335510253906e-01,7.996217608451843262e-01,7.980345487594604492e-01,8.000454902648925781e-01,7.905973196029663086e-01,7.707155942916870117e-01,7.093905210494995117e-01,6.690034270286560059e-01,6.419637203216552734e-01,6.160928606986999512e-01,6.173301339149475098e-01,6.140281558036804199e-01,6.298184990882873535e-01,6.667881608009338379e-01,6.990199089050292969e-01,7.453312873840332031e-01,8.011668920516967773e-01,8.401515483856201172e-01,8.639897108078002930e-01,8.822803497314453125e-01,8.944808840751647949e-01,8.983715772628784180e-01,9.032377004623413086e-01,9.047503471374511719e-01,9.053182601928710938e-01,9.053460359573364258e-01,9.053298830986022949e-01,9.053283333778381348e-01,9.053283333778381348e-01,9.053283333778381348e-01,9.053283333778381348e-01,9.053283333778381348e-01,9.053283333778381348e-01,9.053283333778381348e-01,9.053283333778381348e-01,9.053283333778381348e-01,9.053283333778381348e-01,9.053283333778381348e-01,9.053283333778381348e-01,9.053283333778381348e-01,9.053283333778381348e-01,9.053283333778381348e-01,9.053283333778381348e-01,9.053283333778381348e-01,9.053283333778381348e-01,9.053283333778381348e-01,9.053283333778381348e-01,9.053283333778381348e-01,9.053283333778381348e-01,9.053283333778381348e-01,9.053283333778381348e-01,9.053285121917724609e-01,9.053297042846679688e-01,9.053524732589721680e-01,9.053733944892883301e-01,9.051614999771118164e-01,9.045418500900268555e-01,9.034025669097900391e-01,9.016457796096801758e-01,8.990696072578430176e-01,8.949664831161499023e-01,8.886604309082031250e-01,8.801907896995544434e-01,8.708332777023315430e-01,8.578780889511108398e-01,8.292735815048217773e-01,8.082619905471801758e-01,8.006616830825805664e-01,7.746663093566894531e-01,7.220337986946105957e-01,6.160539388656616211e-01
5.886808633804321289e-01,6.142354011535644531e-01,6.568530797958374023e-01,6.576712727546691895e-01,6.812050342559814453e-01,7.053961753845214844e-01,7.417423129081726074e-01,7.642083168029785156e-01,7.835869789123535156e-01,7.953003644943237305e-01,7.983628511428833008e-01,8.013944625854492188e-01,7.984281778335571289e-01,7.910261750221252441e-01,7.659823894500732422e-01,7.130651473999023438e-01,6.673318743705749512e-01,6.364834308624267578e-01,6.147300004959106445e-01,6.095212101936340332e-01,6.099464893341064453e-01,6.263684034347534180e-01,6.613892912864685059e-01,7.047802209854125977e-01,7.458655238151550293e-01,7.980984449386596680e-01,8.379753828048706055e-01,8.631706237792968750e-01,8.809039592742919922e-01,8.932216763496398926e-01,8.984105587005615234e-01,9.032890796661376953e-01,9.050495624542236328e-01,9.052455425262451172e-01,9.053499698638916016e-01,9.053297042846679688e-01,9.053283333778381348e-01,9.053283333778381348e-01,9.053283333778381348e-01,9.053283333778381348e-01,9.053283333778381348e-01,9.053283333778381348e-01,9.053283333778381348e-01,9.053283333778381348e-01,9.053283333778381348e-01,9.053283333778381348e-01,9.053283333778381348e-01,9.053283333778381348e-01,9.053283333778381348e-01,9.053283333778381348e-01,9.053283333778381348e-01,9.053283333778381348e-01,9.053283333778381348e-01,9.053283333778381348e-01,9.053283333778381348e-01,9.053283333778381348e-01,9.053283333778381348e-01,9.053283333778381348e-01,9.053283333778381348e-01,9.053283333778381348e-01,9.053285121917724609e-01,9.053297042846679688e-01,9.053521156311035156e-01,9.053734540939331055e-01,9.051614999771118164e-01,9.045423269271850586e-01,9.034037590026855469e-01,9.016473889350891113e-01,8.990721702575683594e-01,8.949687480926513672e-01,8.886656165122985840e-01,8.801974058151245117e-01,8.708400130271911621e-01,8.578863143920898438e-01,8.292872905731201172e-01,8.082762360572814941e-01,8.006742596626281738e-01,7.746793031692504883e-01,7.220446467399597168e-01,6.160604357719421387e-01
5.886739492416381836e-01,6.142241954803466797e-01,6.568402051925659180e-01,6.576563119888305664e-01,6.811964511871337891e-01,7.054040431976318359e-01,7.418723702430725098e-01,7.636903524398803711e-01,7.840839624404907227e-01,7.936282157897949219e-01,7.983760237693786621e-01,8.031011819839477539e-01,7.971183061599731445e-01,7.879365682601928711e-01,7.698052525520324707e-01,7.080911397933959961e-01,6.645737290382385254e-01,6.355265378952026367e-01,6.161280870437622070e-01,6.109860539436340332e-01,6.072422266006469727e-01,6.276745200157165527e-01,6.625499725341796875e-01,7.060763239860534668e-01,7.498245239257812500e-01,7.908216118812561035e-01,8.402105569839477539e-01,8.641397953033447266e-01,8.798247575759887695e-01,8.933650851249694824e-01,8.984677791595458984e-01,9.027406573295593262e-01,9.047368168830871582e-01,9.052020311355590820e-01,9.053483009338378906e-01,9.053328037261962891e-01,9.053283333778381348e-01,9.053283333778381348e-01,9.053283333778381348e-01,9.053283333778381348e-01,9.053283333778381348e-01,9.053283333778381348e-01,9.053283333778381348e-01,9.053283333778381348e-01,9.053283333778381348e-01,9.053283333778381348e-01,9.053283333778381348e-01,9.053283333778381348e-01,9.053283333778381348e-01,9.053283333778381348e-01,9.053283333778381348e-01,9.053283333778381348e-01,9.053283333778381348e-01,9.053283333778381348e-01,9.053283333778381348e-01,9.053283333778381348e-01,9.053283333778381348e-01,9.053283333778381348e-01,9.053283333778381348e-01,9.053283333778381348e-01,9.053285121917724609e-01,9.053297042846679688e-01,9.053521156311035156e-01,9.053734540939331055e-01,9.051616191864013672e-01,9.045428037643432617e-01,9.034045934677124023e-01,9.016487598419189453e-01,8.990739583969116211e-01,8.949723243713378906e-01,8.886709213256835938e-01,8.802043795585632324e-01,8.708473443984985352e-01,8.578960895538330078e-01,8.292994499206542969e-01,8.082892298698425293e-01,8.006874322891235352e-01,7.746918797492980957e-01,7.220547199249267578e-01,6.160675883293151855e-01
5.886669158935546875e-01,6.142126917839050293e-01,6.568270921707153320e-01,6.576412916183471680e-01,6.811902523040771484e-01,7.054296731948852539e-01,7.419819235801696777e-01,7.636135816574096680e-01,7.833300828933715820e-01,7.923557162284851074e-01,7.980037927627563477e-01,8.026335835456848145e-01,7.974590063095092773e-01,7.895613908767700195e-01,7.675918340682983398e-01,7.036103010177612305e-01,6.634721159934997559e-01,6.401219964027404785e-01,6.193589568138122559e-01,6.144707798957824707e-01,6.092758774757385254e-01,6.263600587844848633e-01,6.688450574874877930e-01,7.151989936828613281e-01,7.553730010986328125e-01,7.993034124374389648e-01,8.363128900527954102e-01,8.670014739036560059e-01,8.816430568695068359e-01,8.934293985366821289e-01,8.998667597770690918e-01,9.030804634094238281e-01,9.050809144973754883e-01,9.051566123962402344e-01,9.053393006324768066e-01,9.053264856338500977e-01,9.053283333778381348e-01,9.053283333778381348e-01,9.053283333778381348e-01,9.053283333778381348e-01,9.053283333778381348e-01,9.053283333778381348e-01,9.053283333778381348e-01,9.053283333778381348e-01,9.053283333778381348e-01,9.053283333778381348e-01,9.053283333778381348e-01,9.053283333778381348e-01,9.053283333778381348e-01,9.053283333778381348e-01,9.053283333778381348e-01,9.053283333778381348e-01,9.053283333778381348e-01,9.053283333778381348e-01,9.053283333778381348e-01,9.053283333778381348e-01,9.053283333778381348e-01,9.053283333778381348e-01,9.053283333778381348e-01,9.053283333778381348e-01,9.053285121917724609e-01,9.053297042846679688e-01,9.053520560264587402e-01,9.053735136985778809e-01,9.051617980003356934e-01,9.045432209968566895e-01,9.034054875373840332e-01,9.016500711441040039e-01,8.990761041641235352e-01,8.949754238128662109e-01,8.886759281158447266e-01,8.802113533020019531e-01,8.708553314208984375e-01,8.579058647155761719e-01,8.293111324310302734e-01,8.083020448684692383e-01,8.007000684738159180e-01,7.747040987014770508e-01,7.220648527145385742e-01,6.160746812820434570e-01
5.886597037315368652e-01,6.142011880874633789e-01,6.568138003349304199e-01,6.576260328292846680e-01,6.811823248863220215e-01,7.054252028465270996e-01,7.418956756591796875e-01,7.632527351379394531e-01,7.821787595748901367e-01,7.900750637054443359e-01,7.963746190071105957e-01,8.000071048736572266e-01,7.980133295059204102e-01,7.900614142417907715e-01,7.610893249511718750e-01,7.063643336296081543e-01,6.613966226577758789e-01,6.392931342124938965e-01,6.220129132270812988e-01,6.213150024414062500e-01,6.100798249244689941e-01,6.342920064926147461e-01,6.709435582160949707e-01,7.238482832908630371e-01,7.576149702072143555e-01,8.050906062126159668e-01,8.401318788528442383e-01,8.606243133544921875e-01,8.801847696304321289e-01,8.945500850677490234e-01,8.981593847274780273e-01,9.016854763031005859e-01,9.045356512069702148e-01,9.052768945693969727e-01,9.053511619567871094e-01,9.053337574005126953e-01,9.053283333778381348e-01,9.053283333778381348e-01,9.053283333778381348e-01,9.053283333778381348e-01,9.053283333778381348e-01,9.053283333778381348e-01,9.053283333778381348e-01,9.053283333778381348e-01,9.053283333778381348e-01,9.053283333778381348e-01,9.053283333778381348e-01,9.053283333778381348e-01,9.053283333778381348e-01,9.053283333778381348e-01,9.053283333778381348e-01,9.053283333778381348e-01,9.053283333778381348e-01,9.053283333778381348e-01,9.053283333778381348e-01,9.053283333778381348e-01,9.053283333778381348e-01,9.053283333778381348e-01,9.053283333778381348e-01,9.053283333778381348e-01,9.053285121917724609e-01,9.053297042846679688e-01,9.053521156311035156e-01,9.053734540939331055e-01,9.051619768142700195e-01,9.045437574386596680e-01,9.034062623977661133e-01,9.016515612602233887e-01,8.990780115127563477e-01,8.949786424636840820e-01,8.886809349060058594e-01,8.802180290222167969e-01,8.708633184432983398e-01,8.579155206680297852e-01,8.293225765228271484e-01,8.083147406578063965e-01,8.007128238677978516e-01,7.747164368629455566e-01,7.220751047134399414e-01,6.160815954208374023e-01
5.886521339416503906e-01,6.141893267631530762e-01,6.568001508712768555e-01,6.576104164123535156e-01,6.811751127243041992e-01,7.054091691970825195e-01,7.418155074119567871e-01,7.634820342063903809e-01,7.809479236602783203e-01,7.906941175460815430e-01,7.937065958976745605e-01,7.976312637329101562e-01,7.966967821121215820e-01,7.870876789093017578e-01,7.531759738922119141e-01,7.052406072616577148e-01,6.595664024353027344e-01,6.407727003097534180e-01,6.223576068878173828e-01,6.216872930526733398e-01,6.171214580535888672e-01,6.411941051483154297e-01,6.851240396499633789e-01,7.278333902359008789e-01,7.721291780471801758e-01,7.978183031082153320e-01,8.434278964996337891e-01,8.651150465011596680e-01,8.841135501861572266e-01,8.939219117164611816e-01,8.999142050743103027e-01,9.022165536880493164e-01,9.047681093215942383e-01,9.050375819206237793e-01,9.053329229354858398e-01,9.053332805633544922e-01,9.053283333778381348e-01,9.053283333778381348e-01,9.053283333778381348e-01,9.053283333778381348e-01,9.053283333778381348e-01,9.053283333778381348e-01,9.053283333778381348e-01,9.053283333778381348e-01,9.053283333778381348e-01,9.053283333778381348e-01,9.053283333778381348e-01,9.053283333778381348e-01,9.053283333778381348e-01,9.053283333778381348e-01,9.053283333778381348e-01,9.053283333778381348e-01,9.053283333778381348e-01,9.053283333778381348e-01,9.053283333778381348e-01,9.053283333778381348e-01,9.053283333778381348e-01,9.053283333778381348e-01,9.053283333778381348e-01,9.053283333778381348e-01,9.053285121917724609e-01,9.053297042846679688e-01,9.053520560264587402e-01,9.053733348846435547e-01,9.051622152328491211e-01,9.045441150665283203e-01,9.034072160720825195e-01,9.016529321670532227e-01,8.990799784660339355e-01,8.949818611145019531e-01,8.886860013008117676e-01,8.802245855331420898e-01,8.708711862564086914e-01,8.579249978065490723e-01,8.293340206146240234e-01,8.083275556564331055e-01,8.007253408432006836e-01,7.747286558151245117e-01,7.220852375030517578e-01,6.160887479782104492e-01
5.886443853378295898e-01,6.141767501831054688e-01,6.567858457565307617e-01,6.575943231582641602e-01,6.811629533767700195e-01,7.053771018981933594e-01,7.415685057640075684e-01,7.627873420715332031e-01,7.806705236434936523e-01,7.888916730880737305e-01,7.915748357772827148e-01,7.968607544898986816e-01,7.934051752090454102e-01,7.820983529090881348e-01,7.467795014381408691e-01,6.960026621818542480e-01,6.537197828292846680e-01,6.392198204994201660e-01,6.282144784927368164e-01,6.179838776588439941e-01,6.249878406524658203e-01,6.469427347183227539e-01,6.905172467231750488e-01,7.454606294631958008e-01,7.697387933731079102e-01,8.051983118057250977e-01,8.408117294311523438e-01,8.666152358055114746e-01,8.831748962402343750e-01,8.927503824234008789e-01,8.967810869216918945e-01,9.010654687881469727e-01,9.041380882263183594e-01,9.051969051361083984e-01,9.053281545639038086e-01,9.053274393081665039e-01,9.053283333778381348e-01,9.053283333778381348e-01,9.053283333778381348e-01,9.053283333778381348e-01,9.053283333778381348e-01,9.053283333778381348e-01,9.053283333778381348e-01,9.053283333778381348e-01,9.053283333778381348e-01,9.053283333778381348e-01,9.053283333778381348e-01,9.053283333778381348e-01,9.053283333778381348e-01,9.053283333778381348e-01,9.053283333778381348e-01,9.053283333778381348e-01,9.053283333778381348e-01,9.053283333778381348e-01,9.053283333778381348e-01,9.053283333778381348e-01,9.053283333778381348e-01,9.053283333778381348e-01,9.053283333778381348e-01,9.053283333778381348e-01,9.053285121917724609e-01,9.053297042846679688e-01,9.053520560264587402e-01,9.053733348846435547e-01,9.051623344421386719e-01,9.045445919036865234e-01,9.034080505371093750e-01,9.016541838645935059e-01,8.990820646286010742e-01,8.949851989746093750e-01,8.886909484863281250e-01,8.802312612533569336e-01,8.708790540695190430e-01,8.579344153404235840e-01,8.293455839157104492e-01,8.083400130271911621e-01,8.007380962371826172e-01,7.747408151626586914e-01,7.220952510833740234e-01,6.160957813262939453e-01
5.886364579200744629e-01,6.141639947891235352e-01,6.567711830139160156e-01,6.575776338577270508e-01,6.811350584030151367e-01,7.053731083869934082e-01,7.415267825126647949e-01,7.631506323814392090e-01,7.812600135803222656e-01,7.878981232643127441e-01,7.884432673454284668e-01,7.975228428840637207e-01,7.884705066680908203e-01,7.805647253990173340e-01,7.451202869415283203e-01,6.844601035118103027e-01,6.472798585891723633e-01,6.394912004470825195e-01,6.328786611557006836e-01,6.334993839263916016e-01,6.319053769111633301e-01,6.482193470001220703e-01,6.955505609512329102e-01,7.582688331604003906e-01,7.853262424468994141e-01,8.090665936470031738e-01,8.431091308593750000e-01,8.669189214706420898e-01,8.853746652603149414e-01,8.940669298171997070e-01,8.988731503486633301e-01,9.023795127868652344e-01,9.039018750190734863e-01,9.051768779754638672e-01,9.053176641464233398e-01,9.053366184234619141e-01,9.053283333778381348e-01,9.053283333778381348e-01,9.053283333778381348e-01,9.053283333778381348e-01,9.053283333778381348e-01,9.053283333778381348e-01,9.053283333778381348e-01,9.053283333778381348e-01,9.053283333778381348e-01,9.053283333778381348e-01,9.053283333778381348e-01,9.053283333778381348e-01,9.053283333778381348e-01,9.053283333778381348e-01,9.053283333778381348e-01,9.053283333778381348e-01,9.053283333778381348e-01,9.053283333778381348e-01,9.053283333778381348e-01,9.053283333778381348e-01,9.053283333778381348e-01,9.053283333778381348e-01,9.053283333778381348e-01,9.053283333778381348e-01,9.053285121917724609e-01,9.053297042846679688e-01,9.053519964218139648e-01,9.053733348846435547e-01,9.051624536514282227e-01,9.045451879501342773e-01,9.034088850021362305e-01,9.016555547714233398e-01,8.990840315818786621e-01,8.949884176254272461e-01,8.886958360671997070e-01,8.802380561828613281e-01,8.708869218826293945e-01,8.579438328742980957e-01,8.293570280075073242e-01,8.083528280258178711e-01,8.007506132125854492e-01,7.747532129287719727e-01,7.221053838729858398e-01,6.161028742790222168e-01
5.886284112930297852e-01,6.141511797904968262e-01,6.567565202713012695e-01,6.575603485107421875e-01,6.810996532440185547e-01,7.053565382957458496e-01,7.415031194686889648e-01,7.634711861610412598e-01,7.818990945816040039e-01,7.873695492744445801e-01,7.927229404449462891e-01,7.977287769317626953e-01,7.851305007934570312e-01,7.736178636550903320e-01,7.422530651092529297e-01,6.817905902862548828e-01,6.428325176239013672e-01,6.394490003585815430e-01,6.527618765830993652e-01,6.323365569114685059e-01,6.477358341217041016e-01,6.643505096435546875e-01,7.237460613250732422e-01,7.628896832466125488e-01,7.943936586380004883e-01,8.153156042098999023e-01,8.515201807022094727e-01,8.663363456726074219e-01,8.827089071273803711e-01,8.973549008369445801e-01,8.980119228363037109e-01,9.012769460678100586e-01,9.045004844665527344e-01,9.051505923271179199e-01,9.053415656089782715e-01,9.053367376327514648e-01,9.053283333778381348e-01,9.053283333778381348e-01,9.053283333778381348e-01,9.053283333778381348e-01,9.053283333778381348e-01,9.053283333778381348e-01,9.053283333778381348e-01,9.053283333778381348e-01,9.053283333778381348e-01,9.053283333778381348e-01,9.053283333778381348e-01,9.053283333778381348e-01,9.053283333778381348e-01,9.053283333778381348e-01,9.053283333778381348e-01,9.053283333778381348e-01,9.053283333778381348e-01,9.053283333778381348e-01,9.053283333778381348e-01,9.053283333778381348e-01,9.053283333778381348e-01,9.053283333778381348e-01,9.053283333778381348e-01,9.053283333778381348e-01,9.053285121917724609e-01,9.053297042846679688e-01,9.053520560264587402e-01,9.053732752799987793e-01,9.051626920700073242e-01,9.045456647872924805e-01,9.034098982810974121e-01,9.016569256782531738e-01,8.990861177444458008e-01,8.949916362762451172e-01,8.887008428573608398e-01,8.802446126937866211e-01,8.708949089050292969e-01,8.579533100128173828e-01,8.293685317039489746e-01,8.083655238151550293e-01,8.007633686065673828e-01,7.747654318809509277e-01,7.221155166625976562e-01,6.161099076271057129e-01
5.886205434799194336e-01,6.141384243965148926e-01,6.567417383193969727e-01,6.575431823730468750e-01,6.810775995254516602e-01,7.053585052490234375e-01,7.417982816696166992e-01,7.649754285812377930e-01,7.810887098312377930e-01,7.889220118522644043e-01,7.952960729598999023e-01,7.958574295043945312e-01,7.866456508636474609e-01,7.760299444198608398e-01,7.425140142440795898e-01,6.885448694229125977e-01,6.548522114753723145e-01,6.466292142868041992e-01,6.547136902809143066e-01,6.384767293930053711e-01,6.562805175781250000e-01,6.824879050254821777e-01,7.337986230850219727e-01,7.905350923538208008e-01,8.054805397987365723e-01,8.313462734222412109e-01,8.612060546875000000e-01,8.731535077095031738e-01,8.858980536460876465e-01,8.993074893951416016e-01,9.010336399078369141e-01,9.024603366851806641e-01,9.049988985061645508e-01,9.051513671875000000e-01,9.053442478179931641e-01,9.053340554237365723e-01,9.053283333778381348e-01,9.053283333778381348e-01,9.053283333778381348e-01,9.053283333778381348e-01,9.053283333778381348e-01,9.053283333778381348e-01,9.053283333778381348e-01,9.053283333778381348e-01,9.053283333778381348e-01,9.053283333778381348e-01,9.053283333778381348e-01,9.053283333778381348e-01,9.053283333778381348e-01,9.053283333778381348e-01,9.053283333778381348e-01,9.053283333778381348e-01,9.053283333778381348e-01,9.053283333778381348e-01,9.053283333778381348e-01,9.053283333778381348e-01,9.053283333778381348e-01,9.053283333778381348e-01,9.053283333778381348e-01,9.053283333778381348e-01,9.053285121917724609e-01,9.053297042846679688e-01,9.053519964218139648e-01,9.053733348846435547e-01,9.051628708839416504e-01,9.045461416244506836e-01,9.034107327461242676e-01,9.016583561897277832e-01,8.990881443023681641e-01,8.949949741363525391e-01,8.887059688568115234e-01,8.802517056465148926e-01,8.709028959274291992e-01,8.579630255699157715e-01,8.293802738189697266e-01,8.083782792091369629e-01,8.007760047912597656e-01,7.747777700424194336e-01,7.221256494522094727e-01,6.161171197891235352e-01
5.886127948760986328e-01,6.141259074211120605e-01,6.567270755767822266e-01,6.575262546539306641e-01,6.810618042945861816e-01,7.053124308586120605e-01,7.422894239425659180e-01,7.644716501235961914e-01,7.801150083541870117e-01,7.913373708724975586e-01,8.011630773544311523e-01,7.999088168144226074e-01,7.965661883354187012e-01,7.808201313018798828e-01,7.485602498054504395e-01,6.988497972488403320e-01,6.611011028289794922e-01,6.580855250358581543e-01,6.664533019065856934e-01,6.725678443908691406e-01,6.812347173690795898e-01,7.026899456977844238e-01,7.516350746154785156e-01,8.044104576110839844e-01,8.277069330215454102e-01,8.368278145790100098e-01,8.683847188949584961e-01,8.818678855895996094e-01,8.905066847801208496e-01,8.996632099151611328e-01,9.015916585922241211e-01,9.041860103607177734e-01,9.047601222991943359e-01,9.051948785781860352e-01,9.053508043289184570e-01,9.053291082382202148e-01,9.053283333778381348e-01,9.053283333778381348e-01,9.053283333778381348e-01,9.053283333778381348e-01,9.053283333778381348e-01,9.053283333778381348e-01,9.053283333778381348e-01,9.053283333778381348e-01,9.053283333778381348e-01,9.053283333778381348e-01,9.053283333778381348e-01,9.053283333778381348e-01,9.053283333778381348e-01,9.053283333778381348e-01,9.053283333778381348e-01,9.053283333778381348e-01,9.053283333778381348e-01,9.053283333778381348e-01,9.053283333778381348e-01,9.053283333778381348e-01,9.053283333778381348e-01,9.053283333778381348e-01,9.053283333778381348e-01,9.053283333778381348e-01,9.053285121917724609e-01,9.053297042846679688e-01,9.053519368171691895e-01,9.053732752799987793e-01,9.051629900932312012e-01,9.045466184616088867e-01,9.034116268157958984e-01,9.016597270965576172e-01,8.990900516510009766e-01,8.949981331825256348e-01,8.887109160423278809e-01,8.802583813667297363e-01,8.709108829498291016e-01,8.579726219177246094e-01,8.293917179107666016e-01,8.083909749984741211e-01,8.007888197898864746e-01,7.747901678085327148e-01,7.221359610557556152e-01,6.161243319511413574e-01
5.886053442955017090e-01,6.141138672828674316e-01,6.567130088806152344e-01,6.575098633766174316e-01,6.810401678085327148e-01,7.052783370018005371e-01,7.423850297927856445e-01,7.630936503410339355e-01,7.803418040275573730e-01,7.925060987472534180e-01,8.022927641868591309e-01,8.008436560630798340e-01,8.026099801063537598e-01,7.949604988098144531e-01,7.584365606307983398e-01,7.088786959648132324e-01,6.855485439300537109e-01,6.709246039390563965e-01,6.824443936347961426e-01,6.929302811622619629e-01,7.033175230026245117e-01,7.227339744567871094e-01,7.592946290969848633e-01,8.179985880851745605e-01,8.498759865760803223e-01,8.563722372055053711e-01,8.741326928138732910e-01,8.903297781944274902e-01,8.959359526634216309e-01,9.015988707542419434e-01,9.037179946899414062e-01,9.051470756530761719e-01,9.054889082908630371e-01,9.051141738891601562e-01,9.053342342376708984e-01,9.053269624710083008e-01,9.053263664245605469e-01,9.053264260292053223e-01,9.053263664245605469e-01,9.053263664245605469e-01,9.053263664245605469e-01,9.053263664245605469e-01,9.053262472152709961e-01,9.053262472152709961e-01,9.053262472152709961e-01,9.053262472152709961e-01,9.053262472152709961e-01,9.053262472152709961e-01,9.053261280059814453e-01,9.053261280059814453e-01,9.053261280059814453e-01,9.053261280059814453e-01,9.053260684013366699e-01,9.053260684013366699e-01,9.053260684013366699e-01,9.053260684013366699e-01,9.053260684013366699e-01,9.053260684013366699e-01,9.053261280059814453e-01,9.053261280059814453e-01,9.053262472152709961e-01,9.053274393081665039e-01,9.053497314453125000e-01,9.053709506988525391e-01,9.051609039306640625e-01,9.045450091361999512e-01,9.034107923507690430e-01,9.016594290733337402e-01,8.990904092788696289e-01,8.949995040893554688e-01,8.887141942977905273e-01,8.802638649940490723e-01,8.709179162979125977e-01,8.579815626144409180e-01,8.294029235839843750e-01,8.084038496017456055e-01,8.008018136024475098e-01,7.748026251792907715e-01,7.221463918685913086e-01,6.161316037178039551e-01
5.885976552963256836e-01,6.141014099121093750e-01,6.566983461380004883e-01,6.574925184249877930e-01,6.810140609741210938e-01,7.052059769630432129e-01,7.423113584518432617e-01,7.630970478057861328e-01,7.831823825836181641e-01,7.977694272994995117e-01,8.083661794662475586e-01,8.060884475708007812e-01,8.078655004501342773e-01,8.004722595214843750e-01,7.682916522026062012e-01,7.274189591407775879e-01,7.173221111297607422e-01,7.001724243164062500e-01,7.043038606643676758e-01,7.053683996200561523e-01,7.196301221847534180e-01,7.433849573135375977e-01,7.798328995704650879e-01,8.326445817947387695e-01,8.535045981407165527e-01,8.658916354179382324e-01,8.810425996780395508e-01,8.935865163803100586e-01,8.982952237129211426e-01,9.038430452346801758e-01,9.056551456451416016e-01,9.046899080276489258e-01,9.054561257362365723e-01,9.051481485366821289e-01,9.053413867950439453e-01,9.053260684013366699e-01,9.053208827972412109e-01,9.053208827972412109e-01,9.053209424018859863e-01,9.053209424018859863e-01,9.053210020065307617e-01,9.053211212158203125e-01,9.053211212158203125e-01,9.053211212158203125e-01,9.053212404251098633e-01,9.053212404251098633e-01,9.053213596343994141e-01,9.053212404251098633e-01,9.053213596343994141e-01,9.053213596343994141e-01,9.053214192390441895e-01,9.053213596343994141e-01,9.053214192390441895e-01,9.053215980529785156e-01,9.053215980529785156e-01,9.053215980529785156e-01,9.053217172622680664e-01,9.053217172622680664e-01,9.053217768669128418e-01,9.053217768669128418e-01,9.053220748901367188e-01,9.053232073783874512e-01,9.053455591201782227e-01,9.053668975830078125e-01,9.051569700241088867e-01,9.045405387878417969e-01,9.034069180488586426e-01,9.016560912132263184e-01,8.990867137908935547e-01,8.949950933456420898e-01,8.887096643447875977e-01,8.802593350410461426e-01,8.709137439727783203e-01,8.579813241958618164e-01,8.294057250022888184e-01,8.084093928337097168e-01,8.008077740669250488e-01,7.748078107833862305e-01,7.221485972404479980e-01,6.161325573921203613e-01
5.885855555534362793e-01,6.140857338905334473e-01,6.566793918609619141e-01,6.574749350547790527e-01,6.809864640235900879e-01,7.051618695259094238e-01,7.417015433311462402e-01,7.636765241622924805e-01,7.834943532943725586e-01,7.982590198516845703e-01,8.109471797943115234e-01,8.130137920379638672e-01,8.172892332077026367e-01,8.108880519866943359e-01,7.842099666595458984e-01,7.570189833641052246e-01,7.269357442855834961e-01,7.192012071609497070e-01,7.105852365493774414e-01,7.146718502044677734e-01,7.358018755912780762e-01,7.550177574157714844e-01,7.962305545806884766e-01,8.369050025939941406e-01,8.588877320289611816e-01,8.779280185699462891e-01,8.865749835968017578e-01,8.953167200088500977e-01,9.000310897827148438e-01,9.026175737380981445e-01,9.057658910751342773e-01,9.055051803588867188e-01,9.056083559989929199e-01,9.052927494049072266e-01,9.053915143013000488e-01,9.053940773010253906e-01,9.053912758827209473e-01,9.053914546966552734e-01,9.053918123245239258e-01,9.053921103477478027e-01,9.053922891616821289e-01,9.053925871849060059e-01,9.053929448127746582e-01,9.053932428359985352e-01,9.053934216499328613e-01,9.053937196731567383e-01,9.053940176963806152e-01,9.053941965103149414e-01,9.053944945335388184e-01,9.053947329521179199e-01,9.053950309753417969e-01,9.053952693939208984e-01,9.053955078125000000e-01,9.053957462310791016e-01,9.053959846496582031e-01,9.053963422775268555e-01,9.053965806961059570e-01,9.053967595100402832e-01,9.053971171379089355e-01,9.053972959518432617e-01,9.053978919982910156e-01,9.053994417190551758e-01,9.054224491119384766e-01,9.054448008537292480e-01,9.052376747131347656e-01,9.046199321746826172e-01,9.034810066223144531e-01,9.017149209976196289e-01,8.991359472274780273e-01,8.950456380844116211e-01,8.887746334075927734e-01,8.803360462188720703e-01,8.710016012191772461e-01,8.580520749092102051e-01,8.294714689254760742e-01,8.084553480148315430e-01,8.008380532264709473e-01,7.748264074325561523e-01,7.221468687057495117e-01,6.161321997642517090e-01
5.885919928550720215e-01,6.140932440757751465e-01,6.566842198371887207e-01,6.574902534484863281e-01,6.810236573219299316e-01,7.052177190780639648e-01,7.416380643844604492e-01,7.642889022827148438e-01,7.850392460823059082e-01,8.016628623008728027e-01,8.117941617965698242e-01,8.224520683288574219e-01,8.220697045326232910e-01,8.204116821289062500e-01,8.088498711585998535e-01,7.822635173797607422e-01,7.442624568939208984e-01,7.350374460220336914e-01,7.377299070358276367e-01,7.381023168563842773e-01,7.514603137969970703e-01,7.729355096817016602e-01,8.119619488716125488e-01,8.389197587966918945e-01,8.592098951339721680e-01,8.808984160423278809e-01,8.893623352050781250e-01,8.963303565979003906e-01,9.019263982772827148e-01,9.030064344406127930e-01,9.052822589874267578e-01,9.057148694992065430e-01,9.053711295127868652e-01,9.055178165435791016e-01,9.054924845695495605e-01,9.054840803146362305e-01,9.054809808731079102e-01,9.054801464080810547e-01,9.054793715476989746e-01,9.054784774780273438e-01,9.054776430130004883e-01,9.054766297340393066e-01,9.054757952690124512e-01,9.054749011993408203e-01,9.054740667343139648e-01,9.054732322692871094e-01,9.054722189903259277e-01,9.054714441299438477e-01,9.054706096649169922e-01,9.054697751998901367e-01,9.054690003395080566e-01,9.054681062698364258e-01,9.054671525955200195e-01,9.054663181304931641e-01,9.054654240608215332e-01,9.054645299911499023e-01,9.054638147354125977e-01,9.054629802703857422e-01,9.054620265960693359e-01,9.054610729217529297e-01,9.054607152938842773e-01,9.054612517356872559e-01,9.054841995239257812e-01,9.055073857307434082e-01,9.053022861480712891e-01,9.046818017959594727e-01,9.035505056381225586e-01,9.017896652221679688e-01,8.992097377777099609e-01,8.951153755187988281e-01,8.888967037200927734e-01,8.804695606231689453e-01,8.711271286010742188e-01,8.582143187522888184e-01,8.297008275985717773e-01,8.087016940116882324e-01,8.010939955711364746e-01,7.750745415687561035e-01,7.224310040473937988e-01,6.165254116058349609e-01
5.887755751609802246e-01,6.142700910568237305e-01,6.569376587867736816e-01,6.577455997467041016e-01,6.812708377838134766e-01,7.053924202919006348e-01,7.416640520095825195e-01,7.639495134353637695e-01,7.846506834030151367e-01,8.018689751625061035e-01,8.145527839660644531e-01,8.292491436004638672e-01,8.272694349288940430e-01,8.257454633712768555e-01,8.204075098037719727e-01,8.018848896026611328e-01,7.707549333572387695e-01,7.641243934631347656e-01,7.560218572616577148e-01,7.454531192779541016e-01,7.507461309432983398e-01,7.773275971412658691e-01,8.205585479736328125e-01,8.415433764457702637e-01,8.632569313049316406e-01,8.834477066993713379e-01,8.900179862976074219e-01,8.966703414916992188e-01,9.022957086563110352e-01,9.029610157012939453e-01,9.040942192077636719e-01,9.048550128936767578e-01,9.046454429626464844e-01,9.046706557273864746e-01,9.046347141265869141e-01,9.046305418014526367e-01,9.046286344528198242e-01,9.046277999877929688e-01,9.046268463134765625e-01,9.046258926391601562e-01,9.046249985694885254e-01,9.046241044998168945e-01,9.046231508255004883e-01,9.046223759651184082e-01,9.046213626861572266e-01,9.046205282211303711e-01,9.046195745468139648e-01,9.046186208724975586e-01,9.046177864074707031e-01,9.046167731285095215e-01,9.046159982681274414e-01,9.046150445938110352e-01,9.046142101287841797e-01,9.046131372451782227e-01,9.046123027801513672e-01,9.046114683151245117e-01,9.046105146408081055e-01,9.046096205711364746e-01,9.046086668968200684e-01,9.046078920364379883e-01,9.046071767807006836e-01,9.046080112457275391e-01,9.046278595924377441e-01,9.046609997749328613e-01,9.044568538665771484e-01,9.038792252540588379e-01,9.027749896049499512e-01,9.010082483291625977e-01,8.984287977218627930e-01,8.943632841110229492e-01,8.880743980407714844e-01,8.796509504318237305e-01,8.703318834304809570e-01,8.574504852294921875e-01,8.288429975509643555e-01,8.078498840332031250e-01,8.004562258720397949e-01,7.742155790328979492e-01,7.216166257858276367e-01,6.159968376159667969e-01
5.891317725181579590e-01,6.141393184661865234e-01,6.566065549850463867e-01,6.570973396301269531e-01,6.803877949714660645e-01,7.042085528373718262e-01,7.403296828269958496e-01,7.617415189743041992e-01,7.830196022987365723e-01,8.002822399139404297e-01,8.169164061546325684e-01,8.281204700469970703e-01,8.310372233390808105e-01,8.289387822151184082e-01,8.278450369834899902e-01,8.225884437561035156e-01,7.917526960372924805e-01,7.792579531669616699e-01,7.661557793617248535e-01,7.609229087829589844e-01,7.562274932861328125e-01,7.841348052024841309e-01,8.303322792053222656e-01,8.447024822235107422e-01,8.631391525268554688e-01,8.826686143875122070e-01,8.903311491012573242e-01,8.969459533691406250e-01,9.018472433090209961e-01,9.030011892318725586e-01,9.035042524337768555e-01,9.036554098129272461e-01,9.036755561828613281e-01,9.037466645240783691e-01,9.037237763404846191e-01,9.037179946899414062e-01,9.037131071090698242e-01,9.037120342254638672e-01,9.037109613418579102e-01,9.037098288536071777e-01,9.037089943885803223e-01,9.037077426910400391e-01,9.037067294120788574e-01,9.037055969238281250e-01,9.037046432495117188e-01,9.037036299705505371e-01,9.037025570869445801e-01,9.037014245986938477e-01,9.037003517150878906e-01,9.036993980407714844e-01,9.036982655525207520e-01,9.036972522735595703e-01,9.036961793899536133e-01,9.036949872970581055e-01,9.036941528320312500e-01,9.036930203437805176e-01,9.036918878555297852e-01,9.036908149719238281e-01,9.036898612976074219e-01,9.036887288093566895e-01,9.036880135536193848e-01,9.036878943443298340e-01,9.037040472030639648e-01,9.037332534790039062e-01,9.035477638244628906e-01,9.029994606971740723e-01,9.019620418548583984e-01,9.002497792243957520e-01,8.977002501487731934e-01,8.936433196067810059e-01,8.874100446701049805e-01,8.790736794471740723e-01,8.698130846023559570e-01,8.568387031555175781e-01,8.282502889633178711e-01,8.071035742759704590e-01,7.996410131454467773e-01,7.733850479125976562e-01,7.204586863517761230e-01,6.144752502441406250e-01
5.883831381797790527e-01,6.124618053436279297e-01,6.548107266426086426e-01,6.552079319953918457e-01,6.780390739440917969e-01,7.014205455780029297e-01,7.374340891838073730e-01,7.587121725082397461e-01,7.802553176879882812e-01,7.983642816543579102e-01,8.161768913269042969e-01,8.270955681800842285e-01,8.372225761413574219e-01,8.373005986213684082e-01,8.352391719818115234e-01,8.259040117263793945e-01,8.148809075355529785e-01,7.915813922882080078e-01,7.686467170715332031e-01,7.787544727325439453e-01,7.716803550720214844e-01,7.946372628211975098e-01,8.213654160499572754e-01,8.502810001373291016e-01,8.630353212356567383e-01,8.813132047653198242e-01,8.894768953323364258e-01,8.963348865509033203e-01,9.004095196723937988e-01,9.014271497726440430e-01,9.018784165382385254e-01,9.019269943237304688e-01,9.019702076911926270e-01,9.019219279289245605e-01,9.019234180450439453e-01,9.019198417663574219e-01,9.019119739532470703e-01,9.019060730934143066e-01,9.019000530242919922e-01,9.018938541412353516e-01,9.018877744674682617e-01,9.018816947937011719e-01,9.018757343292236328e-01,9.018694162368774414e-01,9.018634557723999023e-01,9.018573760986328125e-01,9.018514156341552734e-01,9.018453359603881836e-01,9.018393158912658691e-01,9.018332958221435547e-01,9.018272161483764648e-01,9.018211364746093750e-01,9.018149375915527344e-01,9.018089771270751953e-01,9.018031358718872070e-01,9.017969369888305664e-01,9.017909169197082520e-01,9.017848968505859375e-01,9.017788171768188477e-01,9.017728567123413086e-01,9.017668962478637695e-01,9.017616510391235352e-01,9.017754793167114258e-01,9.018003344535827637e-01,9.016267657279968262e-01,9.011573791503906250e-01,9.001975059509277344e-01,8.985999226570129395e-01,8.961440324783325195e-01,8.921537399291992188e-01,8.860816955566406250e-01,8.775873184204101562e-01,8.682930469512939453e-01,8.554408550262451172e-01,8.269675970077514648e-01,8.060646057128906250e-01,7.985044717788696289e-01,7.719317078590393066e-01,7.191755175590515137e-01,6.127012968063354492e-01
5.864427089691162109e-01,6.097392439842224121e-01,6.518324017524719238e-01,6.519533395767211914e-01,6.745275259017944336e-01,6.973592042922973633e-01,7.328774929046630859e-01,7.534432411193847656e-01,7.737800478935241699e-01,7.926099300384521484e-01,8.083781599998474121e-01,8.207393288612365723e-01,8.324612975120544434e-01,8.340417146682739258e-01,8.315858840942382812e-01,8.319489955902099609e-01,8.347731828689575195e-01,7.993798255920410156e-01,7.760335206985473633e-01,7.706742882728576660e-01,7.691370844841003418e-01,7.852141857147216797e-01,8.185380697250366211e-01,8.395578861236572266e-01,8.540228605270385742e-01,8.747767806053161621e-01,8.821725845336914062e-01,8.896477818489074707e-01,8.939801454544067383e-01,8.952933549880981445e-01,8.955144882202148438e-01,8.954476118087768555e-01,8.954504728317260742e-01,8.954401016235351562e-01,8.954284191131591797e-01,8.954197764396667480e-01,8.954108953475952148e-01,8.954017162322998047e-01,8.953927159309387207e-01,8.953835964202880859e-01,8.953744173049926758e-01,8.953653573989868164e-01,8.953562974929809570e-01,8.953471183776855469e-01,8.953380584716796875e-01,8.953291177749633789e-01,8.953198194503784180e-01,8.953108787536621094e-01,8.953018188476562500e-01,8.952927589416503906e-01,8.952836990356445312e-01,8.952745795249938965e-01,8.952655196189880371e-01,8.952564001083374023e-01,8.952473402023315430e-01,8.952383995056152344e-01,8.952292203903198242e-01,8.952202200889587402e-01,8.952113389968872070e-01,8.952022194862365723e-01,8.951930403709411621e-01,8.951841592788696289e-01,8.951929807662963867e-01,8.952100276947021484e-01,8.950749635696411133e-01,8.946256041526794434e-01,8.938158750534057617e-01,8.923491239547729492e-01,8.900256156921386719e-01,8.861800432205200195e-01,8.802862167358398438e-01,8.720741271972656250e-01,8.626452684402465820e-01,8.496484160423278809e-01,8.213603496551513672e-01,8.010433912277221680e-01,7.939183712005615234e-01,7.675399780273437500e-01,7.151746749877929688e-01,6.077096462249755859e-01
5.825158357620239258e-01,6.038461327552795410e-01,6.454023122787475586e-01,6.447514295578002930e-01,6.661449074745178223e-01,6.881316900253295898e-01,7.228225469589233398e-01,7.429900169372558594e-01,7.623714208602905273e-01,7.806301116943359375e-01,7.964460849761962891e-01,8.115959167480468750e-01,8.228130936622619629e-01,8.277562856674194336e-01,8.212348818778991699e-01,8.224487900733947754e-01,8.274996280670166016e-01,8.060240745544433594e-01,7.721106410026550293e-01,7.593090534210205078e-01,7.620849609375000000e-01,7.766219377517700195e-01,8.109393119812011719e-01,8.318057060241699219e-01,8.441071510314941406e-01,8.625015020370483398e-01,8.723914623260498047e-01,8.796498775482177734e-01,8.839032053947448730e-01,8.842918872833251953e-01,8.846563100814819336e-01,8.845891952514648438e-01,8.845649361610412598e-01,8.845394849777221680e-01,8.845188617706298828e-01,8.844993710517883301e-01,8.844794034957885742e-01,8.844593763351440430e-01,8.844391107559204102e-01,8.844189643859863281e-01,8.843988180160522461e-01,8.843785524368286133e-01,8.843584060668945312e-01,8.843382596969604492e-01,8.843179941177368164e-01,8.842978477478027344e-01,8.842776417732238770e-01,8.842576742172241211e-01,8.842374086380004883e-01,8.842172622680664062e-01,8.841971158981323242e-01,8.841769695281982422e-01,8.841570019721984863e-01,8.841366767883300781e-01,8.841166496276855469e-01,8.840966224670410156e-01,8.840764164924621582e-01,8.840563297271728516e-01,8.840363025665283203e-01,8.840160369873046875e-01,8.839957714080810547e-01,8.839756250381469727e-01,8.839864134788513184e-01,8.840317130088806152e-01,8.839048147201538086e-01,8.835551738739013672e-01,8.828723430633544922e-01,8.814051151275634766e-01,8.790528774261474609e-01,8.753623962402343750e-01,8.695310354232788086e-01,8.616470098495483398e-01,8.525959253311157227e-01,8.395729660987854004e-01,8.107914328575134277e-01,7.916819453239440918e-01,7.853890061378479004e-01,7.605805397033691406e-01,7.071949839591979980e-01,6.017391681671142578e-01
5.753538012504577637e-01,5.940103530883789062e-01,6.344952583312988281e-01,6.317610740661621094e-01,6.511566638946533203e-01,6.719059348106384277e-01,7.056973576545715332e-01,7.249566316604614258e-01,7.435504198074340820e-01,7.600362300872802734e-01,7.763389348983764648e-01,7.905113697052001953e-01,8.031426668167114258e-01,8.112807869911193848e-01,8.057572841644287109e-01,8.043389320373535156e-01,8.039186000823974609e-01,7.893998622894287109e-01,7.521966695785522461e-01,7.454327344894409180e-01,7.396953105926513672e-01,7.619298696517944336e-01,7.905290126800537109e-01,8.072018623352050781e-01,8.176441788673400879e-01,8.372093439102172852e-01,8.493259549140930176e-01,8.571923375129699707e-01,8.604375123977661133e-01,8.608816862106323242e-01,8.611113429069519043e-01,8.610351681709289551e-01,8.609903454780578613e-01,8.609510660171508789e-01,8.609156012535095215e-01,8.608784079551696777e-01,8.608410954475402832e-01,8.608043789863586426e-01,8.607673645019531250e-01,8.607303500175476074e-01,8.606934547424316406e-01,8.606564998626708984e-01,8.606196641921997070e-01,8.605824708938598633e-01,8.605456948280334473e-01,8.605087995529174805e-01,8.604718446731567383e-01,8.604350090026855469e-01,8.603981137275695801e-01,8.603610992431640625e-01,8.603243827819824219e-01,8.602875471115112305e-01,8.602507114410400391e-01,8.602137565612792969e-01,8.601768016815185547e-01,8.601399660110473633e-01,8.601033687591552734e-01,8.600663542747497559e-01,8.600296974182128906e-01,8.599926829338073730e-01,8.599555492401123047e-01,8.599177598953247070e-01,8.599227666854858398e-01,8.599562644958496094e-01,8.598055839538574219e-01,8.595383167266845703e-01,8.591361045837402344e-01,8.579523563385009766e-01,8.558989763259887695e-01,8.521353602409362793e-01,8.465135693550109863e-01,8.387205004692077637e-01,8.300019502639770508e-01,8.169912099838256836e-01,7.877340316772460938e-01,7.700052261352539062e-01,7.670584917068481445e-01,7.439036369323730469e-01,6.925597190856933594e-01,5.922742486000061035e-01
5.643643140792846680e-01,5.785940885543823242e-01,6.173120737075805664e-01,6.113181710243225098e-01,6.277614831924438477e-01,6.467707157135009766e-01,6.786937713623046875e-01,6.960269808769226074e-01,7.120259404182434082e-01,7.262473106384277344e-01,7.410385012626647949e-01,7.552419900894165039e-01,7.645696997642517090e-01,7.706797122955322266e-01,7.707865834236145020e-01,7.650316357612609863e-01,7.636216282844543457e-01,7.447772026062011719e-01,7.231658697128295898e-01,7.072973847389221191e-01,7.144332528114318848e-01,7.183379530906677246e-01,7.435244321823120117e-01,7.646231651306152344e-01,7.804491519927978516e-01,7.957982420921325684e-01,8.109587430953979492e-01,8.168837428092956543e-01,8.180793523788452148e-01,8.182832002639770508e-01,8.185847997665405273e-01,8.184963464736938477e-01,8.184256553649902344e-01,8.183667659759521484e-01,8.183077573776245117e-01,8.182489871978759766e-01,8.181900978088378906e-01,8.181314468383789062e-01,8.180726766586303711e-01,8.180138468742370605e-01,8.179548978805541992e-01,8.178960084915161133e-01,8.178372383117675781e-01,8.177784085273742676e-01,8.177198171615600586e-01,8.176610469818115234e-01,8.176021575927734375e-01,8.175435066223144531e-01,8.174847960472106934e-01,8.174260854721069336e-01,8.173673748970031738e-01,8.173086643218994141e-01,8.172500729560852051e-01,8.171911835670471191e-01,8.171325922012329102e-01,8.170738220214843750e-01,8.170152902603149414e-01,8.169568777084350586e-01,8.168979287147521973e-01,8.168393373489379883e-01,8.167808055877685547e-01,8.167209029197692871e-01,8.167133927345275879e-01,8.166856765747070312e-01,8.164914846420288086e-01,8.160849809646606445e-01,8.156282901763916016e-01,8.143171072006225586e-01,8.124488592147827148e-01,8.095015287399291992e-01,8.042807579040527344e-01,7.970226407051086426e-01,7.894173264503479004e-01,7.773815393447875977e-01,7.479104399681091309e-01,7.329916954040527344e-01,7.344177961349487305e-01,7.134204506874084473e-01,6.685311794281005859e-01,5.795617699623107910e-01
5.498227477073669434e-01,5.540967583656311035e-01,5.890173316001892090e-01,5.790054798126220703e-01,5.922104120254516602e-01,6.085194945335388184e-01,6.381330490112304688e-01,6.527062654495239258e-01,6.665570735931396484e-01,6.784718632698059082e-01,6.907722353935241699e-01,7.018560767173767090e-01,7.099977135658264160e-01,7.136518359184265137e-01,7.175943851470947266e-01,7.108847498893737793e-01,7.063914537429809570e-01,6.948927640914916992e-01,6.644898653030395508e-01,6.564259529113769531e-01,6.595428586006164551e-01,6.703496575355529785e-01,6.870191097259521484e-01,7.065911889076232910e-01,7.214906215667724609e-01,7.369447946548461914e-01,7.478345632553100586e-01,7.502841353416442871e-01,7.519720196723937988e-01,7.514456510543823242e-01,7.518677711486816406e-01,7.517467737197875977e-01,7.516518831253051758e-01,7.515695691108703613e-01,7.514873743057250977e-01,7.514048814773559570e-01,7.513227462768554688e-01,7.512404322624206543e-01,7.511582970619201660e-01,7.510759830474853516e-01,7.509937882423400879e-01,7.509114146232604980e-01,7.508291006088256836e-01,7.507471442222595215e-01,7.506647109985351562e-01,7.505828142166137695e-01,7.505006790161132812e-01,7.504185438156127930e-01,7.503361701965332031e-01,7.502539753913879395e-01,7.501720190048217773e-01,7.500897645950317383e-01,7.500078082084655762e-01,7.499254941940307617e-01,7.498435378074645996e-01,7.497615814208984375e-01,7.496795058250427246e-01,7.495972514152526855e-01,7.495152950286865234e-01,7.494333386421203613e-01,7.493505477905273438e-01,7.492646574974060059e-01,7.492401599884033203e-01,7.491620182991027832e-01,7.490084171295166016e-01,7.487270236015319824e-01,7.482126951217651367e-01,7.468246817588806152e-01,7.445605993270874023e-01,7.411958575248718262e-01,7.365018129348754883e-01,7.301465272903442383e-01,7.241526842117309570e-01,7.128850221633911133e-01,6.834454536437988281e-01,6.727133393287658691e-01,6.816129088401794434e-01,6.628447771072387695e-01,6.335935592651367188e-01,5.563712120056152344e-01
5.325769782066345215e-01,5.238134860992431641e-01,5.546572804450988770e-01,5.387627482414245605e-01,5.466549396514892578e-01,5.595091581344604492e-01,5.837371945381164551e-01,5.949126482009887695e-01,6.053526997566223145e-01,6.135655641555786133e-01,6.226038932800292969e-01,6.285002231597900391e-01,6.338905096054077148e-01,6.358329653739929199e-01,6.415249705314636230e-01,6.275169253349304199e-01,6.232699751853942871e-01,6.128079295158386230e-01,5.942073464393615723e-01,5.923559665679931641e-01,5.876420736312866211e-01,6.119339466094970703e-01,6.176529526710510254e-01,6.304431557655334473e-01,6.401349306106567383e-01,6.533795595169067383e-01,6.605420112609863281e-01,6.617364883422851562e-01,6.627171039581298828e-01,6.620498895645141602e-01,6.622473001480102539e-01,6.621145009994506836e-01,6.620162725448608398e-01,6.619287133216857910e-01,6.618413329124450684e-01,6.617538928985595703e-01,6.616663932800292969e-01,6.615791320800781250e-01,6.614915132522583008e-01,6.614042520523071289e-01,6.613168120384216309e-01,6.612294912338256836e-01,6.611421704292297363e-01,6.610547304153442383e-01,6.609674692153930664e-01,6.608802676200866699e-01,6.607929468154907227e-01,6.607058048248291016e-01,6.606184244155883789e-01,6.605310440063476562e-01,6.604440212249755859e-01,6.603569388389587402e-01,6.602696180343627930e-01,6.601826548576354980e-01,6.600952744483947754e-01,6.600083112716674805e-01,6.599212288856506348e-01,6.598342061042785645e-01,6.597470045089721680e-01,6.596600413322448730e-01,6.595721840858459473e-01,6.594797968864440918e-01,6.594144105911254883e-01,6.593537926673889160e-01,6.591425538063049316e-01,6.589328646659851074e-01,6.586124897003173828e-01,6.574545502662658691e-01,6.554570794105529785e-01,6.522758007049560547e-01,6.490564942359924316e-01,6.442289948463439941e-01,6.403620243072509766e-01,6.306708455085754395e-01,6.031972765922546387e-01,5.958253741264343262e-01,6.114335656166076660e-01,5.966817140579223633e-01,5.878775715827941895e-01,5.268074870109558105e-01
5.115939974784851074e-01,4.894107282161712646e-01,5.142257213592529297e-01,4.909758269786834717e-01,4.925569295883178711e-01,5.011379122734069824e-01,5.197416543960571289e-01,5.276904106140136719e-01,5.348164439201354980e-01,5.396645069122314453e-01,5.452729463577270508e-01,5.488367080688476562e-01,5.520147085189819336e-01,5.563739538192749023e-01,5.601449608802795410e-01,5.470833182334899902e-01,5.446322560310363770e-01,5.272380113601684570e-01,5.279491543769836426e-01,5.200951099395751953e-01,5.276165008544921875e-01,5.373248457908630371e-01,5.426596999168395996e-01,5.502238869667053223e-01,5.564320087432861328e-01,5.660514831542968750e-01,5.679062008857727051e-01,5.712763071060180664e-01,5.693627595901489258e-01,5.701840519905090332e-01,5.699132680892944336e-01,5.698099732398986816e-01,5.697115659713745117e-01,5.696249008178710938e-01,5.695379972457885742e-01,5.694512724876403809e-01,5.693644285202026367e-01,5.692776441574096680e-01,5.691909790039062500e-01,5.691043138504028320e-01,5.690175294876098633e-01,5.689307451248168945e-01,5.688441395759582520e-01,5.687575936317443848e-01,5.686708688735961914e-01,5.685843825340270996e-01,5.684978365898132324e-01,5.684113502502441406e-01,5.683247447013854980e-01,5.682383179664611816e-01,5.681517720222473145e-01,5.680654048919677734e-01,5.679788589477539062e-01,5.678924918174743652e-01,5.678061246871948242e-01,5.677199959754943848e-01,5.676336884498596191e-01,5.675472021102905273e-01,5.674609541893005371e-01,5.673746466636657715e-01,5.672880411148071289e-01,5.671954751014709473e-01,5.671099424362182617e-01,5.670694708824157715e-01,5.670378208160400391e-01,5.669617652893066406e-01,5.667223334312438965e-01,5.661804676055908203e-01,5.646702051162719727e-01,5.622394084930419922e-01,5.591779947280883789e-01,5.555630922317504883e-01,5.536210536956787109e-01,5.454439520835876465e-01,5.213842988014221191e-01,5.172753930091857910e-01,5.383003950119018555e-01,5.279760360717773438e-01,5.396123528480529785e-01,4.964720010757446289e-01
4.905914962291717529e-01,4.557214379310607910e-01,4.713537991046905518e-01,4.409349858760833740e-01,4.362693130970001221e-01,4.406268596649169922e-01,4.540499448776245117e-01,4.581338763236999512e-01,4.624391794204711914e-01,4.647435545921325684e-01,4.672826230525970459e-01,4.694360196590423584e-01,4.717997908592224121e-01,4.753767549991607666e-01,4.754527211189270020e-01,4.698929190635681152e-01,4.638070166110992432e-01,4.562378823757171631e-01,4.600934982299804688e-01,4.528509378433227539e-01,4.587566554546356201e-01,4.637176990509033203e-01,4.649284780025482178e-01,4.702655076980590820e-01,4.749117493629455566e-01,4.816611111164093018e-01,4.797513782978057861e-01,4.824198484420776367e-01,4.822752475738525391e-01,4.822955727577209473e-01,4.819867014884948730e-01,4.819006621837615967e-01,4.818259775638580322e-01,4.817530810832977295e-01,4.816802442073822021e-01,4.816074371337890625e-01,4.815346598625183105e-01,4.814620018005371094e-01,4.813891947269439697e-01,4.813164174556732178e-01,4.812434613704681396e-01,4.811708927154541016e-01,4.810981750488281250e-01,4.810255169868469238e-01,4.809530675411224365e-01,4.808803498744964600e-01,4.808079302310943604e-01,4.807353317737579346e-01,4.806627333164215088e-01,4.805901646614074707e-01,4.805177450180053711e-01,4.804451763629913330e-01,4.803729355335235596e-01,4.803003966808319092e-01,4.802279174327850342e-01,4.801555573940277100e-01,4.800831675529479980e-01,4.800109565258026123e-01,4.799387156963348389e-01,4.798664450645446777e-01,4.797937572002410889e-01,4.797178804874420166e-01,4.796350598335266113e-01,4.795700907707214355e-01,4.795565605163574219e-01,4.795638620853424072e-01,4.794867336750030518e-01,4.793969392776489258e-01,4.788261651992797852e-01,4.777994155883789062e-01,4.768775701522827148e-01,4.753155708312988281e-01,4.752857983112335205e-01,4.694375693798065186e-01,4.494406580924987793e-01,4.482010900974273682e-01,4.717479348182678223e-01,4.687450826168060303e-01,4.949507415294647217e-01,4.690744280815124512e-01
4.694150686264038086e-01,4.224245846271514893e-01,4.285553693771362305e-01,3.950773477554321289e-01,3.841124773025512695e-01,3.856774568557739258e-01,3.960918188095092773e-01,3.990317881107330322e-01,4.020473361015319824e-01,4.032166004180908203e-01,4.044254422187805176e-01,4.055461883544921875e-01,4.073963463306427002e-01,4.091857075691223145e-01,4.076875448226928711e-01,4.056620895862579346e-01,4.009441733360290527e-01,3.965818285942077637e-01,3.980157971382141113e-01,3.975664377212524414e-01,3.964295983314514160e-01,3.997561931610107422e-01,4.019719660282135010e-01,4.038123488426208496e-01,4.085028767585754395e-01,4.087822735309600830e-01,4.107254147529602051e-01,4.097240269184112549e-01,4.099160432815551758e-01,4.098877906799316406e-01,4.097283482551574707e-01,4.096553921699523926e-01,4.095901250839233398e-01,4.095324277877807617e-01,4.094747304916381836e-01,4.094168841838836670e-01,4.093593955039978027e-01,4.093017280101776123e-01,4.092441499233245850e-01,4.091865122318267822e-01,4.091289639472961426e-01,4.090714752674102783e-01,4.090138971805572510e-01,4.089561402797698975e-01,4.088988304138183594e-01,4.088414311408996582e-01,4.087839126586914062e-01,4.087264835834503174e-01,4.086690843105316162e-01,4.086116552352905273e-01,4.085541963577270508e-01,4.084970355033874512e-01,4.084393978118896484e-01,4.083823263645172119e-01,4.083249270915985107e-01,4.082678258419036865e-01,4.082103669643402100e-01,4.081531763076782227e-01,4.080958962440490723e-01,4.080389142036437988e-01,4.079823493957519531e-01,4.079247415065765381e-01,4.078701436519622803e-01,4.078201651573181152e-01,4.077894389629364014e-01,4.077702760696411133e-01,4.077906012535095215e-01,4.076966345310211182e-01,4.073159694671630859e-01,4.064817428588867188e-01,4.056406319141387939e-01,4.045546054840087891e-01,4.052064716815948486e-01,4.015108048915863037e-01,3.856446146965026855e-01,3.876551985740661621e-01,4.134758114814758301e-01,4.176960587501525879e-01,4.560025334358215332e-01,4.460472166538238525e-01
4.513955116271972656e-01,3.938260078430175781e-01,3.929891586303710938e-01,3.572994172573089600e-01,3.413661122322082520e-01,3.406571745872497559e-01,3.481034338474273682e-01,3.498244881629943848e-01,3.515223264694213867e-01,3.519201576709747314e-01,3.523937463760375977e-01,3.529503047466278076e-01,3.539240360260009766e-01,3.538272976875305176e-01,3.539043664932250977e-01,3.532693982124328613e-01,3.502209484577178955e-01,3.486983776092529297e-01,3.499559164047241211e-01,3.457828760147094727e-01,3.497799634933471680e-01,3.493685722351074219e-01,3.518745303153991699e-01,3.528415560722351074e-01,3.534376621246337891e-01,3.525054454803466797e-01,3.538615703582763672e-01,3.537459969520568848e-01,3.538977503776550293e-01,3.535203337669372559e-01,3.535065948963165283e-01,3.534648716449737549e-01,3.534210622310638428e-01,3.533798456192016602e-01,3.533386886119842529e-01,3.532975912094116211e-01,3.532565236091613770e-01,3.532153964042663574e-01,3.531742691993713379e-01,3.531332015991210938e-01,3.530921339988708496e-01,3.530509471893310547e-01,3.530098795890808105e-01,3.529691398143768311e-01,3.529281318187713623e-01,3.528870940208435059e-01,3.528461158275604248e-01,3.528051972389221191e-01,3.527642488479614258e-01,3.527231812477111816e-01,3.526822924613952637e-01,3.526412844657897949e-01,3.526004552841186523e-01,3.525595963001251221e-01,3.525187373161315918e-01,3.524778485298156738e-01,3.524370789527893066e-01,3.523962497711181641e-01,3.523554801940917969e-01,3.523146510124206543e-01,3.522742390632629395e-01,3.522336483001708984e-01,3.521906137466430664e-01,3.521618545055389404e-01,3.521233201026916504e-01,3.520679771900177002e-01,3.520720601081848145e-01,3.521165549755096436e-01,3.520659208297729492e-01,3.519884943962097168e-01,3.517290353775024414e-01,3.512732386589050293e-01,3.521091938018798828e-01,3.494800925254821777e-01,3.362931609153747559e-01,3.391621112823486328e-01,3.653137683868408203e-01,3.756778836250305176e-01,4.224380552768707275e-01,4.258157610893249512e-01
4.349673986434936523e-01,3.689441978931427002e-01,3.612747192382812500e-01,3.251654505729675293e-01,3.061298727989196777e-01,3.047563135623931885e-01,3.108618259429931641e-01,3.122474551200866699e-01,3.134106397628784180e-01,3.134223520755767822e-01,3.133874833583831787e-01,3.134991824626922607e-01,3.136545419692993164e-01,3.133155107498168945e-01,3.136799037456512451e-01,3.134172558784484863e-01,3.123962283134460449e-01,3.112771511077880859e-01,3.108667135238647461e-01,3.109671473503112793e-01,3.128730058670043945e-01,3.124549984931945801e-01,3.134567141532897949e-01,3.132386803627014160e-01,3.129380941390991211e-01,3.133481740951538086e-01,3.134224712848663330e-01,3.133055567741394043e-01,3.132318258285522461e-01,3.132042288780212402e-01,3.131346702575683594e-01,3.131080269813537598e-01,3.130790591239929199e-01,3.130490183830261230e-01,3.130193352699279785e-01,3.129893541336059570e-01,3.129596114158630371e-01,3.129296004772186279e-01,3.129000663757324219e-01,3.128699660301208496e-01,3.128403127193450928e-01,3.128101825714111328e-01,3.127805292606353760e-01,3.127508163452148438e-01,3.127210140228271484e-01,3.126912713050842285e-01,3.126615285873413086e-01,3.126316666603088379e-01,3.126018643379211426e-01,3.125721216201782227e-01,3.125427365303039551e-01,3.125128149986267090e-01,3.124830722808837891e-01,3.124533891677856445e-01,3.124237060546875000e-01,3.123939335346221924e-01,3.123642504215240479e-01,3.123347163200378418e-01,3.123049437999725342e-01,3.122754096984863281e-01,3.122459948062896729e-01,3.122163414955139160e-01,3.121872544288635254e-01,3.121553659439086914e-01,3.121247887611389160e-01,3.120950162410736084e-01,3.120545148849487305e-01,3.120029568672180176e-01,3.119783401489257812e-01,3.118615746498107910e-01,3.117257356643676758e-01,3.115075230598449707e-01,3.122501671314239502e-01,3.104227483272552490e-01,2.992313504219055176e-01,3.025896549224853516e-01,3.288214206695556641e-01,3.441900014877319336e-01,3.968265056610107422e-01,4.101019501686096191e-01
4.212120473384857178e-01,3.491290211677551270e-01,3.364076614379882812e-01,2.999933362007141113e-01,2.791699767112731934e-01,2.769937515258789062e-01,2.819463610649108887e-01,2.831121683120727539e-01,2.839978337287902832e-01,2.838878333568572998e-01,2.838504910469055176e-01,2.838974595069885254e-01,2.837221324443817139e-01,2.836091518402099609e-01,2.839626967906951904e-01,2.837640345096588135e-01,2.837809324264526367e-01,2.831498980522155762e-01,2.825167775154113770e-01,2.828034162521362305e-01,2.836732864379882812e-01,2.831631898880004883e-01,2.837048768997192383e-01,2.834782004356384277e-01,2.836579084396362305e-01,2.836327552795410156e-01,2.834695875644683838e-01,2.834770679473876953e-01,2.834327816963195801e-01,2.834044992923736572e-01,2.833845019340515137e-01,2.833618521690368652e-01,2.833406925201416016e-01,2.833190560340881348e-01,2.832975387573242188e-01,2.832759618759155273e-01,2.832539975643157959e-01,2.832325994968414307e-01,2.832107543945312500e-01,2.831892669200897217e-01,2.831676602363586426e-01,2.831460833549499512e-01,2.831245064735412598e-01,2.831027507781982422e-01,2.830811142921447754e-01,2.830594778060913086e-01,2.830379009246826172e-01,2.830162048339843750e-01,2.829947173595428467e-01,2.829732298851013184e-01,2.829515039920806885e-01,2.829300165176391602e-01,2.829084992408752441e-01,2.828868031501770020e-01,2.828654646873474121e-01,2.828438878059387207e-01,2.828223705291748047e-01,2.828007340431213379e-01,2.827793061733245850e-01,2.827577590942382812e-01,2.827363610267639160e-01,2.827150821685791016e-01,2.826933264732360840e-01,2.826725840568542480e-01,2.826509773731231689e-01,2.826259136199951172e-01,2.826026678085327148e-01,2.825933694839477539e-01,2.825841903686523438e-01,2.825831770896911621e-01,2.825641930103302002e-01,2.824553251266479492e-01,2.830958664417266846e-01,2.817851901054382324e-01,2.718614935874938965e-01,2.751368582248687744e-01,3.007400631904602051e-01,3.195626735687255859e-01,3.762979209423065186e-01,3.975788354873657227e-01
4.091753959655761719e-01,3.324906527996063232e-01,3.159781098365783691e-01,2.799492180347442627e-01,2.584225833415985107e-01,2.558317184448242188e-01,2.600256800651550293e-01,2.610185742378234863e-01,2.617935538291931152e-01,2.617082893848419189e-01,2.616655230522155762e-01,2.616293728351593018e-01,2.616111636161804199e-01,2.616256177425384521e-01,2.615810632705688477e-01,2.615958154201507568e-01,2.617318630218505859e-01,2.612146735191345215e-01,2.613688409328460693e-01,2.613486945629119873e-01,2.613970935344696045e-01,2.615411281585693359e-01,2.615765929222106934e-01,2.613236904144287109e-01,2.614418864250183105e-01,2.614584267139434814e-01,2.614226341247558594e-01,2.613848447799682617e-01,2.613639235496520996e-01,2.613373398780822754e-01,2.613294720649719238e-01,2.613122761249542236e-01,2.612953186035156250e-01,2.612788677215576172e-01,2.612623572349548340e-01,2.612459063529968262e-01,2.612293362617492676e-01,2.612131834030151367e-01,2.611964941024780273e-01,2.611800432205200195e-01,2.611635625362396240e-01,2.611472606658935547e-01,2.611308991909027100e-01,2.611143589019775391e-01,2.610977888107299805e-01,2.610814273357391357e-01,2.610648274421691895e-01,2.610484957695007324e-01,2.610320448875427246e-01,2.610156536102294922e-01,2.609992325305938721e-01,2.609828710556030273e-01,2.609664201736450195e-01,2.609499096870422363e-01,2.609337270259857178e-01,2.609171867370605469e-01,2.609007656574249268e-01,2.608844041824340820e-01,2.608681917190551758e-01,2.608516216278076172e-01,2.608350515365600586e-01,2.608187198638916016e-01,2.608027458190917969e-01,2.607858479022979736e-01,2.607695162296295166e-01,2.607527971267700195e-01,2.607351541519165039e-01,2.607198357582092285e-01,2.607048749923706055e-01,2.606893181800842285e-01,2.606737017631530762e-01,2.605955004692077637e-01,2.611138820648193359e-01,2.600681185722351074e-01,2.511702775955200195e-01,2.544487416744232178e-01,2.794598340988159180e-01,3.009951114654541016e-01,3.605838418006896973e-01,3.876328766345977783e-01
3.991093635559082031e-01,3.188908696174621582e-01,2.997263073921203613e-01,2.643871307373046875e-01,2.423039376735687256e-01,2.394163310527801514e-01,2.430767118930816650e-01,2.439671754837036133e-01,2.446591556072235107e-01,2.445957958698272705e-01,2.445616424083709717e-01,2.445484101772308350e-01,2.445287108421325684e-01,2.445052266120910645e-01,2.445005178451538086e-01,2.445445358753204346e-01,2.444957792758941650e-01,2.444912791252136230e-01,2.444135546684265137e-01,2.443913817405700684e-01,2.444238066673278809e-01,2.444275617599487305e-01,2.443866431713104248e-01,2.443939447402954102e-01,2.444007396697998047e-01,2.443707883358001709e-01,2.443365752696990967e-01,2.443341314792633057e-01,2.443208992481231689e-01,2.443072199821472168e-01,2.442947626113891602e-01,2.442818284034729004e-01,2.442689239978790283e-01,2.442559301853179932e-01,2.442432343959808350e-01,2.442303299903869629e-01,2.442174255847930908e-01,2.442042529582977295e-01,2.441914975643157959e-01,2.441786527633666992e-01,2.441658675670623779e-01,2.441527545452117920e-01,2.441397905349731445e-01,2.441272139549255371e-01,2.441143095493316650e-01,2.441013455390930176e-01,2.440885603427886963e-01,2.440756261348724365e-01,2.440626919269561768e-01,2.440499067306518555e-01,2.440369427204132080e-01,2.440241873264312744e-01,2.440114915370941162e-01,2.439983785152435303e-01,2.439856529235839844e-01,2.439727783203125000e-01,2.439598441123962402e-01,2.439470291137695312e-01,2.439342439174652100e-01,2.439213991165161133e-01,2.439086139202117920e-01,2.438957691192626953e-01,2.438829839229583740e-01,2.438700497150421143e-01,2.438570857048034668e-01,2.438438534736633301e-01,2.438308596611022949e-01,2.438173294067382812e-01,2.438043057918548584e-01,2.437913417816162109e-01,2.437783777713775635e-01,2.437144815921783447e-01,2.441388070583343506e-01,2.433032989501953125e-01,2.352244853973388672e-01,2.385360300540924072e-01,2.629333138465881348e-01,2.863672971725463867e-01,3.479803204536437988e-01,3.796820640563964844e-01
3.908083140850067139e-01,3.077775239944458008e-01,2.866266369819641113e-01,2.519671320915222168e-01,2.295312583446502686e-01,2.264041006565093994e-01,2.296700477600097656e-01,2.304598391056060791e-01,2.310815453529357910e-01,2.310271859169006348e-01,2.310000956058502197e-01,2.309874594211578369e-01,2.309778034687042236e-01,2.309664487838745117e-01,2.309538125991821289e-01,2.309526205062866211e-01,2.309418916702270508e-01,2.309290170669555664e-01,2.309144735336303711e-01,2.309139668941497803e-01,2.309017181396484375e-01,2.308845520019531250e-01,2.308707535266876221e-01,2.308693230152130127e-01,2.308588027954101562e-01,2.308459579944610596e-01,2.308295667171478271e-01,2.308227419853210449e-01,2.308116257190704346e-01,2.308028340339660645e-01,2.307921946048736572e-01,2.307817637920379639e-01,2.307714819908142090e-01,2.307611703872680664e-01,2.307506501674652100e-01,2.307401895523071289e-01,2.307298481464385986e-01,2.307195067405700684e-01,2.307092249393463135e-01,2.306990623474121094e-01,2.306884825229644775e-01,2.306780815124511719e-01,2.306678295135498047e-01,2.306573688983917236e-01,2.306469976902008057e-01,2.306368947029113770e-01,2.306264042854309082e-01,2.306160032749176025e-01,2.306058108806610107e-01,2.305954098701477051e-01,2.305851280689239502e-01,2.305746972560882568e-01,2.305643856525421143e-01,2.305541038513183594e-01,2.305436432361602783e-01,2.305332720279693604e-01,2.305230498313903809e-01,2.305126786231994629e-01,2.305023968219757080e-01,2.304921448230743408e-01,2.304815948009490967e-01,2.304714918136596680e-01,2.304611802101135254e-01,2.304509878158569336e-01,2.304405570030212402e-01,2.304300963878631592e-01,2.304199337959289551e-01,2.304096519947052002e-01,2.303993701934814453e-01,2.303888201713562012e-01,2.303783595561981201e-01,2.303247749805450439e-01,2.306807339191436768e-01,2.300045192241668701e-01,2.225897908210754395e-01,2.259127199649810791e-01,2.498078346252441406e-01,2.745913863182067871e-01,3.377270698547363281e-01,3.731982111930847168e-01
3.838096857070922852e-01,2.985768318176269531e-01,2.758282423019409180e-01,2.418440282344818115e-01,2.191887795925140381e-01,2.158561944961547852e-01,2.188116610050201416e-01,2.195131480693817139e-01,2.200794517993927002e-01,2.200317680835723877e-01,2.200087308883666992e-01,2.200002372264862061e-01,2.199913561344146729e-01,2.199827432632446289e-01,2.199743688106536865e-01,2.199656069278717041e-01,2.199589312076568604e-01,2.199492752552032471e-01,2.199400961399078369e-01,2.199343144893646240e-01,2.199260890483856201e-01,2.199155986309051514e-01,2.199061810970306396e-01,2.198987901210784912e-01,2.198908329010009766e-01,2.198812961578369141e-01,2.198726832866668701e-01,2.198636829853057861e-01,2.198549509048461914e-01,2.198472619056701660e-01,2.198386490345001221e-01,2.198301553726196289e-01,2.198216319084167480e-01,2.198130786418914795e-01,2.198044061660766602e-01,2.197960019111633301e-01,2.197877168655395508e-01,2.197789847850799561e-01,2.197707295417785645e-01,2.197621464729309082e-01,2.197536230087280273e-01,2.197451293468475342e-01,2.197367548942565918e-01,2.197283506393432617e-01,2.197197675704956055e-01,2.197113633155822754e-01,2.197026908397674561e-01,2.196941971778869629e-01,2.196857631206512451e-01,2.196773588657379150e-01,2.196687459945678711e-01,2.196601927280426025e-01,2.196520268917083740e-01,2.196436226367950439e-01,2.196350395679473877e-01,2.196266055107116699e-01,2.196182012557983398e-01,2.196097075939178467e-01,2.196013033390045166e-01,2.195928096771240234e-01,2.195841073989868164e-01,2.195759117603302002e-01,2.195670902729034424e-01,2.195587754249572754e-01,2.195502221584320068e-01,2.195419669151306152e-01,2.195335626602172852e-01,2.195251286029815674e-01,2.195165753364562988e-01,2.195084095001220703e-01,2.194990813732147217e-01,2.194541692733764648e-01,2.197594046592712402e-01,2.192102670669555664e-01,2.123414278030395508e-01,2.156703472137451172e-01,2.391541004180908203e-01,2.649243474006652832e-01,3.292267322540283203e-01,3.678061366081237793e-01
3.778364658355712891e-01,2.908429503440856934e-01,2.668058872222900391e-01,2.334575653076171875e-01,2.106573283672332764e-01,2.071473896503448486e-01,2.098510861396789551e-01,2.104747891426086426e-01,2.109920978546142578e-01,2.109504342079162598e-01,2.109304070472717285e-01,2.109233438968658447e-01,2.109163403511047363e-01,2.109092473983764648e-01,2.109019458293914795e-01,2.108949422836303711e-01,2.108878493309020996e-01,2.108807563781738281e-01,2.108735740184783936e-01,2.108665704727172852e-01,2.108593583106994629e-01,2.108522951602935791e-01,2.108450233936309814e-01,2.108381092548370361e-01,2.108310759067535400e-01,2.108238339424133301e-01,2.108168303966522217e-01,2.108097076416015625e-01,2.108025550842285156e-01,2.107954919338226318e-01,2.107886075973510742e-01,2.107815146446228027e-01,2.107743322849273682e-01,2.107671201229095459e-01,2.107601463794708252e-01,2.107530534267425537e-01,2.107457816600799561e-01,2.107390463352203369e-01,2.107319533824920654e-01,2.107247412204742432e-01,2.107177674770355225e-01,2.107107043266296387e-01,2.107034325599670410e-01,2.106965780258178711e-01,2.106894552707672119e-01,2.106824815273284912e-01,2.106754481792449951e-01,2.106684744358062744e-01,2.106614112854003906e-01,2.106541693210601807e-01,2.106471061706542969e-01,2.106400728225708008e-01,2.106329500675201416e-01,2.106259465217590332e-01,2.106191217899322510e-01,2.106120586395263672e-01,2.106047570705413818e-01,2.105977833271026611e-01,2.105905711650848389e-01,2.105835378170013428e-01,2.105765640735626221e-01,2.105695605278015137e-01,2.105626463890075684e-01,2.105555236339569092e-01,2.105484008789062500e-01,2.105414569377899170e-01,2.105344533920288086e-01,2.105272412300109863e-01,2.105202674865722656e-01,2.105132937431335449e-01,2.105055153369903564e-01,2.104667425155639648e-01,2.107331752777099609e-01,2.102859616279602051e-01,2.038704156875610352e-01,2.072003483772277832e-01,2.303356528282165527e-01,2.568484544754028320e-01,3.220596611499786377e-01,3.632438480854034424e-01
3.726793825626373291e-01,2.842499017715454102e-01,2.591602802276611328e-01,2.263980805873870850e-01,2.035059332847595215e-01,1.998409628868103027e-01,2.023382186889648438e-01,2.028933167457580566e-01,2.033695280551910400e-01,2.033321261405944824e-01,2.033146321773529053e-01,2.033085823059082031e-01,2.033027112483978271e-01,2.032967209815979004e-01,2.032908201217651367e-01,2.032846808433532715e-01,2.032788693904876709e-01,2.032726705074310303e-01,2.032665610313415527e-01,2.032606005668640137e-01,2.032549083232879639e-01,2.032485902309417725e-01,2.032425105571746826e-01,2.032367587089538574e-01,2.032307982444763184e-01,2.032248377799987793e-01,2.032187283039093018e-01,2.032127976417541504e-01,2.032069563865661621e-01,2.032009661197662354e-01,2.031946778297424316e-01,2.031887471675872803e-01,2.031828165054321289e-01,2.031768858432769775e-01,2.031708657741546631e-01,2.031647861003875732e-01,2.031588554382324219e-01,2.031529545783996582e-01,2.031470835208892822e-01,2.031410634517669678e-01,2.031348943710327148e-01,2.031290829181671143e-01,2.031228840351104736e-01,2.031169235706329346e-01,2.031112909317016602e-01,2.031049132347106934e-01,2.030992209911346436e-01,2.030930817127227783e-01,2.030873596668243408e-01,2.030813992023468018e-01,2.030752301216125488e-01,2.030692696571350098e-01,2.030632495880126953e-01,2.030572891235351562e-01,2.030516564846038818e-01,2.030455172061920166e-01,2.030396163463592529e-01,2.030335664749145508e-01,2.030277252197265625e-01,2.030216753482818604e-01,2.030155360698699951e-01,2.030098140239715576e-01,2.030038535594940186e-01,2.029977440834045410e-01,2.029917538166046143e-01,2.029860317707061768e-01,2.029799520969390869e-01,2.029739916324615479e-01,2.029681205749511719e-01,2.029621005058288574e-01,2.029553353786468506e-01,2.029216885566711426e-01,2.031570971012115479e-01,2.027928233146667480e-01,1.967593729496002197e-01,2.000870704650878906e-01,2.229211330413818359e-01,2.500035762786865234e-01,3.159331679344177246e-01,3.593323826789855957e-01
3.681828379631042480e-01,2.785643637180328369e-01,2.526051998138427734e-01,2.203783690929412842e-01,1.974303126335144043e-01,1.936289370059967041e-01,1.959539949893951416e-01,1.964491009712219238e-01,1.968897283077239990e-01,1.968565583229064941e-01,1.968409121036529541e-01,1.968358755111694336e-01,1.968306303024291992e-01,1.968255043029785156e-01,1.968203783035278320e-01,1.968151926994323730e-01,1.968101263046264648e-01,1.968049705028533936e-01,1.967998147010803223e-01,1.967945098876953125e-01,1.967893540859222412e-01,1.967845857143402100e-01,1.967792510986328125e-01,1.967740952968597412e-01,1.967689394950866699e-01,1.967639625072479248e-01,1.967587172985076904e-01,1.967536807060241699e-01,1.967484354972839355e-01,1.967433989048004150e-01,1.967381834983825684e-01,1.967331767082214355e-01,1.967279911041259766e-01,1.967228949069976807e-01,1.967177689075469971e-01,1.967127323150634766e-01,1.967077851295471191e-01,1.967025995254516602e-01,1.966973245143890381e-01,1.966922581195831299e-01,1.966871321201324463e-01,1.966820359230041504e-01,1.966768801212310791e-01,1.966719329357147217e-01,1.966666281223297119e-01,1.966615915298461914e-01,1.966563761234283447e-01,1.966514587402343750e-01,1.966461241245269775e-01,1.966411769390106201e-01,1.966361105442047119e-01,1.966308653354644775e-01,1.966258585453033447e-01,1.966206729412078857e-01,1.966156363487243652e-01,1.966106891632080078e-01,1.966055035591125488e-01,1.966003477573394775e-01,1.965951919555664062e-01,1.965901553630828857e-01,1.965851485729217529e-01,1.965799927711486816e-01,1.965748071670532227e-01,1.965695619583129883e-01,1.965645551681518555e-01,1.965596079826354980e-01,1.965544521808624268e-01,1.965494453907012939e-01,1.965443193912506104e-01,1.965391933917999268e-01,1.965332627296447754e-01,1.965036690235137939e-01,1.967143714427947998e-01,1.964181959629058838e-01,1.907095313072204590e-01,1.940340697765350342e-01,2.166040241718292236e-01,2.441300153732299805e-01,3.106347322463989258e-01,3.559400439262390137e-01
3.642281293869018555e-01,2.736120223999023438e-01,2.469254136085510254e-01,2.151868939399719238e-01,1.922082006931304932e-01,1.882866919040679932e-01,1.904665231704711914e-01,1.909084618091583252e-01,1.913183033466339111e-01,1.912882924079895020e-01,1.912743449211120605e-01,1.912697255611419678e-01,1.912655532360076904e-01,1.912610530853271484e-01,1.912565529346466064e-01,1.912522614002227783e-01,1.912476420402526855e-01,1.912432014942169189e-01,1.912387609481811523e-01,1.912344098091125488e-01,1.912299394607543945e-01,1.912252902984619141e-01,1.912209093570709229e-01,1.912166178226470947e-01,1.912121474742889404e-01,1.912079155445098877e-01,1.912033855915069580e-01,1.911990344524383545e-01,1.911946833133697510e-01,1.911900937557220459e-01,1.911855936050415039e-01,1.911813616752624512e-01,1.911767125129699707e-01,1.911724805831909180e-01,1.911680102348327637e-01,1.911635994911193848e-01,1.911592185497283936e-01,1.911546289920806885e-01,1.911503076553344727e-01,1.911459565162658691e-01,1.911415755748748779e-01,1.911370754241943359e-01,1.911325752735137939e-01,1.911281347274780273e-01,1.911239326000213623e-01,1.911194026470184326e-01,1.911149621009826660e-01,1.911104917526245117e-01,1.911062598228454590e-01,1.911017000675201416e-01,1.910974085330963135e-01,1.910928189754486084e-01,1.910884678363800049e-01,1.910839974880218506e-01,1.910797059535980225e-01,1.910751461982727051e-01,1.910708844661712646e-01,1.910663843154907227e-01,1.910618543624877930e-01,1.910575032234191895e-01,1.910531818866729736e-01,1.910487711429595947e-01,1.910443603992462158e-01,1.910398900508880615e-01,1.910355389118194580e-01,1.910310089588165283e-01,1.910266280174255371e-01,1.910221874713897705e-01,1.910178363323211670e-01,1.910134851932525635e-01,1.910083293914794922e-01,1.909821629524230957e-01,1.911724805831909180e-01,1.909326314926147461e-01,1.855036616325378418e-01,1.888235211372375488e-01,2.111594676971435547e-01,2.390360832214355469e-01,3.060067892074584961e-01,3.529698252677917480e-01
3.607214689254760742e-01,2.692632079124450684e-01,2.419595420360565186e-01,2.106663882732391357e-01,1.876744627952575684e-01,1.836434602737426758e-01,1.856959760189056396e-01,1.860909163951873779e-01,1.864742338657379150e-01,1.864470243453979492e-01,1.864341199398040771e-01,1.864302456378936768e-01,1.864264309406280518e-01,1.864224672317504883e-01,1.864188909530639648e-01,1.864148676395416260e-01,1.864110231399536133e-01,1.864072084426879883e-01,1.864032745361328125e-01,1.863994300365447998e-01,1.863955855369567871e-01,1.863915920257568359e-01,1.863878071308135986e-01,1.863839030265808105e-01,1.863799393177032471e-01,1.863761842250823975e-01,1.863721907138824463e-01,1.863682270050048828e-01,1.863646209239959717e-01,1.863606274127960205e-01,1.863567829132080078e-01,1.863529384136199951e-01,1.863490641117095947e-01,1.863453388214111328e-01,1.863413453102111816e-01,1.863374412059783936e-01,1.863335967063903809e-01,1.863298118114471436e-01,1.863260865211486816e-01,1.863220036029815674e-01,1.863183677196502686e-01,1.863142848014831543e-01,1.863103806972503662e-01,1.863066256046295166e-01,1.863027811050415039e-01,1.862988471984863281e-01,1.862950623035430908e-01,1.862912178039550781e-01,1.862873435020446777e-01,1.862836480140686035e-01,1.862797737121582031e-01,1.862758398056030273e-01,1.862721145153045654e-01,1.862681210041046143e-01,1.862642467021942139e-01,1.862603724002838135e-01,1.862565279006958008e-01,1.862526237964630127e-01,1.862489879131317139e-01,1.862449944019317627e-01,1.862411797046661377e-01,1.862371563911437988e-01,1.862334609031677246e-01,1.862296164035797119e-01,1.862258315086364746e-01,1.862219870090484619e-01,1.862179934978485107e-01,1.862143278121948242e-01,1.862104535102844238e-01,1.862062811851501465e-01,1.862015724182128906e-01,1.861788034439086914e-01,1.863523423671722412e-01,1.861601471900939941e-01,1.809753179550170898e-01,1.842898428440093994e-01,2.064186334609985352e-01,2.345697283744812012e-01,3.019187152385711670e-01,3.503375649452209473e-01
3.576367795467376709e-01,2.654596567153930664e-01,2.376322150230407715e-01,2.067410349845886230e-01,1.837363243103027344e-01,1.796094179153442383e-01,1.815572977066040039e-01,1.819105744361877441e-01,1.822709143161773682e-01,1.822458207607269287e-01,1.822338700294494629e-01,1.822304129600524902e-01,1.822268366813659668e-01,1.822235584259033203e-01,1.822201311588287354e-01,1.822166144847869873e-01,1.822132170200347900e-01,1.822099983692169189e-01,1.822064816951751709e-01,1.822030842304229736e-01,1.821996271610260010e-01,1.821963489055633545e-01,1.821928620338439941e-01,1.821894943714141846e-01,1.821863949298858643e-01,1.821827292442321777e-01,1.821793317794799805e-01,1.821759641170501709e-01,1.821724474430084229e-01,1.821692287921905518e-01,1.821655631065368652e-01,1.821622550487518311e-01,1.821587383747100830e-01,1.821554303169250488e-01,1.821521520614624023e-01,1.821487843990325928e-01,1.821450889110565186e-01,1.821418404579162598e-01,1.821383237838745117e-01,1.821351051330566406e-01,1.821317672729492188e-01,1.821284294128417969e-01,1.821249723434448242e-01,1.821215450763702393e-01,1.821181774139404297e-01,1.821146905422210693e-01,1.821112930774688721e-01,1.821078658103942871e-01,1.821047365665435791e-01,1.821013092994689941e-01,1.820977032184600830e-01,1.820943951606750488e-01,1.820911169052124023e-01,1.820877492427825928e-01,1.820842623710632324e-01,1.820808053016662598e-01,1.820775270462036133e-01,1.820740103721618652e-01,1.820706725120544434e-01,1.820672750473022461e-01,1.820637583732604980e-01,1.820605099201202393e-01,1.820571422576904297e-01,1.820537447929382324e-01,1.820503175258636475e-01,1.820469796657562256e-01,1.820436120033264160e-01,1.820401549339294434e-01,1.820367872714996338e-01,1.820333302021026611e-01,1.820292472839355469e-01,1.820081174373626709e-01,1.821671128273010254e-01,1.820152401924133301e-01,1.770400106906890869e-01,1.803426742553710938e-01,2.022822797298431396e-01,2.306686043739318848e-01,2.983111143112182617e-01,3.479940891265869141e-01
3.552452623844146729e-01,2.622933387756347656e-01,2.341422736644744873e-01,2.035848796367645264e-01,1.805840134620666504e-01,1.763860583305358887e-01,1.782712042331695557e-01,1.786163747310638428e-01,1.789567470550537109e-01,1.789322793483734131e-01,1.789216995239257812e-01,1.789185404777526855e-01,1.789154708385467529e-01,1.789124906063079834e-01,1.789095699787139893e-01,1.789064109325408936e-01,1.789035201072692871e-01,1.789002716541290283e-01,1.788974404335021973e-01,1.788942813873291016e-01,1.788912415504455566e-01,1.788883507251739502e-01,1.788851320743560791e-01,1.788823008537292480e-01,1.788792610168457031e-01,1.788762807846069336e-01,1.788732707500457764e-01,1.788700819015502930e-01,1.788669526576995850e-01,1.788640618324279785e-01,1.788608431816101074e-01,1.788581609725952148e-01,1.788549423217773438e-01,1.788519620895385742e-01,1.788489818572998047e-01,1.788457334041595459e-01,1.788429319858551025e-01,1.788397133350372314e-01,1.788369417190551758e-01,1.788338124752044678e-01,1.788308918476104736e-01,1.788277924060821533e-01,1.788247823715209961e-01,1.788217425346374512e-01,1.788184642791748047e-01,1.788156032562255859e-01,1.788126230239868164e-01,1.788096427917480469e-01,1.788066625595092773e-01,1.788035929203033447e-01,1.788005828857421875e-01,1.787974536418914795e-01,1.787944138050079346e-01,1.787914335727691650e-01,1.787884831428527832e-01,1.787854135036468506e-01,1.787824928760528564e-01,1.787794232368469238e-01,1.787764430046081543e-01,1.787732541561126709e-01,1.787703931331634521e-01,1.787672936916351318e-01,1.787642240524291992e-01,1.787613034248352051e-01,1.787582635879516602e-01,1.787551939487457275e-01,1.787522137165069580e-01,1.787491440773010254e-01,1.787461936473846436e-01,1.787431836128234863e-01,1.787395179271697998e-01,1.787206232547760010e-01,1.788684725761413574e-01,1.787449717521667480e-01,1.739439368247985840e-01,1.772518754005432129e-01,1.989186704158782959e-01,2.273615002632141113e-01,2.952044904232025146e-01,3.462706208229064941e-01
3.522576093673706055e-01,2.585255503654479980e-01,2.300026714801788330e-01,1.997257173061370850e-01,1.766572594642639160e-01,1.722864806652069092e-01,1.739259362220764160e-01,1.741945445537567139e-01,1.744943559169769287e-01,1.744741499423980713e-01,1.744644939899444580e-01,1.744618415832519531e-01,1.744593083858489990e-01,1.744566261768341064e-01,1.744538843631744385e-01,1.744512617588043213e-01,1.744486391544342041e-01,1.744459867477416992e-01,1.744432449340820312e-01,1.744406223297119141e-01,1.744378805160522461e-01,1.744354367256164551e-01,1.744326055049896240e-01,1.744302511215209961e-01,1.744275391101837158e-01,1.744246780872344971e-01,1.744220852851867676e-01,1.744192838668823242e-01,1.744165420532226562e-01,1.744142472743988037e-01,1.744115054607391357e-01,1.744088232517242432e-01,1.744060516357421875e-01,1.744033694267272949e-01,1.744009256362915039e-01,1.743981838226318359e-01,1.743956208229064941e-01,1.743929088115692139e-01,1.743903756141662598e-01,1.743877828121185303e-01,1.743850409984588623e-01,1.743823885917663574e-01,1.743797659873962402e-01,1.743771731853485107e-01,1.743743121623992920e-01,1.743715703487396240e-01,1.743690371513366699e-01,1.743664443492889404e-01,1.743638515472412109e-01,1.743610203266143799e-01,1.743584573268890381e-01,1.743558049201965332e-01,1.743530035018920898e-01,1.743506491184234619e-01,1.743479073047637939e-01,1.743452847003936768e-01,1.743425726890563965e-01,1.743401288986206055e-01,1.743373870849609375e-01,1.743346154689788818e-01,1.743318736553192139e-01,1.743294298648834229e-01,1.743267178535461426e-01,1.743241250514984131e-01,1.743214428424835205e-01,1.743187904357910156e-01,1.743161678314208984e-01,1.743136048316955566e-01,1.743108034133911133e-01,1.743083298206329346e-01,1.743050813674926758e-01,1.742871999740600586e-01,1.744299530982971191e-01,1.743084490299224854e-01,1.696798503398895264e-01,1.730749607086181641e-01,1.948004961013793945e-01,2.234537005424499512e-01,2.916889190673828125e-01,3.432701230049133301e-01
3.534516990184783936e-01,2.556046247482299805e-01,2.290327548980712891e-01,1.991974413394927979e-01,1.747827529907226562e-01,1.703464984893798828e-01,1.715830266475677490e-01,1.718483567237854004e-01,1.721438467502593994e-01,1.721238195896148682e-01,1.721155941486358643e-01,1.721132099628448486e-01,1.721109747886657715e-01,1.721086204051971436e-01,1.721060872077941895e-01,1.721037030220031738e-01,1.721014380455017090e-01,1.720988750457763672e-01,1.720965802669525146e-01,1.720942556858062744e-01,1.720919907093048096e-01,1.720895469188690186e-01,1.720871627330780029e-01,1.720847487449645996e-01,1.720826923847198486e-01,1.720801293849945068e-01,1.720777451992034912e-01,1.720752716064453125e-01,1.720729470252990723e-01,1.720705330371856689e-01,1.720682382583618164e-01,1.720658540725708008e-01,1.720634698867797852e-01,1.720612049102783203e-01,1.720588207244873047e-01,1.720564365386962891e-01,1.720542013645172119e-01,1.720517873764038086e-01,1.720491647720336914e-01,1.720469892024993896e-01,1.720444560050964355e-01,1.720423102378845215e-01,1.720399856567382812e-01,1.720376014709472656e-01,1.720351278781890869e-01,1.720327734947204590e-01,1.720303595066070557e-01,1.720281541347503662e-01,1.720257699489593506e-01,1.720231771469116211e-01,1.720208823680877686e-01,1.720185577869415283e-01,1.720162928104400635e-01,1.720139086246490479e-01,1.720114946365356445e-01,1.720091402530670166e-01,1.720066964626312256e-01,1.720043718814849854e-01,1.720020473003387451e-01,1.719995439052581787e-01,1.719972789287567139e-01,1.719951331615447998e-01,1.719926893711090088e-01,1.719902157783508301e-01,1.719879508018493652e-01,1.719854474067687988e-01,1.719831824302673340e-01,1.719807386398315430e-01,1.719785928726196289e-01,1.719762086868286133e-01,1.719739437103271484e-01,1.719538271427154541e-01,1.720588505268096924e-01,1.720514893531799316e-01,1.679017245769500732e-01,1.713126599788665771e-01,1.922453045845031738e-01,2.205623388290405273e-01,2.916400432586669922e-01,3.415898382663726807e-01
3.557893633842468262e-01,2.536358237266540527e-01,2.169751822948455811e-01,1.914364695549011230e-01,1.698941588401794434e-01,1.649750173091888428e-01,1.661600768566131592e-01,1.664632260799407959e-01,1.667143404483795166e-01,1.666944324970245361e-01,1.666873395442962646e-01,1.666852533817291260e-01,1.666830480098724365e-01,1.666812300682067871e-01,1.666790843009948730e-01,1.666769981384277344e-01,1.666750609874725342e-01,1.666729748249053955e-01,1.666709184646606445e-01,1.666690707206726074e-01,1.666668951511383057e-01,1.666647195816040039e-01,1.666627526283264160e-01,1.666608750820159912e-01,1.666587889194488525e-01,1.666568219661712646e-01,1.666548252105712891e-01,1.666527092456817627e-01,1.666506826877593994e-01,1.666486263275146484e-01,1.666466891765594482e-01,1.666443049907684326e-01,1.666422784328460693e-01,1.666403412818908691e-01,1.666383147239685059e-01,1.666364371776580811e-01,1.666342616081237793e-01,1.666322946548461914e-01,1.666300594806671143e-01,1.666280329227447510e-01,1.666260957717895508e-01,1.666240394115447998e-01,1.666219830513000488e-01,1.666198670864105225e-01,1.666179895401000977e-01,1.666159331798553467e-01,1.666140854358673096e-01,1.666117906570434570e-01,1.666098535060882568e-01,1.666076779365539551e-01,1.666059494018554688e-01,1.666037142276763916e-01,1.666018068790435791e-01,1.665997207164764404e-01,1.665976643562316895e-01,1.665954291820526123e-01,1.665934920310974121e-01,1.665916144847869873e-01,1.665895581245422363e-01,1.665875613689422607e-01,1.665853559970855713e-01,1.665833294391632080e-01,1.665813624858856201e-01,1.665794253349304199e-01,1.665773987770080566e-01,1.665751636028289795e-01,1.665732562541961670e-01,1.665711998939514160e-01,1.665692031383514404e-01,1.665671765804290771e-01,1.665667295455932617e-01,1.665428578853607178e-01,1.666104793548583984e-01,1.667926013469696045e-01,1.623806655406951904e-01,1.654347777366638184e-01,1.886163353919982910e-01,2.108094692230224609e-01,2.860366404056549072e-01,3.337817788124084473e-01
3.380681872367858887e-01,2.402375340461730957e-01,2.027121186256408691e-01,1.804862618446350098e-01,1.658500432968139648e-01,1.592115461826324463e-01,1.592741012573242188e-01,1.594823002815246582e-01,1.597132980823516846e-01,1.596963405609130859e-01,1.596912145614624023e-01,1.596895754337310791e-01,1.596877872943878174e-01,1.596863567829132080e-01,1.596846282482147217e-01,1.596829891204833984e-01,1.596813797950744629e-01,1.596797704696655273e-01,1.596779227256774902e-01,1.596765518188476562e-01,1.596748232841491699e-01,1.596731245517730713e-01,1.596714854240417480e-01,1.596699357032775879e-01,1.596682369709014893e-01,1.596665382385253906e-01,1.596647500991821289e-01,1.596633493900299072e-01,1.596617400646209717e-01,1.596601307392120361e-01,1.596584916114807129e-01,1.596567332744598389e-01,1.596551537513732910e-01,1.596535444259643555e-01,1.596516370773315430e-01,1.596500575542449951e-01,1.596484780311584473e-01,1.596468091011047363e-01,1.596451997756958008e-01,1.596435308456420898e-01,1.596419215202331543e-01,1.596402823925018311e-01,1.596385836601257324e-01,1.596368551254272461e-01,1.596352159976959229e-01,1.596334576606750488e-01,1.596319973468780518e-01,1.596303880214691162e-01,1.596286296844482422e-01,1.596269905567169189e-01,1.596254706382751465e-01,1.596238017082214355e-01,1.596221923828125000e-01,1.596205234527587891e-01,1.596189141273498535e-01,1.596171855926513672e-01,1.596155464649200439e-01,1.596139073371887207e-01,1.596122980117797852e-01,1.596107482910156250e-01,1.596089303493499756e-01,1.596074104309082031e-01,1.596057713031768799e-01,1.596040725708007812e-01,1.596024036407470703e-01,1.596009731292724609e-01,1.595992445945739746e-01,1.595976352691650391e-01,1.595959663391113281e-01,1.595943570137023926e-01,1.595927178859710693e-01,1.595647335052490234e-01,1.596039533615112305e-01,1.598355770111083984e-01,1.557651460170745850e-01,1.533351540565490723e-01,1.688703000545501709e-01,2.049823105335235596e-01,2.839689254760742188e-01,3.553454279899597168e-01
3.297485411167144775e-01,2.279987037181854248e-01,1.979694366455078125e-01,1.790176928043365479e-01,1.636388599872589111e-01,1.572906076908111572e-01,1.598435342311859131e-01,1.601179242134094238e-01,1.602984666824340820e-01,1.602828502655029297e-01,1.602787673473358154e-01,1.602773964405059814e-01,1.602761745452880859e-01,1.602746844291687012e-01,1.602732837200164795e-01,1.602717936038970947e-01,1.602703928947448730e-01,1.602689623832702637e-01,1.602677106857299805e-01,1.602660119533538818e-01,1.602646410465240479e-01,1.602632701396942139e-01,1.602616608142852783e-01,1.602602899074554443e-01,1.602588295936584473e-01,1.602575182914733887e-01,1.602560281753540039e-01,1.602544486522674561e-01,1.602531373500823975e-01,1.602518260478973389e-01,1.602503061294555664e-01,1.602487862110137939e-01,1.602474749088287354e-01,1.602460443973541260e-01,1.602445542812347412e-01,1.602432429790496826e-01,1.602418124675750732e-01,1.602403521537780762e-01,1.602390706539154053e-01,1.602374613285064697e-01,1.602360606193542480e-01,1.602347195148468018e-01,1.602333188056945801e-01,1.602319777011871338e-01,1.602304577827453613e-01,1.602288484573364258e-01,1.602274477481842041e-01,1.602261364459991455e-01,1.602247655391693115e-01,1.602233648300170898e-01,1.602217555046081543e-01,1.602203547954559326e-01,1.602189838886260986e-01,1.602174937725067139e-01,1.602160334587097168e-01,1.602146327495574951e-01,1.602131426334381104e-01,1.602117121219635010e-01,1.602103710174560547e-01,1.602089405059814453e-01,1.602075695991516113e-01,1.602061688899993896e-01,1.602045893669128418e-01,1.602031290531158447e-01,1.602018773555755615e-01,1.602003574371337891e-01,1.601988673210144043e-01,1.601975262165069580e-01,1.601963341236114502e-01,1.601946353912353516e-01,1.601958870887756348e-01,1.601741909980773926e-01,1.602482795715332031e-01,1.604147553443908691e-01,1.554421186447143555e-01,1.561041474342346191e-01,1.747393012046813965e-01,1.962414383888244629e-01,3.100823163986206055e-01,3.704555630683898926e-01
3.673300743103027344e-01,2.730017304420471191e-01,2.366617619991302490e-01,1.968862116336822510e-01,1.776396334171295166e-01,1.728608906269073486e-01,1.740672886371612549e-01,1.743152439594268799e-01,1.744396686553955078e-01,1.744303405284881592e-01,1.744278371334075928e-01,1.744270324707031250e-01,1.744261980056762695e-01,1.744251251220703125e-01,1.744241714477539062e-01,1.744231879711151123e-01,1.744222640991210938e-01,1.744209527969360352e-01,1.744201183319091797e-01,1.744191646575927734e-01,1.744180917739868164e-01,1.744171380996704102e-01,1.744161248207092285e-01,1.744152903556823730e-01,1.744140982627868652e-01,1.744133532047271729e-01,1.744121909141540527e-01,1.744111776351928711e-01,1.744103729724884033e-01,1.744093000888824463e-01,1.744082272052764893e-01,1.744072437286376953e-01,1.744062006473541260e-01,1.744050979614257812e-01,1.744043529033660889e-01,1.744032502174377441e-01,1.744023859500885010e-01,1.744011640548706055e-01,1.744002699851989746e-01,1.743992269039154053e-01,1.743983626365661621e-01,1.743973791599273682e-01,1.743963360786437988e-01,1.743955016136169434e-01,1.743943691253662109e-01,1.743933558464050293e-01,1.743925809860229492e-01,1.743914783000946045e-01,1.743904948234558105e-01,1.743893921375274658e-01,1.743884086608886719e-01,1.743873357772827148e-01,1.743864417076110840e-01,1.743855178356170654e-01,1.743844151496887207e-01,1.743836104869842529e-01,1.743825078010559082e-01,1.743815541267395020e-01,1.743806302547454834e-01,1.743795573711395264e-01,1.743787825107574463e-01,1.743775606155395508e-01,1.743765771389007568e-01,1.743755638599395752e-01,1.743747293949127197e-01,1.743735373020172119e-01,1.743727624416351318e-01,1.743717193603515625e-01,1.743707656860351562e-01,1.743697226047515869e-01,1.743686795234680176e-01,1.743549406528472900e-01,1.744391024112701416e-01,1.744461357593536377e-01,1.704316139221191406e-01,1.741122007369995117e-01,1.803805530071258545e-01,1.959726214408874512e-01,2.897703051567077637e-01,3.657963871955871582e-01
