5.833981037139892578e-01,5.976812243461608887e-01,6.267626881599426270e-01,6.187899112701416016e-01,6.430289149284362793e-01,6.537095308303833008e-01,6.839663386344909668e-01,7.023730874061584473e-01,7.174842953681945801e-01,7.329707145690917969e-01,7.449164986610412598e-01,7.579477429389953613e-01,7.726395130157470703e-01,7.781241536140441895e-01,7.765107154846191406e-01,7.784554958343505859e-01,7.809259891510009766e-01,7.732452750205993652e-01,7.610597610473632812e-01,7.529020309448242188e-01,7.548474073410034180e-01,7.764149904251098633e-01,7.902264595031738281e-01,8.010071516036987305e-01,8.017845153808593750e-01,8.124660253524780273e-01,8.217929601669311523e-01,8.262328505516052246e-01,8.287252187728881836e-01,8.288273811340332031e-01,8.289723992347717285e-01,8.296119570732116699e-01,8.296767473220825195e-01,8.297212123870849609e-01,8.297215700149536133e-01,8.297180533409118652e-01,8.297177553176879883e-01,8.297177553176879883e-01,8.297177553176879883e-01,8.297177553176879883e-01,8.297177553176879883e-01,8.297177553176879883e-01,8.297177553176879883e-01,8.297177553176879883e-01,8.297177553176879883e-01,8.297177553176879883e-01,8.297177553176879883e-01,8.297177553176879883e-01,8.297177553176879883e-01,8.297177553176879883e-01,8.297177553176879883e-01,8.297177553176879883e-01,8.297177553176879883e-01,8.297177553176879883e-01,8.297177553176879883e-01,8.297177553176879883e-01,8.297177553176879883e-01,8.297177553176879883e-01,8.297177553176879883e-01,8.297177553176879883e-01,8.297183513641357422e-01,8.297199010848999023e-01,8.297309875488281250e-01,8.296778202056884766e-01,8.294304609298706055e-01,8.290032744407653809e-01,8.281317949295043945e-01,8.263172507286071777e-01,8.234795331954956055e-01,8.194960355758666992e-01,8.142955303192138672e-01,8.066036701202392578e-01,7.968271970748901367e-01,7.857999801635742188e-01,7.639670372009277344e-01,7.405072450637817383e-01,7.343796491622924805e-01,7.291393280029296875e-01,6.448087692260742188e-01,5.760587453842163086e-01
5.795444250106811523e-01,5.981876254081726074e-01,6.479895114898681641e-01,6.185083985328674316e-01,6.515018939971923828e-01,6.743205189704895020e-01,7.076551914215087891e-01,7.297836542129516602e-01,7.495006918907165527e-01,7.661459445953369141e-01,7.823296189308166504e-01,7.964894175529479980e-01,8.093819022178649902e-01,8.168084621429443359e-01,8.165261745452880859e-01,8.224734067916870117e-01,8.140999078750610352e-01,8.085340261459350586e-01,8.014205694198608398e-01,7.827131748199462891e-01,7.893909215927124023e-01,8.109336495399475098e-01,8.240234851837158203e-01,8.259606361389160156e-01,8.436342477798461914e-01,8.559884428977966309e-01,8.632786870002746582e-01,8.700358867645263672e-01,8.724230527877807617e-01,8.735494613647460938e-01,8.733996152877807617e-01,8.739794492721557617e-01,8.736001253128051758e-01,8.736307621002197266e-01,8.736102581024169922e-01,8.736062645912170410e-01,8.736065626144409180e-01,8.736065626144409180e-01,8.736065626144409180e-01,8.736065626144409180e-01,8.736065626144409180e-01,8.736065626144409180e-01,8.736065626144409180e-01,8.736065626144409180e-01,8.736065626144409180e-01,8.736065626144409180e-01,8.736065626144409180e-01,8.736065626144409180e-01,8.736065626144409180e-01,8.736065626144409180e-01,8.736065626144409180e-01,8.736065626144409180e-01,8.736065626144409180e-01,8.736065626144409180e-01,8.736065626144409180e-01,8.736065626144409180e-01,8.736065626144409180e-01,8.736065626144409180e-01,8.736065626144409180e-01,8.736065626144409180e-01,8.736073970794677734e-01,8.736078739166259766e-01,8.735968470573425293e-01,8.734918832778930664e-01,8.732705116271972656e-01,8.728838562965393066e-01,8.715965747833251953e-01,8.696140050888061523e-01,8.668366670608520508e-01,8.627973794937133789e-01,8.571881651878356934e-01,8.482731580734252930e-01,8.390402793884277344e-01,8.248971104621887207e-01,7.998237013816833496e-01,7.775594592094421387e-01,7.645364999771118164e-01,7.502839565277099609e-01,6.782295703887939453e-01,5.986375212669372559e-01
5.915864706039428711e-01,6.111577153205871582e-01,6.348110437393188477e-01,6.224839687347412109e-01,6.499181985855102539e-01,6.736187338829040527e-01,7.130565643310546875e-01,7.338837981224060059e-01,7.536361217498779297e-01,7.705900669097900391e-01,7.854806184768676758e-01,8.019064664840698242e-01,8.106946945190429688e-01,8.190478086471557617e-01,8.223035335540771484e-01,8.186414241790771484e-01,8.211933374404907227e-01,8.121310472488403320e-01,7.890475392341613770e-01,7.696785330772399902e-01,7.847282290458679199e-01,8.007334470748901367e-01,8.160904049873352051e-01,8.321955204010009766e-01,8.484184741973876953e-01,8.630151748657226562e-01,8.687685132026672363e-01,8.744574785232543945e-01,8.794956803321838379e-01,8.809040784835815430e-01,8.811289072036743164e-01,8.819533586502075195e-01,8.818217515945434570e-01,8.817849159240722656e-01,8.817507028579711914e-01,8.817476034164428711e-01,8.817465305328369141e-01,8.817465305328369141e-01,8.817465305328369141e-01,8.817465305328369141e-01,8.817465305328369141e-01,8.817465305328369141e-01,8.817465305328369141e-01,8.817465305328369141e-01,8.817465305328369141e-01,8.817465305328369141e-01,8.817465305328369141e-01,8.817465305328369141e-01,8.817465305328369141e-01,8.817465305328369141e-01,8.817465305328369141e-01,8.817465305328369141e-01,8.817465305328369141e-01,8.817465305328369141e-01,8.817465305328369141e-01,8.817465305328369141e-01,8.817465305328369141e-01,8.817465305328369141e-01,8.817465305328369141e-01,8.817465305328369141e-01,8.817470073699951172e-01,8.817480802536010742e-01,8.817404508590698242e-01,8.816744089126586914e-01,8.815388679504394531e-01,8.809619545936584473e-01,8.796996474266052246e-01,8.776177763938903809e-01,8.748978972434997559e-01,8.710978031158447266e-01,8.653815984725952148e-01,8.571840524673461914e-01,8.473742008209228516e-01,8.313030600547790527e-01,8.018572330474853516e-01,7.748304605484008789e-01,7.663217782974243164e-01,7.447307109832763672e-01,6.771131753921508789e-01,5.832105278968811035e-01
5.759803652763366699e-01,5.908410549163818359e-01,6.342686414718627930e-01,6.279209256172180176e-01,6.463440656661987305e-01,6.690043210983276367e-01,7.076048851013183594e-01,7.300041913986206055e-01,7.506572008132934570e-01,7.670185565948486328e-01,7.829959392547607422e-01,7.951525449752807617e-01,8.046077489852905273e-01,8.095909357070922852e-01,8.123072385787963867e-01,8.101809024810791016e-01,8.089008331298828125e-01,8.011751174926757812e-01,7.706962227821350098e-01,7.593725919723510742e-01,7.546367049217224121e-01,7.866888642311096191e-01,8.106741905212402344e-01,8.307931423187255859e-01,8.460157513618469238e-01,8.615311980247497559e-01,8.729922771453857422e-01,8.774207830429077148e-01,8.809046745300292969e-01,8.843088150024414062e-01,8.844161033630371094e-01,8.850888013839721680e-01,8.852801322937011719e-01,8.853627443313598633e-01,8.854072093963623047e-01,8.854060769081115723e-01,8.854033946990966797e-01,8.854033946990966797e-01,8.854033946990966797e-01,8.854033946990966797e-01,8.854033946990966797e-01,8.854033946990966797e-01,8.854033946990966797e-01,8.854033946990966797e-01,8.854033946990966797e-01,8.854033946990966797e-01,8.854033946990966797e-01,8.854033946990966797e-01,8.854033946990966797e-01,8.854033946990966797e-01,8.854033946990966797e-01,8.854033946990966797e-01,8.854033946990966797e-01,8.854033946990966797e-01,8.854033946990966797e-01,8.854033946990966797e-01,8.854033946990966797e-01,8.854033946990966797e-01,8.854033946990966797e-01,8.854033946990966797e-01,8.854037523269653320e-01,8.854061365127563477e-01,8.854007720947265625e-01,8.853733539581298828e-01,8.852573633193969727e-01,8.845685124397277832e-01,8.830137252807617188e-01,8.810082674026489258e-01,8.780158162117004395e-01,8.743040561676025391e-01,8.680222630500793457e-01,8.589196205139160156e-01,8.470512032508850098e-01,8.327402472496032715e-01,7.983218431472778320e-01,7.725968360900878906e-01,7.662463188171386719e-01,7.430689930915832520e-01,6.942266821861267090e-01,5.934381484985351562e-01
5.855986475944519043e-01,6.094856262207031250e-01,6.510148644447326660e-01,6.518219709396362305e-01,6.743170619010925293e-01,6.974039077758789062e-01,7.322915792465209961e-01,7.532545924186706543e-01,7.709256410598754883e-01,7.852736711502075195e-01,7.958103418350219727e-01,8.056933283805847168e-01,8.143221735954284668e-01,8.157514333724975586e-01,8.135869503021240234e-01,8.090128898620605469e-01,8.076996803283691406e-01,7.926661968231201172e-01,7.592521905899047852e-01,7.483028769493103027e-01,7.634893655776977539e-01,7.848917245864868164e-01,8.070843219757080078e-01,8.266183137893676758e-01,8.497307896614074707e-01,8.647795915603637695e-01,8.797957897186279297e-01,8.870888948440551758e-01,8.891113996505737305e-01,8.929696083068847656e-01,8.949185609817504883e-01,8.962825536727905273e-01,8.974069356918334961e-01,8.974304199218750000e-01,8.974927663803100586e-01,8.974825143814086914e-01,8.974796533584594727e-01,8.974796533584594727e-01,8.974796533584594727e-01,8.974796533584594727e-01,8.974796533584594727e-01,8.974796533584594727e-01,8.974796533584594727e-01,8.974796533584594727e-01,8.974796533584594727e-01,8.974796533584594727e-01,8.974796533584594727e-01,8.974796533584594727e-01,8.974796533584594727e-01,8.974796533584594727e-01,8.974796533584594727e-01,8.974796533584594727e-01,8.974796533584594727e-01,8.974796533584594727e-01,8.974796533584594727e-01,8.974796533584594727e-01,8.974796533584594727e-01,8.974796533584594727e-01,8.974796533584594727e-01,8.974796533584594727e-01,8.974802494049072266e-01,8.974832296371459961e-01,8.974843025207519531e-01,8.975172638893127441e-01,8.973147869110107422e-01,8.965862989425659180e-01,8.951681852340698242e-01,8.932805657386779785e-01,8.911214470863342285e-01,8.871862292289733887e-01,8.810491561889648438e-01,8.720303773880004883e-01,8.623287677764892578e-01,8.480485677719116211e-01,8.182762861251831055e-01,7.959845066070556641e-01,7.858501672744750977e-01,7.581057548522949219e-01,7.064207792282104492e-01,6.076658368110656738e-01
5.862077474594116211e-01,6.089222431182861328e-01,6.536224484443664551e-01,6.546995639801025391e-01,6.780307292938232422e-01,7.018827795982360840e-01,7.381784915924072266e-01,7.584630846977233887e-01,7.766650915145874023e-01,7.904779314994812012e-01,7.976711988449096680e-01,8.063312768936157227e-01,8.114881515502929688e-01,8.079990744590759277e-01,8.051363229751586914e-01,7.836810350418090820e-01,7.795253396034240723e-01,7.598118782043457031e-01,7.364474534988403320e-01,7.221863269805908203e-01,7.315865159034729004e-01,7.539728879928588867e-01,7.826696634292602539e-01,8.081359863281250000e-01,8.309955596923828125e-01,8.613850474357604980e-01,8.766805529594421387e-01,8.867346048355102539e-01,8.919337987899780273e-01,8.962824940681457520e-01,8.989506959915161133e-01,9.014863371849060059e-01,9.031852483749389648e-01,9.031097888946533203e-01,9.031788110733032227e-01,9.031522274017333984e-01,9.031499028205871582e-01,9.031499028205871582e-01,9.031499028205871582e-01,9.031499028205871582e-01,9.031499028205871582e-01,9.031499028205871582e-01,9.031499028205871582e-01,9.031499028205871582e-01,9.031499028205871582e-01,9.031499028205871582e-01,9.031499028205871582e-01,9.031499028205871582e-01,9.031499028205871582e-01,9.031499028205871582e-01,9.031499028205871582e-01,9.031499028205871582e-01,9.031499028205871582e-01,9.031499028205871582e-01,9.031499028205871582e-01,9.031499028205871582e-01,9.031499028205871582e-01,9.031499028205871582e-01,9.031499028205871582e-01,9.031499028205871582e-01,9.031504988670349121e-01,9.031525850296020508e-01,9.031727313995361328e-01,9.031926393508911133e-01,9.029688835144042969e-01,9.022173881530761719e-01,9.009393453598022461e-01,8.995094299316406250e-01,8.970086574554443359e-01,8.931934833526611328e-01,8.870412707328796387e-01,8.788644075393676758e-01,8.685709238052368164e-01,8.554646372795104980e-01,8.276724815368652344e-01,8.058669567108154297e-01,7.978010177612304688e-01,7.732251286506652832e-01,7.197747230529785156e-01,6.134898662567138672e-01
5.891777873039245605e-01,6.140714883804321289e-01,6.573585271835327148e-01,6.578791141510009766e-01,6.817472577095031738e-01,7.058844566345214844e-01,7.421615123748779297e-01,7.631089687347412109e-01,7.825154066085815430e-01,7.919276952743530273e-01,7.992751598358154297e-01,8.060669302940368652e-01,8.085032701492309570e-01,8.059866428375244141e-01,7.841776609420776367e-01,7.558263540267944336e-01,7.341004014015197754e-01,7.133260965347290039e-01,7.138153910636901855e-01,6.915053129196166992e-01,6.781990528106689453e-01,7.154878973960876465e-01,7.366080284118652344e-01,7.670063972473144531e-01,8.068491220474243164e-01,8.408233523368835449e-01,8.666570186614990234e-01,8.782395720481872559e-01,8.880335092544555664e-01,8.935312628746032715e-01,8.996858596801757812e-01,9.034835100173950195e-01,9.054499864578247070e-01,9.054855704307556152e-01,9.056200981140136719e-01,9.055970311164855957e-01,9.055932760238647461e-01,9.055932760238647461e-01,9.055932760238647461e-01,9.055932760238647461e-01,9.055932760238647461e-01,9.055932760238647461e-01,9.055932760238647461e-01,9.055932760238647461e-01,9.055932760238647461e-01,9.055932760238647461e-01,9.055932760238647461e-01,9.055932760238647461e-01,9.055932760238647461e-01,9.055932760238647461e-01,9.055932760238647461e-01,9.055932760238647461e-01,9.055932760238647461e-01,9.055932760238647461e-01,9.055932760238647461e-01,9.055932760238647461e-01,9.055932760238647461e-01,9.055932760238647461e-01,9.055932760238647461e-01,9.055932760238647461e-01,9.055936336517333984e-01,9.055963754653930664e-01,9.056216478347778320e-01,9.056230783462524414e-01,9.053976535797119141e-01,9.047108292579650879e-01,9.036212563514709473e-01,9.019794464111328125e-01,8.994617462158203125e-01,8.957187533378601074e-01,8.896168470382690430e-01,8.807690143585205078e-01,8.713607788085937500e-01,8.590601086616516113e-01,8.305618762969970703e-01,8.090387582778930664e-01,8.007901906967163086e-01,7.751316428184509277e-01,7.216393947601318359e-01,6.156523227691650391e-01
5.886965990066528320e-01,6.143162250518798828e-01,6.567426323890686035e-01,6.575987935066223145e-01,6.812367439270019531e-01,7.055623531341552734e-01,7.420161962509155273e-01,7.643937468528747559e-01,7.819425463676452637e-01,7.921435832977294922e-01,7.964913845062255859e-01,8.001850247383117676e-01,7.990707159042358398e-01,7.918714284896850586e-01,7.718497514724731445e-01,7.405164241790771484e-01,7.028526067733764648e-01,6.710462570190429688e-01,6.647120118141174316e-01,6.437833905220031738e-01,6.417802572250366211e-01,6.672769784927368164e-01,6.992619037628173828e-01,7.283987998962402344e-01,7.722508311271667480e-01,8.141076564788818359e-01,8.497951030731201172e-01,8.706269264221191406e-01,8.823286294937133789e-01,8.913010358810424805e-01,8.990827798843383789e-01,9.027596712112426758e-01,9.050910472869873047e-01,9.051101207733154297e-01,9.053194522857666016e-01,9.053099155426025391e-01,9.053092002868652344e-01,9.053092002868652344e-01,9.053092002868652344e-01,9.053092002868652344e-01,9.053092002868652344e-01,9.053092002868652344e-01,9.053092002868652344e-01,9.053092002868652344e-01,9.053092002868652344e-01,9.053092002868652344e-01,9.053092002868652344e-01,9.053092002868652344e-01,9.053092002868652344e-01,9.053092002868652344e-01,9.053092002868652344e-01,9.053092002868652344e-01,9.053092002868652344e-01,9.053092002868652344e-01,9.053092002868652344e-01,9.053092002868652344e-01,9.053092002868652344e-01,9.053092002868652344e-01,9.053092002868652344e-01,9.053092002868652344e-01,9.053095579147338867e-01,9.053115844726562500e-01,9.053359031677246094e-01,9.053480625152587891e-01,9.051195383071899414e-01,9.044816493988037109e-01,9.033945202827453613e-01,9.016044139862060547e-01,8.991287946701049805e-01,8.952389955520629883e-01,8.887591361999511719e-01,8.801447749137878418e-01,8.711614012718200684e-01,8.581214547157287598e-01,8.292384147644042969e-01,8.083738088607788086e-01,8.007936477661132812e-01,7.746142148971557617e-01,7.219846248626708984e-01,6.160554289817810059e-01
5.887222886085510254e-01,6.143051981925964355e-01,6.569167375564575195e-01,6.577543616294860840e-01,6.812978386878967285e-01,7.055728435516357422e-01,7.422936558723449707e-01,7.648659944534301758e-01,7.800707817077636719e-01,7.917559146881103516e-01,7.984602451324462891e-01,7.978751659393310547e-01,8.012816905975341797e-01,7.893491387367248535e-01,7.685892581939697266e-01,7.230248451232910156e-01,6.763144731521606445e-01,6.440898776054382324e-01,6.328181624412536621e-01,6.210055351257324219e-01,6.277023553848266602e-01,6.428197622299194336e-01,6.760078668594360352e-01,7.026797533035278320e-01,7.453321218490600586e-01,7.999023199081420898e-01,8.360009193420410156e-01,8.634617924690246582e-01,8.793156743049621582e-01,8.897829055786132812e-01,8.969495296478271484e-01,9.018005728721618652e-01,9.044779539108276367e-01,9.052171111106872559e-01,9.053409695625305176e-01,9.053381681442260742e-01,9.053338766098022461e-01,9.053338766098022461e-01,9.053338766098022461e-01,9.053338766098022461e-01,9.053338766098022461e-01,9.053338766098022461e-01,9.053338766098022461e-01,9.053338766098022461e-01,9.053338766098022461e-01,9.053338766098022461e-01,9.053338766098022461e-01,9.053338766098022461e-01,9.053338766098022461e-01,9.053338766098022461e-01,9.053338766098022461e-01,9.053338766098022461e-01,9.053338766098022461e-01,9.053338766098022461e-01,9.053338766098022461e-01,9.053338766098022461e-01,9.053338766098022461e-01,9.053338766098022461e-01,9.053338766098022461e-01,9.053338766098022461e-01,9.053341150283813477e-01,9.053355455398559570e-01,9.053572416305541992e-01,9.053781628608703613e-01,9.051495790481567383e-01,9.045430421829223633e-01,9.034049510955810547e-01,9.016183614730834961e-01,8.991124033927917480e-01,8.950918912887573242e-01,8.886235356330871582e-01,8.803079128265380859e-01,8.709096908569335938e-01,8.577823042869567871e-01,8.293076157569885254e-01,8.084056377410888672e-01,8.006666898727416992e-01,7.746272087097167969e-01,7.219774723052978516e-01,6.160809993743896484e-01
5.887014269828796387e-01,6.142688393592834473e-01,6.568915843963623047e-01,6.577155590057373047e-01,6.812734007835388184e-01,7.055286169052124023e-01,7.425971627235412598e-01,7.638391256332397461e-01,7.804968953132629395e-01,7.893171310424804688e-01,7.960727810859680176e-01,7.950434684753417969e-01,7.982769012451171875e-01,7.927941083908081055e-01,7.550238966941833496e-01,7.099164724349975586e-01,6.680696010589599609e-01,6.359916925430297852e-01,6.165932416915893555e-01,6.110662817955017090e-01,6.090953946113586426e-01,6.190525889396667480e-01,6.602950096130371094e-01,6.930548548698425293e-01,7.380443811416625977e-01,7.872935533523559570e-01,8.311794996261596680e-01,8.603229522705078125e-01,8.778938651084899902e-01,8.898470401763916016e-01,8.962544202804565430e-01,9.009563922882080078e-01,9.041501283645629883e-01,9.050858020782470703e-01,9.053277969360351562e-01,9.053395986557006836e-01,9.053283333778381348e-01,9.053283333778381348e-01,9.053283333778381348e-01,9.053283333778381348e-01,9.053283333778381348e-01,9.053283333778381348e-01,9.053283333778381348e-01,9.053283333778381348e-01,9.053283333778381348e-01,9.053283333778381348e-01,9.053283333778381348e-01,9.053283333778381348e-01,9.053283333778381348e-01,9.053283333778381348e-01,9.053283333778381348e-01,9.053283333778381348e-01,9.053283333778381348e-01,9.053283333778381348e-01,9.053283333778381348e-01,9.053283333778381348e-01,9.053283333778381348e-01,9.053283333778381348e-01,9.053283333778381348e-01,9.053283333778381348e-01,9.053285121917724609e-01,9.053298830986022949e-01,9.053539037704467773e-01,9.053707122802734375e-01,9.051685333251953125e-01,9.045516252517700195e-01,9.033970832824707031e-01,9.016228318214416504e-01,8.990778923034667969e-01,8.949615955352783203e-01,8.886681795120239258e-01,8.801960945129394531e-01,8.707523345947265625e-01,8.578670024871826172e-01,8.293198347091674805e-01,8.082330226898193359e-01,8.006216287612915039e-01,7.746288776397705078e-01,7.220144271850585938e-01,6.160343885421752930e-01
5.886945724487304688e-01,6.142576932907104492e-01,6.568787097930908203e-01,6.577008962631225586e-01,6.812441349029541016e-01,7.054940462112426758e-01,7.426358461380004883e-01,7.630540132522583008e-01,7.814816236495971680e-01,7.924287319183349609e-01,7.986650466918945312e-01,7.962601780891418457e-01,7.980691194534301758e-01,7.895227670669555664e-01,7.620527744293212891e-01,7.013111114501953125e-01,6.618303060531616211e-01,6.337478160858154297e-01,6.091784834861755371e-01,6.090610623359680176e-01,6.052820086479187012e-01,6.135277152061462402e-01,6.515092253684997559e-01,6.854929924011230469e-01,7.207809090614318848e-01,7.717169523239135742e-01,8.233598470687866211e-01,8.576406240463256836e-01,8.734306097030639648e-01,8.893250823020935059e-01,8.940321207046508789e-01,8.993952870368957520e-01,9.041692614555358887e-01,9.050840139389038086e-01,9.053434729576110840e-01,9.053367376327514648e-01,9.053283333778381348e-01,9.053283333778381348e-01,9.053283333778381348e-01,9.053283333778381348e-01,9.053283333778381348e-01,9.053283333778381348e-01,9.053283333778381348e-01,9.053283333778381348e-01,9.053283333778381348e-01,9.053283333778381348e-01,9.053283333778381348e-01,9.053283333778381348e-01,9.053283333778381348e-01,9.053283333778381348e-01,9.053283333778381348e-01,9.053283333778381348e-01,9.053283333778381348e-01,9.053283333778381348e-01,9.053283333778381348e-01,9.053283333778381348e-01,9.053283333778381348e-01,9.053283333778381348e-01,9.053283333778381348e-01,9.053283333778381348e-01,9.053285121917724609e-01,9.053297042846679688e-01,9.053524732589721680e-01,9.053744077682495117e-01,9.051628112792968750e-01,9.045405387878417969e-01,9.033979177474975586e-01,9.016388654708862305e-01,8.990619182586669922e-01,8.949753046035766602e-01,8.886573314666748047e-01,8.801587224006652832e-01,8.708219528198242188e-01,8.578847646713256836e-01,8.292549848556518555e-01,8.082411289215087891e-01,8.006470203399658203e-01,7.746524810791015625e-01,7.220209836959838867e-01,6.160440444946289062e-01
5.886877179145812988e-01,6.142466068267822266e-01,6.568658947944641113e-01,6.576861143112182617e-01,6.812264919281005859e-01,7.054466009140014648e-01,7.420835494995117188e-01,7.637364268302917480e-01,7.817901968955993652e-01,7.944676876068115234e-01,7.987399101257324219e-01,7.949965000152587891e-01,7.960801124572753906e-01,7.854427695274353027e-01,7.629985809326171875e-01,6.997082233428955078e-01,6.602498292922973633e-01,6.315025091171264648e-01,6.041625738143920898e-01,6.018805503845214844e-01,5.861863493919372559e-01,6.071314811706542969e-01,6.526036262512207031e-01,6.886519193649291992e-01,7.230024337768554688e-01,7.668734788894653320e-01,8.167098760604858398e-01,8.521237969398498535e-01,8.707578182220458984e-01,8.880075812339782715e-01,8.947862386703491211e-01,8.996115326881408691e-01,9.038662910461425781e-01,9.051623344421386719e-01,9.053443670272827148e-01,9.053373932838439941e-01,9.053283333778381348e-01,9.053283333778381348e-01,9.053283333778381348e-01,9.053283333778381348e-01,9.053283333778381348e-01,9.053283333778381348e-01,9.053283333778381348e-01,9.053283333778381348e-01,9.053283333778381348e-01,9.053283333778381348e-01,9.053283333778381348e-01,9.053283333778381348e-01,9.053283333778381348e-01,9.053283333778381348e-01,9.053283333778381348e-01,9.053283333778381348e-01,9.053283333778381348e-01,9.053283333778381348e-01,9.053283333778381348e-01,9.053283333778381348e-01,9.053283333778381348e-01,9.053283333778381348e-01,9.053283333778381348e-01,9.053283333778381348e-01,9.053285121917724609e-01,9.053297042846679688e-01,9.053524732589721680e-01,9.053733348846435547e-01,9.051613807678222656e-01,9.045417308807373047e-01,9.034023880958557129e-01,9.016454815864562988e-01,8.990692496299743652e-01,8.949658870697021484e-01,8.886595964431762695e-01,8.801895976066589355e-01,8.708317279815673828e-01,8.578763008117675781e-01,8.292714357376098633e-01,8.082596063613891602e-01,8.006595373153686523e-01,7.746643424034118652e-01,7.220321893692016602e-01,6.160528659820556641e-01
5.886808037757873535e-01,6.142354011535644531e-01,6.568530797958374023e-01,6.576712727546691895e-01,6.812079548835754395e-01,7.053946852684020996e-01,7.417798042297363281e-01,7.643115520477294922e-01,7.837628126144409180e-01,7.955022454261779785e-01,7.985796928405761719e-01,8.010148406028747559e-01,7.968629598617553711e-01,7.871336340904235840e-01,7.592128515243530273e-01,7.027886509895324707e-01,6.551258563995361328e-01,6.267212629318237305e-01,6.103113889694213867e-01,6.019568443298339844e-01,5.896164178848266602e-01,6.117367744445800781e-01,6.479803323745727539e-01,6.950899362564086914e-01,7.291600704193115234e-01,7.625984549522399902e-01,8.151841163635253906e-01,8.513785600662231445e-01,8.698594570159912109e-01,8.875097036361694336e-01,8.937804698944091797e-01,8.990951180458068848e-01,9.039753675460815430e-01,9.050215482711791992e-01,9.053442478179931641e-01,9.053385257720947266e-01,9.053283333778381348e-01,9.053283333778381348e-01,9.053283333778381348e-01,9.053283333778381348e-01,9.053283333778381348e-01,9.053283333778381348e-01,9.053283333778381348e-01,9.053283333778381348e-01,9.053283333778381348e-01,9.053283333778381348e-01,9.053283333778381348e-01,9.053283333778381348e-01,9.053283333778381348e-01,9.053283333778381348e-01,9.053283333778381348e-01,9.053283333778381348e-01,9.053283333778381348e-01,9.053283333778381348e-01,9.053283333778381348e-01,9.053283333778381348e-01,9.053283333778381348e-01,9.053283333778381348e-01,9.053283333778381348e-01,9.053283333778381348e-01,9.053285121917724609e-01,9.053297042846679688e-01,9.053521156311035156e-01,9.053735136985778809e-01,9.051614403724670410e-01,9.045421481132507324e-01,9.034036397933959961e-01,9.016471505165100098e-01,8.990716934204101562e-01,8.949682712554931641e-01,8.886646032333374023e-01,8.801963329315185547e-01,8.708385229110717773e-01,8.578846454620361328e-01,8.292854428291320801e-01,8.082740306854248047e-01,8.006721735000610352e-01,7.746772170066833496e-01,7.220430374145507812e-01,6.160591244697570801e-01
5.886739492416381836e-01,6.142244338989257812e-01,6.568402051925659180e-01,6.576563715934753418e-01,6.811931133270263672e-01,7.053956389427185059e-01,7.417767643928527832e-01,7.639973163604736328e-01,7.841608524322509766e-01,7.943975925445556641e-01,7.976448535919189453e-01,8.014278411865234375e-01,7.958859205245971680e-01,7.849646806716918945e-01,7.646664977073669434e-01,7.012236118316650391e-01,6.520802378654479980e-01,6.306258440017700195e-01,6.128447055816650391e-01,5.953158140182495117e-01,5.885389447212219238e-01,6.197053790092468262e-01,6.536023616790771484e-01,7.043325901031494141e-01,7.367500662803649902e-01,7.627315521240234375e-01,8.193224668502807617e-01,8.528871536254882812e-01,8.740193247795104980e-01,8.898966312408447266e-01,8.944080471992492676e-01,8.995690345764160156e-01,9.042428731918334961e-01,9.049333930015563965e-01,9.053299427032470703e-01,9.053383469581604004e-01,9.053283333778381348e-01,9.053283333778381348e-01,9.053283333778381348e-01,9.053283333778381348e-01,9.053283333778381348e-01,9.053283333778381348e-01,9.053283333778381348e-01,9.053283333778381348e-01,9.053283333778381348e-01,9.053283333778381348e-01,9.053283333778381348e-01,9.053283333778381348e-01,9.053283333778381348e-01,9.053283333778381348e-01,9.053283333778381348e-01,9.053283333778381348e-01,9.053283333778381348e-01,9.053283333778381348e-01,9.053283333778381348e-01,9.053283333778381348e-01,9.053283333778381348e-01,9.053283333778381348e-01,9.053283333778381348e-01,9.053283333778381348e-01,9.053285121917724609e-01,9.053297042846679688e-01,9.053521156311035156e-01,9.053734540939331055e-01,9.051617383956909180e-01,9.045426845550537109e-01,9.034043550491333008e-01,9.016485214233398438e-01,8.990736007690429688e-01,8.949716687202453613e-01,8.886699676513671875e-01,8.802033662796020508e-01,8.708459138870239258e-01,8.578947186470031738e-01,8.292973637580871582e-01,8.082869648933410645e-01,8.006849884986877441e-01,7.746896743774414062e-01,7.220528721809387207e-01,6.160663366317749023e-01
5.886673331260681152e-01,6.142135858535766602e-01,6.568275690078735352e-01,6.576416492462158203e-01,6.811892390251159668e-01,7.054188847541809082e-01,7.419042587280273438e-01,7.638435959815979004e-01,7.837712764739990234e-01,7.929485440254211426e-01,7.984299659729003906e-01,8.013418316841125488e-01,7.958142757415771484e-01,7.867585420608520508e-01,7.645003795623779297e-01,6.995998024940490723e-01,6.528409123420715332e-01,6.336320638656616211e-01,6.179340481758117676e-01,6.011464595794677734e-01,6.041899919509887695e-01,6.192190051078796387e-01,6.558864712715148926e-01,7.165751457214355469e-01,7.426728010177612305e-01,7.742443084716796875e-01,8.159653544425964355e-01,8.534550666809082031e-01,8.736350536346435547e-01,8.888757228851318359e-01,8.945509195327758789e-01,8.992997407913208008e-01,9.040130376815795898e-01,9.048368930816650391e-01,9.053223133087158203e-01,9.053393602371215820e-01,9.053283333778381348e-01,9.053283333778381348e-01,9.053283333778381348e-01,9.053283333778381348e-01,9.053283333778381348e-01,9.053283333778381348e-01,9.053283333778381348e-01,9.053283333778381348e-01,9.053283333778381348e-01,9.053283333778381348e-01,9.053283333778381348e-01,9.053283333778381348e-01,9.053283333778381348e-01,9.053283333778381348e-01,9.053283333778381348e-01,9.053283333778381348e-01,9.053283333778381348e-01,9.053283333778381348e-01,9.053283333778381348e-01,9.053283333778381348e-01,9.053283333778381348e-01,9.053283333778381348e-01,9.053283333778381348e-01,9.053283333778381348e-01,9.053285121917724609e-01,9.053297042846679688e-01,9.053521156311035156e-01,9.053735136985778809e-01,9.051617383956909180e-01,9.045431613922119141e-01,9.034051895141601562e-01,9.016499519348144531e-01,8.990756273269653320e-01,8.949748277664184570e-01,8.886750936508178711e-01,8.802100419998168945e-01,8.708540201187133789e-01,8.579041957855224609e-01,8.293091058731079102e-01,8.082998991012573242e-01,8.006978631019592285e-01,7.747020721435546875e-01,7.220630645751953125e-01,6.160733699798583984e-01
5.886611938476562500e-01,6.142032146453857422e-01,6.568154096603393555e-01,6.576270461082458496e-01,6.811766028404235840e-01,7.054183483123779297e-01,7.419089078903198242e-01,7.636103630065917969e-01,7.828680872917175293e-01,7.915773391723632812e-01,7.971837520599365234e-01,8.009876608848571777e-01,7.970268130302429199e-01,7.894465327262878418e-01,7.652916312217712402e-01,6.993907690048217773e-01,6.561247110366821289e-01,6.360352635383605957e-01,6.208691000938415527e-01,6.110075712203979492e-01,6.100676059722900391e-01,6.240903735160827637e-01,6.573332548141479492e-01,7.352811098098754883e-01,7.451757192611694336e-01,7.833322882652282715e-01,8.265156149864196777e-01,8.516684174537658691e-01,8.715538978576660156e-01,8.898133635520935059e-01,8.951194286346435547e-01,9.001351594924926758e-01,9.037412405014038086e-01,9.047061204910278320e-01,9.052667617797851562e-01,9.053369760513305664e-01,9.053283333778381348e-01,9.053283333778381348e-01,9.053283333778381348e-01,9.053283333778381348e-01,9.053283333778381348e-01,9.053283333778381348e-01,9.053283333778381348e-01,9.053283333778381348e-01,9.053283333778381348e-01,9.053283333778381348e-01,9.053283333778381348e-01,9.053283333778381348e-01,9.053283333778381348e-01,9.053283333778381348e-01,9.053283333778381348e-01,9.053283333778381348e-01,9.053283333778381348e-01,9.053283333778381348e-01,9.053283333778381348e-01,9.053283333778381348e-01,9.053283333778381348e-01,9.053283333778381348e-01,9.053283333778381348e-01,9.053283333778381348e-01,9.053285121917724609e-01,9.053297042846679688e-01,9.053521156311035156e-01,9.053734540939331055e-01,9.051620960235595703e-01,9.045436382293701172e-01,9.034061431884765625e-01,9.016514420509338379e-01,8.990777134895324707e-01,8.949781656265258789e-01,8.886801004409790039e-01,8.802167177200317383e-01,8.708618879318237305e-01,8.579138517379760742e-01,8.293206095695495605e-01,8.083125352859497070e-01,8.007104992866516113e-01,7.747142314910888672e-01,7.220731973648071289e-01,6.160804629325866699e-01
5.886556506156921387e-01,6.141939759254455566e-01,6.568039655685424805e-01,6.576132774353027344e-01,6.811668872833251953e-01,7.054098844528198242e-01,7.417579293251037598e-01,7.634915113449096680e-01,7.824535369873046875e-01,7.915174961090087891e-01,7.961561679840087891e-01,7.982534170150756836e-01,7.973597049713134766e-01,7.899338006973266602e-01,7.589687108993530273e-01,7.036518454551696777e-01,6.534006595611572266e-01,6.372811794281005859e-01,6.208049058914184570e-01,6.242479681968688965e-01,6.254134178161621094e-01,6.321319937705993652e-01,6.730626821517944336e-01,7.346318960189819336e-01,7.597748637199401855e-01,7.757432460784912109e-01,8.316216468811035156e-01,8.537078499794006348e-01,8.720576763153076172e-01,8.890902996063232422e-01,8.954419493675231934e-01,8.997046351432800293e-01,9.033412933349609375e-01,9.047160148620605469e-01,9.052664041519165039e-01,9.053390026092529297e-01,9.053283333778381348e-01,9.053283333778381348e-01,9.053283333778381348e-01,9.053283333778381348e-01,9.053283333778381348e-01,9.053283333778381348e-01,9.053283333778381348e-01,9.053283333778381348e-01,9.053283333778381348e-01,9.053283333778381348e-01,9.053283333778381348e-01,9.053283333778381348e-01,9.053283333778381348e-01,9.053283333778381348e-01,9.053283333778381348e-01,9.053283333778381348e-01,9.053283333778381348e-01,9.053283333778381348e-01,9.053283333778381348e-01,9.053283333778381348e-01,9.053283333778381348e-01,9.053283333778381348e-01,9.053283333778381348e-01,9.053283333778381348e-01,9.053285121917724609e-01,9.053297042846679688e-01,9.053520560264587402e-01,9.053733348846435547e-01,9.051622152328491211e-01,9.045440554618835449e-01,9.034070968627929688e-01,9.016525745391845703e-01,8.990796208381652832e-01,8.949813842773437500e-01,8.886851072311401367e-01,8.802235126495361328e-01,8.708698749542236328e-01,8.579233884811401367e-01,8.293321132659912109e-01,8.083252906799316406e-01,8.007231950759887695e-01,7.747265696525573730e-01,7.220835685729980469e-01,6.160875558853149414e-01
5.886506438255310059e-01,6.141855716705322266e-01,6.567938327789306641e-01,6.576011776924133301e-01,6.811612844467163086e-01,7.053857445716857910e-01,7.417327165603637695e-01,7.636954784393310547e-01,7.818334698677062988e-01,7.916494607925415039e-01,7.946615219116210938e-01,7.970608472824096680e-01,7.959513664245605469e-01,7.886890172958374023e-01,7.568861246109008789e-01,7.070450186729431152e-01,6.540345549583435059e-01,6.364383697509765625e-01,6.252247095108032227e-01,6.358628869056701660e-01,6.389224529266357422e-01,6.398527622222900391e-01,6.843940019607543945e-01,7.540545463562011719e-01,7.713143825531005859e-01,7.900941371917724609e-01,8.262848258018493652e-01,8.593696355819702148e-01,8.735446333885192871e-01,8.904992341995239258e-01,8.960769176483154297e-01,9.000090360641479492e-01,9.035880565643310547e-01,9.047960042953491211e-01,9.053148031234741211e-01,9.053391218185424805e-01,9.053283333778381348e-01,9.053283333778381348e-01,9.053283333778381348e-01,9.053283333778381348e-01,9.053283333778381348e-01,9.053283333778381348e-01,9.053283333778381348e-01,9.053283333778381348e-01,9.053283333778381348e-01,9.053283333778381348e-01,9.053283333778381348e-01,9.053283333778381348e-01,9.053283333778381348e-01,9.053283333778381348e-01,9.053283333778381348e-01,9.053283333778381348e-01,9.053283333778381348e-01,9.053283333778381348e-01,9.053283333778381348e-01,9.053283333778381348e-01,9.053283333778381348e-01,9.053283333778381348e-01,9.053283333778381348e-01,9.053283333778381348e-01,9.053285121917724609e-01,9.053297042846679688e-01,9.053520560264587402e-01,9.053734540939331055e-01,9.051623344421386719e-01,9.045445919036865234e-01,9.034079313278198242e-01,9.016538858413696289e-01,8.990817070007324219e-01,8.949846029281616211e-01,8.886901140213012695e-01,8.802301883697509766e-01,8.708776235580444336e-01,8.579329252243041992e-01,8.293433785438537598e-01,8.083381056785583496e-01,8.007358312606811523e-01,7.747387886047363281e-01,7.220935821533203125e-01,6.160945892333984375e-01
5.886462330818176270e-01,6.141782402992248535e-01,6.567848324775695801e-01,6.575906276702880859e-01,6.811494827270507812e-01,7.053658366203308105e-01,7.416454553604125977e-01,7.630660533905029297e-01,7.817111611366271973e-01,7.907354831695556641e-01,7.931143045425415039e-01,8.000985383987426758e-01,7.948773503303527832e-01,7.867776155471801758e-01,7.614147663116455078e-01,7.045256495475769043e-01,6.519509553909301758e-01,6.460687518119812012e-01,6.443508863449096680e-01,6.569615602493286133e-01,6.504824161529541016e-01,6.637139916419982910e-01,6.918864250183105469e-01,7.579014897346496582e-01,7.864888906478881836e-01,8.064191341400146484e-01,8.336998224258422852e-01,8.608100414276123047e-01,8.771546483039855957e-01,8.908609151840209961e-01,8.962919712066650391e-01,9.010378122329711914e-01,9.037108421325683594e-01,9.050187468528747559e-01,9.053040742874145508e-01,9.053429961204528809e-01,9.053283333778381348e-01,9.053283333778381348e-01,9.053283333778381348e-01,9.053283333778381348e-01,9.053283333778381348e-01,9.053283333778381348e-01,9.053283333778381348e-01,9.053283333778381348e-01,9.053283333778381348e-01,9.053283333778381348e-01,9.053283333778381348e-01,9.053283333778381348e-01,9.053283333778381348e-01,9.053283333778381348e-01,9.053283333778381348e-01,9.053283333778381348e-01,9.053283333778381348e-01,9.053283333778381348e-01,9.053283333778381348e-01,9.053283333778381348e-01,9.053283333778381348e-01,9.053283333778381348e-01,9.053283333778381348e-01,9.053283333778381348e-01,9.053285121917724609e-01,9.053297042846679688e-01,9.053519964218139648e-01,9.053733348846435547e-01,9.051624536514282227e-01,9.045450687408447266e-01,9.034087657928466797e-01,9.016553163528442383e-01,8.990837335586547852e-01,8.949877023696899414e-01,8.886951208114624023e-01,8.802368044853210449e-01,8.708854913711547852e-01,8.579422235488891602e-01,8.293551206588745117e-01,8.083505630493164062e-01,8.007485270500183105e-01,7.747511863708496094e-01,7.221035957336425781e-01,6.161018013954162598e-01
5.886418223381042480e-01,6.141710877418518066e-01,6.567761898040771484e-01,6.575806736946105957e-01,6.811243891716003418e-01,7.053667306900024414e-01,7.415536642074584961e-01,7.632627487182617188e-01,7.835152149200439453e-01,7.891766428947448730e-01,7.941945791244506836e-01,7.991299629211425781e-01,7.903653383255004883e-01,7.871835827827453613e-01,7.616387009620666504e-01,7.006105184555053711e-01,6.442247033119201660e-01,6.595545411109924316e-01,6.677114963531494141e-01,6.648823618888854980e-01,6.664096117019653320e-01,6.813037991523742676e-01,7.255111932754516602e-01,7.565202116966247559e-01,8.117805123329162598e-01,8.206835389137268066e-01,8.471463918685913086e-01,8.677924871444702148e-01,8.792346119880676270e-01,8.928678035736083984e-01,8.993494510650634766e-01,9.017794132232666016e-01,9.044883847236633301e-01,9.050318598747253418e-01,9.053205251693725586e-01,9.053386449813842773e-01,9.053283333778381348e-01,9.053283333778381348e-01,9.053283333778381348e-01,9.053283333778381348e-01,9.053283333778381348e-01,9.053283333778381348e-01,9.053283333778381348e-01,9.053283333778381348e-01,9.053283333778381348e-01,9.053283333778381348e-01,9.053283333778381348e-01,9.053283333778381348e-01,9.053283333778381348e-01,9.053283333778381348e-01,9.053283333778381348e-01,9.053283333778381348e-01,9.053283333778381348e-01,9.053283333778381348e-01,9.053283333778381348e-01,9.053283333778381348e-01,9.053283333778381348e-01,9.053283333778381348e-01,9.053283333778381348e-01,9.053283333778381348e-01,9.053285121917724609e-01,9.053297042846679688e-01,9.053519964218139648e-01,9.053732752799987793e-01,9.051625728607177734e-01,9.045455455780029297e-01,9.034097194671630859e-01,9.016567468643188477e-01,8.990857601165771484e-01,8.949910998344421387e-01,8.886999487876892090e-01,8.802435398101806641e-01,8.708934783935546875e-01,8.579517006874084473e-01,8.293665647506713867e-01,8.083633780479431152e-01,8.007613420486450195e-01,7.747633457183837891e-01,7.221138477325439453e-01,6.161088347434997559e-01
5.886372327804565430e-01,6.141636967658996582e-01,6.567682623863220215e-01,6.575714945793151855e-01,6.811006665229797363e-01,7.053649425506591797e-01,7.417789697647094727e-01,7.647243738174438477e-01,7.831347584724426270e-01,7.915066480636596680e-01,7.981318235397338867e-01,8.013867139816284180e-01,7.895397543907165527e-01,7.854237556457519531e-01,7.643845081329345703e-01,7.065123915672302246e-01,6.639059185981750488e-01,6.669825315475463867e-01,6.789534687995910645e-01,6.768533587455749512e-01,6.858898401260375977e-01,7.075823545455932617e-01,7.395926117897033691e-01,7.893287539482116699e-01,8.136999011039733887e-01,8.400883674621582031e-01,8.589801788330078125e-01,8.740543127059936523e-01,8.835029602050781250e-01,8.954579830169677734e-01,9.016560316085815430e-01,9.033095240592956543e-01,9.049537181854248047e-01,9.051277637481689453e-01,9.053347706794738770e-01,9.053313732147216797e-01,9.053283333778381348e-01,9.053283333778381348e-01,9.053283333778381348e-01,9.053283333778381348e-01,9.053283333778381348e-01,9.053283333778381348e-01,9.053283333778381348e-01,9.053283333778381348e-01,9.053283333778381348e-01,9.053283333778381348e-01,9.053283333778381348e-01,9.053283333778381348e-01,9.053283333778381348e-01,9.053283333778381348e-01,9.053283333778381348e-01,9.053283333778381348e-01,9.053283333778381348e-01,9.053283333778381348e-01,9.053283333778381348e-01,9.053283333778381348e-01,9.053283333778381348e-01,9.053283333778381348e-01,9.053283333778381348e-01,9.053283333778381348e-01,9.053285121917724609e-01,9.053297042846679688e-01,9.053519964218139648e-01,9.053732752799987793e-01,9.051628112792968750e-01,9.045461416244506836e-01,9.034106135368347168e-01,9.016580581665039062e-01,8.990877866744995117e-01,8.949943780899047852e-01,8.887051343917846680e-01,8.802504539489746094e-01,8.709014654159545898e-01,8.579612970352172852e-01,8.293781280517578125e-01,8.083760142326354980e-01,8.007739186286926270e-01,7.747757434844970703e-01,7.221240401268005371e-01,6.161160469055175781e-01
5.886320471763610840e-01,6.141559481620788574e-01,6.567596793174743652e-01,6.575614809989929199e-01,6.810976266860961914e-01,7.053471803665161133e-01,7.418414354324340820e-01,7.647817134857177734e-01,7.814640998840332031e-01,7.922934293746948242e-01,8.020484447479248047e-01,8.011577129364013672e-01,7.957528829574584961e-01,7.904820442199707031e-01,7.742885351181030273e-01,7.148658037185668945e-01,6.804945468902587891e-01,6.728466749191284180e-01,6.858294010162353516e-01,7.096356153488159180e-01,6.965402364730834961e-01,7.140229940414428711e-01,7.540887594223022461e-01,8.072272539138793945e-01,8.367798328399658203e-01,8.486800193786621094e-01,8.699980974197387695e-01,8.830523490905761719e-01,8.923839330673217773e-01,8.983959555625915527e-01,9.034997224807739258e-01,9.055553078651428223e-01,9.048901796340942383e-01,9.051914215087890625e-01,9.053090214729309082e-01,9.053347110748291016e-01,9.053283333778381348e-01,9.053283333778381348e-01,9.053283333778381348e-01,9.053283333778381348e-01,9.053283333778381348e-01,9.053283333778381348e-01,9.053283333778381348e-01,9.053283333778381348e-01,9.053283333778381348e-01,9.053283333778381348e-01,9.053283333778381348e-01,9.053283333778381348e-01,9.053283333778381348e-01,9.053283333778381348e-01,9.053283333778381348e-01,9.053283333778381348e-01,9.053283333778381348e-01,9.053283333778381348e-01,9.053283333778381348e-01,9.053283333778381348e-01,9.053283333778381348e-01,9.053283333778381348e-01,9.053283333778381348e-01,9.053283333778381348e-01,9.053285121917724609e-01,9.053297042846679688e-01,9.053519368171691895e-01,9.053732752799987793e-01,9.051629900932312012e-01,9.045464992523193359e-01,9.034114480018615723e-01,9.016593694686889648e-01,8.990896940231323242e-01,8.949975371360778809e-01,8.887100219726562500e-01,8.802572488784790039e-01,8.709092140197753906e-01,8.579708337783813477e-01,8.293895721435546875e-01,8.083889484405517578e-01,8.007866740226745605e-01,7.747881412506103516e-01,7.221343517303466797e-01,6.161231994628906250e-01
5.886266827583312988e-01,6.141470074653625488e-01,6.567497253417968750e-01,6.575504541397094727e-01,6.810918450355529785e-01,7.053153514862060547e-01,7.421444654464721680e-01,7.637576460838317871e-01,7.821238040924072266e-01,7.941428422927856445e-01,8.025056123733520508e-01,8.044204711914062500e-01,8.035340905189514160e-01,8.036719560623168945e-01,7.676339149475097656e-01,7.248910069465637207e-01,7.003169059753417969e-01,6.906924843788146973e-01,7.039899826049804688e-01,7.265518307685852051e-01,7.249759435653686523e-01,7.209027409553527832e-01,7.723450660705566406e-01,8.207254409790039062e-01,8.468000888824462891e-01,8.581390380859375000e-01,8.761768341064453125e-01,8.893349170684814453e-01,8.962708711624145508e-01,9.030743241310119629e-01,9.038318395614624023e-01,9.053015708923339844e-01,9.054133892059326172e-01,9.051586389541625977e-01,9.053468108177185059e-01,9.053318500518798828e-01,9.053264260292053223e-01,9.053263664245605469e-01,9.053263664245605469e-01,9.053263664245605469e-01,9.053263664245605469e-01,9.053263664245605469e-01,9.053263664245605469e-01,9.053262472152709961e-01,9.053262472152709961e-01,9.053262472152709961e-01,9.053262472152709961e-01,9.053262472152709961e-01,9.053261280059814453e-01,9.053261280059814453e-01,9.053261280059814453e-01,9.053261280059814453e-01,9.053260684013366699e-01,9.053260684013366699e-01,9.053260684013366699e-01,9.053261280059814453e-01,9.053260684013366699e-01,9.053260684013366699e-01,9.053261280059814453e-01,9.053261280059814453e-01,9.053262472152709961e-01,9.053274393081665039e-01,9.053497314453125000e-01,9.053709506988525391e-01,9.051609039306640625e-01,9.045449495315551758e-01,9.034106731414794922e-01,9.016591310501098633e-01,8.990900516510009766e-01,8.949987888336181641e-01,8.887133002281188965e-01,8.802626729011535645e-01,8.709164857864379883e-01,8.579800128936767578e-01,8.294010162353515625e-01,8.084017634391784668e-01,8.007996082305908203e-01,7.748007178306579590e-01,7.221447229385375977e-01,6.161304116249084473e-01
5.886208415031433105e-01,6.141375899314880371e-01,6.567388772964477539e-01,6.575372815132141113e-01,6.810631752014160156e-01,7.052764296531677246e-01,7.422420978546142578e-01,7.630631923675537109e-01,7.836052775382995605e-01,7.972463369369506836e-01,8.071553707122802734e-01,8.051105737686157227e-01,8.076599836349487305e-01,8.041479587554931641e-01,7.814718484878540039e-01,7.433627247810363770e-01,7.205561399459838867e-01,7.068935632705688477e-01,7.146344184875488281e-01,7.312005162239074707e-01,7.414559721946716309e-01,7.526733875274658203e-01,7.842662334442138672e-01,8.319981098175048828e-01,8.477073907852172852e-01,8.711806535720825195e-01,8.809224367141723633e-01,8.924591541290283203e-01,8.988019227981567383e-01,9.029411077499389648e-01,9.050825834274291992e-01,9.051296710968017578e-01,9.054638147354125977e-01,9.052129983901977539e-01,9.053437709808349609e-01,9.053254127502441406e-01,9.053208827972412109e-01,9.053208827972412109e-01,9.053209424018859863e-01,9.053209424018859863e-01,9.053210020065307617e-01,9.053211212158203125e-01,9.053211212158203125e-01,9.053211212158203125e-01,9.053212404251098633e-01,9.053212404251098633e-01,9.053213596343994141e-01,9.053212404251098633e-01,9.053214192390441895e-01,9.053214192390441895e-01,9.053214192390441895e-01,9.053214192390441895e-01,9.053214788436889648e-01,9.053215980529785156e-01,9.053215980529785156e-01,9.053215980529785156e-01,9.053217172622680664e-01,9.053217172622680664e-01,9.053217768669128418e-01,9.053217768669128418e-01,9.053220748901367188e-01,9.053232073783874512e-01,9.053454995155334473e-01,9.053668975830078125e-01,9.051569700241088867e-01,9.045404195785522461e-01,9.034068584442138672e-01,9.016559123992919922e-01,8.990864753723144531e-01,8.949944972991943359e-01,8.887089490890502930e-01,8.802582025527954102e-01,8.709121942520141602e-01,8.579795360565185547e-01,8.294038772583007812e-01,8.084071874618530273e-01,8.008057475090026855e-01,7.748059034347534180e-01,7.221468687057495117e-01,6.161313652992248535e-01
5.886098742485046387e-01,6.141239404678344727e-01,6.567227840423583984e-01,6.575237512588500977e-01,6.810485720634460449e-01,7.052411437034606934e-01,7.417692542076110840e-01,7.636837959289550781e-01,7.839313149452209473e-01,7.992829084396362305e-01,8.106476068496704102e-01,8.114454150199890137e-01,8.150789737701416016e-01,8.098543882369995117e-01,7.873638868331909180e-01,7.647845745086669922e-01,7.324408888816833496e-01,7.195807099342346191e-01,7.293422818183898926e-01,7.430468797683715820e-01,7.462847232818603516e-01,7.627553939819335938e-01,7.984759807586669922e-01,8.345799446105957031e-01,8.575978279113769531e-01,8.766973614692687988e-01,8.865127563476562500e-01,8.954063057899475098e-01,9.005165696144104004e-01,9.026533961296081543e-01,9.048297405242919922e-01,9.055431485176086426e-01,9.053352475166320801e-01,9.054287672042846680e-01,9.053995609283447266e-01,9.053949117660522461e-01,9.053912758827209473e-01,9.053914546966552734e-01,9.053919315338134766e-01,9.053921699523925781e-01,9.053922891616821289e-01,9.053925871849060059e-01,9.053929448127746582e-01,9.053931236267089844e-01,9.053934216499328613e-01,9.053936600685119629e-01,9.053940773010253906e-01,9.053941369056701660e-01,9.053944945335388184e-01,9.053947329521179199e-01,9.053950309753417969e-01,9.053952693939208984e-01,9.053955078125000000e-01,9.053957462310791016e-01,9.053959846496582031e-01,9.053963422775268555e-01,9.053965806961059570e-01,9.053968191146850586e-01,9.053971171379089355e-01,9.053972959518432617e-01,9.053978919982910156e-01,9.053995013236999512e-01,9.054224491119384766e-01,9.054448604583740234e-01,9.052376747131347656e-01,9.046198725700378418e-01,9.034807085990905762e-01,9.017146825790405273e-01,8.991355895996093750e-01,8.950451612472534180e-01,8.887736797332763672e-01,8.803347349166870117e-01,8.710002303123474121e-01,8.580505251884460449e-01,8.294695615768432617e-01,8.084533214569091797e-01,8.008358478546142578e-01,7.748243808746337891e-01,7.221452593803405762e-01,6.161309480667114258e-01
5.886169075965881348e-01,6.141328215599060059e-01,6.567295789718627930e-01,6.575417518615722656e-01,6.810760498046875000e-01,7.052773833274841309e-01,7.416182160377502441e-01,7.641376256942749023e-01,7.849145531654357910e-01,8.011409044265747070e-01,8.110849261283874512e-01,8.173342347145080566e-01,8.186619877815246582e-01,8.199700117111206055e-01,8.017076849937438965e-01,7.833832502365112305e-01,7.410588264465332031e-01,7.254935503005981445e-01,7.452795505523681641e-01,7.429810762405395508e-01,7.557698488235473633e-01,7.659908533096313477e-01,8.154859542846679688e-01,8.376463055610656738e-01,8.606007099151611328e-01,8.824983239173889160e-01,8.896194696426391602e-01,8.971242904663085938e-01,9.020959138870239258e-01,9.036965966224670410e-01,9.047398567199707031e-01,9.055482149124145508e-01,9.055424928665161133e-01,9.055176973342895508e-01,9.054937362670898438e-01,9.054834246635437012e-01,9.054809808731079102e-01,9.054801464080810547e-01,9.054793119430541992e-01,9.054784774780273438e-01,9.054775238037109375e-01,9.054766297340393066e-01,9.054757356643676758e-01,9.054749011993408203e-01,9.054740071296691895e-01,9.054731726646423340e-01,9.054722189903259277e-01,9.054715633392333984e-01,9.054706096649169922e-01,9.054696559906005859e-01,9.054688811302185059e-01,9.054681062698364258e-01,9.054670333862304688e-01,9.054663777351379395e-01,9.054653048515319824e-01,9.054645299911499023e-01,9.054636955261230469e-01,9.054627418518066406e-01,9.054620265960693359e-01,9.054609537124633789e-01,9.054605960845947266e-01,9.054611921310424805e-01,9.054841995239257812e-01,9.055072069168090820e-01,9.053022265434265137e-01,9.046816825866699219e-01,9.035501480102539062e-01,9.017893075942993164e-01,8.992093205451965332e-01,8.951148390769958496e-01,8.888958692550659180e-01,8.804683685302734375e-01,8.711256980895996094e-01,8.582127094268798828e-01,8.296988010406494141e-01,8.086996078491210938e-01,8.010919690132141113e-01,7.750723958015441895e-01,7.224292159080505371e-01,6.165241599082946777e-01
5.888009667396545410e-01,6.143103837966918945e-01,6.569840312004089355e-01,6.577987670898437500e-01,6.813291311264038086e-01,7.054531574249267578e-01,7.417388558387756348e-01,7.637770175933837891e-01,7.849535346031188965e-01,8.028485178947448730e-01,8.145210742950439453e-01,8.232598304748535156e-01,8.224201202392578125e-01,8.180055022239685059e-01,8.135594725608825684e-01,7.956016063690185547e-01,7.552225589752197266e-01,7.509253621101379395e-01,7.497797012329101562e-01,7.625126838684082031e-01,7.589718699455261230e-01,7.756392359733581543e-01,8.190094828605651855e-01,8.438720703125000000e-01,8.632124662399291992e-01,8.826975226402282715e-01,8.901613354682922363e-01,8.981378078460693359e-01,9.029173254966735840e-01,9.037077426910400391e-01,9.043849110603332520e-01,9.045339822769165039e-01,9.045677185058593750e-01,9.046851396560668945e-01,9.046354293823242188e-01,9.046329855918884277e-01,9.046286344528198242e-01,9.046277403831481934e-01,9.046268463134765625e-01,9.046258926391601562e-01,9.046249985694885254e-01,9.046241044998168945e-01,9.046230912208557129e-01,9.046223163604736328e-01,9.046212434768676758e-01,9.046204090118408203e-01,9.046195745468139648e-01,9.046186208724975586e-01,9.046177268028259277e-01,9.046168327331542969e-01,9.046159982681274414e-01,9.046149253845214844e-01,9.046140313148498535e-01,9.046131372451782227e-01,9.046123027801513672e-01,9.046113491058349609e-01,9.046103954315185547e-01,9.046095609664916992e-01,9.046086668968200684e-01,9.046078324317932129e-01,9.046071767807006836e-01,9.046078324317932129e-01,9.046278595924377441e-01,9.046610593795776367e-01,9.044568538665771484e-01,9.038791656494140625e-01,9.027748107910156250e-01,9.010078907012939453e-01,8.984283208847045898e-01,8.943624496459960938e-01,8.880733251571655273e-01,8.796496391296386719e-01,8.703305125236511230e-01,8.574484586715698242e-01,8.288410902023315430e-01,8.078477382659912109e-01,8.004540801048278809e-01,7.742134332656860352e-01,7.216147780418395996e-01,6.159955859184265137e-01
5.891571640968322754e-01,6.141796112060546875e-01,6.566526889801025391e-01,6.571505069732666016e-01,6.804441213607788086e-01,7.042667269706726074e-01,7.403631210327148438e-01,7.616980671882629395e-01,7.832154035568237305e-01,8.008966445922851562e-01,8.142999410629272461e-01,8.249150514602661133e-01,8.255498409271240234e-01,8.247743844985961914e-01,8.218970298767089844e-01,8.096200227737426758e-01,7.750505805015563965e-01,7.669294476509094238e-01,7.466762065887451172e-01,7.628417611122131348e-01,7.659529447555541992e-01,7.775046229362487793e-01,8.267835378646850586e-01,8.467090725898742676e-01,8.633120059967041016e-01,8.824182152748107910e-01,8.898308873176574707e-01,8.970173001289367676e-01,9.020629525184631348e-01,9.030525684356689453e-01,9.036988019943237305e-01,9.037050604820251465e-01,9.037528038024902344e-01,9.037068486213684082e-01,9.037151336669921875e-01,9.037160277366638184e-01,9.037131071090698242e-01,9.037119746208190918e-01,9.037109613418579102e-01,9.037097692489624023e-01,9.037088155746459961e-01,9.037078619003295898e-01,9.037066102027893066e-01,9.037056565284729004e-01,9.037044644355773926e-01,9.037035107612609863e-01,9.037024974822998047e-01,9.037014245986938477e-01,9.037003517150878906e-01,9.036992788314819336e-01,9.036982059478759766e-01,9.036972522735595703e-01,9.036961793899536133e-01,9.036949872970581055e-01,9.036940336227416992e-01,9.036929607391357422e-01,9.036917686462402344e-01,9.036908149719238281e-01,9.036897420883178711e-01,9.036886692047119141e-01,9.036878347396850586e-01,9.036879539489746094e-01,9.037037491798400879e-01,9.037332534790039062e-01,9.035476446151733398e-01,9.029993414878845215e-01,9.019618630409240723e-01,9.002496004104614258e-01,8.976998329162597656e-01,8.936426043510437012e-01,8.874089717864990234e-01,8.790723085403442383e-01,8.698117733001708984e-01,8.568370342254638672e-01,8.282483220100402832e-01,8.071012496948242188e-01,7.996389865875244141e-01,7.733829021453857422e-01,7.204571962356567383e-01,6.144738793373107910e-01
5.884078145027160645e-01,6.125013828277587891e-01,6.548565626144409180e-01,6.552606225013732910e-01,6.780958175659179688e-01,7.014805078506469727e-01,7.374978661537170410e-01,7.587169408798217773e-01,7.803584337234497070e-01,7.986596822738647461e-01,8.138816952705383301e-01,8.225085735321044922e-01,8.305412530899047852e-01,8.280705213546752930e-01,8.296393156051635742e-01,8.164225816726684570e-01,7.976407408714294434e-01,7.733778357505798340e-01,7.599340081214904785e-01,7.747257947921752930e-01,7.705061435699462891e-01,7.924209237098693848e-01,8.232911825180053711e-01,8.467120528221130371e-01,8.636494874954223633e-01,8.833719491958618164e-01,8.893144726753234863e-01,8.959275484085083008e-01,9.004559516906738281e-01,9.015705585479736328e-01,9.020261764526367188e-01,9.019412994384765625e-01,9.019429683685302734e-01,9.019304513931274414e-01,9.019228219985961914e-01,9.019178748130798340e-01,9.019119143486022949e-01,9.019057750701904297e-01,9.018998146057128906e-01,9.018936157226562500e-01,9.018876552581787109e-01,9.018814563751220703e-01,9.018753767013549805e-01,9.018692374229431152e-01,9.018632173538208008e-01,9.018571376800537109e-01,9.018511772155761719e-01,9.018450975418090820e-01,9.018390774726867676e-01,9.018329381942749023e-01,9.018268585205078125e-01,9.018207788467407227e-01,9.018147587776184082e-01,9.018087983131408691e-01,9.018027186393737793e-01,9.017966985702514648e-01,9.017906188964843750e-01,9.017845392227172852e-01,9.017784595489501953e-01,9.017726182937622070e-01,9.017665386199951172e-01,9.017611742019653320e-01,9.017751216888427734e-01,9.017999768257141113e-01,9.016264081001281738e-01,9.011567831039428711e-01,9.001969099044799805e-01,8.985993862152099609e-01,8.961434364318847656e-01,8.921527862548828125e-01,8.860806226730346680e-01,8.775859475135803223e-01,8.682914376258850098e-01,8.554389476776123047e-01,8.269653320312500000e-01,8.060622811317443848e-01,7.985023260116577148e-01,7.719294428825378418e-01,7.191736102104187012e-01,6.126998662948608398e-01
5.864668488502502441e-01,6.097777485847473145e-01,6.518768072128295898e-01,6.520049571990966797e-01,6.745837330818176270e-01,6.974166631698608398e-01,7.329338788986206055e-01,7.534802556037902832e-01,7.743222713470458984e-01,7.923545837402343750e-01,8.074674606323242188e-01,8.181411027908325195e-01,8.273830413818359375e-01,8.292921781539916992e-01,8.243911266326904297e-01,8.220828771591186523e-01,8.037142753601074219e-01,7.811049222946166992e-01,7.632232308387756348e-01,7.787075638771057129e-01,7.669283151626586914e-01,7.804754376411437988e-01,8.195737600326538086e-01,8.423082828521728516e-01,8.551745414733886719e-01,8.757437467575073242e-01,8.824789524078369141e-01,8.895221948623657227e-01,8.939107060432434082e-01,8.952045440673828125e-01,8.954800367355346680e-01,8.954693078994750977e-01,8.954529762268066406e-01,8.954374790191650391e-01,8.954278230667114258e-01,8.954192399978637695e-01,8.954105377197265625e-01,8.954014778137207031e-01,8.953923583030700684e-01,8.953832387924194336e-01,8.953741788864135742e-01,8.953651189804077148e-01,8.953559398651123047e-01,8.953467607498168945e-01,8.953379392623901367e-01,8.953287005424499512e-01,8.953195810317993164e-01,8.953105211257934570e-01,8.953014612197875977e-01,8.952924013137817383e-01,8.952832221984863281e-01,8.952741026878356934e-01,8.952652215957641602e-01,8.952559232711791992e-01,8.952470421791076660e-01,8.952379226684570312e-01,8.952289223670959473e-01,8.952198028564453125e-01,8.952105045318603516e-01,8.952016830444335938e-01,8.951924443244934082e-01,8.951835632324218750e-01,8.951923847198486328e-01,8.952094316482543945e-01,8.950742483139038086e-01,8.946249485015869141e-01,8.938152194023132324e-01,8.923485279083251953e-01,8.900246620178222656e-01,8.861789107322692871e-01,8.802849054336547852e-01,8.720725774765014648e-01,8.626434206962585449e-01,8.496462702751159668e-01,8.213578462600708008e-01,8.010404109954833984e-01,7.939157485961914062e-01,7.675375342369079590e-01,7.151726484298706055e-01,6.077082753181457520e-01
5.825376510620117188e-01,6.038821339607238770e-01,6.454442143440246582e-01,6.448007822036743164e-01,6.661981344223022461e-01,6.881869435310363770e-01,7.228683233261108398e-01,7.430425882339477539e-01,7.627447843551635742e-01,7.802717685699462891e-01,7.945662736892700195e-01,8.081239461898803711e-01,8.185100555419921875e-01,8.199694752693176270e-01,8.165097236633300781e-01,8.122762441635131836e-01,8.133329153060913086e-01,7.778961658477783203e-01,7.594418525695800781e-01,7.653165459632873535e-01,7.660717964172363281e-01,7.710084319114685059e-01,8.137788772583007812e-01,8.318251371383666992e-01,8.466040492057800293e-01,8.641374111175537109e-01,8.724263310432434082e-01,8.793904781341552734e-01,8.836099505424499512e-01,8.843710422515869141e-01,8.846203088760375977e-01,8.845955133438110352e-01,8.845609426498413086e-01,8.845387697219848633e-01,8.845196962356567383e-01,8.844994306564331055e-01,8.844791650772094727e-01,8.844588994979858398e-01,8.844385147094726562e-01,8.844184875488281250e-01,8.843981623649597168e-01,8.843780755996704102e-01,8.843578100204467773e-01,8.843375444412231445e-01,8.843175172805786133e-01,8.842971920967102051e-01,8.842769861221313477e-01,8.842567205429077148e-01,8.842365741729736328e-01,8.842164874076843262e-01,8.841962814331054688e-01,8.841761946678161621e-01,8.841560482978820801e-01,8.841357231140136719e-01,8.841156363487243652e-01,8.840954303741455078e-01,8.840752840042114258e-01,8.840551376342773438e-01,8.840349912643432617e-01,8.840149641036987305e-01,8.839946985244750977e-01,8.839745521545410156e-01,8.839850425720214844e-01,8.840305209159851074e-01,8.839036226272583008e-01,8.835538625717163086e-01,8.828710913658142090e-01,8.814039230346679688e-01,8.790514469146728516e-01,8.753607273101806641e-01,8.695288896560668945e-01,8.616447448730468750e-01,8.525936603546142578e-01,8.395702242851257324e-01,8.107885122299194336e-01,7.916789054870605469e-01,7.853859663009643555e-01,7.605780363082885742e-01,7.071927785873413086e-01,6.017377376556396484e-01
5.753735303878784180e-01,5.940434336662292480e-01,6.345342397689819336e-01,6.318063139915466309e-01,6.512062549591064453e-01,6.719575524330139160e-01,7.057492136955261230e-01,7.249803543090820312e-01,7.437980175018310547e-01,7.605701088905334473e-01,7.747703790664672852e-01,7.886571288108825684e-01,7.994323372840881348e-01,8.043255209922790527e-01,8.034981489181518555e-01,7.954092621803283691e-01,7.925352454185485840e-01,7.655673027038574219e-01,7.328985333442687988e-01,7.494173049926757812e-01,7.415492534637451172e-01,7.625388503074645996e-01,7.880382537841796875e-01,8.074051737785339355e-01,8.186414241790771484e-01,8.388251066207885742e-01,8.495238423347473145e-01,8.572622537612915039e-01,8.603400588035583496e-01,8.607174158096313477e-01,8.611270189285278320e-01,8.610314130783081055e-01,8.609879612922668457e-01,8.609516024589538574e-01,8.609143495559692383e-01,8.608775138854980469e-01,8.608405590057373047e-01,8.608033657073974609e-01,8.607664108276367188e-01,8.607293963432312012e-01,8.606923818588256836e-01,8.606554269790649414e-01,8.606184720993041992e-01,8.605813980102539062e-01,8.605445623397827148e-01,8.605074882507324219e-01,8.604705333709716797e-01,8.604335188865661621e-01,8.603967428207397461e-01,8.603597879409790039e-01,8.603229522705078125e-01,8.602858781814575195e-01,8.602489233016967773e-01,8.602119684219360352e-01,8.601751923561096191e-01,8.601382374763488770e-01,8.601013422012329102e-01,8.600646257400512695e-01,8.600276112556457520e-01,8.599905967712402344e-01,8.599535226821899414e-01,8.599156737327575684e-01,8.599207401275634766e-01,8.599538803100585938e-01,8.598031997680664062e-01,8.595360517501831055e-01,8.591334819793701172e-01,8.579498529434204102e-01,8.558965921401977539e-01,8.521326780319213867e-01,8.465106487274169922e-01,8.387174606323242188e-01,8.299987316131591797e-01,8.169878721237182617e-01,7.877305150032043457e-01,7.700012922286987305e-01,7.670550942420959473e-01,7.439002394676208496e-01,6.925569772720336914e-01,5.922725200653076172e-01
5.643810033798217773e-01,5.786223411560058594e-01,6.173455715179443359e-01,6.113574504852294922e-01,6.278053522109985352e-01,6.468158960342407227e-01,6.787283420562744141e-01,6.960296034812927246e-01,7.122098207473754883e-01,7.261295914649963379e-01,7.408211231231689453e-01,7.510530352592468262e-01,7.597332596778869629e-01,7.667657136917114258e-01,7.586432099342346191e-01,7.500432729721069336e-01,7.551101446151733398e-01,7.338641881942749023e-01,7.074049711227416992e-01,7.126255035400390625e-01,7.140607833862304688e-01,7.176551818847656250e-01,7.474150657653808594e-01,7.647604346275329590e-01,7.824584245681762695e-01,7.974994182586669922e-01,8.093318939208984375e-01,8.166413903236389160e-01,8.180072307586669922e-01,8.183449506759643555e-01,8.185825347900390625e-01,8.184960484504699707e-01,8.184248208999633789e-01,8.183654546737670898e-01,8.183066844940185547e-01,8.182476758956909180e-01,8.181888461112976074e-01,8.181300163269042969e-01,8.180710077285766602e-01,8.180121779441833496e-01,8.179532289505004883e-01,8.178944587707519531e-01,8.178355693817138672e-01,8.177766799926757812e-01,8.177179098129272461e-01,8.176590204238891602e-01,8.176003694534301758e-01,8.175414204597473145e-01,8.174826502799987793e-01,8.174238204956054688e-01,8.173651099205017090e-01,8.173062801361083984e-01,8.172474503517150879e-01,8.171887397766113281e-01,8.171297311782836914e-01,8.170711398124694824e-01,8.170125484466552734e-01,8.169537186622619629e-01,8.168950676918029785e-01,8.168361186981201172e-01,8.167775869369506836e-01,8.167176246643066406e-01,8.167102336883544922e-01,8.166823387145996094e-01,8.164880871772766113e-01,8.160816431045532227e-01,8.156245946884155273e-01,8.143132925033569336e-01,8.124446272850036621e-01,8.094973564147949219e-01,8.042767047882080078e-01,7.970181703567504883e-01,7.894127368927001953e-01,7.773767113685607910e-01,7.479053735733032227e-01,7.329869270324707031e-01,7.344135046005249023e-01,7.134162187576293945e-01,6.685281991958618164e-01,5.795600414276123047e-01
5.498360395431518555e-01,5.541179180145263672e-01,5.890438556671142578e-01,5.790369510650634766e-01,5.922472476959228516e-01,6.085588335990905762e-01,6.381772756576538086e-01,6.527393460273742676e-01,6.667579412460327148e-01,6.786938309669494629e-01,6.911545395851135254e-01,6.995821595191955566e-01,7.071602940559387207e-01,7.142440080642700195e-01,7.099358439445495605e-01,6.921095252037048340e-01,7.002820372581481934e-01,6.750227212905883789e-01,6.602804064750671387e-01,6.533823013305664062e-01,6.616261005401611328e-01,6.671162843704223633e-01,6.911199092864990234e-01,7.109345197677612305e-01,7.210594415664672852e-01,7.376961708068847656e-01,7.473474740982055664e-01,7.505982518196105957e-01,7.518462538719177246e-01,7.513891458511352539e-01,7.518925666809082031e-01,7.517458796501159668e-01,7.516506314277648926e-01,7.515683770179748535e-01,7.514858841896057129e-01,7.514036297798156738e-01,7.513210177421569824e-01,7.512384653091430664e-01,7.511561512947082520e-01,7.510736584663391113e-01,7.509914636611938477e-01,7.509092092514038086e-01,7.508268356323242188e-01,7.507445812225341797e-01,7.506623268127441406e-01,7.505800724029541016e-01,7.504976391792297363e-01,7.504155635833740234e-01,7.503331899642944336e-01,7.502509951591491699e-01,7.501688003540039062e-01,7.500864267349243164e-01,7.500042915344238281e-01,7.499219775199890137e-01,7.498397827148437500e-01,7.497578263282775879e-01,7.496755719184875488e-01,7.495933771133422852e-01,7.495111823081970215e-01,7.494291663169860840e-01,7.493462562561035156e-01,7.492604255676269531e-01,7.492355108261108398e-01,7.491573691368103027e-01,7.490034103393554688e-01,7.487220764160156250e-01,7.482078671455383301e-01,7.468195557594299316e-01,7.445555925369262695e-01,7.411905527114868164e-01,7.364963293075561523e-01,7.301411628723144531e-01,7.241472005844116211e-01,7.128795385360717773e-01,6.834400892257690430e-01,6.727080345153808594e-01,6.816078424453735352e-01,6.628400087356567383e-01,6.335901021957397461e-01,5.563693046569824219e-01
5.325869917869567871e-01,5.238305330276489258e-01,5.546786785125732422e-01,5.387865900993347168e-01,5.466824173927307129e-01,5.595366954803466797e-01,5.837646722793579102e-01,5.949273705482482910e-01,6.053986549377441406e-01,6.140203475952148438e-01,6.220945715904235840e-01,6.263887882232666016e-01,6.306835412979125977e-01,6.346763372421264648e-01,6.315845251083374023e-01,6.146327257156372070e-01,6.218758225440979004e-01,6.032998561859130859e-01,5.817810893058776855e-01,5.977289676666259766e-01,5.877163410186767578e-01,6.075090169906616211e-01,6.166514158248901367e-01,6.356698274612426758e-01,6.411626338958740234e-01,6.524954438209533691e-01,6.603022217750549316e-01,6.615532040596008301e-01,6.626008152961730957e-01,6.620225906372070312e-01,6.622288227081298828e-01,6.621137857437133789e-01,6.620150804519653320e-01,6.619274616241455078e-01,6.618399024009704590e-01,6.617524623870849609e-01,6.616649031639099121e-01,6.615771651268005371e-01,6.614896655082702637e-01,6.614022850990295410e-01,6.613147258758544922e-01,6.612272262573242188e-01,6.611398458480834961e-01,6.610524654388427734e-01,6.609648466110229492e-01,6.608775854110717773e-01,6.607902646064758301e-01,6.607027053833007812e-01,6.606154441833496094e-01,6.605282425880432129e-01,6.604409217834472656e-01,6.603536605834960938e-01,6.602661013603210449e-01,6.601790189743041992e-01,6.600917577743530273e-01,6.600044965744018555e-01,6.599171757698059082e-01,6.598300933837890625e-01,6.597430109977722168e-01,6.596559286117553711e-01,6.595680117607116699e-01,6.594754457473754883e-01,6.594098806381225586e-01,6.593492031097412109e-01,6.591378450393676758e-01,6.589279174804687500e-01,6.586077213287353516e-01,6.574492454528808594e-01,6.554517745971679688e-01,6.522703766822814941e-01,6.490509510040283203e-01,6.442234516143798828e-01,6.403566002845764160e-01,6.306654810905456543e-01,6.031918525695800781e-01,5.958200693130493164e-01,6.114283204078674316e-01,5.966767072677612305e-01,5.878740549087524414e-01,5.268053412437438965e-01
5.116007924079895020e-01,4.894222021102905273e-01,5.142400860786437988e-01,4.909916818141937256e-01,4.925750792026519775e-01,5.011562705039978027e-01,5.197628140449523926e-01,5.277146100997924805e-01,5.348646044731140137e-01,5.402486920356750488e-01,5.444910526275634766e-01,5.474671125411987305e-01,5.518174767494201660e-01,5.555877685546875000e-01,5.516893267631530762e-01,5.391267538070678711e-01,5.441631674766540527e-01,5.207334756851196289e-01,5.261601805686950684e-01,5.155338048934936523e-01,5.291528701782226562e-01,5.331149697303771973e-01,5.432356595993041992e-01,5.493911504745483398e-01,5.571789741516113281e-01,5.657657384872436523e-01,5.667155981063842773e-01,5.711188316345214844e-01,5.695495009422302246e-01,5.700813531875610352e-01,5.699126720428466797e-01,5.698091387748718262e-01,5.697107911109924316e-01,5.696237087249755859e-01,5.695367455482482910e-01,5.694498419761657715e-01,5.693629384040832520e-01,5.692760944366455078e-01,5.691893100738525391e-01,5.691024065017700195e-01,5.690155029296875000e-01,5.689288377761840820e-01,5.688420534133911133e-01,5.687552094459533691e-01,5.686686038970947266e-01,5.685821175575256348e-01,5.684952139854431152e-01,5.684087276458740234e-01,5.683220028877258301e-01,5.682354569435119629e-01,5.681488513946533203e-01,5.680622458457946777e-01,5.679756402969360352e-01,5.678892135620117188e-01,5.678027868270874023e-01,5.677162408828735352e-01,5.676299929618835449e-01,5.675434470176696777e-01,5.674570202827453613e-01,5.673707127571105957e-01,5.672838687896728516e-01,5.671911835670471191e-01,5.671057701110839844e-01,5.670651197433471680e-01,5.670333504676818848e-01,5.669572949409484863e-01,5.667178034782409668e-01,5.661756992340087891e-01,5.646654963493347168e-01,5.622348189353942871e-01,5.591735839843750000e-01,5.555583834648132324e-01,5.536163449287414551e-01,5.454393029212951660e-01,5.213796496391296387e-01,5.172707438468933105e-01,5.382956862449645996e-01,5.279721021652221680e-01,5.396092534065246582e-01,4.964702427387237549e-01
4.905962049961090088e-01,4.557293057441711426e-01,4.713629484176635742e-01,4.409452974796295166e-01,4.362804889678955078e-01,4.406367540359497070e-01,4.540612399578094482e-01,4.581393003463745117e-01,4.625204503536224365e-01,4.649411439895629883e-01,4.670606851577758789e-01,4.677710533142089844e-01,4.715982973575592041e-01,4.745402932167053223e-01,4.681251943111419678e-01,4.626128077507019043e-01,4.616419076919555664e-01,4.523763656616210938e-01,4.597456455230712891e-01,4.521802067756652832e-01,4.620633423328399658e-01,4.623925387859344482e-01,4.668286442756652832e-01,4.713516533374786377e-01,4.737471044063568115e-01,4.810172319412231445e-01,4.799077510833740234e-01,4.825820922851562500e-01,4.820977449417114258e-01,4.822949469089508057e-01,4.819863736629486084e-01,4.819003939628601074e-01,4.818254411220550537e-01,4.817526638507843018e-01,4.816798567771911621e-01,4.816065728664398193e-01,4.815337061882019043e-01,4.814608097076416016e-01,4.813880324363708496e-01,4.813151359558105469e-01,4.812423586845397949e-01,4.811695516109466553e-01,4.810967743396759033e-01,4.810240566730499268e-01,4.809515178203582764e-01,4.808787405490875244e-01,4.808060228824615479e-01,4.807334542274475098e-01,4.806607365608215332e-01,4.805881083011627197e-01,4.805156290531158447e-01,4.804429113864898682e-01,4.803703725337982178e-01,4.802977740764617920e-01,4.802253544330596924e-01,4.801528751850128174e-01,4.800806343555450439e-01,4.800080657005310059e-01,4.799357950687408447e-01,4.798632562160491943e-01,4.797905683517456055e-01,4.797145426273345947e-01,4.796316623687744141e-01,4.795666038990020752e-01,4.795532822608947754e-01,4.795601963996887207e-01,4.794829189777374268e-01,4.793928265571594238e-01,4.788221418857574463e-01,4.777953326702117920e-01,4.768733978271484375e-01,4.753116369247436523e-01,4.752818942070007324e-01,4.694337248802185059e-01,4.494369328022003174e-01,4.481974542140960693e-01,4.717443883419036865e-01,4.687417447566986084e-01,4.949483275413513184e-01,4.690729975700378418e-01
4.694175720214843750e-01,4.224285781383514404e-01,4.285608232021331787e-01,3.950837254524230957e-01,3.841193914413452148e-01,3.856843113899230957e-01,3.960993289947509766e-01,3.990379273891448975e-01,4.020709097385406494e-01,4.033011794090270996e-01,4.042089283466339111e-01,4.054858088493347168e-01,4.077012240886688232e-01,4.079635143280029297e-01,4.045247733592987061e-01,4.040021896362304688e-01,3.984894752502441406e-01,3.956343829631805420e-01,3.954697549343109131e-01,3.946192860603332520e-01,3.975839614868164062e-01,3.996035158634185791e-01,4.030326008796691895e-01,4.047203660011291504e-01,4.089167416095733643e-01,4.082284569740295410e-01,4.100531339645385742e-01,4.097012281417846680e-01,4.100185036659240723e-01,4.098981618881225586e-01,4.097284078598022461e-01,4.096554219722747803e-01,4.095898270606994629e-01,4.095322191715240479e-01,4.094744324684143066e-01,4.094165563583374023e-01,4.093589186668395996e-01,4.093011021614074707e-01,4.092434048652648926e-01,4.091856777667999268e-01,4.091280698776245117e-01,4.090706706047058105e-01,4.090128242969512939e-01,4.089553058147430420e-01,4.088977575302124023e-01,4.088401794433593750e-01,4.087827801704406738e-01,4.087251424789428711e-01,4.086678028106689453e-01,4.086101949214935303e-01,4.085527956485748291e-01,4.084952473640441895e-01,4.084377884864807129e-01,4.083805084228515625e-01,4.083230495452880859e-01,4.082658588886260986e-01,4.082085192203521729e-01,4.081512689590454102e-01,4.080938696861267090e-01,4.080367386341094971e-01,4.079800844192504883e-01,4.079223275184631348e-01,4.078676700592041016e-01,4.078175425529479980e-01,4.077869355678558350e-01,4.077677130699157715e-01,4.077878296375274658e-01,4.076940417289733887e-01,4.073133468627929688e-01,4.064791202545166016e-01,4.056378602981567383e-01,4.045519828796386719e-01,4.052034616470336914e-01,4.015078544616699219e-01,3.856419920921325684e-01,3.876526355743408203e-01,4.134729206562042236e-01,4.176936745643615723e-01,4.560005962848663330e-01,4.460460543632507324e-01
4.513974487781524658e-01,3.938287496566772461e-01,3.929925560951232910e-01,3.573028445243835449e-01,3.413690328598022461e-01,3.406599760055541992e-01,3.481059670448303223e-01,3.498222529888153076e-01,3.515327572822570801e-01,3.518587052822113037e-01,3.523680567741394043e-01,3.530946373939514160e-01,3.541410267353057861e-01,3.524507284164428711e-01,3.523083925247192383e-01,3.516201376914978027e-01,3.492109775543212891e-01,3.487269878387451172e-01,3.511704802513122559e-01,3.443268537521362305e-01,3.493174910545349121e-01,3.503037691116333008e-01,3.511265516281127930e-01,3.516994118690490723e-01,3.540884852409362793e-01,3.528556227684020996e-01,3.540380597114562988e-01,3.535576462745666504e-01,3.538287281990051270e-01,3.535407185554504395e-01,3.535067141056060791e-01,3.534651994705200195e-01,3.534210920333862305e-01,3.533801138401031494e-01,3.533387184143066406e-01,3.532975316047668457e-01,3.532563447952270508e-01,3.532152175903320312e-01,3.531741499900817871e-01,3.531329035758972168e-01,3.530917465686798096e-01,3.530507087707519531e-01,3.530095815658569336e-01,3.529687225818634033e-01,3.529276549816131592e-01,3.528864979743957520e-01,3.528453707695007324e-01,3.528044223785400391e-01,3.527635931968688965e-01,3.527224659919738770e-01,3.526814281940460205e-01,3.526405692100524902e-01,3.525995612144470215e-01,3.525585532188415527e-01,3.525177240371704102e-01,3.524770140647888184e-01,3.524359166622161865e-01,3.523951768875122070e-01,3.523542284965515137e-01,3.523132801055908203e-01,3.522728383541107178e-01,3.522323071956634521e-01,3.521890938282012939e-01,3.521602153778076172e-01,3.521216511726379395e-01,3.520664572715759277e-01,3.520703017711639404e-01,3.521147966384887695e-01,3.520638942718505859e-01,3.519864678382873535e-01,3.517270684242248535e-01,3.512711524963378906e-01,3.521074354648590088e-01,3.494782447814941406e-01,3.362911939620971680e-01,3.391601443290710449e-01,3.653117418289184570e-01,3.756761550903320312e-01,4.224368929862976074e-01,4.258148670196533203e-01
4.349685609340667725e-01,3.689458370208740234e-01,3.612764179706573486e-01,3.251672983169555664e-01,3.061317801475524902e-01,3.047579824924468994e-01,3.108637332916259766e-01,3.122531175613403320e-01,3.134125173091888428e-01,3.134485483169555664e-01,3.133733272552490234e-01,3.137208819389343262e-01,3.135011494159698486e-01,3.130684494972229004e-01,3.137699067592620850e-01,3.130882978439331055e-01,3.106709122657775879e-01,3.120377659797668457e-01,3.109979033470153809e-01,3.101192712783813477e-01,3.139552175998687744e-01,3.121309876441955566e-01,3.132666945457458496e-01,3.133940100669860840e-01,3.126640021800994873e-01,3.133226931095123291e-01,3.133161962032318115e-01,3.133586049079895020e-01,3.132700324058532715e-01,3.131865262985229492e-01,3.131352066993713379e-01,3.131081461906433105e-01,3.130792379379272461e-01,3.130492568016052246e-01,3.130195736885070801e-01,3.129895031452178955e-01,3.129595518112182617e-01,3.129296898841857910e-01,3.128999769687652588e-01,3.128698766231536865e-01,3.128403127193450928e-01,3.128103613853454590e-01,3.127804994583129883e-01,3.127505183219909668e-01,3.127208352088928223e-01,3.126910030841827393e-01,3.126611411571502686e-01,3.126314282417297363e-01,3.126017451286315918e-01,3.125718832015991211e-01,3.125420808792114258e-01,3.125123381614685059e-01,3.124825358390808105e-01,3.124526441097259521e-01,3.124229907989501953e-01,3.123932480812072754e-01,3.123636245727539062e-01,3.123338520526885986e-01,3.123040795326232910e-01,3.122744560241699219e-01,3.122451305389404297e-01,3.122154474258422852e-01,3.121862113475799561e-01,3.121543824672698975e-01,3.121239244937896729e-01,3.120937943458557129e-01,3.120532333850860596e-01,3.120019435882568359e-01,3.119770884513854980e-01,3.118602633476257324e-01,3.117244839668273926e-01,3.115062713623046875e-01,3.122490048408508301e-01,3.104214668273925781e-01,2.992302179336547852e-01,3.025884032249450684e-01,3.288200795650482178e-01,3.441889584064483643e-01,3.968256711959838867e-01,4.101014137268066406e-01
4.212127923965454102e-01,3.491300940513610840e-01,3.364087641239166260e-01,2.999942004680633545e-01,2.791709303855895996e-01,2.769950032234191895e-01,2.819473743438720703e-01,2.831133604049682617e-01,2.840009927749633789e-01,2.838608026504516602e-01,2.839299440383911133e-01,2.839167118072509766e-01,2.834454774856567383e-01,2.837135195732116699e-01,2.842604815959930420e-01,2.828332185745239258e-01,2.834997177124023438e-01,2.832305431365966797e-01,2.823305428028106689e-01,2.830534577369689941e-01,2.837294936180114746e-01,2.825705707073211670e-01,2.839398980140686035e-01,2.836338877677917480e-01,2.835724949836730957e-01,2.836830615997314453e-01,2.834249138832092285e-01,2.834871411323547363e-01,2.834264338016510010e-01,2.834081649780273438e-01,2.833848595619201660e-01,2.833623588085174561e-01,2.833410799503326416e-01,2.833193838596343994e-01,2.832976877689361572e-01,2.832759320735931396e-01,2.832544445991516113e-01,2.832328081130981445e-01,2.832109630107879639e-01,2.831894755363464355e-01,2.831678390502929688e-01,2.831460833549499512e-01,2.831243574619293213e-01,2.831027507781982422e-01,2.830809950828552246e-01,2.830594778060913086e-01,2.830378413200378418e-01,2.830162048339843750e-01,2.829946875572204590e-01,2.829731106758117676e-01,2.829515039920806885e-01,2.829298377037048340e-01,2.829082608222961426e-01,2.828865051269531250e-01,2.828650474548339844e-01,2.828436493873596191e-01,2.828218638896942139e-01,2.828004360198974609e-01,2.827788591384887695e-01,2.827574610710144043e-01,2.827358245849609375e-01,2.827144563198089600e-01,2.826926112174987793e-01,2.826719284057617188e-01,2.826502025127410889e-01,2.826253175735473633e-01,2.826019525527954102e-01,2.825926542282104492e-01,2.825835049152374268e-01,2.825827300548553467e-01,2.825636863708496094e-01,2.824547290802001953e-01,2.830950915813446045e-01,2.817845940589904785e-01,2.718607783317565918e-01,2.751361429691314697e-01,3.007391095161437988e-01,3.195619583129882812e-01,3.762973845005035400e-01,3.975783586502075195e-01
4.091758131980895996e-01,3.324911892414093018e-01,3.159788846969604492e-01,2.799498140811920166e-01,2.584232985973358154e-01,2.558324337005615234e-01,2.600266337394714355e-01,2.610197067260742188e-01,2.617942690849304199e-01,2.617205381393432617e-01,2.616775631904602051e-01,2.615908086299896240e-01,2.615813016891479492e-01,2.616975605487823486e-01,2.614940404891967773e-01,2.615767419338226318e-01,2.615491151809692383e-01,2.610478997230529785e-01,2.615054249763488770e-01,2.614296376705169678e-01,2.613322734832763672e-01,2.614470124244689941e-01,2.616468667984008789e-01,2.613315880298614502e-01,2.614068984985351562e-01,2.614805996417999268e-01,2.614219188690185547e-01,2.613744437694549561e-01,2.613728046417236328e-01,2.613363564014434814e-01,2.613298892974853516e-01,2.613125145435333252e-01,2.612957358360290527e-01,2.612791061401367188e-01,2.612628042697906494e-01,2.612463831901550293e-01,2.612295746803283691e-01,2.612133622169494629e-01,2.611967325210571289e-01,2.611803114414215088e-01,2.611637711524963379e-01,2.611474096775054932e-01,2.611308097839355469e-01,2.611145377159118652e-01,2.610979080200195312e-01,2.610814869403839111e-01,2.610649764537811279e-01,2.610485553741455078e-01,2.610321640968322754e-01,2.610155940055847168e-01,2.609992623329162598e-01,2.609827518463134766e-01,2.609664797782897949e-01,2.609497904777526855e-01,2.609335184097290039e-01,2.609170079231262207e-01,2.609004974365234375e-01,2.608841657638549805e-01,2.608678936958312988e-01,2.608512341976165771e-01,2.608349919319152832e-01,2.608184516429901123e-01,2.608024179935455322e-01,2.607857286930084229e-01,2.607691287994384766e-01,2.607522606849670410e-01,2.607349157333374023e-01,2.607194185256958008e-01,2.607043683528900146e-01,2.606889903545379639e-01,2.606734037399291992e-01,2.605951726436614990e-01,2.611133456230163574e-01,2.600674331188201904e-01,2.511699199676513672e-01,2.544481754302978516e-01,2.794592082500457764e-01,3.009946942329406738e-01,3.605835735797882080e-01,3.876326382160186768e-01
3.991098701953887939e-01,3.188914656639099121e-01,2.997269630432128906e-01,2.643877267837524414e-01,2.423046827316284180e-01,2.394171357154846191e-01,2.430774271488189697e-01,2.439686655998229980e-01,2.446605861186981201e-01,2.445932924747467041e-01,2.445612549781799316e-01,2.445398867130279541e-01,2.445359230041503906e-01,2.445317208766937256e-01,2.445386052131652832e-01,2.445058822631835938e-01,2.444426417350769043e-01,2.444751560688018799e-01,2.444106936454772949e-01,2.443733513355255127e-01,2.443986833095550537e-01,2.444488108158111572e-01,2.444024980068206787e-01,2.443841397762298584e-01,2.443921864032745361e-01,2.443821132183074951e-01,2.443362176418304443e-01,2.443386316299438477e-01,2.443204820156097412e-01,2.443081140518188477e-01,2.442952692508697510e-01,2.442823052406311035e-01,2.442693114280700684e-01,2.442563772201538086e-01,2.442435026168823242e-01,2.442308366298675537e-01,2.442176342010498047e-01,2.442045211791992188e-01,2.441916465759277344e-01,2.441788911819458008e-01,2.441660165786743164e-01,2.441529929637908936e-01,2.441399991512298584e-01,2.441272735595703125e-01,2.441145777702331543e-01,2.441014945507049561e-01,2.440887093544006348e-01,2.440758645534515381e-01,2.440628409385681152e-01,2.440498769283294678e-01,2.440370321273803711e-01,2.440241575241088867e-01,2.440114915370941162e-01,2.439984381198883057e-01,2.439855635166168213e-01,2.439728379249572754e-01,2.439598441123962402e-01,2.439469695091247559e-01,2.439341843128204346e-01,2.439212501049041748e-01,2.439084649085998535e-01,2.438955307006835938e-01,2.438828349113464355e-01,2.438698709011077881e-01,2.438569664955139160e-01,2.438435852527618408e-01,2.438306808471679688e-01,2.438171505928039551e-01,2.438042163848876953e-01,2.437911331653594971e-01,2.437782287597656250e-01,2.437142729759216309e-01,2.441385388374328613e-01,2.433030009269714355e-01,2.352241873741149902e-01,2.385357916355133057e-01,2.629330754280090332e-01,2.863670587539672852e-01,3.479800522327423096e-01,3.796820044517517090e-01
3.908086717128753662e-01,3.077780008316040039e-01,2.866272330284118652e-01,2.519677877426147461e-01,2.295317649841308594e-01,2.264046669006347656e-01,2.296705245971679688e-01,2.304605543613433838e-01,2.310824096202850342e-01,2.310276627540588379e-01,2.309993803501129150e-01,2.309873104095458984e-01,2.309784293174743652e-01,2.309657633304595947e-01,2.309599220752716064e-01,2.309511601924896240e-01,2.309395670890808105e-01,2.309381067752838135e-01,2.309179604053497314e-01,2.309088706970214844e-01,2.308996915817260742e-01,2.308890521526336670e-01,2.308727502822875977e-01,2.308675348758697510e-01,2.308585345745086670e-01,2.308451533317565918e-01,2.308287024497985840e-01,2.308255732059478760e-01,2.308117747306823730e-01,2.308030128479003906e-01,2.307926118373870850e-01,2.307822704315185547e-01,2.307716310024261475e-01,2.307614684104919434e-01,2.307509481906890869e-01,2.307406067848205566e-01,2.307301461696624756e-01,2.307197451591491699e-01,2.307096421718597412e-01,2.306992113590240479e-01,2.306887805461883545e-01,2.306782603263854980e-01,2.306679785251617432e-01,2.306576371192932129e-01,2.306472659111022949e-01,2.306370437145233154e-01,2.306266725063323975e-01,2.306162714958190918e-01,2.306059598922729492e-01,2.305955886840820312e-01,2.305851280689239502e-01,2.305749058723449707e-01,2.305644750595092773e-01,2.305541336536407471e-01,2.305437922477722168e-01,2.305334210395812988e-01,2.305231094360351562e-01,2.305126190185546875e-01,2.305023074150085449e-01,2.304920852184295654e-01,2.304815948009490967e-01,2.304714322090148926e-01,2.304610610008239746e-01,2.304509282112121582e-01,2.304404675960540771e-01,2.304302155971527100e-01,2.304198443889617920e-01,2.304095625877380371e-01,2.303992211818695068e-01,2.303889095783233643e-01,2.303783595561981201e-01,2.303247153759002686e-01,2.306806445121765137e-01,2.300042510032653809e-01,2.225894033908843994e-01,2.259125113487243652e-01,2.498076558113098145e-01,2.745913267135620117e-01,3.377268314361572266e-01,3.731980919837951660e-01
3.838099539279937744e-01,2.985773086547851562e-01,2.758288085460662842e-01,2.418444454669952393e-01,2.191894650459289551e-01,2.158567905426025391e-01,2.188122868537902832e-01,2.195138037204742432e-01,2.200799286365509033e-01,2.200323343276977539e-01,2.200094163417816162e-01,2.200006842613220215e-01,2.199920117855072021e-01,2.199831902980804443e-01,2.199748754501342773e-01,2.199659943580627441e-01,2.199593782424926758e-01,2.199498116970062256e-01,2.199405431747436523e-01,2.199348509311676025e-01,2.199266850948333740e-01,2.199161052703857422e-01,2.199065387248992920e-01,2.198991477489471436e-01,2.198911309242248535e-01,2.198817431926727295e-01,2.198729813098907471e-01,2.198641598224639893e-01,2.198553383350372314e-01,2.198476493358612061e-01,2.198389768600463867e-01,2.198305130004882812e-01,2.198219001293182373e-01,2.198134362697601318e-01,2.198047339916229248e-01,2.197962999343872070e-01,2.197880148887634277e-01,2.197792232036590576e-01,2.197709381580352783e-01,2.197622656822204590e-01,2.197539210319519043e-01,2.197453081607818604e-01,2.197369635105133057e-01,2.197285890579223633e-01,2.197198569774627686e-01,2.197115719318389893e-01,2.197030186653137207e-01,2.196943461894989014e-01,2.196860015392303467e-01,2.196775078773498535e-01,2.196688950061798096e-01,2.196603417396545410e-01,2.196520268917083740e-01,2.196435928344726562e-01,2.196351289749145508e-01,2.196268141269683838e-01,2.196181714534759521e-01,2.196097075939178467e-01,2.196013033390045166e-01,2.195929586887359619e-01,2.195841968059539795e-01,2.195759117603302002e-01,2.195672690868377686e-01,2.195588648319244385e-01,2.195502221584320068e-01,2.195419371128082275e-01,2.195334732532501221e-01,2.195250689983367920e-01,2.195165753364562988e-01,2.195081710815429688e-01,2.194989919662475586e-01,2.194541096687316895e-01,2.197592258453369141e-01,2.192099988460540771e-01,2.123413980007171631e-01,2.156701087951660156e-01,2.391540110111236572e-01,2.649243474006652832e-01,3.292266130447387695e-01,3.678060770034790039e-01
3.778367936611175537e-01,2.908434271812438965e-01,2.668061852455139160e-01,2.334577739238739014e-01,2.106577754020690918e-01,2.071478068828582764e-01,2.098517119884490967e-01,2.104752957820892334e-01,2.109927535057067871e-01,2.109508216381072998e-01,2.109308242797851562e-01,2.109238207340240479e-01,2.109167277812957764e-01,2.109096050262451172e-01,2.109023928642272949e-01,2.108953893184661865e-01,2.108882367610931396e-01,2.108810842037200928e-01,2.108739614486694336e-01,2.108668982982635498e-01,2.108598649501800537e-01,2.108526527881622314e-01,2.108455896377563477e-01,2.108384966850280762e-01,2.108315825462341309e-01,2.108242511749267578e-01,2.108171880245208740e-01,2.108100950717926025e-01,2.108030319213867188e-01,2.107959389686584473e-01,2.107890248298645020e-01,2.107817232608795166e-01,2.107746303081512451e-01,2.107675671577453613e-01,2.107605934143066406e-01,2.107533514499664307e-01,2.107463181018829346e-01,2.107393443584442139e-01,2.107323706150054932e-01,2.107251584529876709e-01,2.107179760932922363e-01,2.107109129428863525e-01,2.107037603855133057e-01,2.106969058513641357e-01,2.106898128986358643e-01,2.106825709342956543e-01,2.106757164001464844e-01,2.106685340404510498e-01,2.106614410877227783e-01,2.106543481349945068e-01,2.106474339962005615e-01,2.106401920318603516e-01,2.106332778930664062e-01,2.106261849403381348e-01,2.106191515922546387e-01,2.106120884418487549e-01,2.106049060821533203e-01,2.105978727340698242e-01,2.105907201766967773e-01,2.105837464332580566e-01,2.105765938758850098e-01,2.105697393417358398e-01,2.105626463890075684e-01,2.105555534362792969e-01,2.105484008789062500e-01,2.105413675308227539e-01,2.105344235897064209e-01,2.105273306369781494e-01,2.105202376842498779e-01,2.105132937431335449e-01,2.105055153369903564e-01,2.104666829109191895e-01,2.107329666614532471e-01,2.102859318256378174e-01,2.038705050945281982e-01,2.072001993656158447e-01,2.303355634212493896e-01,2.568483650684356689e-01,3.220595717430114746e-01,3.632438182830810547e-01
3.726796805858612061e-01,2.842504084110260010e-01,2.591608762741088867e-01,2.263985574245452881e-01,2.035064399242401123e-01,1.998415887355804443e-01,2.023386955261230469e-01,2.028937339782714844e-01,2.033700048923492432e-01,2.033327817916870117e-01,2.033151686191558838e-01,2.033090293407440186e-01,2.033031284809112549e-01,2.032971084117889404e-01,2.032911181449890137e-01,2.032851576805114746e-01,2.032790780067443848e-01,2.032729983329772949e-01,2.032671570777893066e-01,2.032610177993774414e-01,2.032552361488342285e-01,2.032490074634552002e-01,2.032430171966552734e-01,2.032371461391448975e-01,2.032311856746673584e-01,2.032251954078674316e-01,2.032190859317779541e-01,2.032131552696228027e-01,2.032072544097900391e-01,2.032012343406677246e-01,2.031950354576110840e-01,2.031890153884887695e-01,2.031831443309783936e-01,2.031772732734680176e-01,2.031711935997009277e-01,2.031650245189666748e-01,2.031591832637786865e-01,2.031531333923339844e-01,2.031472623348236084e-01,2.031413316726684570e-01,2.031351923942565918e-01,2.031292617321014404e-01,2.031232118606567383e-01,2.031172215938568115e-01,2.031114101409912109e-01,2.031052708625793457e-01,2.030993103981018066e-01,2.030933201313018799e-01,2.030874788761138916e-01,2.030815780162811279e-01,2.030753791332244873e-01,2.030693888664245605e-01,2.030635178089141846e-01,2.030574083328247070e-01,2.030517458915710449e-01,2.030456066131591797e-01,2.030397951602935791e-01,2.030337154865264893e-01,2.030278146266937256e-01,2.030217647552490234e-01,2.030157148838043213e-01,2.030098140239715576e-01,2.030039131641387939e-01,2.029978036880493164e-01,2.029918432235717773e-01,2.029860019683837891e-01,2.029801607131958008e-01,2.029739916324615479e-01,2.029681205749511719e-01,2.029621005058288574e-01,2.029553949832916260e-01,2.029216289520263672e-01,2.031570971012115479e-01,2.027928531169891357e-01,1.967594325542449951e-01,2.000871002674102783e-01,2.229210734367370605e-01,2.500034570693969727e-01,3.159330487251281738e-01,3.593322634696960449e-01
