5.887016057968139648e-01,6.142693161964416504e-01,6.568923592567443848e-01,6.577172279357910156e-01,6.812679171562194824e-01,7.055395841598510742e-01,7.427929639816284180e-01,7.633667588233947754e-01,7.794080972671508789e-01,7.891083955764770508e-01,7.946531772613525391e-01,7.884950637817382812e-01,7.934669256210327148e-01,7.840569615364074707e-01,7.464299201965332031e-01,6.885915994644165039e-01,6.472240686416625977e-01,6.108902096748352051e-01,5.856272578239440918e-01,5.797158479690551758e-01,5.716160535812377930e-01,5.843960642814636230e-01,6.206672787666320801e-01,6.695946455001831055e-01,7.105537056922912598e-01,7.466659545898437500e-01,8.029304742813110352e-01,8.443198204040527344e-01,8.660444021224975586e-01,8.825336694717407227e-01,8.915108442306518555e-01,8.985867500305175781e-01,9.030359983444213867e-01,9.046732783317565918e-01,9.052733182907104492e-01,9.053403139114379883e-01,9.053305387496948242e-01,9.053283333778381348e-01,9.053283333778381348e-01,9.053283333778381348e-01,9.053283333778381348e-01,9.053283333778381348e-01,9.053283333778381348e-01,9.053283333778381348e-01,9.053283333778381348e-01,9.053283333778381348e-01,9.053283333778381348e-01,9.053283333778381348e-01,9.053283333778381348e-01,9.053283333778381348e-01,9.053283333778381348e-01,9.053283333778381348e-01,9.053283333778381348e-01,9.053283333778381348e-01,9.053283333778381348e-01,9.053283333778381348e-01,9.053283333778381348e-01,9.053283333778381348e-01,9.053283333778381348e-01,9.053283333778381348e-01,9.053285717964172363e-01,9.053298830986022949e-01,9.053540229797363281e-01,9.053707122802734375e-01,9.051685333251953125e-01,9.045516848564147949e-01,9.033973217010498047e-01,9.016228914260864258e-01,8.990780115127563477e-01,8.949619531631469727e-01,8.886687755584716797e-01,8.801967501640319824e-01,8.707531690597534180e-01,8.578681945800781250e-01,8.293210864067077637e-01,8.082343339920043945e-01,8.006228804588317871e-01,7.746303081512451172e-01,7.220156192779541016e-01,6.160351634025573730e-01
5.886945128440856934e-01,6.142579317092895508e-01,6.568791270256042480e-01,6.577019095420837402e-01,6.812444925308227539e-01,7.054743766784667969e-01,7.425987124443054199e-01,7.635105848312377930e-01,7.814934849739074707e-01,7.934647798538208008e-01,7.972184419631958008e-01,7.930400371551513672e-01,7.937282919883728027e-01,7.802727222442626953e-01,7.470840215682983398e-01,6.807301044464111328e-01,6.358779668807983398e-01,6.099536418914794922e-01,5.845055580139160156e-01,5.816064476966857910e-01,5.678349733352661133e-01,5.850371718406677246e-01,6.168749332427978516e-01,6.732262969017028809e-01,7.028267383575439453e-01,7.491861581802368164e-01,7.995966672897338867e-01,8.402654528617858887e-01,8.646624684333801270e-01,8.835977315902709961e-01,8.929486870765686035e-01,8.975399732589721680e-01,9.029110670089721680e-01,9.045908451080322266e-01,9.053440690040588379e-01,9.053463935852050781e-01,9.053310751914978027e-01,9.053283333778381348e-01,9.053283333778381348e-01,9.053283333778381348e-01,9.053283333778381348e-01,9.053283333778381348e-01,9.053283333778381348e-01,9.053283333778381348e-01,9.053283333778381348e-01,9.053283333778381348e-01,9.053283333778381348e-01,9.053283333778381348e-01,9.053283333778381348e-01,9.053283333778381348e-01,9.053283333778381348e-01,9.053283333778381348e-01,9.053283333778381348e-01,9.053283333778381348e-01,9.053283333778381348e-01,9.053283333778381348e-01,9.053283333778381348e-01,9.053283333778381348e-01,9.053283333778381348e-01,9.053283333778381348e-01,9.053285121917724609e-01,9.053297042846679688e-01,9.053524136543273926e-01,9.053744077682495117e-01,9.051628112792968750e-01,9.045405387878417969e-01,9.033980369567871094e-01,9.016391634941101074e-01,8.990621566772460938e-01,8.949756622314453125e-01,8.886579275131225586e-01,8.801595568656921387e-01,8.708228468894958496e-01,8.578857779502868652e-01,8.292560577392578125e-01,8.082424402236938477e-01,8.006484508514404297e-01,7.746536731719970703e-01,7.220218777656555176e-01,6.160447597503662109e-01
5.886876583099365234e-01,6.142466068267822266e-01,6.568660736083984375e-01,6.576864719390869141e-01,6.812173128128051758e-01,7.054179310798645020e-01,7.419636249542236328e-01,7.639409899711608887e-01,7.824710607528686523e-01,7.943018674850463867e-01,7.963304519653320312e-01,7.935299873352050781e-01,7.912361025810241699e-01,7.784827351570129395e-01,7.552500963211059570e-01,6.848268508911132812e-01,6.348097920417785645e-01,6.086199879646301270e-01,5.837667584419250488e-01,5.711357593536376953e-01,5.615749359130859375e-01,5.883154273033142090e-01,6.280505061149597168e-01,6.802161931991577148e-01,7.118413448333740234e-01,7.482886314392089844e-01,8.023794889450073242e-01,8.395677804946899414e-01,8.686090707778930664e-01,8.848475217819213867e-01,8.938077092170715332e-01,8.979878425598144531e-01,9.025969505310058594e-01,9.049218893051147461e-01,9.052976965904235840e-01,9.053484797477722168e-01,9.053310155868530273e-01,9.053283333778381348e-01,9.053283333778381348e-01,9.053283333778381348e-01,9.053283333778381348e-01,9.053283333778381348e-01,9.053283333778381348e-01,9.053283333778381348e-01,9.053283333778381348e-01,9.053283333778381348e-01,9.053283333778381348e-01,9.053283333778381348e-01,9.053283333778381348e-01,9.053283333778381348e-01,9.053283333778381348e-01,9.053283333778381348e-01,9.053283333778381348e-01,9.053283333778381348e-01,9.053283333778381348e-01,9.053283333778381348e-01,9.053283333778381348e-01,9.053283333778381348e-01,9.053283333778381348e-01,9.053283333778381348e-01,9.053285121917724609e-01,9.053297042846679688e-01,9.053524732589721680e-01,9.053733944892883301e-01,9.051614999771118164e-01,9.045417308807373047e-01,9.034024477005004883e-01,9.016455411911010742e-01,8.990694284439086914e-01,8.949662446975708008e-01,8.886600732803344727e-01,8.801903724670410156e-01,8.708326220512390137e-01,8.578774929046630859e-01,8.292726874351501465e-01,8.082609176635742188e-01,8.006608486175537109e-01,7.746657133102416992e-01,7.220332622528076172e-01,6.160535216331481934e-01
5.886806249618530273e-01,6.142352819442749023e-01,6.568528413772583008e-01,6.576712727546691895e-01,6.812123060226440430e-01,7.053956389427185059e-01,7.418237924575805664e-01,7.644411325454711914e-01,7.842193841934204102e-01,7.950242757797241211e-01,7.974213957786560059e-01,7.992559671401977539e-01,7.921748161315917969e-01,7.794342041015625000e-01,7.527489662170410156e-01,6.837355494499206543e-01,6.306111216545104980e-01,6.075293421745300293e-01,5.907518863677978516e-01,5.722034573554992676e-01,5.761507749557495117e-01,5.875337123870849609e-01,6.254699230194091797e-01,6.885187029838562012e-01,7.223358750343322754e-01,7.520635724067687988e-01,7.986252903938293457e-01,8.436092138290405273e-01,8.677709698677062988e-01,8.818358182907104492e-01,8.925679922103881836e-01,8.978947401046752930e-01,9.026133418083190918e-01,9.046953320503234863e-01,9.052406549453735352e-01,9.053333401679992676e-01,9.053314924240112305e-01,9.053283333778381348e-01,9.053283333778381348e-01,9.053283333778381348e-01,9.053283333778381348e-01,9.053283333778381348e-01,9.053283333778381348e-01,9.053283333778381348e-01,9.053283333778381348e-01,9.053283333778381348e-01,9.053283333778381348e-01,9.053283333778381348e-01,9.053283333778381348e-01,9.053283333778381348e-01,9.053283333778381348e-01,9.053283333778381348e-01,9.053283333778381348e-01,9.053283333778381348e-01,9.053283333778381348e-01,9.053283333778381348e-01,9.053283333778381348e-01,9.053283333778381348e-01,9.053283333778381348e-01,9.053283333778381348e-01,9.053285121917724609e-01,9.053297042846679688e-01,9.053521156311035156e-01,9.053734540939331055e-01,9.051614999771118164e-01,9.045423269271850586e-01,9.034036397933959961e-01,9.016472101211547852e-01,8.990719318389892578e-01,8.949686288833618164e-01,8.886651396751403809e-01,8.801970481872558594e-01,8.708394765853881836e-01,8.578855991363525391e-01,8.292865753173828125e-01,8.082753419876098633e-01,8.006733655929565430e-01,7.746783494949340820e-01,7.220439910888671875e-01,6.160598993301391602e-01
5.886738300323486328e-01,6.142241358757019043e-01,6.568399071693420410e-01,6.576560139656066895e-01,6.811959147453308105e-01,7.053974866867065430e-01,7.417742609977722168e-01,7.641756534576416016e-01,7.840969562530517578e-01,7.936215400695800781e-01,7.968738079071044922e-01,7.995014786720275879e-01,7.911135554313659668e-01,7.800753116607666016e-01,7.560101747512817383e-01,6.841056942939758301e-01,6.333044767379760742e-01,6.100180149078369141e-01,5.949454903602600098e-01,5.772093534469604492e-01,5.783575773239135742e-01,5.950201749801635742e-01,6.241718530654907227e-01,6.978738903999328613e-01,7.355287671089172363e-01,7.554913759231567383e-01,8.050953149795532227e-01,8.415588140487670898e-01,8.683156967163085938e-01,8.845413923263549805e-01,8.926084041595458984e-01,8.988842964172363281e-01,9.022227525711059570e-01,9.045890569686889648e-01,9.050445556640625000e-01,9.052997231483459473e-01,9.053269028663635254e-01,9.053283333778381348e-01,9.053283333778381348e-01,9.053283333778381348e-01,9.053283333778381348e-01,9.053283333778381348e-01,9.053283333778381348e-01,9.053283333778381348e-01,9.053283333778381348e-01,9.053283333778381348e-01,9.053283333778381348e-01,9.053283333778381348e-01,9.053283333778381348e-01,9.053283333778381348e-01,9.053283333778381348e-01,9.053283333778381348e-01,9.053283333778381348e-01,9.053283333778381348e-01,9.053283333778381348e-01,9.053283333778381348e-01,9.053283333778381348e-01,9.053283333778381348e-01,9.053283333778381348e-01,9.053283333778381348e-01,9.053285121917724609e-01,9.053297042846679688e-01,9.053521156311035156e-01,9.053735136985778809e-01,9.051616191864013672e-01,9.045428037643432617e-01,9.034044742584228516e-01,9.016485214233398438e-01,8.990738391876220703e-01,8.949720859527587891e-01,8.886705636978149414e-01,8.802039623260498047e-01,8.708466291427612305e-01,8.578956723213195801e-01,8.292985558509826660e-01,8.082884550094604492e-01,8.006862998008728027e-01,7.746909856796264648e-01,7.220538854598999023e-01,6.160669922828674316e-01
5.886670947074890137e-01,6.142133474349975586e-01,6.568273305892944336e-01,6.576413512229919434e-01,6.811910867691040039e-01,7.054146528244018555e-01,7.418273091316223145e-01,7.641913890838623047e-01,7.837301492691040039e-01,7.934939861297607422e-01,7.979350090026855469e-01,7.998738288879394531e-01,7.933384180068969727e-01,7.820730209350585938e-01,7.553353309631347656e-01,6.861856579780578613e-01,6.338871121406555176e-01,6.133756041526794434e-01,5.972432494163513184e-01,5.835583806037902832e-01,5.925616621971130371e-01,6.017736196517944336e-01,6.371942162513732910e-01,6.960695385932922363e-01,7.454631328582763672e-01,7.715434432029724121e-01,8.056129217147827148e-01,8.386526107788085938e-01,8.640440702438354492e-01,8.844710588455200195e-01,8.915724754333496094e-01,8.974214792251586914e-01,9.017295837402343750e-01,9.038609862327575684e-01,9.049871563911437988e-01,9.052459597587585449e-01,9.053300619125366211e-01,9.053283333778381348e-01,9.053283333778381348e-01,9.053283333778381348e-01,9.053283333778381348e-01,9.053283333778381348e-01,9.053283333778381348e-01,9.053283333778381348e-01,9.053283333778381348e-01,9.053283333778381348e-01,9.053283333778381348e-01,9.053283333778381348e-01,9.053283333778381348e-01,9.053283333778381348e-01,9.053283333778381348e-01,9.053283333778381348e-01,9.053283333778381348e-01,9.053283333778381348e-01,9.053283333778381348e-01,9.053283333778381348e-01,9.053283333778381348e-01,9.053283333778381348e-01,9.053283333778381348e-01,9.053283333778381348e-01,9.053285121917724609e-01,9.053297042846679688e-01,9.053520560264587402e-01,9.053735136985778809e-01,9.051617383956909180e-01,9.045432806015014648e-01,9.034053087234497070e-01,9.016499519348144531e-01,8.990758657455444336e-01,8.949751853942871094e-01,8.886756300926208496e-01,8.802107572555541992e-01,8.708547353744506836e-01,8.579051494598388672e-01,8.293103575706481934e-01,8.083011507987976074e-01,8.006989955902099609e-01,7.747030854225158691e-01,7.220640182495117188e-01,6.160741448402404785e-01
5.886609554290771484e-01,6.142028570175170898e-01,6.568149328231811523e-01,6.576266884803771973e-01,6.811722517013549805e-01,7.053989171981811523e-01,7.417361736297607422e-01,7.639594078063964844e-01,7.836788892745971680e-01,7.930642366409301758e-01,7.988711595535278320e-01,7.997159957885742188e-01,7.935774326324462891e-01,7.841538190841674805e-01,7.551068067550659180e-01,6.869909167289733887e-01,6.337769627571105957e-01,6.071439981460571289e-01,5.941845774650573730e-01,5.832521915435791016e-01,5.991902351379394531e-01,6.036874651908874512e-01,6.399864554405212402e-01,7.184115648269653320e-01,7.456092834472656250e-01,7.780071496963500977e-01,8.032721281051635742e-01,8.412101268768310547e-01,8.602191209793090820e-01,8.852852582931518555e-01,8.926538228988647461e-01,8.978168964385986328e-01,9.005736112594604492e-01,9.032893776893615723e-01,9.048814773559570312e-01,9.052482247352600098e-01,9.053381681442260742e-01,9.053283333778381348e-01,9.053283333778381348e-01,9.053283333778381348e-01,9.053283333778381348e-01,9.053283333778381348e-01,9.053283333778381348e-01,9.053283333778381348e-01,9.053283333778381348e-01,9.053283333778381348e-01,9.053283333778381348e-01,9.053283333778381348e-01,9.053283333778381348e-01,9.053283333778381348e-01,9.053283333778381348e-01,9.053283333778381348e-01,9.053283333778381348e-01,9.053283333778381348e-01,9.053283333778381348e-01,9.053283333778381348e-01,9.053283333778381348e-01,9.053283333778381348e-01,9.053283333778381348e-01,9.053283333778381348e-01,9.053285121917724609e-01,9.053297042846679688e-01,9.053520560264587402e-01,9.053734540939331055e-01,9.051620364189147949e-01,9.045436978340148926e-01,9.034062027931213379e-01,9.016515016555786133e-01,8.990778923034667969e-01,8.949785232543945312e-01,8.886805772781372070e-01,8.802173733711242676e-01,8.708625435829162598e-01,8.579147458076477051e-01,8.293218016624450684e-01,8.083138465881347656e-01,8.007118701934814453e-01,7.747154235839843750e-01,7.220742702484130859e-01,6.160811185836791992e-01
5.886552929878234863e-01,6.141934990882873535e-01,6.568034887313842773e-01,6.576129198074340820e-01,6.811580657958984375e-01,7.053850889205932617e-01,7.417804598808288574e-01,7.637037038803100586e-01,7.840132713317871094e-01,7.937656641006469727e-01,7.993437647819519043e-01,8.010182380676269531e-01,7.946320772171020508e-01,7.839931249618530273e-01,7.566878795623779297e-01,6.871717572212219238e-01,6.390693783760070801e-01,6.091468334197998047e-01,5.944100618362426758e-01,6.023966670036315918e-01,6.029576063156127930e-01,6.102918386459350586e-01,6.495841741561889648e-01,7.208022475242614746e-01,7.565004825592041016e-01,7.728708982467651367e-01,8.178954124450683594e-01,8.451839685440063477e-01,8.646467924118041992e-01,8.812375068664550781e-01,8.928866386413574219e-01,8.967199325561523438e-01,9.000239372253417969e-01,9.033578634262084961e-01,9.049675464630126953e-01,9.052892923355102539e-01,9.053332209587097168e-01,9.053283333778381348e-01,9.053283333778381348e-01,9.053283333778381348e-01,9.053283333778381348e-01,9.053283333778381348e-01,9.053283333778381348e-01,9.053283333778381348e-01,9.053283333778381348e-01,9.053283333778381348e-01,9.053283333778381348e-01,9.053283333778381348e-01,9.053283333778381348e-01,9.053283333778381348e-01,9.053283333778381348e-01,9.053283333778381348e-01,9.053283333778381348e-01,9.053283333778381348e-01,9.053283333778381348e-01,9.053283333778381348e-01,9.053283333778381348e-01,9.053283333778381348e-01,9.053283333778381348e-01,9.053283333778381348e-01,9.053285121917724609e-01,9.053297042846679688e-01,9.053520560264587402e-01,9.053733348846435547e-01,9.051622152328491211e-01,9.045441150665283203e-01,9.034070968627929688e-01,9.016528129577636719e-01,8.990797400474548340e-01,8.949815630912780762e-01,8.886855840682983398e-01,8.802242279052734375e-01,8.708705902099609375e-01,8.579242229461669922e-01,8.293330669403076172e-01,8.083264231681823730e-01,8.007243871688842773e-01,7.747277021408081055e-01,7.220844626426696777e-01,6.160881519317626953e-01
5.886504054069519043e-01,6.141850948333740234e-01,6.567932963371276855e-01,6.576007604598999023e-01,6.811424493789672852e-01,7.053620219230651855e-01,7.417699694633483887e-01,7.637932300567626953e-01,7.842675447463989258e-01,7.945722341537475586e-01,8.013569116592407227e-01,8.023374080657958984e-01,7.974364757537841797e-01,7.858737707138061523e-01,7.579574584960937500e-01,7.000795602798461914e-01,6.345804929733276367e-01,6.120723485946655273e-01,6.017571091651916504e-01,6.139152646064758301e-01,6.155260801315307617e-01,6.123672723770141602e-01,6.589857935905456543e-01,7.260302305221557617e-01,7.723144292831420898e-01,7.972011566162109375e-01,8.205890059471130371e-01,8.478941917419433594e-01,8.631742596626281738e-01,8.809138536453247070e-01,8.929483890533447266e-01,8.975410461425781250e-01,9.008524417877197266e-01,9.034097194671630859e-01,9.051954746246337891e-01,9.052782058715820312e-01,9.053378105163574219e-01,9.053283333778381348e-01,9.053283333778381348e-01,9.053283333778381348e-01,9.053283333778381348e-01,9.053283333778381348e-01,9.053283333778381348e-01,9.053283333778381348e-01,9.053283333778381348e-01,9.053283333778381348e-01,9.053283333778381348e-01,9.053283333778381348e-01,9.053283333778381348e-01,9.053283333778381348e-01,9.053283333778381348e-01,9.053283333778381348e-01,9.053283333778381348e-01,9.053283333778381348e-01,9.053283333778381348e-01,9.053283333778381348e-01,9.053283333778381348e-01,9.053283333778381348e-01,9.053283333778381348e-01,9.053283333778381348e-01,9.053285121917724609e-01,9.053297042846679688e-01,9.053521156311035156e-01,9.053734540939331055e-01,9.051623344421386719e-01,9.045447111129760742e-01,9.034079909324645996e-01,9.016540050506591797e-01,8.990818262100219727e-01,8.949849605560302734e-01,8.886905908584594727e-01,8.802309036254882812e-01,8.708785176277160645e-01,8.579337596893310547e-01,8.293447494506835938e-01,8.083392381668090820e-01,8.007370233535766602e-01,7.747398614883422852e-01,7.220944762229919434e-01,6.160953044891357422e-01
5.886458754539489746e-01,6.141777634620666504e-01,6.567842960357666016e-01,6.575900316238403320e-01,6.811292767524719238e-01,7.053387761116027832e-01,7.416985630989074707e-01,7.637899518013000488e-01,7.841547727584838867e-01,7.955608367919921875e-01,8.017820119857788086e-01,8.060392737388610840e-01,7.995027303695678711e-01,7.899637222290039062e-01,7.634609937667846680e-01,7.126176357269287109e-01,6.412802338600158691e-01,6.106591224670410156e-01,6.122176647186279297e-01,6.361957788467407227e-01,6.288206577301025391e-01,6.379090547561645508e-01,6.697616577148437500e-01,7.415684461593627930e-01,7.915046215057373047e-01,8.135244846343994141e-01,8.210312724113464355e-01,8.564299941062927246e-01,8.712935447692871094e-01,8.844428062438964844e-01,8.968256711959838867e-01,9.001941680908203125e-01,9.017523527145385742e-01,9.041652679443359375e-01,9.050898551940917969e-01,9.053162336349487305e-01,9.053345918655395508e-01,9.053283333778381348e-01,9.053283333778381348e-01,9.053283333778381348e-01,9.053283333778381348e-01,9.053283333778381348e-01,9.053283333778381348e-01,9.053283333778381348e-01,9.053283333778381348e-01,9.053283333778381348e-01,9.053283333778381348e-01,9.053283333778381348e-01,9.053283333778381348e-01,9.053283333778381348e-01,9.053283333778381348e-01,9.053283333778381348e-01,9.053283333778381348e-01,9.053283333778381348e-01,9.053283333778381348e-01,9.053283333778381348e-01,9.053283333778381348e-01,9.053283333778381348e-01,9.053283333778381348e-01,9.053283333778381348e-01,9.053285121917724609e-01,9.053297042846679688e-01,9.053519964218139648e-01,9.053733348846435547e-01,9.051624536514282227e-01,9.045451879501342773e-01,9.034088850021362305e-01,9.016554355621337891e-01,8.990838527679443359e-01,8.949881196022033691e-01,8.886954784393310547e-01,8.802375793457031250e-01,8.708863258361816406e-01,8.579432964324951172e-01,8.293561935424804688e-01,8.083518147468566895e-01,8.007495403289794922e-01,7.747523784637451172e-01,7.221045494079589844e-01,6.161023378372192383e-01
5.886415243148803711e-01,6.141705513000488281e-01,6.567755937576293945e-01,6.575800180435180664e-01,6.811180114746093750e-01,7.053203582763671875e-01,7.417075037956237793e-01,7.640645503997802734e-01,7.852507829666137695e-01,7.969921827316284180e-01,8.048593997955322266e-01,8.089936375617980957e-01,7.997785806655883789e-01,7.924078702926635742e-01,7.735335230827331543e-01,7.244132757186889648e-01,6.601366996765136719e-01,6.365475654602050781e-01,6.222224831581115723e-01,6.479452848434448242e-01,6.379615068435668945e-01,6.621471047401428223e-01,7.017152309417724609e-01,7.415823936462402344e-01,8.050991296768188477e-01,8.304828405380249023e-01,8.449070453643798828e-01,8.651187419891357422e-01,8.812795877456665039e-01,8.908978700637817383e-01,8.986553549766540527e-01,9.012117385864257812e-01,9.035871028900146484e-01,9.049717187881469727e-01,9.050995111465454102e-01,9.053279161453247070e-01,9.053277969360351562e-01,9.053283333778381348e-01,9.053283333778381348e-01,9.053283333778381348e-01,9.053283333778381348e-01,9.053283333778381348e-01,9.053283333778381348e-01,9.053283333778381348e-01,9.053283333778381348e-01,9.053283333778381348e-01,9.053283333778381348e-01,9.053283333778381348e-01,9.053283333778381348e-01,9.053283333778381348e-01,9.053283333778381348e-01,9.053283333778381348e-01,9.053283333778381348e-01,9.053283333778381348e-01,9.053283333778381348e-01,9.053283333778381348e-01,9.053283333778381348e-01,9.053283333778381348e-01,9.053283333778381348e-01,9.053283333778381348e-01,9.053285121917724609e-01,9.053297042846679688e-01,9.053520560264587402e-01,9.053732156753540039e-01,9.051625728607177734e-01,9.045455455780029297e-01,9.034098386764526367e-01,9.016569256782531738e-01,8.990858793258666992e-01,8.949913978576660156e-01,8.887004852294921875e-01,8.802441954612731934e-01,8.708943128585815430e-01,8.579528331756591797e-01,8.293676972389221191e-01,8.083645105361938477e-01,8.007622957229614258e-01,7.747644186019897461e-01,7.221148014068603516e-01,6.161094903945922852e-01
5.886368751525878906e-01,6.141631603240966797e-01,6.567674875259399414e-01,6.575708389282226562e-01,6.811077594757080078e-01,7.053118348121643066e-01,7.415802478790283203e-01,7.639299631118774414e-01,7.849553227424621582e-01,7.961944341659545898e-01,8.080575466156005859e-01,8.141337633132934570e-01,8.035956621170043945e-01,8.011182546615600586e-01,7.796539068222045898e-01,7.412657737731933594e-01,6.694297194480895996e-01,6.580747961997985840e-01,6.507167816162109375e-01,6.629041433334350586e-01,6.528845429420471191e-01,6.834155917167663574e-01,7.180554270744323730e-01,7.580974102020263672e-01,8.206843733787536621e-01,8.522394895553588867e-01,8.534543514251708984e-01,8.758109807968139648e-01,8.893199563026428223e-01,8.951812982559204102e-01,9.007615447044372559e-01,9.040657281875610352e-01,9.051034450531005859e-01,9.049237966537475586e-01,9.051454067230224609e-01,9.053047895431518555e-01,9.053335785865783691e-01,9.053283333778381348e-01,9.053283333778381348e-01,9.053283333778381348e-01,9.053283333778381348e-01,9.053283333778381348e-01,9.053283333778381348e-01,9.053283333778381348e-01,9.053283333778381348e-01,9.053283333778381348e-01,9.053283333778381348e-01,9.053283333778381348e-01,9.053283333778381348e-01,9.053283333778381348e-01,9.053283333778381348e-01,9.053283333778381348e-01,9.053283333778381348e-01,9.053283333778381348e-01,9.053283333778381348e-01,9.053283333778381348e-01,9.053283333778381348e-01,9.053283333778381348e-01,9.053283333778381348e-01,9.053283333778381348e-01,9.053285121917724609e-01,9.053297042846679688e-01,9.053519964218139648e-01,9.053733348846435547e-01,9.051628112792968750e-01,9.045461416244506836e-01,9.034106731414794922e-01,9.016582965850830078e-01,8.990879654884338379e-01,8.949946165084838867e-01,8.887054920196533203e-01,8.802511096000671387e-01,8.709020614624023438e-01,8.579621911048889160e-01,8.293793201446533203e-01,8.083772659301757812e-01,8.007749319076538086e-01,7.747768163681030273e-01,7.221249938011169434e-01,6.161165833473205566e-01
5.886316895484924316e-01,6.141553521156311035e-01,6.567590236663818359e-01,6.575609445571899414e-01,6.810975670814514160e-01,7.053073644638061523e-01,7.415970563888549805e-01,7.639181613922119141e-01,7.847874164581298828e-01,7.980996370315551758e-01,8.075389862060546875e-01,8.139904141426086426e-01,8.043050765991210938e-01,8.103679418563842773e-01,7.958768606185913086e-01,7.508260011672973633e-01,6.883761286735534668e-01,6.696045398712158203e-01,6.704338788986206055e-01,6.830958127975463867e-01,6.762890219688415527e-01,7.004004716873168945e-01,7.405484318733215332e-01,7.801156640052795410e-01,8.247973918914794922e-01,8.541451692581176758e-01,8.701089024543762207e-01,8.823914527893066406e-01,8.934007883071899414e-01,8.968543410301208496e-01,9.026321172714233398e-01,9.047290086746215820e-01,9.051402807235717773e-01,9.055669307708740234e-01,9.051099419593811035e-01,9.053388833999633789e-01,9.053305387496948242e-01,9.053283333778381348e-01,9.053283333778381348e-01,9.053283333778381348e-01,9.053283333778381348e-01,9.053283333778381348e-01,9.053283333778381348e-01,9.053283333778381348e-01,9.053283333778381348e-01,9.053283333778381348e-01,9.053283333778381348e-01,9.053283333778381348e-01,9.053283333778381348e-01,9.053283333778381348e-01,9.053283333778381348e-01,9.053283333778381348e-01,9.053283333778381348e-01,9.053283333778381348e-01,9.053283333778381348e-01,9.053283333778381348e-01,9.053283333778381348e-01,9.053283333778381348e-01,9.053283333778381348e-01,9.053283333778381348e-01,9.053285121917724609e-01,9.053297042846679688e-01,9.053519964218139648e-01,9.053732752799987793e-01,9.051629900932312012e-01,9.045465588569641113e-01,9.034115076065063477e-01,9.016594886779785156e-01,8.990899324417114258e-01,8.949979543685913086e-01,8.887106180191040039e-01,8.802578449249267578e-01,8.709101676940917969e-01,8.579717874526977539e-01,8.293908238410949707e-01,8.083900213241577148e-01,8.007876873016357422e-01,7.747892141342163086e-01,7.221351861953735352e-01,6.161237359046936035e-01
5.886263251304626465e-01,6.141465902328491211e-01,6.567491292953491211e-01,6.575497388839721680e-01,6.810863018035888672e-01,7.052912712097167969e-01,7.416559457778930664e-01,7.640228271484375000e-01,7.837210893630981445e-01,8.007803559303283691e-01,8.119126558303833008e-01,8.147002458572387695e-01,8.096197843551635742e-01,8.096787929534912109e-01,7.992054224014282227e-01,7.674674987792968750e-01,7.010986208915710449e-01,6.861848235130310059e-01,6.811559796333312988e-01,7.039604187011718750e-01,6.981153488159179688e-01,7.121731042861938477e-01,7.556207180023193359e-01,7.925720214843750000e-01,8.342611789703369141e-01,8.595422506332397461e-01,8.778929710388183594e-01,8.861520290374755859e-01,8.960763216018676758e-01,9.010619521141052246e-01,9.023467302322387695e-01,9.051525592803955078e-01,9.052261114120483398e-01,9.055072069168090820e-01,9.052239060401916504e-01,9.053505659103393555e-01,9.053294062614440918e-01,9.053264260292053223e-01,9.053263664245605469e-01,9.053263664245605469e-01,9.053263664245605469e-01,9.053263664245605469e-01,9.053262472152709961e-01,9.053262472152709961e-01,9.053262472152709961e-01,9.053262472152709961e-01,9.053262472152709961e-01,9.053261280059814453e-01,9.053261280059814453e-01,9.053261280059814453e-01,9.053261280059814453e-01,9.053261280059814453e-01,9.053260684013366699e-01,9.053260684013366699e-01,9.053260684013366699e-01,9.053260684013366699e-01,9.053261280059814453e-01,9.053260684013366699e-01,9.053261280059814453e-01,9.053261280059814453e-01,9.053262472152709961e-01,9.053274393081665039e-01,9.053497314453125000e-01,9.053708910942077637e-01,9.051609039306640625e-01,9.045450091361999512e-01,9.034106731414794922e-01,9.016593098640441895e-01,8.990901708602905273e-01,8.949993252754211426e-01,8.887137770652770996e-01,8.802632093429565430e-01,8.709172010421752930e-01,8.579808473587036133e-01,8.294020295143127441e-01,8.084027767181396484e-01,8.008006811141967773e-01,7.748017311096191406e-01,7.221456766128540039e-01,6.161310672760009766e-01
5.886206626892089844e-01,6.141370534896850586e-01,6.567380428314208984e-01,6.575366854667663574e-01,6.810709238052368164e-01,7.052747607231140137e-01,7.416479587554931641e-01,7.633385658264160156e-01,7.841143608093261719e-01,8.004713058471679688e-01,8.129476308822631836e-01,8.150991797447204590e-01,8.117880821228027344e-01,8.135561943054199219e-01,7.991431951522827148e-01,7.810652256011962891e-01,7.177889347076416016e-01,6.933041810989379883e-01,6.985647082328796387e-01,7.098213434219360352e-01,7.139553427696228027e-01,7.184931039810180664e-01,7.631250619888305664e-01,8.168373107910156250e-01,8.412411212921142578e-01,8.620451688766479492e-01,8.784465789794921875e-01,8.904517292976379395e-01,8.981091380119323730e-01,9.020565748214721680e-01,9.026311039924621582e-01,9.047112464904785156e-01,9.053993225097656250e-01,9.052463173866271973e-01,9.053651690483093262e-01,9.053347706794738770e-01,9.053248167037963867e-01,9.053209424018859863e-01,9.053209424018859863e-01,9.053209424018859863e-01,9.053210616111755371e-01,9.053211212158203125e-01,9.053211212158203125e-01,9.053211212158203125e-01,9.053212404251098633e-01,9.053212404251098633e-01,9.053213596343994141e-01,9.053213596343994141e-01,9.053213596343994141e-01,9.053214192390441895e-01,9.053213596343994141e-01,9.053214192390441895e-01,9.053214192390441895e-01,9.053215980529785156e-01,9.053215980529785156e-01,9.053217172622680664e-01,9.053217172622680664e-01,9.053217172622680664e-01,9.053217768669128418e-01,9.053218364715576172e-01,9.053220748901367188e-01,9.053232073783874512e-01,9.053455591201782227e-01,9.053670167922973633e-01,9.051569104194641113e-01,9.045405387878417969e-01,9.034069180488586426e-01,9.016559720039367676e-01,8.990865945816040039e-01,8.949946165084838867e-01,8.887091875076293945e-01,8.802588582038879395e-01,8.709130287170410156e-01,8.579806089401245117e-01,8.294048309326171875e-01,8.084080219268798828e-01,8.008068203926086426e-01,7.748067378997802734e-01,7.221475839614868164e-01,6.161320209503173828e-01
5.886096358299255371e-01,6.141233444213867188e-01,6.567223668098449707e-01,6.575231552124023438e-01,6.810572743415832520e-01,7.052699327468872070e-01,7.416816353797912598e-01,7.628906369209289551e-01,7.849361896514892578e-01,8.025513887405395508e-01,8.140311241149902344e-01,8.152849674224853516e-01,8.169459104537963867e-01,8.161975145339965820e-01,8.035777807235717773e-01,7.802591323852539062e-01,7.359498739242553711e-01,6.985098123550415039e-01,6.977811455726623535e-01,7.225987315177917480e-01,7.264125943183898926e-01,7.345796227455139160e-01,7.715538740158081055e-01,8.203517198562622070e-01,8.511505722999572754e-01,8.694185018539428711e-01,8.844435811042785645e-01,8.962446451187133789e-01,9.010182023048400879e-01,9.030518531799316406e-01,9.035832285881042480e-01,9.047505855560302734e-01,9.055463075637817383e-01,9.053993821144104004e-01,9.054195284843444824e-01,9.054026603698730469e-01,9.053931236267089844e-01,9.053915143013000488e-01,9.053918123245239258e-01,9.053921699523925781e-01,9.053922891616821289e-01,9.053925275802612305e-01,9.053929448127746582e-01,9.053932428359985352e-01,9.053934216499328613e-01,9.053937196731567383e-01,9.053939580917358398e-01,9.053941965103149414e-01,9.053944945335388184e-01,9.053947925567626953e-01,9.053950309753417969e-01,9.053952693939208984e-01,9.053955078125000000e-01,9.053957462310791016e-01,9.053959846496582031e-01,9.053962826728820801e-01,9.053965806961059570e-01,9.053968191146850586e-01,9.053971171379089355e-01,9.053972959518432617e-01,9.053978919982910156e-01,9.053995013236999512e-01,9.054225683212280273e-01,9.054448604583740234e-01,9.052376747131347656e-01,9.046199321746826172e-01,9.034808278083801270e-01,9.017148017883300781e-01,8.991358280181884766e-01,8.950454592704772949e-01,8.887742161750793457e-01,8.803354501724243164e-01,8.710010051727294922e-01,8.580513596534729004e-01,8.294707536697387695e-01,8.084541559219360352e-01,8.008368611335754395e-01,7.748253345489501953e-01,7.221459746360778809e-01,6.161315441131591797e-01
5.886165499687194824e-01,6.141322255134582520e-01,6.567291617393493652e-01,6.575410366058349609e-01,6.810865402221679688e-01,7.053331136703491211e-01,7.417965531349182129e-01,7.630062699317932129e-01,7.843269109725952148e-01,8.035887479782104492e-01,8.136229515075683594e-01,8.161846399307250977e-01,8.182280659675598145e-01,8.160314559936523438e-01,8.070681095123291016e-01,7.899084091186523438e-01,7.369236946105957031e-01,7.099181413650512695e-01,7.045081257820129395e-01,7.292346954345703125e-01,7.254751920700073242e-01,7.396201491355895996e-01,7.869516611099243164e-01,8.268419504165649414e-01,8.517979383468627930e-01,8.729926347732543945e-01,8.878585696220397949e-01,8.947098255157470703e-01,9.010220766067504883e-01,9.042268991470336914e-01,9.050810337066650391e-01,9.052298069000244141e-01,9.053407311439514160e-01,9.054241180419921875e-01,9.055387973785400391e-01,9.054839015007019043e-01,9.054845571517944336e-01,9.054801464080810547e-01,9.054793715476989746e-01,9.054784774780273438e-01,9.054775238037109375e-01,9.054766297340393066e-01,9.054757356643676758e-01,9.054749011993408203e-01,9.054740667343139648e-01,9.054731130599975586e-01,9.054722189903259277e-01,9.054713249206542969e-01,9.054706096649169922e-01,9.054696559906005859e-01,9.054688811302185059e-01,9.054680466651916504e-01,9.054671525955200195e-01,9.054662585258483887e-01,9.054653644561767578e-01,9.054644703865051270e-01,9.054636359214782715e-01,9.054628014564514160e-01,9.054620265960693359e-01,9.054610729217529297e-01,9.054605960845947266e-01,9.054611921310424805e-01,9.054840803146362305e-01,9.055072069168090820e-01,9.053021669387817383e-01,9.046817421913146973e-01,9.035502672195434570e-01,9.017894268035888672e-01,8.992094993591308594e-01,8.951150178909301758e-01,8.888963460922241211e-01,8.804689645767211914e-01,8.711263537406921387e-01,8.582134842872619629e-01,8.296997547149658203e-01,8.087005019187927246e-01,8.010929822921752930e-01,7.750733494758605957e-01,7.224301099777221680e-01,6.165247559547424316e-01
5.888006091117858887e-01,6.143097877502441406e-01,6.569833755493164062e-01,6.577980518341064453e-01,6.813355684280395508e-01,7.055069208145141602e-01,7.418601512908935547e-01,7.632840275764465332e-01,7.845759987831115723e-01,8.038721084594726562e-01,8.132629394531250000e-01,8.191982507705688477e-01,8.201173543930053711e-01,8.183517456054687500e-01,8.071293830871582031e-01,7.870070934295654297e-01,7.411190271377563477e-01,7.176492810249328613e-01,7.119599580764770508e-01,7.291093468666076660e-01,7.287468910217285156e-01,7.413422465324401855e-01,7.913655638694763184e-01,8.273245096206665039e-01,8.544178009033203125e-01,8.759515285491943359e-01,8.879338502883911133e-01,8.972228765487670898e-01,9.016234874725341797e-01,9.038046598434448242e-01,9.041864275932312012e-01,9.045931100845336914e-01,9.046138525009155273e-01,9.046629667282104492e-01,9.046202898025512695e-01,9.046292304992675781e-01,9.046305418014526367e-01,9.046277403831481934e-01,9.046267867088317871e-01,9.046257734298706055e-01,9.046249389648437500e-01,9.046241044998168945e-01,9.046230316162109375e-01,9.046223163604736328e-01,9.046212434768676758e-01,9.046204090118408203e-01,9.046195149421691895e-01,9.046186208724975586e-01,9.046177268028259277e-01,9.046168327331542969e-01,9.046159386634826660e-01,9.046150445938110352e-01,9.046140909194946289e-01,9.046131372451782227e-01,9.046123027801513672e-01,9.046112895011901855e-01,9.046104550361633301e-01,9.046095013618469238e-01,9.046086668968200684e-01,9.046078324317932129e-01,9.046069979667663574e-01,9.046077728271484375e-01,9.046277999877929688e-01,9.046609997749328613e-01,9.044568538665771484e-01,9.038791656494140625e-01,9.027749300003051758e-01,9.010078907012939453e-01,8.984284996986389160e-01,8.943628668785095215e-01,8.880739212036132812e-01,8.796501755714416504e-01,8.703311681747436523e-01,8.574495315551757812e-01,8.288421034812927246e-01,8.078486919403076172e-01,8.004548549652099609e-01,7.742144465446472168e-01,7.216157317161560059e-01,6.159961223602294922e-01
5.891568064689636230e-01,6.141790151596069336e-01,6.566520929336547852e-01,6.571496725082397461e-01,6.804409027099609375e-01,7.042928338050842285e-01,7.404109239578247070e-01,7.614877223968505859e-01,7.828695774078369141e-01,8.010981082916259766e-01,8.108177185058593750e-01,8.177689909934997559e-01,8.199104070663452148e-01,8.204104900360107422e-01,8.121984004974365234e-01,7.909206151962280273e-01,7.482683062553405762e-01,7.175168395042419434e-01,7.179386019706726074e-01,7.389055490493774414e-01,7.348071932792663574e-01,7.364050149917602539e-01,7.967608571052551270e-01,8.300675153732299805e-01,8.532056808471679688e-01,8.727508783340454102e-01,8.866249322891235352e-01,8.946156501770019531e-01,9.004811048507690430e-01,9.027775526046752930e-01,9.037792682647705078e-01,9.037542343139648438e-01,9.036908149719238281e-01,9.037187099456787109e-01,9.037170410156250000e-01,9.037134647369384766e-01,9.037129878997802734e-01,9.037119150161743164e-01,9.037109017372131348e-01,9.037098288536071777e-01,9.037086963653564453e-01,9.037076234817504883e-01,9.037066698074340820e-01,9.037055969238281250e-01,9.037044644355773926e-01,9.037034511566162109e-01,9.037024378776550293e-01,9.037013649940490723e-01,9.037002325057983398e-01,9.036991596221923828e-01,9.036982059478759766e-01,9.036972522735595703e-01,9.036960601806640625e-01,9.036949872970581055e-01,9.036940336227416992e-01,9.036929011344909668e-01,9.036918282508850098e-01,9.036906957626342773e-01,9.036896824836730957e-01,9.036886692047119141e-01,9.036878943443298340e-01,9.036878943443298340e-01,9.037038087844848633e-01,9.037332534790039062e-01,9.035475254058837891e-01,9.029993414878845215e-01,9.019618630409240723e-01,9.002496004104614258e-01,8.976998925209045410e-01,8.936429023742675781e-01,8.874094486236572266e-01,8.790729641914367676e-01,8.698124885559082031e-01,8.568378090858459473e-01,8.282492756843566895e-01,8.071023225784301758e-01,7.996400594711303711e-01,7.733839750289916992e-01,7.204579710960388184e-01,6.144745349884033203e-01
5.884075164794921875e-01,6.125006079673767090e-01,6.548558473587036133e-01,6.552598476409912109e-01,6.780945062637329102e-01,7.014937400817871094e-01,7.376186847686767578e-01,7.587741613388061523e-01,7.800998687744140625e-01,7.981868982315063477e-01,8.105043172836303711e-01,8.158781528472900391e-01,8.209981322288513184e-01,8.219345211982727051e-01,8.123144507408142090e-01,7.917160987854003906e-01,7.539789080619812012e-01,7.173143625259399414e-01,7.142679691314697266e-01,7.371442317962646484e-01,7.388508915901184082e-01,7.486332654953002930e-01,7.966556549072265625e-01,8.315080404281616211e-01,8.515027761459350586e-01,8.736516237258911133e-01,8.842973709106445312e-01,8.939654827117919922e-01,8.999684453010559082e-01,9.012649655342102051e-01,9.019736051559448242e-01,9.019675254821777344e-01,9.019347429275512695e-01,9.019348621368408203e-01,9.019231200218200684e-01,9.019165039062500000e-01,9.019112586975097656e-01,9.019055962562561035e-01,9.018995761871337891e-01,9.018933773040771484e-01,9.018874764442443848e-01,9.018812179565429688e-01,9.018752574920654297e-01,9.018691778182983398e-01,9.018630981445312500e-01,9.018570780754089355e-01,9.018509387969970703e-01,9.018449783325195312e-01,9.018388390541076660e-01,9.018327593803405762e-01,9.018267393112182617e-01,9.018206596374511719e-01,9.018145203590393066e-01,9.018086194992065430e-01,9.018025994300842285e-01,9.017965793609619141e-01,9.017904996871948242e-01,9.017843008041381836e-01,9.017783403396606445e-01,9.017723798751831055e-01,9.017664194107055664e-01,9.017610549926757812e-01,9.017750024795532227e-01,9.017999172210693359e-01,9.016262292861938477e-01,9.011567234992980957e-01,9.001969099044799805e-01,8.985993862152099609e-01,8.961435556411743164e-01,8.921529054641723633e-01,8.860809206962585449e-01,8.775866031646728516e-01,8.682920932769775391e-01,8.554396629333496094e-01,8.269664645195007324e-01,8.060634136199951172e-01,7.985032796859741211e-01,7.719303369522094727e-01,7.191745042800903320e-01,6.127004623413085938e-01
5.864663720130920410e-01,6.097772121429443359e-01,6.518762111663818359e-01,6.520040631294250488e-01,6.745807528495788574e-01,6.974244117736816406e-01,7.329723834991455078e-01,7.536584138870239258e-01,7.743458747863769531e-01,7.927249670028686523e-01,8.040387630462646484e-01,8.124794960021972656e-01,8.175748586654663086e-01,8.157877922058105469e-01,8.099484443664550781e-01,7.905219197273254395e-01,7.588521242141723633e-01,7.259372472763061523e-01,7.170121073722839355e-01,7.336220741271972656e-01,7.329856157302856445e-01,7.499247789382934570e-01,7.883031368255615234e-01,8.269831538200378418e-01,8.494103550910949707e-01,8.685510158538818359e-01,8.810262084007263184e-01,8.880487680435180664e-01,8.933312892913818359e-01,8.950389623641967773e-01,8.953900337219238281e-01,8.954867124557495117e-01,8.954534530639648438e-01,8.954387903213500977e-01,8.954275846481323242e-01,8.954197168350219727e-01,8.954104781150817871e-01,8.954012393951416016e-01,8.953921198844909668e-01,8.953830003738403320e-01,8.953739404678344727e-01,8.953648805618286133e-01,8.953557610511779785e-01,8.953465223312377930e-01,8.953374624252319336e-01,8.953282833099365234e-01,8.953192234039306641e-01,8.953103423118591309e-01,8.953012228012084961e-01,8.952921628952026367e-01,8.952829837799072266e-01,8.952739238739013672e-01,8.952649831771850586e-01,8.952557444572448730e-01,8.952467441558837891e-01,8.952378034591674805e-01,8.952286243438720703e-01,8.952195048332214355e-01,8.952105045318603516e-01,8.952014446258544922e-01,8.951920270919799805e-01,8.951833248138427734e-01,8.951921463012695312e-01,8.952092528343200684e-01,8.950740098953247070e-01,8.946247100830078125e-01,8.938150405883789062e-01,8.923484086990356445e-01,8.900247812271118164e-01,8.861790895462036133e-01,8.802852630615234375e-01,8.720731735229492188e-01,8.626440763473510742e-01,8.496468067169189453e-01,8.213585615158081055e-01,8.010414838790893555e-01,7.939168214797973633e-01,7.675383090972900391e-01,7.151734828948974609e-01,6.077089309692382812e-01
5.825372338294982910e-01,6.038814783096313477e-01,6.454435586929321289e-01,6.447997689247131348e-01,6.661962270736694336e-01,6.881829500198364258e-01,7.228872776031494141e-01,7.430416345596313477e-01,7.629971504211425781e-01,7.803953886032104492e-01,7.916810512542724609e-01,8.024331927299499512e-01,8.095592260360717773e-01,8.073095083236694336e-01,8.039762973785400391e-01,7.807379961013793945e-01,7.532416582107543945e-01,7.257920503616333008e-01,7.122385501861572266e-01,7.136774659156799316e-01,7.237694263458251953e-01,7.402417659759521484e-01,7.846329212188720703e-01,8.113330006599426270e-01,8.379321098327636719e-01,8.592822551727294922e-01,8.694986701011657715e-01,8.778715133666992188e-01,8.825201988220214844e-01,8.847303986549377441e-01,8.844980597496032715e-01,8.845995068550109863e-01,8.845630884170532227e-01,8.845393061637878418e-01,8.845189809799194336e-01,8.844985961914062500e-01,8.844785094261169434e-01,8.844582438468933105e-01,8.844380378723144531e-01,8.844177722930908203e-01,8.843976259231567383e-01,8.843774795532226562e-01,8.843572139739990234e-01,8.843370676040649414e-01,8.843169212341308594e-01,8.842966556549072266e-01,8.842764496803283691e-01,8.842561244964599609e-01,8.842359781265258789e-01,8.842159509658813477e-01,8.841957449913024902e-01,8.841755390167236328e-01,8.841555118560791016e-01,8.841351270675659180e-01,8.841151595115661621e-01,8.840950131416320801e-01,8.840748667716979980e-01,8.840545415878295898e-01,8.840345740318298340e-01,8.840145468711853027e-01,8.839941620826721191e-01,8.839739561080932617e-01,8.839846849441528320e-01,8.840300440788269043e-01,8.839029669761657715e-01,8.835531473159790039e-01,8.828706741333007812e-01,8.814035654067993164e-01,8.790510892868041992e-01,8.753605484962463379e-01,8.695290088653564453e-01,8.616449832916259766e-01,8.525938987731933594e-01,8.395708799362182617e-01,8.107892274856567383e-01,7.916798591613769531e-01,7.853869795799255371e-01,7.605788707733154297e-01,7.071933746337890625e-01,6.017381548881530762e-01
5.753731131553649902e-01,5.940426588058471680e-01,6.345335245132446289e-01,6.318051815032958984e-01,6.512047648429870605e-01,6.719551086425781250e-01,7.057576179504394531e-01,7.250699996948242188e-01,7.442675828933715820e-01,7.606338262557983398e-01,7.730743885040283203e-01,7.820391654968261719e-01,7.891862392425537109e-01,7.894542813301086426e-01,7.877017855644226074e-01,7.663431167602539062e-01,7.381067872047424316e-01,7.071588635444641113e-01,6.939782500267028809e-01,7.019978165626525879e-01,7.032154798507690430e-01,7.259968519210815430e-01,7.613761425018310547e-01,7.906172871589660645e-01,8.133389949798583984e-01,8.348212242126464844e-01,8.464391231536865234e-01,8.559574484825134277e-01,8.597843050956726074e-01,8.603881597518920898e-01,8.610386848449707031e-01,8.610446453094482422e-01,8.609901666641235352e-01,8.609505891799926758e-01,8.609135150909423828e-01,8.608765602111816406e-01,8.608394861221313477e-01,8.608024716377258301e-01,8.607653379440307617e-01,8.607285618782043457e-01,8.606915473937988281e-01,8.606544733047485352e-01,8.606173992156982422e-01,8.605803847312927246e-01,8.605437278747558594e-01,8.605066537857055664e-01,8.604696989059448242e-01,8.604326844215393066e-01,8.603957891464233398e-01,8.603588342666625977e-01,8.603219985961914062e-01,8.602849245071411133e-01,8.602480292320251465e-01,8.602111339569091797e-01,8.601742982864379883e-01,8.601375818252563477e-01,8.601006269454956055e-01,8.600636124610900879e-01,8.600268363952636719e-01,8.599897623062133789e-01,8.599526882171630859e-01,8.599148988723754883e-01,8.599199056625366211e-01,8.599530458450317383e-01,8.598024845123291016e-01,8.595350980758666992e-01,8.591328859329223633e-01,8.579492568969726562e-01,8.558961153030395508e-01,8.521322011947631836e-01,8.465106487274169922e-01,8.387175798416137695e-01,8.299989104270935059e-01,8.169882297515869141e-01,7.877310514450073242e-01,7.700020074844360352e-01,7.670557498931884766e-01,7.439008951187133789e-01,6.925576329231262207e-01,5.922729969024658203e-01
5.643806457519531250e-01,5.786215662956237793e-01,6.173447966575622559e-01,6.113564968109130859e-01,6.278041601181030273e-01,6.468116641044616699e-01,6.787212491035461426e-01,6.959990859031677246e-01,7.127896547317504883e-01,7.262747287750244141e-01,7.391771078109741211e-01,7.463889122009277344e-01,7.524442076683044434e-01,7.560976743698120117e-01,7.465252876281738281e-01,7.253456115722656250e-01,7.066788077354431152e-01,6.745619177818298340e-01,6.562945842742919922e-01,6.741877198219299316e-01,6.704298257827758789e-01,6.907506585121154785e-01,7.257102131843566895e-01,7.528852224349975586e-01,7.694730758666992188e-01,7.911617755889892578e-01,8.031144142150878906e-01,8.133707642555236816e-01,8.178463578224182129e-01,8.185476064682006836e-01,8.185813426971435547e-01,8.184813857078552246e-01,8.184195756912231445e-01,8.183642625808715820e-01,8.183052539825439453e-01,8.182464838027954102e-01,8.181874752044677734e-01,8.181286454200744629e-01,8.180696964263916016e-01,8.180107474327087402e-01,8.179518580436706543e-01,8.178930282592773438e-01,8.178341388702392578e-01,8.177754282951354980e-01,8.177165985107421875e-01,8.176578283309936523e-01,8.175990581512451172e-01,8.175401687622070312e-01,8.174812197685241699e-01,8.174225091934204102e-01,8.173636198043823242e-01,8.173049688339233398e-01,8.172461390495300293e-01,8.171875476837158203e-01,8.171287178993225098e-01,8.170700073242187500e-01,8.170112967491149902e-01,8.169525861740112305e-01,8.168938755989074707e-01,8.168352842330932617e-01,8.167763948440551758e-01,8.167164921760559082e-01,8.167088627815246582e-01,8.166812658309936523e-01,8.164868354797363281e-01,8.160805106163024902e-01,8.156236410140991211e-01,8.143123388290405273e-01,8.124438524246215820e-01,8.094967007637023926e-01,8.042762279510498047e-01,7.970179915428161621e-01,7.894128561019897461e-01,7.773768305778503418e-01,7.479057908058166504e-01,7.329872846603393555e-01,7.344139814376831055e-01,7.134169340133666992e-01,6.685286760330200195e-01,5.795601010322570801e-01
5.498356819152832031e-01,5.541172623634338379e-01,5.890431404113769531e-01,5.790359973907470703e-01,5.922461748123168945e-01,6.085565090179443359e-01,6.381571292877197266e-01,6.526818275451660156e-01,6.668131947517395020e-01,6.796388626098632812e-01,6.890529990196228027e-01,6.944037675857543945e-01,6.976248025894165039e-01,7.013546228408813477e-01,6.821585893630981445e-01,6.652973294258117676e-01,6.684750914573669434e-01,6.224631667137145996e-01,6.109141111373901367e-01,6.294209361076354980e-01,6.318823099136352539e-01,6.322447061538696289e-01,6.733991503715515137e-01,6.977880001068115234e-01,7.111320495605468750e-01,7.286429405212402344e-01,7.442564964294433594e-01,7.498683333396911621e-01,7.510398030281066895e-01,7.511384487152099609e-01,7.520176172256469727e-01,7.517657876014709473e-01,7.516527771949768066e-01,7.515665888786315918e-01,7.514842152595520020e-01,7.514016628265380859e-01,7.513194084167480469e-01,7.512369155883789062e-01,7.511545419692993164e-01,7.510722875595092773e-01,7.509900331497192383e-01,7.509075403213500977e-01,7.508252859115600586e-01,7.507429718971252441e-01,7.506607770919799805e-01,7.505784034729003906e-01,7.504962682723999023e-01,7.504137754440307617e-01,7.503316998481750488e-01,7.502495050430297852e-01,7.501673698425292969e-01,7.500851154327392578e-01,7.500028610229492188e-01,7.499206662178039551e-01,7.498385906219482422e-01,7.497563958168029785e-01,7.496742010116577148e-01,7.495921850204467773e-01,7.495099902153015137e-01,7.494278550148010254e-01,7.493449449539184570e-01,7.492590546607971191e-01,7.492343187332153320e-01,7.491562366485595703e-01,7.490022182464599609e-01,7.487210631370544434e-01,7.482067942619323730e-01,7.468184232711791992e-01,7.445546984672546387e-01,7.411899566650390625e-01,7.364957332611083984e-01,7.301405668258666992e-01,7.241470813751220703e-01,7.128796577453613281e-01,6.834399700164794922e-01,6.727082729339599609e-01,6.816080808639526367e-01,6.628402471542358398e-01,6.335902810096740723e-01,5.563694238662719727e-01
5.325866341590881348e-01,5.238299965858459473e-01,5.546778440475463867e-01,5.387855172157287598e-01,5.466814041137695312e-01,5.595350265502929688e-01,5.837523341178894043e-01,5.948212742805480957e-01,6.053423285484313965e-01,6.154196858406066895e-01,6.214475631713867188e-01,6.255747675895690918e-01,6.291675567626953125e-01,6.332160830497741699e-01,6.093340516090393066e-01,5.923755168914794922e-01,5.990293025970458984e-01,5.599988698959350586e-01,5.477887988090515137e-01,5.670630931854248047e-01,5.691233277320861816e-01,5.744630694389343262e-01,6.084498167037963867e-01,6.251447796821594238e-01,6.343576908111572266e-01,6.482164859771728516e-01,6.565963029861450195e-01,6.606212854385375977e-01,6.625142693519592285e-01,6.619051694869995117e-01,6.622225046157836914e-01,6.621180772781372070e-01,6.620177030563354492e-01,6.619259715080261230e-01,6.618385314941406250e-01,6.617509722709655762e-01,6.616632938385009766e-01,6.615758538246154785e-01,6.614882946014404297e-01,6.614008545875549316e-01,6.613132953643798828e-01,6.612259149551391602e-01,6.611382961273193359e-01,6.610510349273681641e-01,6.609635949134826660e-01,6.608761548995971680e-01,6.607888936996459961e-01,6.607016324996948242e-01,6.606140136718750000e-01,6.605268716812133789e-01,6.604396104812622070e-01,6.603523492813110352e-01,6.602650880813598633e-01,6.601778864860534668e-01,6.600907444953918457e-01,6.600034236907958984e-01,6.599162817001342773e-01,6.598291397094726562e-01,6.597418785095214844e-01,6.596547365188598633e-01,6.595667600631713867e-01,6.594743728637695312e-01,6.594088673591613770e-01,6.593482494354248047e-01,6.591368913650512695e-01,6.589269638061523438e-01,6.586067080497741699e-01,6.574484109878540039e-01,6.554510593414306641e-01,6.522697210311889648e-01,6.490502953529357910e-01,6.442232728004455566e-01,6.403564214706420898e-01,6.306654810905456543e-01,6.031920313835144043e-01,5.958200693130493164e-01,6.114284396171569824e-01,5.966769456863403320e-01,5.878741741180419922e-01,5.268052816390991211e-01
5.116004347801208496e-01,4.894215762615203857e-01,5.142394304275512695e-01,4.909907579421997070e-01,4.925742149353027344e-01,5.011554360389709473e-01,5.197560787200927734e-01,5.276537537574768066e-01,5.346572399139404297e-01,5.406228899955749512e-01,5.439078807830810547e-01,5.439715385437011719e-01,5.478836894035339355e-01,5.482679009437561035e-01,5.277346372604370117e-01,5.170922875404357910e-01,5.227189660072326660e-01,5.008586645126342773e-01,4.921334981918334961e-01,5.021319389343261719e-01,5.086598992347717285e-01,5.166617035865783691e-01,5.325409770011901855e-01,5.460569858551025391e-01,5.520734786987304688e-01,5.615516304969787598e-01,5.678405165672302246e-01,5.701706409454345703e-01,5.701321959495544434e-01,5.696961283683776855e-01,5.699657797813415527e-01,5.698033571243286133e-01,5.697099566459655762e-01,5.696225762367248535e-01,5.695354938507080078e-01,5.694488286972045898e-01,5.693618059158325195e-01,5.692750215530395508e-01,5.691881775856018066e-01,5.691013336181640625e-01,5.690144300460815430e-01,5.689276456832885742e-01,5.688409805297851562e-01,5.687541365623474121e-01,5.686675310134887695e-01,5.685809850692749023e-01,5.684943795204162598e-01,5.684077143669128418e-01,5.683210492134094238e-01,5.682343840599060059e-01,5.681480169296264648e-01,5.680614709854125977e-01,5.679749250411987305e-01,5.678884387016296387e-01,5.678019523620605469e-01,5.677154660224914551e-01,5.676290392875671387e-01,5.675426721572875977e-01,5.674563050270080566e-01,5.673698782920837402e-01,5.672830939292907715e-01,5.671905279159545898e-01,5.671049356460571289e-01,5.670644044876098633e-01,5.670327544212341309e-01,5.669566392898559570e-01,5.667173862457275391e-01,5.661752223968505859e-01,5.646650791168212891e-01,5.622345209121704102e-01,5.591736435890197754e-01,5.555583238601684570e-01,5.536164641380310059e-01,5.454394221305847168e-01,5.213799476623535156e-01,5.172708630561828613e-01,5.382959842681884766e-01,5.279724001884460449e-01,5.396094322204589844e-01,4.964703619480133057e-01
4.905959367752075195e-01,4.557288289070129395e-01,4.713623523712158203e-01,4.409446418285369873e-01,4.362797439098358154e-01,4.406360387802124023e-01,4.540683031082153320e-01,4.581132233142852783e-01,4.625860750675201416e-01,4.651437401771545410e-01,4.675841331481933594e-01,4.687500298023223877e-01,4.732490777969360352e-01,4.718759655952453613e-01,4.602711796760559082e-01,4.530268609523773193e-01,4.494223296642303467e-01,4.405970871448516846e-01,4.404865801334381104e-01,4.383991658687591553e-01,4.513382911682128906e-01,4.517141580581665039e-01,4.594147801399230957e-01,4.683438837528228760e-01,4.730685055255889893e-01,4.782398641109466553e-01,4.800905883312225342e-01,4.828499555587768555e-01,4.818401932716369629e-01,4.822053909301757812e-01,4.819836020469665527e-01,4.819039106369018555e-01,4.818230271339416504e-01,4.817517101764678955e-01,4.816788136959075928e-01,4.816058278083801270e-01,4.815331697463989258e-01,4.814602732658386230e-01,4.813874363899230957e-01,4.813145101070404053e-01,4.812417626380920410e-01,4.811689555644989014e-01,4.810962080955505371e-01,4.810233414173126221e-01,4.809506237506866455e-01,4.808781445026397705e-01,4.808055758476257324e-01,4.807328283786773682e-01,4.806600511074066162e-01,4.805875420570373535e-01,4.805151224136352539e-01,4.804424643516540527e-01,4.803699254989624023e-01,4.802975058555603027e-01,4.802249073982238770e-01,4.801524281501770020e-01,4.800801277160644531e-01,4.800076782703399658e-01,4.799352288246154785e-01,4.798630475997924805e-01,4.797902703285217285e-01,4.797141849994659424e-01,4.796313047409057617e-01,4.795663356781005859e-01,4.795529842376708984e-01,4.795599877834320068e-01,4.794825613498687744e-01,4.793925583362579346e-01,4.788218438625335693e-01,4.777950942516326904e-01,4.768731594085693359e-01,4.753114581108093262e-01,4.752819538116455078e-01,4.694340527057647705e-01,4.494372010231018066e-01,4.481977522373199463e-01,4.717447459697723389e-01,4.687421917915344238e-01,4.949488043785095215e-01,4.690731465816497803e-01
4.694174826145172119e-01,4.224282801151275635e-01,4.285605549812316895e-01,3.950832486152648926e-01,3.841190338134765625e-01,3.856839537620544434e-01,3.961016237735748291e-01,3.990212380886077881e-01,4.019861221313476562e-01,4.030571579933166504e-01,4.036472141742706299e-01,4.046891331672668457e-01,4.066193401813507080e-01,4.030362665653228760e-01,3.982124626636505127e-01,3.930695950984954834e-01,3.905802965164184570e-01,3.904258012771606445e-01,3.895616233348846436e-01,3.863643407821655273e-01,3.924160003662109375e-01,3.992000222206115723e-01,3.976362049579620361e-01,4.029864072799682617e-01,4.054756760597229004e-01,4.083054363727569580e-01,4.084852337837219238e-01,4.098910093307495117e-01,4.101890027523040771e-01,4.099419414997100830e-01,4.097144007682800293e-01,4.096500873565673828e-01,4.095898866653442383e-01,4.095316529273986816e-01,4.094737768173217773e-01,4.094160795211791992e-01,4.093585610389709473e-01,4.093008935451507568e-01,4.092430472373962402e-01,4.091854393482208252e-01,4.091278016567230225e-01,4.090703129768371582e-01,4.090124964714050293e-01,4.089549779891967773e-01,4.088973701000213623e-01,4.088400006294250488e-01,4.087826609611511230e-01,4.087249636650085449e-01,4.086674451828002930e-01,4.086099267005920410e-01,4.085525274276733398e-01,4.084950685501098633e-01,4.084377288818359375e-01,4.083802700042724609e-01,4.083228409290313721e-01,4.082656204700469971e-01,4.082083106040954590e-01,4.081510305404663086e-01,4.080935716629028320e-01,4.080364704132080078e-01,4.079799354076385498e-01,4.079221487045288086e-01,4.078675508499145508e-01,4.078176915645599365e-01,4.077869653701782227e-01,4.077676236629486084e-01,4.077877998352050781e-01,4.076939821243286133e-01,4.073132574558258057e-01,4.064791500568389893e-01,4.056379199028015137e-01,4.045521020889282227e-01,4.052037298679351807e-01,4.015080332756042480e-01,3.856420516967773438e-01,3.876526355743408203e-01,4.134733974933624268e-01,4.176940619945526123e-01,4.560009539127349854e-01,4.460462927818298340e-01
4.513973593711853027e-01,3.938285708427429199e-01,3.929921984672546387e-01,3.573027253150939941e-01,3.413687348365783691e-01,3.406597077846527100e-01,3.481076359748840332e-01,3.498139679431915283e-01,3.515251576900482178e-01,3.519364893436431885e-01,3.526298403739929199e-01,3.539870679378509521e-01,3.546610474586486816e-01,3.534319698810577393e-01,3.527496755123138428e-01,3.487794399261474609e-01,3.428555727005004883e-01,3.461011946201324463e-01,3.434752523899078369e-01,3.411399126052856445e-01,3.456218242645263672e-01,3.487105369567871094e-01,3.492268919944763184e-01,3.506987690925598145e-01,3.539440333843231201e-01,3.533806800842285156e-01,3.539802730083465576e-01,3.534626662731170654e-01,3.536570370197296143e-01,3.536365926265716553e-01,3.535239100456237793e-01,3.534701764583587646e-01,3.534210026264190674e-01,3.533797264099121094e-01,3.533385992050170898e-01,3.532974421977996826e-01,3.532562851905822754e-01,3.532151579856872559e-01,3.531741499900817871e-01,3.531328439712524414e-01,3.530917167663574219e-01,3.530508279800415039e-01,3.530095517635345459e-01,3.529686331748962402e-01,3.529275059700012207e-01,3.528866767883300781e-01,3.528454899787902832e-01,3.528044223785400391e-01,3.527636229991912842e-01,3.527224659919738770e-01,3.526814579963684082e-01,3.526405096054077148e-01,3.525996208190917969e-01,3.525586128234863281e-01,3.525177240371704102e-01,3.524768948554992676e-01,3.524360060691833496e-01,3.523951172828674316e-01,3.523544073104858398e-01,3.523135781288146973e-01,3.522728383541107178e-01,3.522323966026306152e-01,3.521892428398132324e-01,3.521605730056762695e-01,3.521218597888946533e-01,3.520665168762207031e-01,3.520703017711639404e-01,3.521150350570678711e-01,3.520641028881072998e-01,3.519866466522216797e-01,3.517273068428039551e-01,3.512714505195617676e-01,3.521075844764709473e-01,3.494784235954284668e-01,3.362916111946105957e-01,3.391603827476501465e-01,3.653121292591094971e-01,3.756764233112335205e-01,4.224372506141662598e-01,4.258151352405548096e-01
4.349685609340667725e-01,3.689458072185516357e-01,3.612763285636901855e-01,3.251672387123107910e-01,3.061318993568420410e-01,3.047580420970916748e-01,3.108619451522827148e-01,3.122423887252807617e-01,3.133439421653747559e-01,3.133366107940673828e-01,3.134569227695465088e-01,3.135005533695220947e-01,3.126637935638427734e-01,3.126755952835083008e-01,3.124889135360717773e-01,3.103061914443969727e-01,3.090015649795532227e-01,3.106518387794494629e-01,3.100469708442687988e-01,3.084383606910705566e-01,3.125749826431274414e-01,3.106416463851928711e-01,3.122557699680328369e-01,3.131395280361175537e-01,3.124471902847290039e-01,3.130435943603515625e-01,3.132642209529876709e-01,3.133979141712188721e-01,3.133655786514282227e-01,3.131594061851501465e-01,3.131400346755981445e-01,3.131111860275268555e-01,3.130792379379272461e-01,3.130492568016052246e-01,3.130195736885070801e-01,3.129897117614746094e-01,3.129597008228302002e-01,3.129297196865081787e-01,3.128999471664428711e-01,3.128699362277984619e-01,3.128403425216674805e-01,3.128104805946350098e-01,3.127804994583129883e-01,3.127506971359252930e-01,3.127210736274719238e-01,3.126911222934722900e-01,3.126613497734069824e-01,3.126316666603088379e-01,3.126017451286315918e-01,3.125719428062438965e-01,3.125422000885009766e-01,3.125125169754028320e-01,3.124826550483703613e-01,3.124528825283050537e-01,3.124232888221740723e-01,3.123933672904968262e-01,3.123639225959777832e-01,3.123341202735900879e-01,3.123044669628143311e-01,3.122747540473937988e-01,3.122453689575195312e-01,3.122156858444213867e-01,3.121865689754486084e-01,3.121547102928161621e-01,3.121241927146911621e-01,3.120941519737243652e-01,3.120536804199218750e-01,3.120023012161254883e-01,3.119773864746093750e-01,3.118606209754943848e-01,3.117248117923736572e-01,3.115066587924957275e-01,3.122493028640747070e-01,3.104217350482940674e-01,2.992305159568786621e-01,3.025887012481689453e-01,3.288202881813049316e-01,3.441891670227050781e-01,3.968259096145629883e-01,4.101015627384185791e-01
4.212128221988677979e-01,3.491301536560058594e-01,3.364088833332061768e-01,2.999942004680633545e-01,2.791711091995239258e-01,2.769950032234191895e-01,2.819499969482421875e-01,2.831171751022338867e-01,2.840136885643005371e-01,2.838622331619262695e-01,2.840168476104736328e-01,2.840305864810943604e-01,2.836849093437194824e-01,2.841496765613555908e-01,2.842878699302673340e-01,2.824589610099792480e-01,2.823235392570495605e-01,2.824510335922241211e-01,2.817020416259765625e-01,2.829007506370544434e-01,2.831072807312011719e-01,2.826490402221679688e-01,2.840319275856018066e-01,2.837217152118682861e-01,2.833107411861419678e-01,2.838634848594665527e-01,2.835016846656799316e-01,2.834756374359130859e-01,2.834283709526062012e-01,2.834339737892150879e-01,2.833808064460754395e-01,2.833625376224517822e-01,2.833411991596221924e-01,2.833195626735687256e-01,2.832978367805480957e-01,2.832762300968170166e-01,2.832545042037963867e-01,2.832329273223876953e-01,2.832112014293670654e-01,2.831896841526031494e-01,2.831679880619049072e-01,2.831462621688842773e-01,2.831246256828308105e-01,2.831029593944549561e-01,2.830813527107238770e-01,2.830597460269927979e-01,2.830380797386169434e-01,2.830165624618530273e-01,2.829949855804443359e-01,2.829732894897460938e-01,2.829516828060150146e-01,2.829301953315734863e-01,2.829086482524871826e-01,2.828869223594665527e-01,2.828653454780578613e-01,2.828438878059387207e-01,2.828222513198852539e-01,2.828007936477661133e-01,2.827791571617126465e-01,2.827576994895935059e-01,2.827361822128295898e-01,2.827148437500000000e-01,2.826929688453674316e-01,2.826722860336303711e-01,2.826506495475769043e-01,2.826257050037384033e-01,2.826023399829864502e-01,2.825929820537567139e-01,2.825838029384613037e-01,2.825827598571777344e-01,2.825638651847839355e-01,2.824550271034240723e-01,2.830954492092132568e-01,2.817847728729248047e-01,2.718611359596252441e-01,2.751364707946777344e-01,3.007395863533020020e-01,3.195623159408569336e-01,3.762976825237274170e-01,3.975786566734313965e-01
4.091758728027343750e-01,3.324914276599884033e-01,3.159790933132171631e-01,2.799500226974487305e-01,2.584236562252044678e-01,2.558325231075286865e-01,2.600268125534057617e-01,2.610213160514831543e-01,2.617787122726440430e-01,2.617231905460357666e-01,2.616697549819946289e-01,2.614516019821166992e-01,2.615000605583190918e-01,2.617004513740539551e-01,2.613242864608764648e-01,2.612369060516357422e-01,2.612580060958862305e-01,2.608689069747924805e-01,2.614820599555969238e-01,2.612103521823883057e-01,2.611795663833618164e-01,2.612842321395874023e-01,2.615191042423248291e-01,2.614314556121826172e-01,2.613501548767089844e-01,2.614697217941284180e-01,2.614342570304870605e-01,2.613824307918548584e-01,2.613775134086608887e-01,2.613363564014434814e-01,2.613293528556823730e-01,2.613125145435333252e-01,2.612959146499633789e-01,2.612793743610382080e-01,2.612628936767578125e-01,2.612465023994445801e-01,2.612299323081970215e-01,2.612135112285614014e-01,2.611969411373138428e-01,2.611805200576782227e-01,2.611640095710754395e-01,2.611476182937622070e-01,2.611311078071594238e-01,2.611147761344909668e-01,2.610982060432434082e-01,2.610817849636077881e-01,2.610651850700378418e-01,2.610488533973693848e-01,2.610324025154113770e-01,2.610159218311309814e-01,2.609996795654296875e-01,2.609830498695373535e-01,2.609667479991912842e-01,2.609500885009765625e-01,2.609338462352752686e-01,2.609173655509948730e-01,2.609009742736816406e-01,2.608845829963684082e-01,2.608682513236999512e-01,2.608516216278076172e-01,2.608353495597839355e-01,2.608188390731811523e-01,2.608027458190917969e-01,2.607859969139099121e-01,2.607696056365966797e-01,2.607526779174804688e-01,2.607352733612060547e-01,2.607197761535644531e-01,2.607046663761138916e-01,2.606893181800842285e-01,2.606737017631530762e-01,2.605953812599182129e-01,2.611136734485626221e-01,2.600677311420440674e-01,2.511703670024871826e-01,2.544485032558441162e-01,2.794594764709472656e-01,3.009951710700988770e-01,3.605838119983673096e-01,3.876327276229858398e-01
3.991100192070007324e-01,3.188915848731994629e-01,2.997272014617919922e-01,2.643878161907196045e-01,2.423048317432403564e-01,2.394171953201293945e-01,2.430781722068786621e-01,2.439689338207244873e-01,2.446627020835876465e-01,2.445951104164123535e-01,2.445558011531829834e-01,2.445585727691650391e-01,2.445912361145019531e-01,2.445304095745086670e-01,2.445954382419586182e-01,2.444599270820617676e-01,2.443796694278717041e-01,2.443914413452148438e-01,2.443849742412567139e-01,2.443439662456512451e-01,2.443786859512329102e-01,2.444901168346405029e-01,2.444308102130889893e-01,2.443970441818237305e-01,2.443837225437164307e-01,2.444010674953460693e-01,2.443543672561645508e-01,2.443325221538543701e-01,2.443225979804992676e-01,2.443062663078308105e-01,2.442957758903503418e-01,2.442829012870788574e-01,2.442695200443267822e-01,2.442565560340881348e-01,2.442437112331390381e-01,2.442308962345123291e-01,2.442179620265960693e-01,2.442048788070678711e-01,2.441920936107635498e-01,2.441790401935577393e-01,2.441662847995758057e-01,2.441533505916595459e-01,2.441404163837432861e-01,2.441276609897613525e-01,2.441147565841674805e-01,2.441017329692840576e-01,2.440890073776245117e-01,2.440760433673858643e-01,2.440630197525024414e-01,2.440502047538757324e-01,2.440373301506042480e-01,2.440244257450103760e-01,2.440117597579956055e-01,2.439986765384674072e-01,2.439859211444854736e-01,2.439731955528259277e-01,2.439602017402648926e-01,2.439472079277038574e-01,2.439345121383666992e-01,2.439216375350952148e-01,2.439087033271789551e-01,2.438958883285522461e-01,2.438833117485046387e-01,2.438703775405883789e-01,2.438572049140930176e-01,2.438440322875976562e-01,2.438308894634246826e-01,2.438173890113830566e-01,2.438044846057891846e-01,2.437914013862609863e-01,2.437784373760223389e-01,2.437144815921783447e-01,2.441388964653015137e-01,2.433034181594848633e-01,2.352244257926940918e-01,2.385360300540924072e-01,2.629332244396209717e-01,2.863673567771911621e-01,3.479804396629333496e-01,3.796821832656860352e-01
3.908087611198425293e-01,3.077782392501831055e-01,2.866274416446685791e-01,2.519677877426147461e-01,2.295320928096771240e-01,2.264048755168914795e-01,2.296711504459381104e-01,2.304612100124359131e-01,2.310816943645477295e-01,2.310290038585662842e-01,2.310017347335815430e-01,2.309875488281250000e-01,2.309730947017669678e-01,2.309632003307342529e-01,2.309639453887939453e-01,2.309404611587524414e-01,2.309316992759704590e-01,2.309131026268005371e-01,2.308775484561920166e-01,2.308942079544067383e-01,2.308897376060485840e-01,2.308897376060485840e-01,2.308680117130279541e-01,2.308610081672668457e-01,2.308597266674041748e-01,2.308495044708251953e-01,2.308309674263000488e-01,2.308241426944732666e-01,2.308111190795898438e-01,2.308036983013153076e-01,2.307926714420318604e-01,2.307822704315185547e-01,2.307719588279724121e-01,2.307615876197814941e-01,2.307513356208801270e-01,2.307409048080444336e-01,2.307304441928863525e-01,2.307199835777282715e-01,2.307098209857940674e-01,2.306993305683135986e-01,2.306889295578002930e-01,2.306786179542541504e-01,2.306682169437408447e-01,2.306577861309051514e-01,2.306475341320037842e-01,2.306372225284576416e-01,2.306268811225891113e-01,2.306164801120758057e-01,2.306061685085296631e-01,2.305958569049835205e-01,2.305854856967926025e-01,2.305752038955688477e-01,2.305646836757659912e-01,2.305544614791870117e-01,2.305440306663513184e-01,2.305335104465484619e-01,2.305234074592590332e-01,2.305130362510681152e-01,2.305026948451995850e-01,2.304925322532653809e-01,2.304820716381072998e-01,2.304717004299163818e-01,2.304614186286926270e-01,2.304512858390808105e-01,2.304409146308898926e-01,2.304305434226989746e-01,2.304201126098632812e-01,2.304098308086395264e-01,2.303996682167053223e-01,2.303891181945800781e-01,2.303785979747772217e-01,2.303249537944793701e-01,2.306809425354003906e-01,2.300046086311340332e-01,2.225897610187530518e-01,2.259129881858825684e-01,2.498079538345336914e-01,2.745916247367858887e-01,3.377271294593811035e-01,3.731982707977294922e-01
3.838101029396057129e-01,2.985773086547851562e-01,2.758289873600006104e-01,2.418447434902191162e-01,2.191897034645080566e-01,2.158570289611816406e-01,2.188126742839813232e-01,2.195141315460205078e-01,2.200800478458404541e-01,2.200320065021514893e-01,2.200080156326293945e-01,2.199987471103668213e-01,2.199885845184326172e-01,2.199876010417938232e-01,2.199758291244506836e-01,2.199739217758178711e-01,2.199563980102539062e-01,2.199522554874420166e-01,2.199373245239257812e-01,2.199333310127258301e-01,2.199270725250244141e-01,2.199209630489349365e-01,2.199100255966186523e-01,2.199020385742187500e-01,2.198902070522308350e-01,2.198825776576995850e-01,2.198726534843444824e-01,2.198646664619445801e-01,2.198558747768402100e-01,2.198474407196044922e-01,2.198392748832702637e-01,2.198307514190673828e-01,2.198220789432525635e-01,2.198137342929840088e-01,2.198049426078796387e-01,2.197966575622558594e-01,2.197882533073425293e-01,2.197796404361724854e-01,2.197710573673248291e-01,2.197625637054443359e-01,2.197540700435638428e-01,2.197457253932952881e-01,2.197372913360595703e-01,2.197288572788238525e-01,2.197202742099761963e-01,2.197118103504180908e-01,2.197032570838928223e-01,2.196946144104003906e-01,2.196862697601318359e-01,2.196778059005737305e-01,2.196691334247589111e-01,2.196607887744903564e-01,2.196522653102874756e-01,2.196438312530517578e-01,2.196353971958160400e-01,2.196269631385803223e-01,2.196184694766998291e-01,2.196099162101745605e-01,2.196016311645507812e-01,2.195932269096374512e-01,2.195846438407897949e-01,2.195762097835540771e-01,2.195676565170288086e-01,2.195591330528259277e-01,2.195505797863006592e-01,2.195423543453216553e-01,2.195337712764739990e-01,2.195254862308502197e-01,2.195169329643249512e-01,2.195084989070892334e-01,2.194993793964385986e-01,2.194543480873107910e-01,2.197595536708831787e-01,2.192104458808898926e-01,2.123415768146514893e-01,2.156704068183898926e-01,2.391544580459594727e-01,2.649246752262115479e-01,3.292268514633178711e-01,3.678061962127685547e-01
3.778369426727294922e-01,2.908436655998229980e-01,2.668064832687377930e-01,2.334580421447753906e-01,2.106578052043914795e-01,2.071479856967926025e-01,2.098519504070281982e-01,2.104755043983459473e-01,2.109930515289306641e-01,2.109511494636535645e-01,2.109309732913970947e-01,2.109239399433135986e-01,2.109168171882629395e-01,2.109096944332122803e-01,2.109026014804840088e-01,2.108955085277557373e-01,2.108885049819946289e-01,2.108813226222991943e-01,2.108741402626037598e-01,2.108671069145202637e-01,2.108600139617919922e-01,2.108528316020965576e-01,2.108458578586578369e-01,2.108387053012847900e-01,2.108317911624908447e-01,2.108244001865386963e-01,2.108173668384552002e-01,2.108102738857269287e-01,2.108032405376434326e-01,2.107960283756256104e-01,2.107890248298645020e-01,2.107820212841033936e-01,2.107749581336975098e-01,2.107678055763244629e-01,2.107606530189514160e-01,2.107536494731903076e-01,2.107465267181396484e-01,2.107396125793457031e-01,2.107325494289398193e-01,2.107254564762115479e-01,2.107182741165161133e-01,2.107111811637878418e-01,2.107040286064147949e-01,2.106970846652984619e-01,2.106900513172149658e-01,2.106827199459075928e-01,2.106760144233703613e-01,2.106689810752868652e-01,2.106616199016571045e-01,2.106545567512512207e-01,2.106474339962005615e-01,2.106403410434722900e-01,2.106333971023559570e-01,2.106262743473052979e-01,2.106192708015441895e-01,2.106122970581054688e-01,2.106051445007324219e-01,2.105980813503265381e-01,2.105909585952758789e-01,2.105838954448699951e-01,2.105769515037536621e-01,2.105698287487030029e-01,2.105630636215209961e-01,2.105558216571807861e-01,2.105488181114196777e-01,2.105417251586914062e-01,2.105346322059631348e-01,2.105275988578796387e-01,2.105205953121185303e-01,2.105136215686798096e-01,2.105057239532470703e-01,2.104671299457550049e-01,2.107333838939666748e-01,2.102862894535064697e-01,2.038706243038177490e-01,2.072007060050964355e-01,2.303360700607299805e-01,2.568486928939819336e-01,3.220598101615905762e-01,3.632440567016601562e-01
3.726798295974731445e-01,2.842506468296051025e-01,2.591611146926879883e-01,2.263987064361572266e-01,2.035066187381744385e-01,1.998415887355804443e-01,2.023389041423797607e-01,2.028939425945281982e-01,2.033701241016387939e-01,2.033328711986541748e-01,2.033152580261230469e-01,2.033090889453887939e-01,2.033032476902008057e-01,2.032973468303680420e-01,2.032913565635681152e-01,2.032853662967681885e-01,2.032793760299682617e-01,2.032734155654907227e-01,2.032671570777893066e-01,2.032613158226013184e-01,2.032553255558013916e-01,2.032492160797119141e-01,2.032433152198791504e-01,2.032374441623687744e-01,2.032313346862792969e-01,2.032252848148345947e-01,2.032192647457122803e-01,2.032134532928466797e-01,2.032075822353363037e-01,2.032015323638916016e-01,2.031952738761901855e-01,2.031894028186798096e-01,2.031832039356231689e-01,2.031773626804351807e-01,2.031714916229248047e-01,2.031652331352233887e-01,2.031593918800354004e-01,2.031534314155578613e-01,2.031475603580474854e-01,2.031414806842803955e-01,2.031355202198028564e-01,2.031294703483581543e-01,2.031233310699462891e-01,2.031174898147583008e-01,2.031116485595703125e-01,2.031055092811584473e-01,2.030996382236480713e-01,2.030937075614929199e-01,2.030877470970153809e-01,2.030816674232482910e-01,2.030754983425140381e-01,2.030697762966156006e-01,2.030637264251708984e-01,2.030577957630157471e-01,2.030519545078277588e-01,2.030457854270935059e-01,2.030400335788726807e-01,2.030339539051055908e-01,2.030280232429504395e-01,2.030220031738281250e-01,2.030159235000610352e-01,2.030100822448730469e-01,2.030041515827178955e-01,2.029981613159179688e-01,2.029921114444732666e-01,2.029862701892852783e-01,2.029803693294525146e-01,2.029743492603302002e-01,2.029684484004974365e-01,2.029624581336975098e-01,2.029556334018707275e-01,2.029220163822174072e-01,2.031574845314025879e-01,2.027930617332458496e-01,1.967594623565673828e-01,2.000874578952789307e-01,2.229214906692504883e-01,2.500037550926208496e-01,3.159332275390625000e-01,3.593324720859527588e-01
3.681833148002624512e-01,2.785650491714477539e-01,2.526054978370666504e-01,2.203788459300994873e-01,1.974308788776397705e-01,1.936297118663787842e-01,1.959547400474548340e-01,1.964496076107025146e-01,1.968903243541717529e-01,1.968571245670318604e-01,1.968413889408111572e-01,1.968365311622619629e-01,1.968311071395874023e-01,1.968260109424591064e-01,1.968207955360412598e-01,1.968158483505249023e-01,1.968106627464294434e-01,1.968054771423339844e-01,1.968003809452056885e-01,1.967951953411102295e-01,1.967899799346923828e-01,1.967851519584655762e-01,1.967798769474029541e-01,1.967746615409851074e-01,1.967695653438568115e-01,1.967644989490509033e-01,1.967593431472778320e-01,1.967541873455047607e-01,1.967490315437316895e-01,1.967439651489257812e-01,1.967387199401855469e-01,1.967337131500244141e-01,1.967285573482513428e-01,1.967232823371887207e-01,1.967182755470275879e-01,1.967132091522216797e-01,1.967081725597381592e-01,1.967029869556427002e-01,1.966978311538696289e-01,1.966926753520965576e-01,1.966876089572906494e-01,1.966823637485504150e-01,1.966773867607116699e-01,1.966723203659057617e-01,1.966671347618103027e-01,1.966619193553924561e-01,1.966567635536193848e-01,1.966518461704254150e-01,1.966467797756195068e-01,1.966416537761688232e-01,1.966364979743957520e-01,1.966313421726226807e-01,1.966262757778167725e-01,1.966211795806884766e-01,1.966161131858825684e-01,1.966109275817871094e-01,1.966057717800140381e-01,1.966007351875305176e-01,1.965956389904022217e-01,1.965905427932739258e-01,1.965854167938232422e-01,1.965803205966949463e-01,1.965751945972442627e-01,1.965698897838592529e-01,1.965650022029876709e-01,1.965599358081817627e-01,1.965548694133758545e-01,1.965497732162475586e-01,1.965447366237640381e-01,1.965396404266357422e-01,1.965336501598358154e-01,1.965040862560272217e-01,1.967148482799530029e-01,1.964184343814849854e-01,1.907098293304443359e-01,1.940342485904693604e-01,2.166042029857635498e-01,2.441301941871643066e-01,3.106349110603332520e-01,3.559401333332061768e-01
3.642286658287048340e-01,2.736123800277709961e-01,2.469259500503540039e-01,2.151876389980316162e-01,1.922089159488677979e-01,1.882872581481933594e-01,1.904670298099517822e-01,1.909089386463165283e-01,1.913189888000488281e-01,1.912888884544372559e-01,1.912750005722045898e-01,1.912701427936553955e-01,1.912659704685211182e-01,1.912616193294525146e-01,1.912571787834167480e-01,1.912527382373809814e-01,1.912482678890228271e-01,1.912437677383422852e-01,1.912393867969512939e-01,1.912349164485931396e-01,1.912305057048797607e-01,1.912260055541992188e-01,1.912214457988739014e-01,1.912173032760620117e-01,1.912126541137695312e-01,1.912084519863128662e-01,1.912038624286651611e-01,1.911995708942413330e-01,1.911950707435607910e-01,1.911905109882354736e-01,1.911861300468444824e-01,1.911817491054534912e-01,1.911772489547729492e-01,1.911728680133819580e-01,1.911684572696685791e-01,1.911640465259552002e-01,1.911596357822418213e-01,1.911550462245941162e-01,1.911506652832031250e-01,1.911461949348449707e-01,1.911419630050659180e-01,1.911374032497406006e-01,1.911332309246063232e-01,1.911285221576690674e-01,1.911242008209228516e-01,1.911198198795318604e-01,1.911153495311737061e-01,1.911109685897827148e-01,1.911065876483917236e-01,1.911021769046783447e-01,1.910977065563201904e-01,1.910932362079620361e-01,1.910888552665710449e-01,1.910842657089233398e-01,1.910802125930786133e-01,1.910755932331085205e-01,1.910710632801055908e-01,1.910667419433593750e-01,1.910624504089355469e-01,1.910578608512878418e-01,1.910535395145416260e-01,1.910491585731506348e-01,1.910446286201477051e-01,1.910402774810791016e-01,1.910360157489776611e-01,1.910314857959747314e-01,1.910271048545837402e-01,1.910227239131927490e-01,1.910180747509002686e-01,1.910137832164764404e-01,1.910086274147033691e-01,1.909825205802917480e-01,1.911727190017700195e-01,1.909327507019042969e-01,1.855039894580841064e-01,1.888237297534942627e-01,2.111597955226898193e-01,2.390362918376922607e-01,3.060070276260375977e-01,3.529700636863708496e-01
3.607220053672790527e-01,2.692636847496032715e-01,2.419601082801818848e-01,2.106669843196868896e-01,1.876749992370605469e-01,1.836440563201904297e-01,1.856965720653533936e-01,1.860914230346679688e-01,1.864748299121856689e-01,1.864474713802337646e-01,1.864348053932189941e-01,1.864307522773742676e-01,1.864270567893981934e-01,1.864230632781982422e-01,1.864192485809326172e-01,1.864153742790222168e-01,1.864114999771118164e-01,1.864078342914581299e-01,1.864039003849029541e-01,1.864000260829925537e-01,1.863959729671478271e-01,1.863921582698822021e-01,1.863882839679718018e-01,1.863843798637390137e-01,1.863803863525390625e-01,1.863766014575958252e-01,1.863727867603302002e-01,1.863689124584197998e-01,1.863649785518646240e-01,1.863613724708557129e-01,1.863572299480438232e-01,1.863533258438110352e-01,1.863496601581573486e-01,1.863457262516021729e-01,1.863417029380798340e-01,1.863380372524261475e-01,1.863341033458709717e-01,1.863301992416381836e-01,1.863263249397277832e-01,1.863224506378173828e-01,1.863187253475189209e-01,1.863148510456085205e-01,1.863107979297637939e-01,1.863070130348205566e-01,1.863032281398773193e-01,1.862993836402893066e-01,1.862954199314117432e-01,1.862915754318237305e-01,1.862877905368804932e-01,1.862840652465820312e-01,1.862801909446716309e-01,1.862761080265045166e-01,1.862725615501403809e-01,1.862684786319732666e-01,1.862646639347076416e-01,1.862605810165405273e-01,1.862567365169525146e-01,1.862530708312988281e-01,1.862491965293884277e-01,1.862453520298004150e-01,1.862415075302124023e-01,1.862375438213348389e-01,1.862338483333587646e-01,1.862300336360931396e-01,1.862261891365051270e-01,1.862223446369171143e-01,1.862183809280395508e-01,1.862146556377410889e-01,1.862107813358306885e-01,1.862068474292755127e-01,1.862021982669830322e-01,1.861791312694549561e-01,1.863527297973632812e-01,1.861604154109954834e-01,1.809756159782409668e-01,1.842900216579437256e-01,2.064189910888671875e-01,2.345700263977050781e-01,3.019188046455383301e-01,3.503377139568328857e-01
3.576372265815734863e-01,2.654601335525512695e-01,2.376327216625213623e-01,2.067414820194244385e-01,1.837369501590728760e-01,1.796099841594696045e-01,1.815579235553741455e-01,1.819111108779907227e-01,1.822713911533355713e-01,1.822462975978851318e-01,1.822342574596405029e-01,1.822309792041778564e-01,1.822274029254913330e-01,1.822241544723510742e-01,1.822206676006317139e-01,1.822172105312347412e-01,1.822138428688049316e-01,1.822104156017303467e-01,1.822069287300109863e-01,1.822035908699035645e-01,1.822001039981842041e-01,1.821967661380767822e-01,1.821934878826141357e-01,1.821901500225067139e-01,1.821866929531097412e-01,1.821833252906799316e-01,1.821797192096710205e-01,1.821763515472412109e-01,1.821730136871337891e-01,1.821695864200592041e-01,1.821662485599517822e-01,1.821626126766204834e-01,1.821593940258026123e-01,1.821559667587280273e-01,1.821526587009429932e-01,1.821491122245788574e-01,1.821455359458923340e-01,1.821423470973968506e-01,1.821388602256774902e-01,1.821355521678924561e-01,1.821321547031402588e-01,1.821288168430328369e-01,1.821252405643463135e-01,1.821219921112060547e-01,1.821184456348419189e-01,1.821151077747344971e-01,1.821117401123046875e-01,1.821082532405853271e-01,1.821050643920898438e-01,1.821015477180480957e-01,1.820982396602630615e-01,1.820948719978332520e-01,1.820915043354034424e-01,1.820879876613616943e-01,1.820845305919647217e-01,1.820811629295349121e-01,1.820778548717498779e-01,1.820744574069976807e-01,1.820710897445678711e-01,1.820675730705261230e-01,1.820642054080963135e-01,1.820608973503112793e-01,1.820573210716247559e-01,1.820540130138397217e-01,1.820506155490875244e-01,1.820473968982696533e-01,1.820439100265502930e-01,1.820403933525085449e-01,1.820371448993682861e-01,1.820337772369384766e-01,1.820296347141265869e-01,1.820085942745208740e-01,1.821675002574920654e-01,1.820156276226043701e-01,1.770403087139129639e-01,1.803431510925292969e-01,2.022825777530670166e-01,2.306689620018005371e-01,2.983112037181854248e-01,3.479942679405212402e-01
3.552455306053161621e-01,2.622937560081481934e-01,2.341428399085998535e-01,2.035853564739227295e-01,1.805844902992248535e-01,1.763865649700164795e-01,1.782716512680053711e-01,1.786171197891235352e-01,1.789574027061462402e-01,1.789328157901763916e-01,1.789221167564392090e-01,1.789189279079437256e-01,1.789159178733825684e-01,1.789129376411437988e-01,1.789099872112274170e-01,1.789069771766662598e-01,1.789038777351379395e-01,1.789007782936096191e-01,1.788978576660156250e-01,1.788947582244873047e-01,1.788917779922485352e-01,1.788888871669769287e-01,1.788857877254486084e-01,1.788826584815979004e-01,1.788797080516815186e-01,1.788765788078308105e-01,1.788736581802368164e-01,1.788705289363861084e-01,1.788674890995025635e-01,1.788643300533294678e-01,1.788612604141235352e-01,1.788584291934967041e-01,1.788552999496459961e-01,1.788522601127624512e-01,1.788493394851684570e-01,1.788462698459625244e-01,1.788431704044342041e-01,1.788399517536163330e-01,1.788372993469238281e-01,1.788341403007507324e-01,1.788313686847686768e-01,1.788279712200164795e-01,1.788252890110015869e-01,1.788219809532165527e-01,1.788190007209777832e-01,1.788159012794494629e-01,1.788131594657897949e-01,1.788100004196166992e-01,1.788071095943450928e-01,1.788038015365600586e-01,1.788009107112884521e-01,1.787979006767272949e-01,1.787948608398437500e-01,1.787918210029602051e-01,1.787888705730438232e-01,1.787859201431274414e-01,1.787827312946319580e-01,1.787797212600708008e-01,1.787768602371215820e-01,1.787737905979156494e-01,1.787706911563873291e-01,1.787675619125366211e-01,1.787646412849426270e-01,1.787617504596710205e-01,1.787585616111755371e-01,1.787554919719696045e-01,1.787526011466979980e-01,1.787494122982025146e-01,1.787465512752532959e-01,1.787435114383697510e-01,1.787397265434265137e-01,1.787208616733551025e-01,1.788688898086547852e-01,1.787452995777130127e-01,1.739441454410552979e-01,1.772522926330566406e-01,1.989190876483917236e-01,2.273617684841156006e-01,2.952047586441040039e-01,3.462707400321960449e-01
3.522580862045288086e-01,2.585258185863494873e-01,2.300032079219818115e-01,1.997261941432952881e-01,1.766576468944549561e-01,1.722869575023651123e-01,1.739265024662017822e-01,1.741949021816253662e-01,1.744947433471679688e-01,1.744746267795562744e-01,1.744649410247802734e-01,1.744624078273773193e-01,1.744597256183624268e-01,1.744571030139923096e-01,1.744543015956878662e-01,1.744516193866729736e-01,1.744491159915924072e-01,1.744464635848999023e-01,1.744436621665954590e-01,1.744410991668701172e-01,1.744383275508880615e-01,1.744357943534851074e-01,1.744331717491149902e-01,1.744305491447448730e-01,1.744278371334075928e-01,1.744250357151031494e-01,1.744225323200225830e-01,1.744199097156524658e-01,1.744171380996704102e-01,1.744144856929779053e-01,1.744118928909301758e-01,1.744091510772705078e-01,1.744064986705780029e-01,1.744036972522735596e-01,1.744012236595153809e-01,1.743986308574676514e-01,1.743959188461303711e-01,1.743933856487274170e-01,1.743907928466796875e-01,1.743881106376647949e-01,1.743853092193603516e-01,1.743826866149902344e-01,1.743800044059753418e-01,1.743775010108947754e-01,1.743746995925903320e-01,1.743720471858978271e-01,1.743695437908172607e-01,1.743668615818023682e-01,1.743640899658203125e-01,1.743614673614501953e-01,1.743588745594024658e-01,1.743562519550323486e-01,1.743533909320831299e-01,1.743508577346801758e-01,1.743482351303100586e-01,1.743455529212951660e-01,1.743430197238922119e-01,1.743403971195220947e-01,1.743377149105072021e-01,1.743350028991699219e-01,1.743322312831878662e-01,1.743297278881072998e-01,1.743270754814147949e-01,1.743246018886566162e-01,1.743217408657073975e-01,1.743191480636596680e-01,1.743166148662567139e-01,1.743139922618865967e-01,1.743110716342926025e-01,1.743084788322448730e-01,1.743053495883941650e-01,1.742874979972839355e-01,1.744302809238433838e-01,1.743087768554687500e-01,1.696802675724029541e-01,1.730753183364868164e-01,1.948008835315704346e-01,2.234539389610290527e-01,2.916892766952514648e-01,3.432703614234924316e-01
3.534520268440246582e-01,2.556051015853881836e-01,2.290330529212951660e-01,1.991978883743286133e-01,1.747829616069793701e-01,1.703469753265380859e-01,1.715834736824035645e-01,1.718489825725555420e-01,1.721444129943847656e-01,1.721242666244506836e-01,1.721159815788269043e-01,1.721137464046478271e-01,1.721113622188568115e-01,1.721089780330657959e-01,1.721065640449523926e-01,1.721041500568389893e-01,1.721017360687255859e-01,1.720994710922241211e-01,1.720970273017883301e-01,1.720946729183197021e-01,1.720923781394958496e-01,1.720899641513824463e-01,1.720876395702362061e-01,1.720851659774780273e-01,1.720829904079437256e-01,1.720805764198303223e-01,1.720781326293945312e-01,1.720756888389587402e-01,1.720734238624572754e-01,1.720710694789886475e-01,1.720686256885528564e-01,1.720661520957946777e-01,1.720639467239379883e-01,1.720614135265350342e-01,1.720591187477111816e-01,1.720567941665649414e-01,1.720544993877410889e-01,1.720521450042724609e-01,1.720497012138366699e-01,1.720473766326904297e-01,1.720449328422546387e-01,1.720426082611083984e-01,1.720401644706726074e-01,1.720378994941711426e-01,1.720355153083801270e-01,1.720331311225891113e-01,1.720306873321533203e-01,1.720284521579742432e-01,1.720260381698608398e-01,1.720235347747802734e-01,1.720212996006011963e-01,1.720189750194549561e-01,1.720165014266967773e-01,1.720141470432281494e-01,1.720118224620819092e-01,1.720094382762908936e-01,1.720071136951446533e-01,1.720047295093536377e-01,1.720024347305297852e-01,1.719999611377716064e-01,1.719976365566253662e-01,1.719954311847686768e-01,1.719929575920104980e-01,1.719906330108642578e-01,1.719882786273956299e-01,1.719857752323150635e-01,1.719836592674255371e-01,1.719810366630554199e-01,1.719788610935211182e-01,1.719765663146972656e-01,1.719742715358734131e-01,1.719540059566497803e-01,1.720589995384216309e-01,1.720517873764038086e-01,1.679019033908843994e-01,1.713128983974456787e-01,1.922456324100494385e-01,2.205625772476196289e-01,2.916401624679565430e-01,3.415900468826293945e-01
3.557896614074707031e-01,2.536362409591674805e-01,2.169756293296813965e-01,1.914367973804473877e-01,1.698945760726928711e-01,1.649754941463470459e-01,1.661604940891265869e-01,1.664635837078094482e-01,1.667147278785705566e-01,1.666949689388275146e-01,1.666877567768096924e-01,1.666856408119201660e-01,1.666835844516754150e-01,1.666815876960754395e-01,1.666795015335083008e-01,1.666774451732635498e-01,1.666754484176635742e-01,1.666735112667083740e-01,1.666713356971740723e-01,1.666694879531860352e-01,1.666673123836517334e-01,1.666650772094726562e-01,1.666631996631622314e-01,1.666611135005950928e-01,1.666591167449951172e-01,1.666570901870727539e-01,1.666550338268280029e-01,1.666529774665832520e-01,1.666511595249176025e-01,1.666489243507385254e-01,1.666469275951385498e-01,1.666446924209594727e-01,1.666426658630371094e-01,1.666407585144042969e-01,1.666387617588043213e-01,1.666367053985595703e-01,1.666345894336700439e-01,1.666325926780700684e-01,1.666304171085357666e-01,1.666284203529357910e-01,1.666264235973358154e-01,1.666243672370910645e-01,1.666223108768463135e-01,1.666202843189239502e-01,1.666183471679687500e-01,1.666163504123687744e-01,1.666142940521240234e-01,1.666122376918792725e-01,1.666100919246673584e-01,1.666080057621002197e-01,1.666061580181121826e-01,1.666039824485778809e-01,1.666019856929779053e-01,1.665998697280883789e-01,1.665978431701660156e-01,1.665958464145660400e-01,1.665936708450317383e-01,1.665920019149780273e-01,1.665898263454437256e-01,1.665878593921661377e-01,1.665856540203094482e-01,1.665837466716766357e-01,1.665816009044647217e-01,1.665796637535095215e-01,1.665777564048767090e-01,1.665755212306976318e-01,1.665734350681304932e-01,1.665716171264648438e-01,1.665695309638977051e-01,1.665674746036529541e-01,1.665671467781066895e-01,1.665431261062622070e-01,1.666106879711151123e-01,1.667928695678710938e-01,1.623810529708862305e-01,1.654348671436309814e-01,1.886166334152221680e-01,2.108097970485687256e-01,2.860368490219116211e-01,3.337819576263427734e-01
3.380684256553649902e-01,2.402378320693969727e-01,2.027124464511871338e-01,1.804866492748260498e-01,1.658502221107482910e-01,1.592120230197906494e-01,1.592743992805480957e-01,1.594825685024261475e-01,1.597137451171875000e-01,1.596967577934265137e-01,1.596915721893310547e-01,1.596899330615997314e-01,1.596881747245788574e-01,1.596866846084594727e-01,1.596850454807281494e-01,1.596831679344177246e-01,1.596816778182983398e-01,1.596799790859222412e-01,1.596783697605133057e-01,1.596767604351043701e-01,1.596749722957611084e-01,1.596734821796417236e-01,1.596718728542327881e-01,1.596701145172119141e-01,1.596685349941253662e-01,1.596668362617492676e-01,1.596650779247283936e-01,1.596635282039642334e-01,1.596620678901672363e-01,1.596602797508239746e-01,1.596587002277374268e-01,1.596571505069732666e-01,1.596553623676300049e-01,1.596537232398986816e-01,1.596519947052001953e-01,1.596503555774688721e-01,1.596486866474151611e-01,1.596470475196838379e-01,1.596454381942749023e-01,1.596438288688659668e-01,1.596421599388122559e-01,1.596403121948242188e-01,1.596388816833496094e-01,1.596371829509735107e-01,1.596355140209197998e-01,1.596338450908660889e-01,1.596322655677795410e-01,1.596306264400482178e-01,1.596289575099945068e-01,1.596273481845855713e-01,1.596256792545318604e-01,1.596241295337677002e-01,1.596224606037139893e-01,1.596207618713378906e-01,1.596190929412841797e-01,1.596174538135528564e-01,1.596158742904663086e-01,1.596141457557678223e-01,1.596125364303588867e-01,1.596110761165618896e-01,1.596092879772186279e-01,1.596077084541320801e-01,1.596059799194335938e-01,1.596042811870574951e-01,1.596026420593261719e-01,1.596013009548187256e-01,1.595994532108306885e-01,1.595977544784545898e-01,1.595962345600128174e-01,1.595945060253143311e-01,1.595929265022277832e-01,1.595650315284729004e-01,1.596042811870574951e-01,1.598357260227203369e-01,1.557653248310089111e-01,1.533354222774505615e-01,1.688704192638397217e-01,2.049826383590698242e-01,2.839690446853637695e-01,3.553456664085388184e-01
