6.295545101165771484e-01,6.181851625442504883e-01,6.701700091361999512e-01,6.733734607696533203e-01,6.755748987197875977e-01,6.647044420242309570e-01,6.815674304962158203e-01,6.901949644088745117e-01,6.992999315261840820e-01,7.047640085220336914e-01,7.111216187477111816e-01,7.191028594970703125e-01,7.254748940467834473e-01,7.281374335289001465e-01,7.211423516273498535e-01,7.236861586570739746e-01,7.098819613456726074e-01,7.069411873817443848e-01,6.856435537338256836e-01,6.751233339309692383e-01,6.719200015068054199e-01,6.882005929946899414e-01,7.191872596740722656e-01,7.243006229400634766e-01,7.344524264335632324e-01,7.419734597206115723e-01,7.516182661056518555e-01,7.601828575134277344e-01,7.683004140853881836e-01,7.698168158531188965e-01,7.719609737396240234e-01,7.720917463302612305e-01,7.726738452911376953e-01,7.720447778701782227e-01,7.720894813537597656e-01,7.720423936843872070e-01,7.720359563827514648e-01,7.720367908477783203e-01,7.720367908477783203e-01,7.720367908477783203e-01,7.720367908477783203e-01,7.720367908477783203e-01,7.720367908477783203e-01,7.720367908477783203e-01,7.720367908477783203e-01,7.720367908477783203e-01,7.720367908477783203e-01,7.720367908477783203e-01,7.720367908477783203e-01,7.720367908477783203e-01,7.720367908477783203e-01,7.720367908477783203e-01,7.720367908477783203e-01,7.720367908477783203e-01,7.720367908477783203e-01,7.720367908477783203e-01,7.720367908477783203e-01,7.720367908477783203e-01,7.720367908477783203e-01,7.720367908477783203e-01,7.720369100570678711e-01,7.720374464988708496e-01,7.720442414283752441e-01,7.720347046852111816e-01,7.719579935073852539e-01,7.715755701065063477e-01,7.708085775375366211e-01,7.697408199310302734e-01,7.674667239189147949e-01,7.658561468124389648e-01,7.627224922180175781e-01,7.593792080879211426e-01,7.524780035018920898e-01,7.413997650146484375e-01,7.331250905990600586e-01,7.123568058013916016e-01,7.106107473373413086e-01,7.511785030364990234e-01,6.802780628204345703e-01,5.325641036033630371e-01
5.834022760391235352e-01,5.976878404617309570e-01,6.267711520195007324e-01,6.188017129898071289e-01,6.430485248565673828e-01,6.537696123123168945e-01,6.841885447502136230e-01,7.013244628906250000e-01,7.150701880455017090e-01,7.253888845443725586e-01,7.323375940322875977e-01,7.401729822158813477e-01,7.487907409667968750e-01,7.513145208358764648e-01,7.403818368911743164e-01,7.413340210914611816e-01,7.317388653755187988e-01,7.116435766220092773e-01,6.961407661437988281e-01,6.778579950332641602e-01,6.757674217224121094e-01,6.994658708572387695e-01,7.281690239906311035e-01,7.582609057426452637e-01,7.675006389617919922e-01,7.784423232078552246e-01,7.982350587844848633e-01,8.107573986053466797e-01,8.182364702224731445e-01,8.231762647628784180e-01,8.275355100631713867e-01,8.279248476028442383e-01,8.295032382011413574e-01,8.296405673027038574e-01,8.297595977783203125e-01,8.297252655029296875e-01,8.297193050384521484e-01,8.297177553176879883e-01,8.297177553176879883e-01,8.297177553176879883e-01,8.297177553176879883e-01,8.297177553176879883e-01,8.297177553176879883e-01,8.297177553176879883e-01,8.297177553176879883e-01,8.297177553176879883e-01,8.297177553176879883e-01,8.297177553176879883e-01,8.297177553176879883e-01,8.297177553176879883e-01,8.297177553176879883e-01,8.297177553176879883e-01,8.297177553176879883e-01,8.297177553176879883e-01,8.297177553176879883e-01,8.297177553176879883e-01,8.297177553176879883e-01,8.297177553176879883e-01,8.297177553176879883e-01,8.297177553176879883e-01,8.297183513641357422e-01,8.297199010848999023e-01,8.297308683395385742e-01,8.296777009963989258e-01,8.294304609298706055e-01,8.290032744407653809e-01,8.281319737434387207e-01,8.263174295425415039e-01,8.234797716140747070e-01,8.194965124130249023e-01,8.142960071563720703e-01,8.066045641899108887e-01,7.968283891677856445e-01,7.858012914657592773e-01,7.639686465263366699e-01,7.405090928077697754e-01,7.343813776969909668e-01,7.291408181190490723e-01,6.448099017143249512e-01,5.760596990585327148e-01
5.795490741729736328e-01,5.981954932212829590e-01,6.479999423027038574e-01,6.185233592987060547e-01,6.515494585037231445e-01,6.743915081024169922e-01,7.076338529586791992e-01,7.286587953567504883e-01,7.445762753486633301e-01,7.565522789955139160e-01,7.652187347412109375e-01,7.762997150421142578e-01,7.841960787773132324e-01,7.828902006149291992e-01,7.766590118408203125e-01,7.648466229438781738e-01,7.506290674209594727e-01,7.279660701751708984e-01,6.865093111991882324e-01,6.739214062690734863e-01,6.928561925888061523e-01,7.211804389953613281e-01,7.451214194297790527e-01,7.771114110946655273e-01,8.023577928543090820e-01,8.206200003623962402e-01,8.428131341934204102e-01,8.592599034309387207e-01,8.620398640632629395e-01,8.667619228363037109e-01,8.707542419433593750e-01,8.717533349990844727e-01,8.727657794952392578e-01,8.733301162719726562e-01,8.735374808311462402e-01,8.736099600791931152e-01,8.736091256141662598e-01,8.736065626144409180e-01,8.736065626144409180e-01,8.736065626144409180e-01,8.736065626144409180e-01,8.736065626144409180e-01,8.736065626144409180e-01,8.736065626144409180e-01,8.736065626144409180e-01,8.736065626144409180e-01,8.736065626144409180e-01,8.736065626144409180e-01,8.736065626144409180e-01,8.736065626144409180e-01,8.736065626144409180e-01,8.736065626144409180e-01,8.736065626144409180e-01,8.736065626144409180e-01,8.736065626144409180e-01,8.736065626144409180e-01,8.736065626144409180e-01,8.736065626144409180e-01,8.736065626144409180e-01,8.736065626144409180e-01,8.736073970794677734e-01,8.736078739166259766e-01,8.735969066619873047e-01,8.734918832778930664e-01,8.732706308364868164e-01,8.728839755058288574e-01,8.715968132019042969e-01,8.696143627166748047e-01,8.668369650840759277e-01,8.627978563308715820e-01,8.571889400482177734e-01,8.482740521430969238e-01,8.390417098999023438e-01,8.248987197875976562e-01,7.998257875442504883e-01,7.775616049766540527e-01,7.645387053489685059e-01,7.502859830856323242e-01,6.782312393188476562e-01,5.986387729644775391e-01
5.915908217430114746e-01,6.111651659011840820e-01,6.348216533660888672e-01,6.224983930587768555e-01,6.499686241149902344e-01,6.736631393432617188e-01,7.125313282012939453e-01,7.319486141204833984e-01,7.478917837142944336e-01,7.603143453598022461e-01,7.669245004653930664e-01,7.770239114761352539e-01,7.800517082214355469e-01,7.767674922943115234e-01,7.634963989257812500e-01,7.417733669281005859e-01,7.331985831260681152e-01,7.036811113357543945e-01,6.539700627326965332e-01,6.483454704284667969e-01,6.676135063171386719e-01,6.830068826675415039e-01,7.318883538246154785e-01,7.586345672607421875e-01,7.849867343902587891e-01,8.159412145614624023e-01,8.433556556701660156e-01,8.588172793388366699e-01,8.662686347961425781e-01,8.708574175834655762e-01,8.759434223175048828e-01,8.779859542846679688e-01,8.801194429397583008e-01,8.815685510635375977e-01,8.816745877265930176e-01,8.817638754844665527e-01,8.817498683929443359e-01,8.817465305328369141e-01,8.817465305328369141e-01,8.817465305328369141e-01,8.817465305328369141e-01,8.817465305328369141e-01,8.817465305328369141e-01,8.817465305328369141e-01,8.817465305328369141e-01,8.817465305328369141e-01,8.817465305328369141e-01,8.817465305328369141e-01,8.817465305328369141e-01,8.817465305328369141e-01,8.817465305328369141e-01,8.817465305328369141e-01,8.817465305328369141e-01,8.817465305328369141e-01,8.817465305328369141e-01,8.817465305328369141e-01,8.817465305328369141e-01,8.817465305328369141e-01,8.817465305328369141e-01,8.817465305328369141e-01,8.817470073699951172e-01,8.817480802536010742e-01,8.817404508590698242e-01,8.816745281219482422e-01,8.815389871597290039e-01,8.809620141983032227e-01,8.796999454498291016e-01,8.776179552078247070e-01,8.748983144760131836e-01,8.710982799530029297e-01,8.653823137283325195e-01,8.571851253509521484e-01,8.473756313323974609e-01,8.313047885894775391e-01,8.018592596054077148e-01,7.748330235481262207e-01,7.663242816925048828e-01,7.447332739830017090e-01,6.771150827407836914e-01,5.832118391990661621e-01
5.759836435317993164e-01,5.908473134040832520e-01,6.342777609825134277e-01,6.279338002204895020e-01,6.463784575462341309e-01,6.690469980239868164e-01,7.072470784187316895e-01,7.288371324539184570e-01,7.464538216590881348e-01,7.566357851028442383e-01,7.625511884689331055e-01,7.667353153228759766e-01,7.678102254867553711e-01,7.602369189262390137e-01,7.396964430809020996e-01,7.102065086364746094e-01,6.734780073165893555e-01,6.383585333824157715e-01,6.106092929840087891e-01,5.911160111427307129e-01,5.893026590347290039e-01,6.461148262023925781e-01,6.847418546676635742e-01,7.234601974487304688e-01,7.541053295135498047e-01,7.939672470092773438e-01,8.261673450469970703e-01,8.483870029449462891e-01,8.637773990631103516e-01,8.707113265991210938e-01,8.761785030364990234e-01,8.796561360359191895e-01,8.832228183746337891e-01,8.854960203170776367e-01,8.853480815887451172e-01,8.854407072067260742e-01,8.854067325592041016e-01,8.854033946990966797e-01,8.854033946990966797e-01,8.854033946990966797e-01,8.854033946990966797e-01,8.854033946990966797e-01,8.854033946990966797e-01,8.854033946990966797e-01,8.854033946990966797e-01,8.854033946990966797e-01,8.854033946990966797e-01,8.854033946990966797e-01,8.854033946990966797e-01,8.854033946990966797e-01,8.854033946990966797e-01,8.854033946990966797e-01,8.854033946990966797e-01,8.854033946990966797e-01,8.854033946990966797e-01,8.854033946990966797e-01,8.854033946990966797e-01,8.854033946990966797e-01,8.854033946990966797e-01,8.854033946990966797e-01,8.854037523269653320e-01,8.854061365127563477e-01,8.854007720947265625e-01,8.853733539581298828e-01,8.852573633193969727e-01,8.845686912536621094e-01,8.830138444900512695e-01,8.810086250305175781e-01,8.780161142349243164e-01,8.743046522140502930e-01,8.680230379104614258e-01,8.589209318161010742e-01,8.470531105995178223e-01,8.327422142028808594e-01,7.983242273330688477e-01,7.725996375083923340e-01,7.662491798400878906e-01,7.430713772773742676e-01,6.942288875579833984e-01,5.934394598007202148e-01
5.856010913848876953e-01,6.094905138015747070e-01,6.510220766067504883e-01,6.518324017524719238e-01,6.743291020393371582e-01,6.974475383758544922e-01,7.322874069213867188e-01,7.537977695465087891e-01,7.693716287612915039e-01,7.785566449165344238e-01,7.820798754692077637e-01,7.864736914634704590e-01,7.771095037460327148e-01,7.620818614959716797e-01,7.291150093078613281e-01,6.848718523979187012e-01,6.602019071578979492e-01,6.176372170448303223e-01,6.143705248832702637e-01,5.848749876022338867e-01,5.830446481704711914e-01,6.030527353286743164e-01,6.508737802505493164e-01,6.843522191047668457e-01,7.267363071441650391e-01,7.712478637695312500e-01,8.144263029098510742e-01,8.461080789566040039e-01,8.614891171455383301e-01,8.759567737579345703e-01,8.827584981918334961e-01,8.902975916862487793e-01,8.948200345039367676e-01,8.973023891448974609e-01,8.973444700241088867e-01,8.975120782852172852e-01,8.974845409393310547e-01,8.974796533584594727e-01,8.974796533584594727e-01,8.974796533584594727e-01,8.974796533584594727e-01,8.974796533584594727e-01,8.974796533584594727e-01,8.974796533584594727e-01,8.974796533584594727e-01,8.974796533584594727e-01,8.974796533584594727e-01,8.974796533584594727e-01,8.974796533584594727e-01,8.974796533584594727e-01,8.974796533584594727e-01,8.974796533584594727e-01,8.974796533584594727e-01,8.974796533584594727e-01,8.974796533584594727e-01,8.974796533584594727e-01,8.974796533584594727e-01,8.974796533584594727e-01,8.974796533584594727e-01,8.974796533584594727e-01,8.974802494049072266e-01,8.974832296371459961e-01,8.974843025207519531e-01,8.975172042846679688e-01,8.973149061203002930e-01,8.965864181518554688e-01,8.951684236526489258e-01,8.932808637619018555e-01,8.911218643188476562e-01,8.871868252754211426e-01,8.810501694679260254e-01,8.720316886901855469e-01,8.623301386833190918e-01,8.480505943298339844e-01,8.182785511016845703e-01,7.959872484207153320e-01,7.858526706695556641e-01,7.581082582473754883e-01,7.064228057861328125e-01,6.076674461364746094e-01
5.862092971801757812e-01,6.089253425598144531e-01,6.536276340484619141e-01,6.547074317932128906e-01,6.780279874801635742e-01,7.019498348236083984e-01,7.384980916976928711e-01,7.600862979888916016e-01,7.750067114830017090e-01,7.809177637100219727e-01,7.855268120765686035e-01,7.856298685073852539e-01,7.804210186004638672e-01,7.651922702789306641e-01,7.222677469253540039e-01,6.720952987670898438e-01,6.288844943046569824e-01,5.837867856025695801e-01,5.706254243850708008e-01,5.477092266082763672e-01,5.523348450660705566e-01,5.687808990478515625e-01,6.167839169502258301e-01,6.544988751411437988e-01,6.976262331008911133e-01,7.414725422859191895e-01,7.910503149032592773e-01,8.350141644477844238e-01,8.609327077865600586e-01,8.769429922103881836e-01,8.859133124351501465e-01,8.956516981124877930e-01,9.001265764236450195e-01,9.028519988059997559e-01,9.029204845428466797e-01,9.031611084938049316e-01,9.031512737274169922e-01,9.031500816345214844e-01,9.031499028205871582e-01,9.031499028205871582e-01,9.031499028205871582e-01,9.031499028205871582e-01,9.031499028205871582e-01,9.031499028205871582e-01,9.031499028205871582e-01,9.031499028205871582e-01,9.031499028205871582e-01,9.031499028205871582e-01,9.031499028205871582e-01,9.031499028205871582e-01,9.031499028205871582e-01,9.031499028205871582e-01,9.031499028205871582e-01,9.031499028205871582e-01,9.031499028205871582e-01,9.031499028205871582e-01,9.031499028205871582e-01,9.031499028205871582e-01,9.031499028205871582e-01,9.031499028205871582e-01,9.031504392623901367e-01,9.031525850296020508e-01,9.031727313995361328e-01,9.031926393508911133e-01,9.029689431190490723e-01,9.022176265716552734e-01,9.009395837783813477e-01,8.995096683502197266e-01,8.970090150833129883e-01,8.931939601898193359e-01,8.870422244071960449e-01,8.788657188415527344e-01,8.685727119445800781e-01,8.554666042327880859e-01,8.276748061180114746e-01,8.058694601058959961e-01,7.978038787841796875e-01,7.732279300689697266e-01,7.197768688201904297e-01,6.134914755821228027e-01
5.891788005828857422e-01,6.140736937522888184e-01,6.573621034622192383e-01,6.578851938247680664e-01,6.817468404769897461e-01,7.059411406517028809e-01,7.433142662048339844e-01,7.653486728668212891e-01,7.790769934654235840e-01,7.862285375595092773e-01,7.900646328926086426e-01,7.837740778923034668e-01,7.812763452529907227e-01,7.675645351409912109e-01,7.093741893768310547e-01,6.583251357078552246e-01,6.062350869178771973e-01,5.749930739402770996e-01,5.559483170509338379e-01,5.401284694671630859e-01,5.376822948455810547e-01,5.537900328636169434e-01,5.835847854614257812e-01,6.340580582618713379e-01,6.715632081031799316e-01,7.208328843116760254e-01,7.810050249099731445e-01,8.261744976043701172e-01,8.564713001251220703e-01,8.760194778442382812e-01,8.875138759613037109e-01,8.958698511123657227e-01,9.015741348266601562e-01,9.045914411544799805e-01,9.054659605026245117e-01,9.056048393249511719e-01,9.055984020233154297e-01,9.055930376052856445e-01,9.055932760238647461e-01,9.055932760238647461e-01,9.055932760238647461e-01,9.055932760238647461e-01,9.055932760238647461e-01,9.055932760238647461e-01,9.055932760238647461e-01,9.055932760238647461e-01,9.055932760238647461e-01,9.055932760238647461e-01,9.055932760238647461e-01,9.055932760238647461e-01,9.055932760238647461e-01,9.055932760238647461e-01,9.055932760238647461e-01,9.055932760238647461e-01,9.055932760238647461e-01,9.055932760238647461e-01,9.055932760238647461e-01,9.055932760238647461e-01,9.055932760238647461e-01,9.055932760238647461e-01,9.055936336517333984e-01,9.055963754653930664e-01,9.056217670440673828e-01,9.056230187416076660e-01,9.053977727890014648e-01,9.047110080718994141e-01,9.036213159561157227e-01,9.019796252250671387e-01,8.994620442390441895e-01,8.957192897796630859e-01,8.896179795265197754e-01,8.807704448699951172e-01,8.713624477386474609e-01,8.590618371963500977e-01,8.305643200874328613e-01,8.090412616729736328e-01,8.007929325103759766e-01,7.751340866088867188e-01,7.216415405273437500e-01,6.156538724899291992e-01
5.886971354484558105e-01,6.143175363540649414e-01,6.567448377609252930e-01,6.576027870178222656e-01,6.812399625778198242e-01,7.055759429931640625e-01,7.430633902549743652e-01,7.642570137977600098e-01,7.765606641769409180e-01,7.867184281349182129e-01,7.925956249237060547e-01,7.817406654357910156e-01,7.820379734039306641e-01,7.593647241592407227e-01,7.189059257507324219e-01,6.534138321876525879e-01,6.076635122299194336e-01,5.617592334747314453e-01,5.338981151580810547e-01,5.219956636428833008e-01,5.266008973121643066e-01,5.241042971611022949e-01,5.573901534080505371e-01,6.243323683738708496e-01,6.568338871002197266e-01,7.006232142448425293e-01,7.668728232383728027e-01,8.207161426544189453e-01,8.518543243408203125e-01,8.730297088623046875e-01,8.876540064811706543e-01,8.949400782585144043e-01,9.003840684890747070e-01,9.040147066116333008e-01,9.050623178482055664e-01,9.053218364715576172e-01,9.053222537040710449e-01,9.053103923797607422e-01,9.053092002868652344e-01,9.053092002868652344e-01,9.053092002868652344e-01,9.053092002868652344e-01,9.053092002868652344e-01,9.053092002868652344e-01,9.053092002868652344e-01,9.053092002868652344e-01,9.053092002868652344e-01,9.053092002868652344e-01,9.053092002868652344e-01,9.053092002868652344e-01,9.053092002868652344e-01,9.053092002868652344e-01,9.053092002868652344e-01,9.053092002868652344e-01,9.053092002868652344e-01,9.053092002868652344e-01,9.053092002868652344e-01,9.053092002868652344e-01,9.053092002868652344e-01,9.053092002868652344e-01,9.053095579147338867e-01,9.053115844726562500e-01,9.053359031677246094e-01,9.053480625152587891e-01,9.051196575164794922e-01,9.044816493988037109e-01,9.033946990966796875e-01,9.016047716140747070e-01,8.991292119026184082e-01,8.952398300170898438e-01,8.887600898742675781e-01,8.801462054252624512e-01,8.711630702018737793e-01,8.581233620643615723e-01,8.292409777641296387e-01,8.083761930465698242e-01,8.007962107658386230e-01,7.746167182922363281e-01,7.219867110252380371e-01,6.160567402839660645e-01
5.887224078178405762e-01,6.143060326576232910e-01,6.569181084632873535e-01,6.577567458152770996e-01,6.812967061996459961e-01,7.055461406707763672e-01,7.429329156875610352e-01,7.637636661529541016e-01,7.787576913833618164e-01,7.885419726371765137e-01,7.937117815017700195e-01,7.837789058685302734e-01,7.871206998825073242e-01,7.693855762481689453e-01,7.163858413696289062e-01,6.449273824691772461e-01,5.973083972930908203e-01,5.651475191116333008e-01,5.340225100517272949e-01,5.291275978088378906e-01,5.199822783470153809e-01,5.255268216133117676e-01,5.508056879043579102e-01,6.122626066207885742e-01,6.511210203170776367e-01,6.893960237503051758e-01,7.496932744979858398e-01,8.096530437469482422e-01,8.508524894714355469e-01,8.695667386054992676e-01,8.871305584907531738e-01,8.920973539352416992e-01,8.986191749572753906e-01,9.038687944412231445e-01,9.050444364547729492e-01,9.053204059600830078e-01,9.053478240966796875e-01,9.053363800048828125e-01,9.053338766098022461e-01,9.053338766098022461e-01,9.053338766098022461e-01,9.053338766098022461e-01,9.053338766098022461e-01,9.053338766098022461e-01,9.053338766098022461e-01,9.053338766098022461e-01,9.053338766098022461e-01,9.053338766098022461e-01,9.053338766098022461e-01,9.053338766098022461e-01,9.053338766098022461e-01,9.053338766098022461e-01,9.053338766098022461e-01,9.053338766098022461e-01,9.053338766098022461e-01,9.053338766098022461e-01,9.053338766098022461e-01,9.053338766098022461e-01,9.053338766098022461e-01,9.053338766098022461e-01,9.053341150283813477e-01,9.053356647491455078e-01,9.053572416305541992e-01,9.053781032562255859e-01,9.051495790481567383e-01,9.045431613922119141e-01,9.034051895141601562e-01,9.016187191009521484e-01,8.991128206253051758e-01,8.950925469398498535e-01,8.886245489120483398e-01,8.803093433380126953e-01,8.709113597869873047e-01,8.577842712402343750e-01,8.293098807334899902e-01,8.084083199501037598e-01,8.006693124771118164e-01,7.746298909187316895e-01,7.219794392585754395e-01,6.160824298858642578e-01
5.887014865875244141e-01,6.142691969871520996e-01,6.568920612335205078e-01,6.577169895172119141e-01,6.812491416931152344e-01,7.054513692855834961e-01,7.426466345787048340e-01,7.631738185882568359e-01,7.813215851783752441e-01,7.926244139671325684e-01,7.945036888122558594e-01,7.864185571670532227e-01,7.844073772430419922e-01,7.666935324668884277e-01,7.255585193634033203e-01,6.501701474189758301e-01,5.985415577888488770e-01,5.632671713829040527e-01,5.397071242332458496e-01,5.284630060195922852e-01,5.106061697006225586e-01,5.260073542594909668e-01,5.478864908218383789e-01,6.118723154067993164e-01,6.578415632247924805e-01,7.035707235336303711e-01,7.433918714523315430e-01,7.995328307151794434e-01,8.458616733551025391e-01,8.675744533538818359e-01,8.853641748428344727e-01,8.934230804443359375e-01,8.987168669700622559e-01,9.032074809074401855e-01,9.051115512847900391e-01,9.053260087966918945e-01,9.053471088409423828e-01,9.053313732147216797e-01,9.053283333778381348e-01,9.053283333778381348e-01,9.053283333778381348e-01,9.053283333778381348e-01,9.053283333778381348e-01,9.053283333778381348e-01,9.053283333778381348e-01,9.053283333778381348e-01,9.053283333778381348e-01,9.053283333778381348e-01,9.053283333778381348e-01,9.053283333778381348e-01,9.053283333778381348e-01,9.053283333778381348e-01,9.053283333778381348e-01,9.053283333778381348e-01,9.053283333778381348e-01,9.053283333778381348e-01,9.053283333778381348e-01,9.053283333778381348e-01,9.053283333778381348e-01,9.053283333778381348e-01,9.053285717964172363e-01,9.053298830986022949e-01,9.053539037704467773e-01,9.053707122802734375e-01,9.051684141159057617e-01,9.045516252517700195e-01,9.033974409103393555e-01,9.016230106353759766e-01,8.990783691406250000e-01,8.949623107910156250e-01,8.886692523956298828e-01,8.801974058151245117e-01,8.707540035247802734e-01,8.578687906265258789e-01,8.293223977088928223e-01,8.082357645034790039e-01,8.006241321563720703e-01,7.746315002441406250e-01,7.220165729522705078e-01,6.160358190536499023e-01
5.886945724487304688e-01,6.142578721046447754e-01,6.568788886070251465e-01,6.577017307281494141e-01,6.812357306480407715e-01,7.054284811019897461e-01,7.421230077743530273e-01,7.639019489288330078e-01,7.824342846870422363e-01,7.942404747009277344e-01,7.956135272979736328e-01,7.894650101661682129e-01,7.845323681831359863e-01,7.645864486694335938e-01,7.382279634475708008e-01,6.503081917762756348e-01,5.952577590942382812e-01,5.636587738990783691e-01,5.405595302581787109e-01,5.280800461769104004e-01,5.171865224838256836e-01,5.273827314376831055e-01,5.658831596374511719e-01,6.113715171813964844e-01,6.615641713142395020e-01,7.040032744407653809e-01,7.437258958816528320e-01,7.999380826950073242e-01,8.455328941345214844e-01,8.660776615142822266e-01,8.860861063003540039e-01,8.927795886993408203e-01,8.984060287475585938e-01,9.033466577529907227e-01,9.054082036018371582e-01,9.053226709365844727e-01,9.053575992584228516e-01,9.053312540054321289e-01,9.053283333778381348e-01,9.053283333778381348e-01,9.053283333778381348e-01,9.053283333778381348e-01,9.053283333778381348e-01,9.053283333778381348e-01,9.053283333778381348e-01,9.053283333778381348e-01,9.053283333778381348e-01,9.053283333778381348e-01,9.053283333778381348e-01,9.053283333778381348e-01,9.053283333778381348e-01,9.053283333778381348e-01,9.053283333778381348e-01,9.053283333778381348e-01,9.053283333778381348e-01,9.053283333778381348e-01,9.053283333778381348e-01,9.053283333778381348e-01,9.053283333778381348e-01,9.053283333778381348e-01,9.053285121917724609e-01,9.053297042846679688e-01,9.053523540496826172e-01,9.053744077682495117e-01,9.051628112792968750e-01,9.045405387878417969e-01,9.033980965614318848e-01,9.016392827033996582e-01,8.990623950958251953e-01,8.949759602546691895e-01,8.886584043502807617e-01,8.801601529121398926e-01,8.708236217498779297e-01,8.578867316246032715e-01,8.292571306228637695e-01,8.082437515258789062e-01,8.006496429443359375e-01,7.746550440788269043e-01,7.220228910446166992e-01,6.160455346107482910e-01
5.886875987052917480e-01,6.142465472221374512e-01,6.568660140037536621e-01,6.576864123344421387e-01,6.812266111373901367e-01,7.053993940353393555e-01,7.418085336685180664e-01,7.646014690399169922e-01,7.841713428497314453e-01,7.944093942642211914e-01,7.951983213424682617e-01,7.953902482986450195e-01,7.854678630828857422e-01,7.691922783851623535e-01,7.353397607803344727e-01,6.566453576087951660e-01,5.960915088653564453e-01,5.656337141990661621e-01,5.470649003982543945e-01,5.244826078414916992e-01,5.191703438758850098e-01,5.230035185813903809e-01,5.783950686454772949e-01,6.134456992149353027e-01,6.732386350631713867e-01,7.096060514450073242e-01,7.458248138427734375e-01,8.020148873329162598e-01,8.484047651290893555e-01,8.691512346267700195e-01,8.856824636459350586e-01,8.918596506118774414e-01,8.982688188552856445e-01,9.033392667770385742e-01,9.051012992858886719e-01,9.052467346191406250e-01,9.053602218627929688e-01,9.053317904472351074e-01,9.053283333778381348e-01,9.053283333778381348e-01,9.053283333778381348e-01,9.053283333778381348e-01,9.053283333778381348e-01,9.053283333778381348e-01,9.053283333778381348e-01,9.053283333778381348e-01,9.053283333778381348e-01,9.053283333778381348e-01,9.053283333778381348e-01,9.053283333778381348e-01,9.053283333778381348e-01,9.053283333778381348e-01,9.053283333778381348e-01,9.053283333778381348e-01,9.053283333778381348e-01,9.053283333778381348e-01,9.053283333778381348e-01,9.053283333778381348e-01,9.053283333778381348e-01,9.053283333778381348e-01,9.053285121917724609e-01,9.053297042846679688e-01,9.053524732589721680e-01,9.053734540939331055e-01,9.051614999771118164e-01,9.045417904853820801e-01,9.034025073051452637e-01,9.016456604003906250e-01,8.990695476531982422e-01,8.949666023254394531e-01,8.886606097221374512e-01,8.801909089088439941e-01,8.708332777023315430e-01,8.578785061836242676e-01,8.292738199234008789e-01,8.082623481750488281e-01,8.006620407104492188e-01,7.746667861938476562e-01,7.220340371131896973e-01,6.160542368888854980e-01
5.886806249618530273e-01,6.142352223396301270e-01,6.568527221679687500e-01,6.576713323593139648e-01,6.812130212783813477e-01,7.054095864295959473e-01,7.417783737182617188e-01,7.642471790313720703e-01,7.841111421585083008e-01,7.928613424301147461e-01,7.946681976318359375e-01,7.966971397399902344e-01,7.859575748443603516e-01,7.704492807388305664e-01,7.421551942825317383e-01,6.580036282539367676e-01,5.996945500373840332e-01,5.651593208312988281e-01,5.522788763046264648e-01,5.340562462806701660e-01,5.306648015975952148e-01,5.318325161933898926e-01,5.660511255264282227e-01,6.260592937469482422e-01,6.879864931106567383e-01,7.137486934661865234e-01,7.433302998542785645e-01,8.022917509078979492e-01,8.443988561630249023e-01,8.707668185234069824e-01,8.848321437835693359e-01,8.913869857788085938e-01,8.986481428146362305e-01,9.028512835502624512e-01,9.049117565155029297e-01,9.051678776741027832e-01,9.053385257720947266e-01,9.053267240524291992e-01,9.053283333778381348e-01,9.053283333778381348e-01,9.053283333778381348e-01,9.053283333778381348e-01,9.053283333778381348e-01,9.053283333778381348e-01,9.053283333778381348e-01,9.053283333778381348e-01,9.053283333778381348e-01,9.053283333778381348e-01,9.053283333778381348e-01,9.053283333778381348e-01,9.053283333778381348e-01,9.053283333778381348e-01,9.053283333778381348e-01,9.053283333778381348e-01,9.053283333778381348e-01,9.053283333778381348e-01,9.053283333778381348e-01,9.053283333778381348e-01,9.053283333778381348e-01,9.053283333778381348e-01,9.053285121917724609e-01,9.053297042846679688e-01,9.053521156311035156e-01,9.053734540939331055e-01,9.051614999771118164e-01,9.045423269271850586e-01,9.034036993980407715e-01,9.016473293304443359e-01,8.990721702575683594e-01,8.949688076972961426e-01,8.886656761169433594e-01,8.801976442337036133e-01,8.708401322364807129e-01,8.578865528106689453e-01,8.292877078056335449e-01,8.082766532897949219e-01,8.006745576858520508e-01,7.746796607971191406e-01,7.220449447631835938e-01,6.160605549812316895e-01
5.886739492416381836e-01,6.142243146896362305e-01,6.568400263786315918e-01,6.576561927795410156e-01,6.812080144882202148e-01,7.054275870323181152e-01,7.418553233146667480e-01,7.642652988433837891e-01,7.838398218154907227e-01,7.930092215538024902e-01,7.963476181030273438e-01,7.968767881393432617e-01,7.869707345962524414e-01,7.723431587219238281e-01,7.398496866226196289e-01,6.580570936203002930e-01,6.006414890289306641e-01,5.675207376480102539e-01,5.508116483688354492e-01,5.394322276115417480e-01,5.380881428718566895e-01,5.438391566276550293e-01,5.686490535736083984e-01,6.213012933731079102e-01,7.042267322540283203e-01,7.206547260284423828e-01,7.561540603637695312e-01,7.979220151901245117e-01,8.388028144836425781e-01,8.688447475433349609e-01,8.851066231727600098e-01,8.908123970031738281e-01,8.985037803649902344e-01,9.019862413406372070e-01,9.042285680770874023e-01,9.051648378372192383e-01,9.053223729133605957e-01,9.053303003311157227e-01,9.053283333778381348e-01,9.053283333778381348e-01,9.053283333778381348e-01,9.053283333778381348e-01,9.053283333778381348e-01,9.053283333778381348e-01,9.053283333778381348e-01,9.053283333778381348e-01,9.053283333778381348e-01,9.053283333778381348e-01,9.053283333778381348e-01,9.053283333778381348e-01,9.053283333778381348e-01,9.053283333778381348e-01,9.053283333778381348e-01,9.053283333778381348e-01,9.053283333778381348e-01,9.053283333778381348e-01,9.053283333778381348e-01,9.053283333778381348e-01,9.053283333778381348e-01,9.053283333778381348e-01,9.053285121917724609e-01,9.053297042846679688e-01,9.053521156311035156e-01,9.053734540939331055e-01,9.051616191864013672e-01,9.045427441596984863e-01,9.034045934677124023e-01,9.016488194465637207e-01,8.990739583969116211e-01,8.949723839759826660e-01,8.886710405349731445e-01,8.802045583724975586e-01,8.708474636077880859e-01,8.578964471817016602e-01,8.292997479438781738e-01,8.082894682884216309e-01,8.006875514984130859e-01,7.746920585632324219e-01,7.220548987388610840e-01,6.160677075386047363e-01
5.886672735214233398e-01,6.142135262489318848e-01,6.568274497985839844e-01,6.576415300369262695e-01,6.811880469322204590e-01,7.054075002670288086e-01,7.417784929275512695e-01,7.641143798828125000e-01,7.834008932113647461e-01,7.921604514122009277e-01,7.960321903228759766e-01,7.968953847885131836e-01,7.880718111991882324e-01,7.741198539733886719e-01,7.387182712554931641e-01,6.609252095222473145e-01,6.013779044151306152e-01,5.653532743453979492e-01,5.489739179611206055e-01,5.405537486076354980e-01,5.470684170722961426e-01,5.577859282493591309e-01,5.808520317077636719e-01,6.273239254951477051e-01,7.118545770645141602e-01,7.348766922950744629e-01,7.646508216857910156e-01,8.017054200172424316e-01,8.301638364791870117e-01,8.646179437637329102e-01,8.863623142242431641e-01,8.909562826156616211e-01,8.974205255508422852e-01,9.006705284118652344e-01,9.037493467330932617e-01,9.050822257995605469e-01,9.053186178207397461e-01,9.053392410278320312e-01,9.053283333778381348e-01,9.053283333778381348e-01,9.053283333778381348e-01,9.053283333778381348e-01,9.053283333778381348e-01,9.053283333778381348e-01,9.053283333778381348e-01,9.053283333778381348e-01,9.053283333778381348e-01,9.053283333778381348e-01,9.053283333778381348e-01,9.053283333778381348e-01,9.053283333778381348e-01,9.053283333778381348e-01,9.053283333778381348e-01,9.053283333778381348e-01,9.053283333778381348e-01,9.053283333778381348e-01,9.053283333778381348e-01,9.053283333778381348e-01,9.053283333778381348e-01,9.053283333778381348e-01,9.053285121917724609e-01,9.053297042846679688e-01,9.053520560264587402e-01,9.053735136985778809e-01,9.051617980003356934e-01,9.045432209968566895e-01,9.034054875373840332e-01,9.016500711441040039e-01,8.990760445594787598e-01,8.949755430221557617e-01,8.886760473251342773e-01,8.802113533020019531e-01,8.708556294441223145e-01,8.579061031341552734e-01,8.293113708496093750e-01,8.083023428916931152e-01,8.007003068923950195e-01,7.747044563293457031e-01,7.220650911331176758e-01,6.160748004913330078e-01
5.886610746383666992e-01,6.142031550407409668e-01,6.568153500556945801e-01,6.576269268989562988e-01,6.811702251434326172e-01,7.054065465927124023e-01,7.418310642242431641e-01,7.637548446655273438e-01,7.838505506515502930e-01,7.926021814346313477e-01,7.968271374702453613e-01,7.969900965690612793e-01,7.885482907295227051e-01,7.741851806640625000e-01,7.385537028312683105e-01,6.607187986373901367e-01,6.016474962234497070e-01,5.616715550422668457e-01,5.478972792625427246e-01,5.439003705978393555e-01,5.431357622146606445e-01,5.650869607925415039e-01,5.824946761131286621e-01,6.395397186279296875e-01,7.354212403297424316e-01,7.527421712875366211e-01,7.652786970138549805e-01,8.146426677703857422e-01,8.373948335647583008e-01,8.631367087364196777e-01,8.862803578376770020e-01,8.947407007217407227e-01,8.963587880134582520e-01,9.002897739410400391e-01,9.038046002388000488e-01,9.051747322082519531e-01,9.053226709365844727e-01,9.053337574005126953e-01,9.053283333778381348e-01,9.053283333778381348e-01,9.053283333778381348e-01,9.053283333778381348e-01,9.053283333778381348e-01,9.053283333778381348e-01,9.053283333778381348e-01,9.053283333778381348e-01,9.053283333778381348e-01,9.053283333778381348e-01,9.053283333778381348e-01,9.053283333778381348e-01,9.053283333778381348e-01,9.053283333778381348e-01,9.053283333778381348e-01,9.053283333778381348e-01,9.053283333778381348e-01,9.053283333778381348e-01,9.053283333778381348e-01,9.053283333778381348e-01,9.053283333778381348e-01,9.053283333778381348e-01,9.053285121917724609e-01,9.053297042846679688e-01,9.053521156311035156e-01,9.053734540939331055e-01,9.051620364189147949e-01,9.045436978340148926e-01,9.034062623977661133e-01,9.016515612602233887e-01,8.990780115127563477e-01,8.949787616729736328e-01,8.886810541152954102e-01,8.802180886268615723e-01,8.708633780479431152e-01,8.579157590866088867e-01,8.293228745460510254e-01,8.083149194717407227e-01,8.007129430770874023e-01,7.747166156768798828e-01,7.220752239227294922e-01,6.160817146301269531e-01
5.886555314064025879e-01,6.141938567161560059e-01,6.568037867546081543e-01,6.576130390167236328e-01,6.811606884002685547e-01,7.053915858268737793e-01,7.418839335441589355e-01,7.634502649307250977e-01,7.837477922439575195e-01,7.920569181442260742e-01,7.977014780044555664e-01,7.997735738754272461e-01,7.888002395629882812e-01,7.735890746116638184e-01,7.393627762794494629e-01,6.630144715309143066e-01,6.016932725906372070e-01,5.653653740882873535e-01,5.490567684173583984e-01,5.518531799316406250e-01,5.474715828895568848e-01,5.717072486877441406e-01,5.959198474884033203e-01,6.466770768165588379e-01,7.406706213951110840e-01,7.697486877441406250e-01,7.891030311584472656e-01,8.207483291625976562e-01,8.491778373718261719e-01,8.639642596244812012e-01,8.837987184524536133e-01,8.941910266876220703e-01,8.967763185501098633e-01,9.004534482955932617e-01,9.038720130920410156e-01,9.052621126174926758e-01,9.053380489349365234e-01,9.053388833999633789e-01,9.053283333778381348e-01,9.053283333778381348e-01,9.053283333778381348e-01,9.053283333778381348e-01,9.053283333778381348e-01,9.053283333778381348e-01,9.053283333778381348e-01,9.053283333778381348e-01,9.053283333778381348e-01,9.053283333778381348e-01,9.053283333778381348e-01,9.053283333778381348e-01,9.053283333778381348e-01,9.053283333778381348e-01,9.053283333778381348e-01,9.053283333778381348e-01,9.053283333778381348e-01,9.053283333778381348e-01,9.053283333778381348e-01,9.053283333778381348e-01,9.053283333778381348e-01,9.053283333778381348e-01,9.053285121917724609e-01,9.053297042846679688e-01,9.053520560264587402e-01,9.053733348846435547e-01,9.051622152328491211e-01,9.045441150665283203e-01,9.034072160720825195e-01,9.016530513763427734e-01,8.990800380706787109e-01,8.949818611145019531e-01,8.886861801147460938e-01,8.802248239517211914e-01,8.708712458610534668e-01,8.579250574111938477e-01,8.293342590332031250e-01,8.083277940750122070e-01,8.007254600524902344e-01,7.747288942337036133e-01,7.220854163169860840e-01,6.160889267921447754e-01
5.886506438255310059e-01,6.141854524612426758e-01,6.567935943603515625e-01,6.576012372970581055e-01,6.811437606811523438e-01,7.053782939910888672e-01,7.417770624160766602e-01,7.637205123901367188e-01,7.834025621414184570e-01,7.936066389083862305e-01,7.992600798606872559e-01,8.025896549224853516e-01,7.942282557487487793e-01,7.754402160644531250e-01,7.400797009468078613e-01,6.708607673645019531e-01,6.004996895790100098e-01,5.717913508415222168e-01,5.520864129066467285e-01,5.513620376586914062e-01,5.590351819992065430e-01,5.761992931365966797e-01,6.087746024131774902e-01,6.658820509910583496e-01,7.446537017822265625e-01,8.038733005523681641e-01,8.077472448348999023e-01,8.249310851097106934e-01,8.596094846725463867e-01,8.744639158248901367e-01,8.861317634582519531e-01,8.984653949737548828e-01,8.996133804321289062e-01,9.018707275390625000e-01,9.047029018402099609e-01,9.050633311271667480e-01,9.053548574447631836e-01,9.053352475166320801e-01,9.053283333778381348e-01,9.053283333778381348e-01,9.053283333778381348e-01,9.053283333778381348e-01,9.053283333778381348e-01,9.053283333778381348e-01,9.053283333778381348e-01,9.053283333778381348e-01,9.053283333778381348e-01,9.053283333778381348e-01,9.053283333778381348e-01,9.053283333778381348e-01,9.053283333778381348e-01,9.053283333778381348e-01,9.053283333778381348e-01,9.053283333778381348e-01,9.053283333778381348e-01,9.053283333778381348e-01,9.053283333778381348e-01,9.053283333778381348e-01,9.053283333778381348e-01,9.053283333778381348e-01,9.053285121917724609e-01,9.053297042846679688e-01,9.053521156311035156e-01,9.053733348846435547e-01,9.051623344421386719e-01,9.045447111129760742e-01,9.034080505371093750e-01,9.016542434692382812e-01,8.990820050239562988e-01,8.949853181838989258e-01,8.886909484863281250e-01,8.802314400672912598e-01,8.708791732788085938e-01,8.579345345497131348e-01,8.293457031250000000e-01,8.083401918411254883e-01,8.007381558418273926e-01,7.747410535812377930e-01,7.220954895019531250e-01,6.160959005355834961e-01
5.886460542678833008e-01,6.141779422760009766e-01,6.567847132682800293e-01,6.575904488563537598e-01,6.811374425888061523e-01,7.053480744361877441e-01,7.415280342102050781e-01,7.634062767028808594e-01,7.833981513977050781e-01,7.943857908248901367e-01,8.008110523223876953e-01,8.057765960693359375e-01,7.974690198898315430e-01,7.793277502059936523e-01,7.403349280357360840e-01,6.836576461791992188e-01,6.188778877258300781e-01,5.693746805191040039e-01,5.598100423812866211e-01,5.667082071304321289e-01,5.681759119033813477e-01,5.828484296798706055e-01,6.329964995384216309e-01,6.880122423171997070e-01,7.538433670997619629e-01,8.068933486938476562e-01,8.242934942245483398e-01,8.461887240409851074e-01,8.669161796569824219e-01,8.821895122528076172e-01,8.908588886260986328e-01,9.005803465843200684e-01,9.008014798164367676e-01,9.033139944076538086e-01,9.051665663719177246e-01,9.050877094268798828e-01,9.053531289100646973e-01,9.053276777267456055e-01,9.053283333778381348e-01,9.053283333778381348e-01,9.053283333778381348e-01,9.053283333778381348e-01,9.053283333778381348e-01,9.053283333778381348e-01,9.053283333778381348e-01,9.053283333778381348e-01,9.053283333778381348e-01,9.053283333778381348e-01,9.053283333778381348e-01,9.053283333778381348e-01,9.053283333778381348e-01,9.053283333778381348e-01,9.053283333778381348e-01,9.053283333778381348e-01,9.053283333778381348e-01,9.053283333778381348e-01,9.053283333778381348e-01,9.053283333778381348e-01,9.053283333778381348e-01,9.053283333778381348e-01,9.053285121917724609e-01,9.053297042846679688e-01,9.053519964218139648e-01,9.053733348846435547e-01,9.051625132560729980e-01,9.045451879501342773e-01,9.034087657928466797e-01,9.016555547714233398e-01,8.990840315818786621e-01,8.949884176254272461e-01,8.886958360671997070e-01,8.802381157875061035e-01,8.708869218826293945e-01,8.579440712928771973e-01,8.293572068214416504e-01,8.083530068397521973e-01,8.007507920265197754e-01,7.747533321380615234e-01,7.221055030822753906e-01,6.161029934883117676e-01
5.886416435241699219e-01,6.141707897186279297e-01,6.567760705947875977e-01,6.575804948806762695e-01,6.811310052871704102e-01,7.053218483924865723e-01,7.415720820426940918e-01,7.639282941818237305e-01,7.841724157333374023e-01,7.960153222084045410e-01,8.042508959770202637e-01,8.120914101600646973e-01,8.001053929328918457e-01,7.845234870910644531e-01,7.487595677375793457e-01,6.951372623443603516e-01,6.460664868354797363e-01,5.925927758216857910e-01,5.661743879318237305e-01,5.751546025276184082e-01,5.765485763549804688e-01,6.010714769363403320e-01,6.500310897827148438e-01,6.990124583244323730e-01,7.651909589767456055e-01,8.231948614120483398e-01,8.490431904792785645e-01,8.565595149993896484e-01,8.754326701164245605e-01,8.907821178436279297e-01,8.949210643768310547e-01,9.014943838119506836e-01,9.046243429183959961e-01,9.049481153488159180e-01,9.052125811576843262e-01,9.050378799438476562e-01,9.053466320037841797e-01,9.053341150283813477e-01,9.053283333778381348e-01,9.053283333778381348e-01,9.053283333778381348e-01,9.053283333778381348e-01,9.053283333778381348e-01,9.053283333778381348e-01,9.053283333778381348e-01,9.053283333778381348e-01,9.053283333778381348e-01,9.053283333778381348e-01,9.053283333778381348e-01,9.053283333778381348e-01,9.053283333778381348e-01,9.053283333778381348e-01,9.053283333778381348e-01,9.053283333778381348e-01,9.053283333778381348e-01,9.053283333778381348e-01,9.053283333778381348e-01,9.053283333778381348e-01,9.053283333778381348e-01,9.053283333778381348e-01,9.053285121917724609e-01,9.053297042846679688e-01,9.053520560264587402e-01,9.053732752799987793e-01,9.051626920700073242e-01,9.045456647872924805e-01,9.034099578857421875e-01,9.016569852828979492e-01,8.990861177444458008e-01,8.949916958808898926e-01,8.887009024620056152e-01,8.802447915077209473e-01,8.708950281143188477e-01,8.579534292221069336e-01,8.293687105178833008e-01,8.083655834197998047e-01,8.007633686065673828e-01,7.747656106948852539e-01,7.221155166625976562e-01,6.161100864410400391e-01
5.886370539665222168e-01,6.141635179519653320e-01,6.567679643630981445e-01,6.575713157653808594e-01,6.811171770095825195e-01,7.053084373474121094e-01,7.414507865905761719e-01,7.632557153701782227e-01,7.844084501266479492e-01,7.956148386001586914e-01,8.078860044479370117e-01,8.179943561553955078e-01,8.058182001113891602e-01,7.904103994369506836e-01,7.608458995819091797e-01,7.147405743598937988e-01,6.654520034790039062e-01,6.142100691795349121e-01,5.972855687141418457e-01,5.860823392868041992e-01,5.896688103675842285e-01,6.290822029113769531e-01,6.692734360694885254e-01,7.293665409088134766e-01,7.799282073974609375e-01,8.293144106864929199e-01,8.517212867736816406e-01,8.712193369865417480e-01,8.831398487091064453e-01,8.953004479408264160e-01,8.972266316413879395e-01,9.025881886482238770e-01,9.056262969970703125e-01,9.048990011215209961e-01,9.056972265243530273e-01,9.050737619400024414e-01,9.053395390510559082e-01,9.053307175636291504e-01,9.053283333778381348e-01,9.053283333778381348e-01,9.053283333778381348e-01,9.053283333778381348e-01,9.053283333778381348e-01,9.053283333778381348e-01,9.053283333778381348e-01,9.053283333778381348e-01,9.053283333778381348e-01,9.053283333778381348e-01,9.053283333778381348e-01,9.053283333778381348e-01,9.053283333778381348e-01,9.053283333778381348e-01,9.053283333778381348e-01,9.053283333778381348e-01,9.053283333778381348e-01,9.053283333778381348e-01,9.053283333778381348e-01,9.053283333778381348e-01,9.053283333778381348e-01,9.053283333778381348e-01,9.053285121917724609e-01,9.053297042846679688e-01,9.053519964218139648e-01,9.053733348846435547e-01,9.051628112792968750e-01,9.045461416244506836e-01,9.034106731414794922e-01,9.016583561897277832e-01,8.990880846977233887e-01,8.949949741363525391e-01,8.887059688568115234e-01,8.802517652511596680e-01,8.709027767181396484e-01,8.579632043838500977e-01,8.293802738189697266e-01,8.083783388137817383e-01,8.007761240005493164e-01,7.747778296470642090e-01,7.221258878707885742e-01,6.161171793937683105e-01
5.886319279670715332e-01,6.141557097434997559e-01,6.567593216896057129e-01,6.575612425804138184e-01,6.810953021049499512e-01,7.053284049034118652e-01,7.416843175888061523e-01,7.645288109779357910e-01,7.839198112487792969e-01,7.972534894943237305e-01,8.077921867370605469e-01,8.184337615966796875e-01,8.093845844268798828e-01,8.008928298950195312e-01,7.813502550125122070e-01,7.413672208786010742e-01,6.918969154357910156e-01,6.284173130989074707e-01,6.119147539138793945e-01,6.000511646270751953e-01,6.024578809738159180e-01,6.477131247520446777e-01,6.958196163177490234e-01,7.414473295211791992e-01,7.937796115875244141e-01,8.357698917388916016e-01,8.623553514480590820e-01,8.825020790100097656e-01,8.907355070114135742e-01,8.982874155044555664e-01,8.998262882232666016e-01,9.022469520568847656e-01,9.058989286422729492e-01,9.053721427917480469e-01,9.054518938064575195e-01,9.052704572677612305e-01,9.053375720977783203e-01,9.053317308425903320e-01,9.053283333778381348e-01,9.053283333778381348e-01,9.053283333778381348e-01,9.053283333778381348e-01,9.053283333778381348e-01,9.053283333778381348e-01,9.053283333778381348e-01,9.053283333778381348e-01,9.053283333778381348e-01,9.053283333778381348e-01,9.053283333778381348e-01,9.053283333778381348e-01,9.053283333778381348e-01,9.053283333778381348e-01,9.053283333778381348e-01,9.053283333778381348e-01,9.053283333778381348e-01,9.053283333778381348e-01,9.053283333778381348e-01,9.053283333778381348e-01,9.053283333778381348e-01,9.053283333778381348e-01,9.053285121917724609e-01,9.053297042846679688e-01,9.053519368171691895e-01,9.053732156753540039e-01,9.051630496978759766e-01,9.045465588569641113e-01,9.034116268157958984e-01,9.016596078872680664e-01,8.990900516510009766e-01,8.949980735778808594e-01,8.887108564376831055e-01,8.802584409713745117e-01,8.709107637405395508e-01,8.579726815223693848e-01,8.293917179107666016e-01,8.083912134170532227e-01,8.007889389991760254e-01,7.747902870178222656e-01,7.221359610557556152e-01,6.161244511604309082e-01
5.886265039443969727e-01,6.141468286514282227e-01,6.567494869232177734e-01,6.575502157211303711e-01,6.810809969902038574e-01,7.052989602088928223e-01,7.418491840362548828e-01,7.642048597335815430e-01,7.821390032768249512e-01,7.996888160705566406e-01,8.170257210731506348e-01,8.212504982948303223e-01,8.142222166061401367e-01,7.970494627952575684e-01,7.909435033798217773e-01,7.676854133605957031e-01,7.057310342788696289e-01,6.512214541435241699e-01,6.278597116470336914e-01,6.121076345443725586e-01,6.199490427970886230e-01,6.648768186569213867e-01,7.081397771835327148e-01,7.564808130264282227e-01,8.103942871093750000e-01,8.426761031150817871e-01,8.678480982780456543e-01,8.860098123550415039e-01,8.946614861488342285e-01,9.004118442535400391e-01,9.020442962646484375e-01,9.023626446723937988e-01,9.049385786056518555e-01,9.056041240692138672e-01,9.052101969718933105e-01,9.053540229797363281e-01,9.053381681442260742e-01,9.053307175636291504e-01,9.053263664245605469e-01,9.053263664245605469e-01,9.053263664245605469e-01,9.053263664245605469e-01,9.053262472152709961e-01,9.053262472152709961e-01,9.053262472152709961e-01,9.053262472152709961e-01,9.053262472152709961e-01,9.053262472152709961e-01,9.053261280059814453e-01,9.053261280059814453e-01,9.053261280059814453e-01,9.053261280059814453e-01,9.053260684013366699e-01,9.053260684013366699e-01,9.053260684013366699e-01,9.053260684013366699e-01,9.053261280059814453e-01,9.053260684013366699e-01,9.053261280059814453e-01,9.053261280059814453e-01,9.053262472152709961e-01,9.053274393081665039e-01,9.053497314453125000e-01,9.053708314895629883e-01,9.051609039306640625e-01,9.045450687408447266e-01,9.034107923507690430e-01,9.016594290733337402e-01,8.990903496742248535e-01,8.949995636940002441e-01,8.887141942977905273e-01,8.802636861801147461e-01,8.709179162979125977e-01,8.579816222190856934e-01,8.294030427932739258e-01,8.084039688110351562e-01,8.008017539978027344e-01,7.748028039932250977e-01,7.221463918685913086e-01,6.161316633224487305e-01
5.886207222938537598e-01,6.141372323036193848e-01,6.567385196685791016e-01,6.575371623039245605e-01,6.810765266418457031e-01,7.052962183952331543e-01,7.418231368064880371e-01,7.631379365921020508e-01,7.823662757873535156e-01,7.992038726806640625e-01,8.179427385330200195e-01,8.236161470413208008e-01,8.179470300674438477e-01,8.119738101959228516e-01,7.924325466156005859e-01,7.780408859252929688e-01,7.298014163970947266e-01,6.607341170310974121e-01,6.400281190872192383e-01,6.269596815109252930e-01,6.341985464096069336e-01,6.739171147346496582e-01,7.082821130752563477e-01,7.732692956924438477e-01,8.184186220169067383e-01,8.465068340301513672e-01,8.719850182533264160e-01,8.899251222610473633e-01,8.975321054458618164e-01,9.020769000053405762e-01,9.032199978828430176e-01,9.037643671035766602e-01,9.045895934104919434e-01,9.055612087249755859e-01,9.053303003311157227e-01,9.053698778152465820e-01,9.053279757499694824e-01,9.053229093551635742e-01,9.053208827972412109e-01,9.053209424018859863e-01,9.053210616111755371e-01,9.053211212158203125e-01,9.053211212158203125e-01,9.053211212158203125e-01,9.053212404251098633e-01,9.053212404251098633e-01,9.053212404251098633e-01,9.053213596343994141e-01,9.053213596343994141e-01,9.053214192390441895e-01,9.053214192390441895e-01,9.053214192390441895e-01,9.053214192390441895e-01,9.053215980529785156e-01,9.053215980529785156e-01,9.053215980529785156e-01,9.053217172622680664e-01,9.053217172622680664e-01,9.053217768669128418e-01,9.053217768669128418e-01,9.053220748901367188e-01,9.053232073783874512e-01,9.053455591201782227e-01,9.053670167922973633e-01,9.051569104194641113e-01,9.045405387878417969e-01,9.034069180488586426e-01,9.016560316085815430e-01,8.990868330001831055e-01,8.949950933456420898e-01,8.887096047401428223e-01,8.802592754364013672e-01,8.709137439727783203e-01,8.579812049865722656e-01,8.294059038162231445e-01,8.084095120429992676e-01,8.008078336715698242e-01,7.748076915740966797e-01,7.221485376358032227e-01,6.161326169967651367e-01
5.886097550392150879e-01,6.141235828399658203e-01,6.567225456237792969e-01,6.575233936309814453e-01,6.810578107833862305e-01,7.052696347236633301e-01,7.421308755874633789e-01,7.623533606529235840e-01,7.832472324371337891e-01,8.027951717376708984e-01,8.198385834693908691e-01,8.235628604888916016e-01,8.250051736831665039e-01,8.177542686462402344e-01,7.977998256683349609e-01,7.814950942993164062e-01,7.514227628707885742e-01,6.696315407752990723e-01,6.402173638343811035e-01,6.364927291870117188e-01,6.566519737243652344e-01,6.757652759552001953e-01,7.110197544097900391e-01,7.775703668594360352e-01,8.260710239410400391e-01,8.497240543365478516e-01,8.736256361007690430e-01,8.896105289459228516e-01,8.976589441299438477e-01,9.036237001419067383e-01,9.043729305267333984e-01,9.051475524902343750e-01,9.050893187522888184e-01,9.052866697311401367e-01,9.053379297256469727e-01,9.054295420646667480e-01,9.054000377655029297e-01,9.053953886032104492e-01,9.053918123245239258e-01,9.053921699523925781e-01,9.053922891616821289e-01,9.053925275802612305e-01,9.053928852081298828e-01,9.053931236267089844e-01,9.053934812545776367e-01,9.053937196731567383e-01,9.053939580917358398e-01,9.053941369056701660e-01,9.053944349288940430e-01,9.053947329521179199e-01,9.053950309753417969e-01,9.053952693939208984e-01,9.053955078125000000e-01,9.053957462310791016e-01,9.053958654403686523e-01,9.053962826728820801e-01,9.053964614868164062e-01,9.053966999053955078e-01,9.053970575332641602e-01,9.053972959518432617e-01,9.053977727890014648e-01,9.053994417190551758e-01,9.054223299026489258e-01,9.054447412490844727e-01,9.052376747131347656e-01,9.046199321746826172e-01,9.034808278083801270e-01,9.017148017883300781e-01,8.991358280181884766e-01,8.950457572937011719e-01,8.887745141983032227e-01,8.803359270095825195e-01,8.710014820098876953e-01,8.580520153045654297e-01,8.294714689254760742e-01,8.084553480148315430e-01,8.008379936218261719e-01,7.748262882232666016e-01,7.221468687057495117e-01,6.161321401596069336e-01
5.886167287826538086e-01,6.141325235366821289e-01,6.567293405532836914e-01,6.575413942337036133e-01,6.810776591300964355e-01,7.053387165069580078e-01,7.419050931930541992e-01,7.626365423202514648e-01,7.827082872390747070e-01,8.048338294029235840e-01,8.212151527404785156e-01,8.217662572860717773e-01,8.245047330856323242e-01,8.187059164047241211e-01,8.068553209304809570e-01,7.965596914291381836e-01,7.508847117424011230e-01,6.844710111618041992e-01,6.497546434402465820e-01,6.414515972137451172e-01,6.553421020507812500e-01,6.776297092437744141e-01,7.184932231903076172e-01,7.865005135536193848e-01,8.291695117950439453e-01,8.521618843078613281e-01,8.769968748092651367e-01,8.899779915809631348e-01,8.983659148216247559e-01,9.041743278503417969e-01,9.049228429794311523e-01,9.053591489791870117e-01,9.054070711135864258e-01,9.054538011550903320e-01,9.055208563804626465e-01,9.054709672927856445e-01,9.054803848266601562e-01,9.054823517799377441e-01,9.054794311523437500e-01,9.054784774780273438e-01,9.054776430130004883e-01,9.054766893386840820e-01,9.054758548736572266e-01,9.054749608039855957e-01,9.054741859436035156e-01,9.054732322692871094e-01,9.054723978042602539e-01,9.054715633392333984e-01,9.054707288742065430e-01,9.054698944091796875e-01,9.054690003395080566e-01,9.054681658744812012e-01,9.054672122001647949e-01,9.054664373397827148e-01,9.054654836654663086e-01,9.054646492004394531e-01,9.054639339447021484e-01,9.054630398750305176e-01,9.054620862007141113e-01,9.054612517356872559e-01,9.054608345031738281e-01,9.054613709449768066e-01,9.054843187332153320e-01,9.055073857307434082e-01,9.053022861480712891e-01,9.046819210052490234e-01,9.035505056381225586e-01,9.017897248268127441e-01,8.992097377777099609e-01,8.951153755187988281e-01,8.888967037200927734e-01,8.804695606231689453e-01,8.711268901824951172e-01,8.582142591476440430e-01,8.297005891799926758e-01,8.087016344070434570e-01,8.010939955711364746e-01,7.750744819641113281e-01,7.224309444427490234e-01,6.165251731872558594e-01
5.888007879257202148e-01,6.143100857734680176e-01,6.569836139678955078e-01,6.577982306480407715e-01,6.813345551490783691e-01,7.054819464683532715e-01,7.418273687362670898e-01,7.635724544525146484e-01,7.842063903808593750e-01,8.055573701858520508e-01,8.194640874862670898e-01,8.273670077323913574e-01,8.294947147369384766e-01,8.253029584884643555e-01,8.082450032234191895e-01,7.888635396957397461e-01,7.631756067276000977e-01,6.927171945571899414e-01,6.606549024581909180e-01,6.509195566177368164e-01,6.647190451622009277e-01,6.766325831413269043e-01,7.254469394683837891e-01,7.835125923156738281e-01,8.304432630538940430e-01,8.554231524467468262e-01,8.793339133262634277e-01,8.910263776779174805e-01,8.988915681838989258e-01,9.030945897102355957e-01,9.040327072143554688e-01,9.047672748565673828e-01,9.046680331230163574e-01,9.046065211296081543e-01,9.046337008476257324e-01,9.046316742897033691e-01,9.046280384063720703e-01,9.046276807785034180e-01,9.046269059181213379e-01,9.046258926391601562e-01,9.046250581741333008e-01,9.046241641044616699e-01,9.046232104301452637e-01,9.046224355697631836e-01,9.046213626861572266e-01,9.046204686164855957e-01,9.046195745468139648e-01,9.046187400817871094e-01,9.046177864074707031e-01,9.046169519424438477e-01,9.046160578727722168e-01,9.046151041984558105e-01,9.046140909194946289e-01,9.046132564544677734e-01,9.046123027801513672e-01,9.046115875244140625e-01,9.046105146408081055e-01,9.046097397804260254e-01,9.046087265014648438e-01,9.046078324317932129e-01,9.046072959899902344e-01,9.046078920364379883e-01,9.046279191970825195e-01,9.046610593795776367e-01,9.044570326805114746e-01,9.038792848587036133e-01,9.027750492095947266e-01,9.010081887245178223e-01,8.984287977218627930e-01,8.943631649017333984e-01,8.880742788314819336e-01,8.796507716178894043e-01,8.703318834304809570e-01,8.574503064155578613e-01,8.288429379463195801e-01,8.078498840332031250e-01,8.004560470581054688e-01,7.742155790328979492e-01,7.216166257858276367e-01,6.159968972206115723e-01
5.891569852828979492e-01,6.141793727874755859e-01,6.566523909568786621e-01,6.571500301361083984e-01,6.804298758506774902e-01,7.042627334594726562e-01,7.403451800346374512e-01,7.614992856979370117e-01,7.826188802719116211e-01,8.015697002410888672e-01,8.154276609420776367e-01,8.230447769165039062e-01,8.275314569473266602e-01,8.238781690597534180e-01,8.198558092117309570e-01,8.049051761627197266e-01,7.632005810737609863e-01,6.973178386688232422e-01,6.656392812728881836e-01,6.529446244239807129e-01,6.660955548286437988e-01,6.879128217697143555e-01,7.350162267684936523e-01,7.862570285797119141e-01,8.281111717224121094e-01,8.560678362846374512e-01,8.810936212539672852e-01,8.899842500686645508e-01,8.977584838867187500e-01,9.023612737655639648e-01,9.034887552261352539e-01,9.037570953369140625e-01,9.037392139434814453e-01,9.037138819694519043e-01,9.037204980850219727e-01,9.037132859230041504e-01,9.037117958068847656e-01,9.037115573883056641e-01,9.037109613418579102e-01,9.037098884582519531e-01,9.037088751792907715e-01,9.037077426910400391e-01,9.037067294120788574e-01,9.037057161331176758e-01,9.037046432495117188e-01,9.037036895751953125e-01,9.037024378776550293e-01,9.037014245986938477e-01,9.037004709243774414e-01,9.036993980407714844e-01,9.036982655525207520e-01,9.036972522735595703e-01,9.036961793899536133e-01,9.036950469017028809e-01,9.036942124366760254e-01,9.036931395530700684e-01,9.036918878555297852e-01,9.036908149719238281e-01,9.036899805068969727e-01,9.036889076232910156e-01,9.036880731582641602e-01,9.036879539489746094e-01,9.037039875984191895e-01,9.037333726882934570e-01,9.035478830337524414e-01,9.029995203018188477e-01,9.019620418548583984e-01,9.002496600151062012e-01,8.977002501487731934e-01,8.936433196067810059e-01,8.874099850654602051e-01,8.790735006332397461e-01,8.698129653930664062e-01,8.568384647369384766e-01,8.282501697540283203e-01,8.071031570434570312e-01,7.996410131454467773e-01,7.733848690986633301e-01,7.204588055610656738e-01,6.144752502441406250e-01
5.884076356887817383e-01,6.125008463859558105e-01,6.548560857772827148e-01,6.552603244781494141e-01,6.780986785888671875e-01,7.014892101287841797e-01,7.376808524131774902e-01,7.588291168212890625e-01,7.801384329795837402e-01,7.984611988067626953e-01,8.153206706047058105e-01,8.237581253051757812e-01,8.271192312240600586e-01,8.266628980636596680e-01,8.206480741500854492e-01,8.058773279190063477e-01,7.619129419326782227e-01,7.065570354461669922e-01,6.753147840499877930e-01,6.591950654983520508e-01,6.745953559875488281e-01,7.033838033676147461e-01,7.347116470336914062e-01,7.935520410537719727e-01,8.305870294570922852e-01,8.552187681198120117e-01,8.794569969177246094e-01,8.905387520790100098e-01,8.973257541656494141e-01,9.012168049812316895e-01,9.016129970550537109e-01,9.019896984100341797e-01,9.019485116004943848e-01,9.019315242767333984e-01,9.019253253936767578e-01,9.019172191619873047e-01,9.019126892089843750e-01,9.019063711166381836e-01,9.019001722335815430e-01,9.018940925598144531e-01,9.018880128860473633e-01,9.018819332122802734e-01,9.018758535385131836e-01,9.018698334693908691e-01,9.018636941909790039e-01,9.018577337265014648e-01,9.018517732620239258e-01,9.018456935882568359e-01,9.018396139144897461e-01,9.018335342407226562e-01,9.018275141716003418e-01,9.018214941024780273e-01,9.018154144287109375e-01,9.018093347549438477e-01,9.018033146858215332e-01,9.017972946166992188e-01,9.017913341522216797e-01,9.017853736877441406e-01,9.017792940139770508e-01,9.017732143402099609e-01,9.017671346664428711e-01,9.017620086669921875e-01,9.017758369445800781e-01,9.018006920814514160e-01,9.016271829605102539e-01,9.011577367782592773e-01,9.001976251602172852e-01,8.986002206802368164e-01,8.961443305015563965e-01,8.921539783477783203e-01,8.860819339752197266e-01,8.775874376296997070e-01,8.682932853698730469e-01,8.554408550262451172e-01,8.269674181938171387e-01,8.060643672943115234e-01,7.985044121742248535e-01,7.719314098358154297e-01,7.191755771636962891e-01,6.127014756202697754e-01
5.864666104316711426e-01,6.097775697708129883e-01,6.518765687942504883e-01,6.520045995712280273e-01,6.745799183845520020e-01,6.974196434020996094e-01,7.329333424568176270e-01,7.537401318550109863e-01,7.735564708709716797e-01,7.915722131729125977e-01,8.079366683959960938e-01,8.179016709327697754e-01,8.232499361038208008e-01,8.195383548736572266e-01,8.173347115516662598e-01,7.984293699264526367e-01,7.750974893569946289e-01,7.105904817581176758e-01,6.761807799339294434e-01,6.637817025184631348e-01,6.751439571380615234e-01,7.042525410652160645e-01,7.440009713172912598e-01,7.934758663177490234e-01,8.274655342102050781e-01,8.509696125984191895e-01,8.737016320228576660e-01,8.844063282012939453e-01,8.919183015823364258e-01,8.949558734893798828e-01,8.952698707580566406e-01,8.955000638961791992e-01,8.954520225524902344e-01,8.954381942749023438e-01,8.954295516014099121e-01,8.954203128814697266e-01,8.954114913940429688e-01,8.954020738601684570e-01,8.953930735588073730e-01,8.953840732574462891e-01,8.953751325607299805e-01,8.953658342361450195e-01,8.953566551208496094e-01,8.953477144241333008e-01,8.953385949134826660e-01,8.953295946121215820e-01,8.953202962875366211e-01,8.953113555908203125e-01,8.953022956848144531e-01,8.952932953834533691e-01,8.952841162681579590e-01,8.952752351760864258e-01,8.952661752700805664e-01,8.952570557594299316e-01,8.952479362487792969e-01,8.952389955520629883e-01,8.952298760414123535e-01,8.952208757400512695e-01,8.952118158340454102e-01,8.952027559280395508e-01,8.951935768127441406e-01,8.951847553253173828e-01,8.951935172080993652e-01,8.952105641365051270e-01,8.950755596160888672e-01,8.946262001991271973e-01,8.938164710998535156e-01,8.923497796058654785e-01,8.900259733200073242e-01,8.861804008483886719e-01,8.802865743637084961e-01,8.720743060111999512e-01,8.626451492309570312e-01,8.496484160423278809e-01,8.213607072830200195e-01,8.010431528091430664e-01,7.939184308052062988e-01,7.675400972366333008e-01,7.151749134063720703e-01,6.077100038528442383e-01
5.825375318527221680e-01,6.038818359375000000e-01,6.454440951347351074e-01,6.448004245758056641e-01,6.661986112594604492e-01,6.881836652755737305e-01,7.229059934616088867e-01,7.430163621902465820e-01,7.622257471084594727e-01,7.806806564331054688e-01,7.966905832290649414e-01,8.072597980499267578e-01,8.125237226486206055e-01,8.155021667480468750e-01,8.079329729080200195e-01,7.952575683593750000e-01,7.567932605743408203e-01,7.123225927352905273e-01,6.711162328720092773e-01,6.480795145034790039e-01,6.776989102363586426e-01,7.051876187324523926e-01,7.355509400367736816e-01,7.817633748054504395e-01,8.179869651794433594e-01,8.431265354156494141e-01,8.624972105026245117e-01,8.761262893676757812e-01,8.827513456344604492e-01,8.842726349830627441e-01,8.843972682952880859e-01,8.846183419227600098e-01,8.845710754394531250e-01,8.845412731170654297e-01,8.845208883285522461e-01,8.845006823539733887e-01,8.844804763793945312e-01,8.844603300094604492e-01,8.844401836395263672e-01,8.844199776649475098e-01,8.843998908996582031e-01,8.843796253204345703e-01,8.843595385551452637e-01,8.843392133712768555e-01,8.843190670013427734e-01,8.842989206314086914e-01,8.842786550521850586e-01,8.842586278915405273e-01,8.842384815216064453e-01,8.842183351516723633e-01,8.841983079910278320e-01,8.841781616210937500e-01,8.841580152511596680e-01,8.841378688812255859e-01,8.841177821159362793e-01,8.840974569320678711e-01,8.840775489807128906e-01,8.840574026107788086e-01,8.840373754501342773e-01,8.840172290802001953e-01,8.839968442916870117e-01,8.839768171310424805e-01,8.839876651763916016e-01,8.840329647064208984e-01,8.839060664176940918e-01,8.835564851760864258e-01,8.828737139701843262e-01,8.814064264297485352e-01,8.790539503097534180e-01,8.753638863563537598e-01,8.695322871208190918e-01,8.616482019424438477e-01,8.525969982147216797e-01,8.395738601684570312e-01,8.107922673225402832e-01,7.916829586029052734e-01,7.853895425796508789e-01,7.605809569358825684e-01,7.071957588195800781e-01,6.017394661903381348e-01
5.753735303878784180e-01,5.940433740615844727e-01,6.345341205596923828e-01,6.318062543869018555e-01,6.512065529823303223e-01,6.719542741775512695e-01,7.057451009750366211e-01,7.250718474388122559e-01,7.434458732604980469e-01,7.610100507736206055e-01,7.774646878242492676e-01,7.860127687454223633e-01,7.918727397918701172e-01,7.985001802444458008e-01,7.872415781021118164e-01,7.707029581069946289e-01,7.449649572372436523e-01,6.983206868171691895e-01,6.551432609558105469e-01,6.427981853485107422e-01,6.627477407455444336e-01,6.852896809577941895e-01,7.225119471549987793e-01,7.635383605957031250e-01,7.989919781684875488e-01,8.238903284072875977e-01,8.422117233276367188e-01,8.537327051162719727e-01,8.591458797454833984e-01,8.609743118286132812e-01,8.608040809631347656e-01,8.610692024230957031e-01,8.610000610351562500e-01,8.609539270401000977e-01,8.609171509742736816e-01,8.608802556991577148e-01,8.608433008193969727e-01,8.608062863349914551e-01,8.607692718505859375e-01,8.607322573661804199e-01,8.606954813003540039e-01,8.606585860252380371e-01,8.606216907501220703e-01,8.605847954750061035e-01,8.605480194091796875e-01,8.605108857154846191e-01,8.604740500450134277e-01,8.604370355606079102e-01,8.604003190994262695e-01,8.603633642196655273e-01,8.603265285491943359e-01,8.602898120880126953e-01,8.602529764175415039e-01,8.602161407470703125e-01,8.601792454719543457e-01,8.601423501968383789e-01,8.601055145263671875e-01,8.600689172744750977e-01,8.600319623947143555e-01,8.599953651428222656e-01,8.599580526351928711e-01,8.599203824996948242e-01,8.599253892898559570e-01,8.599586486816406250e-01,8.598080873489379883e-01,8.595410585403442383e-01,8.591387271881103516e-01,8.579549789428710938e-01,8.559016585350036621e-01,8.521375656127929688e-01,8.465158939361572266e-01,8.387224674224853516e-01,8.300036787986755371e-01,8.169928789138793945e-01,7.877357006072998047e-01,7.700066566467285156e-01,7.670601010322570801e-01,7.439052462577819824e-01,6.925612092018127441e-01,5.922752022743225098e-01
5.643811225891113281e-01,5.786224007606506348e-01,6.173459291458129883e-01,6.113575696945190430e-01,6.278060674667358398e-01,6.468130946159362793e-01,6.787396669387817383e-01,6.960682868957519531e-01,7.121668457984924316e-01,7.274549603462219238e-01,7.411555051803588867e-01,7.489785552024841309e-01,7.561893463134765625e-01,7.636530399322509766e-01,7.504135370254516602e-01,7.380347251892089844e-01,7.065843939781188965e-01,6.716247797012329102e-01,6.184920072555541992e-01,6.247501969337463379e-01,6.340382099151611328e-01,6.509486436843872070e-01,6.984648704528808594e-01,7.265537381172180176e-01,7.558599114418029785e-01,7.822518348693847656e-01,7.994566559791564941e-01,8.127108812332153320e-01,8.171921968460083008e-01,8.186241984367370605e-01,8.184432983398437500e-01,8.185280561447143555e-01,8.184365034103393555e-01,8.183698058128356934e-01,8.183110356330871582e-01,8.182522058486938477e-01,8.181934356689453125e-01,8.181346654891967773e-01,8.180759549140930176e-01,8.180170059204101562e-01,8.179584741592407227e-01,8.178997039794921875e-01,8.178409337997436523e-01,8.177821636199951172e-01,8.177232742309570312e-01,8.176646232604980469e-01,8.176059722900390625e-01,8.175472021102905273e-01,8.174885511398315430e-01,8.174299001693725586e-01,8.173713684082031250e-01,8.173127174377441406e-01,8.172540068626403809e-01,8.171954154968261719e-01,8.171366453170776367e-01,8.170781135559082031e-01,8.170194625854492188e-01,8.169608116149902344e-01,8.169021606445312500e-01,8.168435096740722656e-01,8.167852163314819336e-01,8.167251348495483398e-01,8.167178630828857422e-01,8.166900873184204102e-01,8.164960741996765137e-01,8.160896897315979004e-01,8.156330585479736328e-01,8.143217563629150391e-01,8.124535679817199707e-01,8.095061779022216797e-01,8.042850494384765625e-01,7.970267534255981445e-01,7.894213795661926270e-01,7.773852348327636719e-01,7.479142546653747559e-01,7.329953312873840332e-01,7.344211339950561523e-01,7.134235501289367676e-01,6.685334444046020508e-01,5.795630812644958496e-01
5.498362779617309570e-01,5.541185736656188965e-01,5.890444517135620117e-01,5.790376067161560059e-01,5.922479033470153809e-01,6.085582971572875977e-01,6.381722688674926758e-01,6.527510881423950195e-01,6.665499210357666016e-01,6.796944141387939453e-01,6.898807287216186523e-01,6.958769559860229492e-01,7.006386518478393555e-01,7.063343524932861328e-01,6.872224211692810059e-01,6.806603670120239258e-01,6.582561731338500977e-01,6.248894929885864258e-01,5.899479389190673828e-01,5.866354703903198242e-01,5.970961451530456543e-01,6.067214012145996094e-01,6.533434987068176270e-01,6.778781414031982422e-01,6.991553306579589844e-01,7.210769653320312500e-01,7.377917766571044922e-01,7.475850582122802734e-01,7.517011165618896484e-01,7.510836720466613770e-01,7.519925832748413086e-01,7.517693042755126953e-01,7.516654133796691895e-01,7.515745162963867188e-01,7.514922022819519043e-01,7.514102458953857422e-01,7.513278722763061523e-01,7.512457370758056641e-01,7.511636018753051758e-01,7.510814070701599121e-01,7.509990930557250977e-01,7.509169578552246094e-01,7.508348226547241211e-01,7.507525682449340820e-01,7.506705522537231445e-01,7.505884170532226562e-01,7.505063414573669434e-01,7.504241466522216797e-01,7.503421306610107422e-01,7.502598762512207031e-01,7.501780390739440918e-01,7.500958442687988281e-01,7.500140070915222168e-01,7.499318122863769531e-01,7.498498558998107910e-01,7.497677803039550781e-01,7.496858239173889160e-01,7.496035695075988770e-01,7.495218515396118164e-01,7.494398951530456543e-01,7.493572235107421875e-01,7.492715120315551758e-01,7.492469549179077148e-01,7.491689920425415039e-01,7.490152120590209961e-01,7.487337589263916016e-01,7.482194900512695312e-01,7.468313574790954590e-01,7.445671558380126953e-01,7.412025928497314453e-01,7.365084886550903320e-01,7.301528453826904297e-01,7.241586446762084961e-01,7.128908634185791016e-01,6.834513545036315918e-01,6.727190017700195312e-01,6.816180348396301270e-01,6.628499627113342285e-01,6.335970163345336914e-01,5.563735961914062500e-01
5.325872898101806641e-01,5.238311886787414551e-01,5.546793937683105469e-01,5.387873649597167969e-01,5.466834902763366699e-01,5.595372915267944336e-01,5.837659239768981934e-01,5.949200391769409180e-01,6.052920818328857422e-01,6.144553422927856445e-01,6.213648319244384766e-01,6.276398897171020508e-01,6.305749416351318359e-01,6.317259073257446289e-01,6.205860972404479980e-01,6.024672389030456543e-01,5.864599943161010742e-01,5.578615069389343262e-01,5.269888639450073242e-01,5.384252071380615234e-01,5.446889400482177734e-01,5.590618848800659180e-01,5.947567224502563477e-01,6.130371689796447754e-01,6.253435611724853516e-01,6.398193836212158203e-01,6.556312441825866699e-01,6.579312682151794434e-01,6.623284816741943359e-01,6.620205640792846680e-01,6.624259352684020996e-01,6.621271967887878418e-01,6.620255708694458008e-01,6.619347333908081055e-01,6.618474125862121582e-01,6.617598533630371094e-01,6.616725921630859375e-01,6.615851521492004395e-01,6.614977717399597168e-01,6.614104509353637695e-01,6.613232493400573730e-01,6.612359285354614258e-01,6.611486077308654785e-01,6.610612869262695312e-01,6.609741449356079102e-01,6.608867645263671875e-01,6.607996821403503418e-01,6.607124209403991699e-01,6.606252193450927734e-01,6.605381965637207031e-01,6.604510545730590820e-01,6.603640317916870117e-01,6.602768301963806152e-01,6.601898670196533203e-01,6.601026654243469238e-01,6.600157618522644043e-01,6.599286794662475586e-01,6.598417162895202637e-01,6.597546935081481934e-01,6.596677899360656738e-01,6.595799326896667480e-01,6.594877243041992188e-01,6.594222187995910645e-01,6.593619585037231445e-01,6.591506004333496094e-01,6.589410305023193359e-01,6.586205959320068359e-01,6.574627161026000977e-01,6.554654240608215332e-01,6.522840857505798340e-01,6.490648984909057617e-01,6.442365646362304688e-01,6.403695940971374512e-01,6.306783556938171387e-01,6.032044887542724609e-01,5.958327651023864746e-01,6.114403009414672852e-01,5.966888666152954102e-01,5.878823995590209961e-01,5.268107652664184570e-01
5.116012692451477051e-01,4.894230365753173828e-01,5.142412185668945312e-01,4.909929037094116211e-01,4.925766587257385254e-01,5.011579394340515137e-01,5.197621583938598633e-01,5.276945233345031738e-01,5.347186326980590820e-01,5.399022698402404785e-01,5.449603199958801270e-01,5.471952557563781738e-01,5.501899123191833496e-01,5.480569601058959961e-01,5.397240519523620605e-01,5.215010643005371094e-01,5.050533413887023926e-01,5.006725192070007324e-01,4.714019000530242920e-01,4.910464584827423096e-01,4.888276755809783936e-01,5.018907189369201660e-01,5.183075070381164551e-01,5.333004593849182129e-01,5.468096733093261719e-01,5.589094161987304688e-01,5.678551793098449707e-01,5.698416233062744141e-01,5.698485970497131348e-01,5.694708228111267090e-01,5.700822472572326660e-01,5.698346495628356934e-01,5.697259902954101562e-01,5.696314573287963867e-01,5.695444941520690918e-01,5.694578886032104492e-01,5.693712234497070312e-01,5.692846179008483887e-01,5.691979527473449707e-01,5.691112279891967773e-01,5.690246820449829102e-01,5.689378976821899414e-01,5.688514113426208496e-01,5.687647461891174316e-01,5.686782002449035645e-01,5.685917735099792480e-01,5.685053467750549316e-01,5.684188604354858398e-01,5.683322548866271973e-01,5.682460665702819824e-01,5.681595206260681152e-01,5.680731534957885742e-01,5.679869651794433594e-01,5.679004788398742676e-01,5.678143501281738281e-01,5.677281022071838379e-01,5.676417946815490723e-01,5.675554275512695312e-01,5.674692988395690918e-01,5.673831105232238770e-01,5.672963857650756836e-01,5.672038793563842773e-01,5.671186447143554688e-01,5.670782327651977539e-01,5.670465230941772461e-01,5.669702887535095215e-01,5.667311549186706543e-01,5.661890506744384766e-01,5.646783709526062012e-01,5.622475743293762207e-01,5.591859221458435059e-01,5.555711984634399414e-01,5.536289215087890625e-01,5.454519391059875488e-01,5.213920474052429199e-01,5.172829031944274902e-01,5.383075475692749023e-01,5.279831290245056152e-01,5.396178960800170898e-01,4.964752793312072754e-01
4.905966818332672119e-01,4.557302892208099365e-01,4.713641703128814697e-01,4.409467875957489014e-01,4.362820982933044434e-01,4.406385421752929688e-01,4.540620446205139160e-01,4.581311345100402832e-01,4.623416066169738770e-01,4.647291302680969238e-01,4.682719707489013672e-01,4.704225063323974609e-01,4.727572202682495117e-01,4.739138484001159668e-01,4.701577723026275635e-01,4.537720978260040283e-01,4.469226300716400146e-01,4.358626604080200195e-01,4.259975552558898926e-01,4.219871163368225098e-01,4.333166480064392090e-01,4.428601264953613281e-01,4.486538171768188477e-01,4.622247815132141113e-01,4.690734744071960449e-01,4.782064259052276611e-01,4.791204333305358887e-01,4.823336005210876465e-01,4.822813570499420166e-01,4.822151660919189453e-01,4.819652736186981201e-01,4.819102883338928223e-01,4.818348884582519531e-01,4.817592203617095947e-01,4.816864132881164551e-01,4.816135168075561523e-01,4.815408885478973389e-01,4.814682304859161377e-01,4.813955724239349365e-01,4.813228547573089600e-01,4.812500476837158203e-01,4.811776578426361084e-01,4.811048507690429688e-01,4.810323119163513184e-01,4.809596240520477295e-01,4.808871746063232422e-01,4.808147251605987549e-01,4.807421565055847168e-01,4.806696772575378418e-01,4.805972278118133545e-01,4.805248081684112549e-01,4.804524779319763184e-01,4.803800582885742188e-01,4.803076982498168945e-01,4.802352190017700195e-01,4.801630079746246338e-01,4.800906777381896973e-01,4.800185561180114746e-01,4.799462258815765381e-01,4.798738956451416016e-01,4.798015952110290527e-01,4.797255694866180420e-01,4.796429276466369629e-01,4.795779287815093994e-01,4.795646667480468750e-01,4.795720875263214111e-01,4.794946610927581787e-01,4.794051647186279297e-01,4.788343310356140137e-01,4.778076708316802979e-01,4.768854975700378418e-01,4.753234088420867920e-01,4.752935171127319336e-01,4.694452285766601562e-01,4.494478106498718262e-01,4.482082724571228027e-01,4.717547297477722168e-01,4.687514901161193848e-01,4.949558079242706299e-01,4.690779149532318115e-01
4.694182872772216797e-01,4.224295020103454590e-01,4.285621941089630127e-01,3.950850963592529297e-01,3.841210007667541504e-01,3.856860995292663574e-01,3.961009383201599121e-01,3.990370929241180420e-01,4.019972681999206543e-01,4.030240774154663086e-01,4.048295617103576660e-01,4.055750072002410889e-01,4.052361249923706055e-01,4.051163196563720703e-01,4.029502570629119873e-01,3.908211290836334229e-01,3.870075643062591553e-01,3.867115676403045654e-01,3.808076977729797363e-01,3.832916617393493652e-01,3.864004313945770264e-01,3.937935829162597656e-01,3.904919028282165527e-01,4.000548124313354492e-01,4.024071693420410156e-01,4.071265459060668945e-01,4.091634154319763184e-01,4.103878438472747803e-01,4.099641740322113037e-01,4.099208116531372070e-01,4.097538590431213379e-01,4.096502959728240967e-01,4.095944464206695557e-01,4.095375537872314453e-01,4.094799160957336426e-01,4.094223380088806152e-01,4.093647003173828125e-01,4.093070924282073975e-01,4.092495441436767578e-01,4.091920852661132812e-01,4.091345667839050293e-01,4.090770483016967773e-01,4.090196192264556885e-01,4.089619517326354980e-01,4.089046120643615723e-01,4.088473021984100342e-01,4.087896943092346191e-01,4.087322652339935303e-01,4.086750447750091553e-01,4.086176156997680664e-01,4.085603654384613037e-01,4.085030555725097656e-01,4.084458649158477783e-01,4.083885550498962402e-01,4.083311557769775391e-01,4.082739949226379395e-01,4.082167148590087891e-01,4.081594347953796387e-01,4.081022739410400391e-01,4.080452322959899902e-01,4.079888761043548584e-01,4.079313874244689941e-01,4.078767895698547363e-01,4.078267812728881836e-01,4.077961742877960205e-01,4.077770113945007324e-01,4.077973067760467529e-01,4.077035486698150635e-01,4.073226153850555420e-01,4.064882397651672363e-01,4.056474566459655762e-01,4.045614898204803467e-01,4.052133858203887939e-01,4.015174508094787598e-01,3.856509625911712646e-01,3.876617252826690674e-01,4.134819507598876953e-01,4.177018702030181885e-01,4.560074508190155029e-01,4.460501670837402344e-01
4.513980448246002197e-01,3.938297629356384277e-01,3.929936885833740234e-01,3.573041558265686035e-01,3.413705825805664062e-01,3.406617045402526855e-01,3.481078147888183594e-01,3.498415946960449219e-01,3.515118956565856934e-01,3.519741892814636230e-01,3.526689410209655762e-01,3.532196581363677979e-01,3.532813191413879395e-01,3.547930717468261719e-01,3.536193370819091797e-01,3.487023711204528809e-01,3.424493372440338135e-01,3.424408733844757080e-01,3.390840590000152588e-01,3.380246758460998535e-01,3.421771228313446045e-01,3.470272421836853027e-01,3.478758931159973145e-01,3.495860397815704346e-01,3.534435629844665527e-01,3.533441424369812012e-01,3.531858325004577637e-01,3.536344766616821289e-01,3.537270426750183105e-01,3.536889553070068359e-01,3.535265922546386719e-01,3.534696102142333984e-01,3.534243404865264893e-01,3.533840775489807129e-01,3.533430397510528564e-01,3.533019125461578369e-01,3.532608151435852051e-01,3.532198071479797363e-01,3.531785011291503906e-01,3.531376719474792480e-01,3.530967533588409424e-01,3.530557751655578613e-01,3.530146181583404541e-01,3.529735207557678223e-01,3.529326021671295166e-01,3.528916537761688232e-01,3.528506159782409668e-01,3.528098464012145996e-01,3.527688980102539062e-01,3.527280688285827637e-01,3.526871800422668457e-01,3.526462912559509277e-01,3.526053726673126221e-01,3.525646328926086426e-01,3.525237143039703369e-01,3.524829149246215820e-01,3.524420559406280518e-01,3.524013161659240723e-01,3.523605167865753174e-01,3.523197770118713379e-01,3.522793054580688477e-01,3.522388339042663574e-01,3.521958887577056885e-01,3.521669507026672363e-01,3.521285057067871094e-01,3.520732820034027100e-01,3.520776629447937012e-01,3.521220088005065918e-01,3.520713746547698975e-01,3.519940376281738281e-01,3.517343103885650635e-01,3.512785434722900391e-01,3.521146774291992188e-01,3.494853973388671875e-01,3.362983465194702148e-01,3.391672968864440918e-01,3.653191030025482178e-01,3.756824135780334473e-01,4.224420785903930664e-01,4.258183240890502930e-01
4.349690973758697510e-01,3.689467906951904297e-01,3.612775802612304688e-01,3.251684010028839111e-01,3.061332404613494873e-01,3.047595024108886719e-01,3.108652830123901367e-01,3.122546374797821045e-01,3.134057521820068359e-01,3.133499026298522949e-01,3.134614527225494385e-01,3.130900263786315918e-01,3.130046725273132324e-01,3.135343194007873535e-01,3.128440678119659424e-01,3.101029396057128906e-01,3.085280060768127441e-01,3.077393770217895508e-01,3.087905049324035645e-01,3.074036240577697754e-01,3.088597655296325684e-01,3.103468418121337891e-01,3.108481168746948242e-01,3.118829429149627686e-01,3.126831948757171631e-01,3.134566545486450195e-01,3.133413791656494141e-01,3.133204579353332520e-01,3.132961988449096680e-01,3.132119178771972656e-01,3.131437897682189941e-01,3.131173551082611084e-01,3.130828738212585449e-01,3.130525350570678711e-01,3.130227923393249512e-01,3.129929304122924805e-01,3.129630386829376221e-01,3.129332065582275391e-01,3.129034042358398438e-01,3.128736019134521484e-01,3.128438889980316162e-01,3.128140866756439209e-01,3.127843141555786133e-01,3.127544224262237549e-01,3.127245306968688965e-01,3.126950860023498535e-01,3.126652836799621582e-01,3.126353621482849121e-01,3.126059174537658691e-01,3.125761151313781738e-01,3.125463128089904785e-01,3.125167191028594971e-01,3.124870061874389648e-01,3.124573230743408203e-01,3.124276399612426758e-01,3.123980164527893066e-01,3.123683929443359375e-01,3.123386502265930176e-01,3.123090863227844238e-01,3.122794032096862793e-01,3.122498691082000732e-01,3.122203946113586426e-01,3.121913075447082520e-01,3.121595382690429688e-01,3.121290206909179688e-01,3.120992779731750488e-01,3.120586574077606201e-01,3.120075464248657227e-01,3.119825720787048340e-01,3.118658363819122314e-01,3.117299675941467285e-01,3.115117549896240234e-01,3.122544884681701660e-01,3.104270696640014648e-01,2.992355823516845703e-01,3.025938868522644043e-01,3.288256525993347168e-01,3.441940844058990479e-01,3.968298435211181641e-01,4.101040959358215332e-01
4.212133884429931641e-01,3.491309285163879395e-01,3.364099860191345215e-01,2.999954223632812500e-01,2.791722118854522705e-01,2.769962549209594727e-01,2.819486260414123535e-01,2.831178307533264160e-01,2.839965224266052246e-01,2.838907837867736816e-01,2.838318645954132080e-01,2.838619947433471680e-01,2.839836478233337402e-01,2.841255068778991699e-01,2.839066088199615479e-01,2.833645939826965332e-01,2.817217409610748291e-01,2.818853557109832764e-01,2.813501060009002686e-01,2.810787558555603027e-01,2.819346487522125244e-01,2.820456624031066895e-01,2.833012342453002930e-01,2.840462923049926758e-01,2.830716967582702637e-01,2.836959064006805420e-01,2.835599184036254883e-01,2.835299372673034668e-01,2.834671139717102051e-01,2.834167182445526123e-01,2.833861112594604492e-01,2.833667993545532227e-01,2.833434939384460449e-01,2.833218574523925781e-01,2.833002209663391113e-01,2.832786142826080322e-01,2.832570075988769531e-01,2.832354307174682617e-01,2.832137048244476318e-01,2.831921577453613281e-01,2.831704616546630859e-01,2.831489443778991699e-01,2.831273972988128662e-01,2.831056118011474609e-01,2.830842733383178711e-01,2.830625772476196289e-01,2.830410003662109375e-01,2.830196619033813477e-01,2.829978466033935547e-01,2.829763293266296387e-01,2.829547226428985596e-01,2.829331457614898682e-01,2.829118072986602783e-01,2.828901708126068115e-01,2.828686833381652832e-01,2.828471660614013672e-01,2.828254699707031250e-01,2.828040122985839844e-01,2.827826738357543945e-01,2.827611565589904785e-01,2.827396392822265625e-01,2.827181816101074219e-01,2.826966643333435059e-01,2.826759815216064453e-01,2.826541662216186523e-01,2.826293110847473145e-01,2.826062142848968506e-01,2.825967669486999512e-01,2.825875878334045410e-01,2.825866639614105225e-01,2.825677990913391113e-01,2.824590206146240234e-01,2.830993533134460449e-01,2.817888259887695312e-01,2.718650102615356445e-01,2.751403748989105225e-01,3.007436692714691162e-01,3.195659518241882324e-01,3.763008415699005127e-01,3.975805640220642090e-01
4.091763198375701904e-01,3.324921131134033203e-01,3.159799575805664062e-01,2.799507975578308105e-01,2.584245204925537109e-01,2.558333873748779297e-01,2.600277066230773926e-01,2.610220015048980713e-01,2.617946267127990723e-01,2.616924047470092773e-01,2.616560459136962891e-01,2.616352438926696777e-01,2.616619765758514404e-01,2.614533603191375732e-01,2.614758312702178955e-01,2.612409591674804688e-01,2.612061798572540283e-01,2.604424357414245605e-01,2.609298825263977051e-01,2.607840299606323242e-01,2.609639167785644531e-01,2.613272666931152344e-01,2.614112496376037598e-01,2.615241110324859619e-01,2.612217068672180176e-01,2.614285349845886230e-01,2.614879310131072998e-01,2.613946795463562012e-01,2.613858282566070557e-01,2.613484859466552734e-01,2.613286375999450684e-01,2.613143324851989746e-01,2.612975835800170898e-01,2.612813115119934082e-01,2.612647712230682373e-01,2.612481713294982910e-01,2.612317800521850586e-01,2.612154185771942139e-01,2.611989080905914307e-01,2.611824572086334229e-01,2.611660659313201904e-01,2.611495256423950195e-01,2.611330151557922363e-01,2.611167728900909424e-01,2.611004114151000977e-01,2.610838711261749268e-01,2.610676884651184082e-01,2.610511779785156250e-01,2.610346972942352295e-01,2.610182166099548340e-01,2.610018849372863770e-01,2.609854936599731445e-01,2.609692215919494629e-01,2.609527111053466797e-01,2.609363794326782227e-01,2.609198689460754395e-01,2.609034776687622070e-01,2.608870863914489746e-01,2.608706653118133545e-01,2.608543932437896729e-01,2.608378529548645020e-01,2.608215808868408203e-01,2.608053982257843018e-01,2.607887387275695801e-01,2.607722282409667969e-01,2.607554495334625244e-01,2.607381045818328857e-01,2.607228159904479980e-01,2.607077062129974365e-01,2.606923580169677734e-01,2.606769204139709473e-01,2.605984210968017578e-01,2.611168622970581055e-01,2.600709497928619385e-01,2.511730492115020752e-01,2.544516324996948242e-01,2.794626951217651367e-01,3.009977936744689941e-01,3.605861365795135498e-01,3.876345157623291016e-01
3.991103768348693848e-01,3.188923001289367676e-01,2.997280061244964600e-01,2.643887400627136230e-01,2.423056066036224365e-01,2.394181489944458008e-01,2.430784106254577637e-01,2.439696788787841797e-01,2.446617484092712402e-01,2.445993125438690186e-01,2.445515394210815430e-01,2.445881664752960205e-01,2.445600032806396484e-01,2.444243133068084717e-01,2.445599138736724854e-01,2.446334362030029297e-01,2.442618906497955322e-01,2.441222667694091797e-01,2.441602349281311035e-01,2.441449165344238281e-01,2.444147467613220215e-01,2.445785999298095703e-01,2.443328797817230225e-01,2.444000244140625000e-01,2.444277107715606689e-01,2.443961501121520996e-01,2.443723380565643311e-01,2.443210184574127197e-01,2.443249225616455078e-01,2.443114519119262695e-01,2.442963123321533203e-01,2.442839443683624268e-01,2.442710101604461670e-01,2.442581653594970703e-01,2.442452013492584229e-01,2.442323267459869385e-01,2.442193925380706787e-01,2.442063689231872559e-01,2.441936731338500977e-01,2.441807091236114502e-01,2.441679835319519043e-01,2.441550493240356445e-01,2.441421151161193848e-01,2.441293299198150635e-01,2.441164255142211914e-01,2.441034913063049316e-01,2.440905869007110596e-01,2.440779209136962891e-01,2.440648674964904785e-01,2.440520226955413818e-01,2.440394461154937744e-01,2.440263032913208008e-01,2.440136969089508057e-01,2.440007925033569336e-01,2.439878582954406738e-01,2.439751029014587402e-01,2.439621686935424805e-01,2.439492642879486084e-01,2.439364790916442871e-01,2.439236938953399658e-01,2.439108490943908691e-01,2.438981831073760986e-01,2.438851892948150635e-01,2.438724637031555176e-01,2.438595890998840332e-01,2.438463568687438965e-01,2.438331246376037598e-01,2.438198924064636230e-01,2.438070178031921387e-01,2.437936663627624512e-01,2.437807023525238037e-01,2.437166571617126465e-01,2.441411614418029785e-01,2.433059215545654297e-01,2.352266311645507812e-01,2.385385632514953613e-01,2.629356980323791504e-01,2.863696813583374023e-01,3.479822278022766113e-01,3.796835243701934814e-01
3.908091783523559570e-01,3.077787756919860840e-01,2.866280972957611084e-01,2.519684433937072754e-01,2.295327484607696533e-01,2.264055013656616211e-01,2.296713888645172119e-01,2.304615080356597900e-01,2.310839295387268066e-01,2.310255169868469238e-01,2.310058474540710449e-01,2.309902608394622803e-01,2.309408783912658691e-01,2.309343814849853516e-01,2.309973239898681641e-01,2.309310436248779297e-01,2.309177517890930176e-01,2.308377027511596680e-01,2.307914495468139648e-01,2.309044301509857178e-01,2.308974862098693848e-01,2.308870255947113037e-01,2.308427095413208008e-01,2.308599948883056641e-01,2.308790385723114014e-01,2.308512032032012939e-01,2.308417856693267822e-01,2.308283746242523193e-01,2.308108508586883545e-01,2.308026552200317383e-01,2.307941615581512451e-01,2.307834625244140625e-01,2.307731211185455322e-01,2.307627201080322266e-01,2.307524383068084717e-01,2.307420372962951660e-01,2.307316660881042480e-01,2.307213246822357178e-01,2.307110726833343506e-01,2.307006418704986572e-01,2.306902706623077393e-01,2.306800186634063721e-01,2.306696772575378418e-01,2.306593060493469238e-01,2.306489050388336182e-01,2.306387722492218018e-01,2.306283414363861084e-01,2.306178808212280273e-01,2.306074798107147217e-01,2.305973768234252930e-01,2.305868864059448242e-01,2.305767834186553955e-01,2.305663526058197021e-01,2.305560708045959473e-01,2.305455505847930908e-01,2.305353283882141113e-01,2.305249869823455811e-01,2.305147051811218262e-01,2.305044531822204590e-01,2.304941713809967041e-01,2.304838001728057861e-01,2.304734885692596436e-01,2.304631769657135010e-01,2.304531335830688477e-01,2.304426431655883789e-01,2.304323613643646240e-01,2.304220497608184814e-01,2.304118275642395020e-01,2.304013073444366455e-01,2.303912639617919922e-01,2.303805649280548096e-01,2.303271889686584473e-01,2.306827306747436523e-01,2.300067842006683350e-01,2.225914597511291504e-01,2.259149551391601562e-01,2.498102486133575439e-01,2.745934128761291504e-01,3.377287983894348145e-01,3.731995224952697754e-01
3.838103711605072021e-01,2.985777854919433594e-01,2.758294641971588135e-01,2.418451905250549316e-01,2.191901803016662598e-01,2.158576250076293945e-01,2.188131511211395264e-01,2.195144593715667725e-01,2.200810909271240234e-01,2.200340032577514648e-01,2.200098931789398193e-01,2.200004160404205322e-01,2.199918031692504883e-01,2.199911773204803467e-01,2.199812531471252441e-01,2.199980020523071289e-01,2.199496328830718994e-01,2.199394404888153076e-01,2.199209034442901611e-01,2.199377119541168213e-01,2.199215888977050781e-01,2.199146151542663574e-01,2.199111580848693848e-01,2.199110388755798340e-01,2.198971211910247803e-01,2.198821008205413818e-01,2.198747098445892334e-01,2.198656201362609863e-01,2.198567092418670654e-01,2.198480665683746338e-01,2.198402583599090576e-01,2.198318541049957275e-01,2.198232412338256836e-01,2.198144793510437012e-01,2.198062241077423096e-01,2.197975516319274902e-01,2.197894454002380371e-01,2.197808325290679932e-01,2.197723090648651123e-01,2.197636365890502930e-01,2.197552323341369629e-01,2.197466492652893066e-01,2.197382748126983643e-01,2.197299599647521973e-01,2.197214663028717041e-01,2.197128534317016602e-01,2.197044789791107178e-01,2.196958959102630615e-01,2.196874022483825684e-01,2.196790575981140137e-01,2.196705341339111328e-01,2.196621596813201904e-01,2.196537852287292480e-01,2.196451723575592041e-01,2.196368277072906494e-01,2.196283340454101562e-01,2.196199297904968262e-01,2.196113169193267822e-01,2.196029722690582275e-01,2.195942699909210205e-01,2.195860445499420166e-01,2.195775210857391357e-01,2.195690870285034180e-01,2.195607125759124756e-01,2.195520997047424316e-01,2.195437848567962646e-01,2.195354104042053223e-01,2.195270359516143799e-01,2.195184826850891113e-01,2.195100188255310059e-01,2.195008099079132080e-01,2.194558978080749512e-01,2.197610735893249512e-01,2.192120850086212158e-01,2.123430669307708740e-01,2.156720459461212158e-01,2.391560375690460205e-01,2.649261355400085449e-01,3.292283713817596436e-01,3.678073883056640625e-01
3.778372406959533691e-01,2.908438444137573242e-01,2.668070197105407715e-01,2.334584295749664307e-01,2.106582224369049072e-01,2.071484029293060303e-01,2.098524868488311768e-01,2.104761302471160889e-01,2.109937369823455811e-01,2.109515070915222168e-01,2.109317183494567871e-01,2.109241485595703125e-01,2.109165191650390625e-01,2.109103202819824219e-01,2.109040021896362305e-01,2.108982801437377930e-01,2.108887135982513428e-01,2.108793258666992188e-01,2.108772695064544678e-01,2.108696997165679932e-01,2.108600139617919922e-01,2.108515501022338867e-01,2.108479142189025879e-01,2.108410298824310303e-01,2.108323276042938232e-01,2.108246684074401855e-01,2.108176648616790771e-01,2.108105421066284180e-01,2.108041644096374512e-01,2.107968628406524658e-01,2.107899188995361328e-01,2.107829153537750244e-01,2.107759416103363037e-01,2.107687294483184814e-01,2.107616961002349854e-01,2.107545137405395508e-01,2.107473015785217285e-01,2.107405960559844971e-01,2.107331752777099609e-01,2.107264399528503418e-01,2.107190489768981934e-01,2.107123136520385742e-01,2.107051014900207520e-01,2.106981873512268066e-01,2.106911540031433105e-01,2.106839716434478760e-01,2.106769979000091553e-01,2.106698751449584961e-01,2.106627225875854492e-01,2.106554806232452393e-01,2.106485366821289062e-01,2.106416523456573486e-01,2.106346189975738525e-01,2.106275558471679688e-01,2.106204032897949219e-01,2.106133699417114258e-01,2.106062173843383789e-01,2.105992734432220459e-01,2.105923295021057129e-01,2.105853855609893799e-01,2.105781435966491699e-01,2.105711102485656738e-01,2.105641961097717285e-01,2.105570137500762939e-01,2.105499804019927979e-01,2.105430662631988525e-01,2.105359137058258057e-01,2.105288505554199219e-01,2.105218470096588135e-01,2.105149030685424805e-01,2.105071842670440674e-01,2.104682326316833496e-01,2.107346057891845703e-01,2.102878093719482422e-01,2.038720250129699707e-01,2.072020471096038818e-01,2.303373217582702637e-01,2.568500638008117676e-01,3.220610916614532471e-01,3.632448911666870117e-01
