6.295545697212219238e-01,6.181851029396057129e-01,6.701700687408447266e-01,6.733735203742980957e-01,6.755772233009338379e-01,6.646885871887207031e-01,6.815607547760009766e-01,6.898905038833618164e-01,6.986244320869445801e-01,7.032279372215270996e-01,7.065640091896057129e-01,7.110313773155212402e-01,7.173201441764831543e-01,7.151808738708496094e-01,7.060000300407409668e-01,7.067866325378417969e-01,6.921580433845520020e-01,6.728311181068420410e-01,6.679956912994384766e-01,6.504005789756774902e-01,6.509993076324462891e-01,6.554436683654785156e-01,6.828455924987792969e-01,6.997324824333190918e-01,7.112883329391479492e-01,7.253457903861999512e-01,7.372623682022094727e-01,7.461414933204650879e-01,7.575265765190124512e-01,7.647365331649780273e-01,7.694712877273559570e-01,7.708480358123779297e-01,7.713727951049804688e-01,7.720654606819152832e-01,7.720381021499633789e-01,7.720675468444824219e-01,7.720397710800170898e-01,7.720367908477783203e-01,7.720367908477783203e-01,7.720367908477783203e-01,7.720367908477783203e-01,7.720367908477783203e-01,7.720367908477783203e-01,7.720367908477783203e-01,7.720367908477783203e-01,7.720367908477783203e-01,7.720367908477783203e-01,7.720367908477783203e-01,7.720367908477783203e-01,7.720367908477783203e-01,7.720367908477783203e-01,7.720367908477783203e-01,7.720367908477783203e-01,7.720367908477783203e-01,7.720367908477783203e-01,7.720367908477783203e-01,7.720367908477783203e-01,7.720367908477783203e-01,7.720367908477783203e-01,7.720367908477783203e-01,7.720369100570678711e-01,7.720374464988708496e-01,7.720442414283752441e-01,7.720347642898559570e-01,7.719579935073852539e-01,7.715755701065063477e-01,7.708085775375366211e-01,7.697408199310302734e-01,7.674667835235595703e-01,7.658562064170837402e-01,7.627224922180175781e-01,7.593792676925659180e-01,7.524781227111816406e-01,7.413997650146484375e-01,7.331252098083496094e-01,7.123569846153259277e-01,7.106108069419860840e-01,7.511785030364990234e-01,6.802781820297241211e-01,5.325641036033630371e-01
5.834022164344787598e-01,5.976878404617309570e-01,6.267710924148559570e-01,6.188017725944519043e-01,6.430608630180358887e-01,6.538314223289489746e-01,6.843152046203613281e-01,7.010970711708068848e-01,7.136620283126831055e-01,7.220624685287475586e-01,7.248840332031250000e-01,7.319991588592529297e-01,7.368510961532592773e-01,7.348450422286987305e-01,7.179350852966308594e-01,7.135246396064758301e-01,7.012130022048950195e-01,6.725534796714782715e-01,6.581135988235473633e-01,6.287260651588439941e-01,6.426863670349121094e-01,6.588859558105468750e-01,6.836035251617431641e-01,7.097736597061157227e-01,7.332272529602050781e-01,7.477632761001586914e-01,7.722288370132446289e-01,7.932618856430053711e-01,8.080463409423828125e-01,8.182289004325866699e-01,8.245335817337036133e-01,8.269422054290771484e-01,8.276736736297607422e-01,8.297743797302246094e-01,8.295518755912780762e-01,8.297545909881591797e-01,8.297225832939147949e-01,8.297177553176879883e-01,8.297177553176879883e-01,8.297177553176879883e-01,8.297177553176879883e-01,8.297177553176879883e-01,8.297177553176879883e-01,8.297177553176879883e-01,8.297177553176879883e-01,8.297177553176879883e-01,8.297177553176879883e-01,8.297177553176879883e-01,8.297177553176879883e-01,8.297177553176879883e-01,8.297177553176879883e-01,8.297177553176879883e-01,8.297177553176879883e-01,8.297177553176879883e-01,8.297177553176879883e-01,8.297177553176879883e-01,8.297177553176879883e-01,8.297177553176879883e-01,8.297177553176879883e-01,8.297177553176879883e-01,8.297183513641357422e-01,8.297199010848999023e-01,8.297309875488281250e-01,8.296777606010437012e-01,8.294305205345153809e-01,8.290033340454101562e-01,8.281320333480834961e-01,8.263174295425415039e-01,8.234798908233642578e-01,8.194966316223144531e-01,8.142961263656616211e-01,8.066047430038452148e-01,7.968285083770751953e-01,7.858014106750488281e-01,7.639689445495605469e-01,7.405091524124145508e-01,7.343813776969909668e-01,7.291409373283386230e-01,6.448099613189697266e-01,5.760596990585327148e-01
5.795490741729736328e-01,5.981954932212829590e-01,6.479998826980590820e-01,6.185234785079956055e-01,6.515607833862304688e-01,6.742680072784423828e-01,7.071142792701721191e-01,7.268091440200805664e-01,7.419544458389282227e-01,7.512481808662414551e-01,7.577264904975891113e-01,7.671506404876708984e-01,7.709246873855590820e-01,7.628468871116638184e-01,7.453858852386474609e-01,7.128468751907348633e-01,6.903862953186035156e-01,6.715219020843505859e-01,6.348340511322021484e-01,6.165297031402587891e-01,6.272767186164855957e-01,6.481987237930297852e-01,6.855630278587341309e-01,7.133128643035888672e-01,7.451531887054443359e-01,7.739056348800659180e-01,8.079558610916137695e-01,8.380014896392822266e-01,8.508840799331665039e-01,8.593210577964782715e-01,8.642930984497070312e-01,8.683878183364868164e-01,8.708393573760986328e-01,8.733649849891662598e-01,8.733834028244018555e-01,8.736386299133300781e-01,8.736099004745483398e-01,8.736065626144409180e-01,8.736065626144409180e-01,8.736065626144409180e-01,8.736065626144409180e-01,8.736065626144409180e-01,8.736065626144409180e-01,8.736065626144409180e-01,8.736065626144409180e-01,8.736065626144409180e-01,8.736065626144409180e-01,8.736065626144409180e-01,8.736065626144409180e-01,8.736065626144409180e-01,8.736065626144409180e-01,8.736065626144409180e-01,8.736065626144409180e-01,8.736065626144409180e-01,8.736065626144409180e-01,8.736065626144409180e-01,8.736065626144409180e-01,8.736065626144409180e-01,8.736065626144409180e-01,8.736065626144409180e-01,8.736073970794677734e-01,8.736078739166259766e-01,8.735968470573425293e-01,8.734918832778930664e-01,8.732706308364868164e-01,8.728840351104736328e-01,8.715968132019042969e-01,8.696142435073852539e-01,8.668370246887207031e-01,8.627977371215820312e-01,8.571890592575073242e-01,8.482742309570312500e-01,8.390417695045471191e-01,8.248987793922424316e-01,7.998257875442504883e-01,7.775617837905883789e-01,7.645387649536132812e-01,7.502862215042114258e-01,6.782312989234924316e-01,5.986388921737670898e-01
5.915908813476562500e-01,6.111651062965393066e-01,6.348217725753784180e-01,6.224985122680664062e-01,6.499611139297485352e-01,6.736164689064025879e-01,7.125391960144042969e-01,7.326406836509704590e-01,7.475112676620483398e-01,7.573406696319580078e-01,7.597745656967163086e-01,7.649828791618347168e-01,7.637516856193542480e-01,7.564440965652465820e-01,7.291094064712524414e-01,6.978298425674438477e-01,6.595576405525207520e-01,6.374031901359558105e-01,5.979025363922119141e-01,5.828523039817810059e-01,5.846777558326721191e-01,6.086621284484863281e-01,6.496094465255737305e-01,6.866633296012878418e-01,7.220985889434814453e-01,7.648039460182189941e-01,8.017827272415161133e-01,8.367432355880737305e-01,8.565482497215270996e-01,8.625464439392089844e-01,8.683615922927856445e-01,8.755866289138793945e-01,8.787373304367065430e-01,8.813989758491516113e-01,8.814326524734497070e-01,8.817594647407531738e-01,8.817459344863891602e-01,8.817465305328369141e-01,8.817465305328369141e-01,8.817465305328369141e-01,8.817465305328369141e-01,8.817465305328369141e-01,8.817465305328369141e-01,8.817465305328369141e-01,8.817465305328369141e-01,8.817465305328369141e-01,8.817465305328369141e-01,8.817465305328369141e-01,8.817465305328369141e-01,8.817465305328369141e-01,8.817465305328369141e-01,8.817465305328369141e-01,8.817465305328369141e-01,8.817465305328369141e-01,8.817465305328369141e-01,8.817465305328369141e-01,8.817465305328369141e-01,8.817465305328369141e-01,8.817465305328369141e-01,8.817465305328369141e-01,8.817470073699951172e-01,8.817480802536010742e-01,8.817404508590698242e-01,8.816744089126586914e-01,8.815388679504394531e-01,8.809620141983032227e-01,8.796999454498291016e-01,8.776179552078247070e-01,8.748983144760131836e-01,8.710983991622924805e-01,8.653822541236877441e-01,8.571851253509521484e-01,8.473757505416870117e-01,8.313047885894775391e-01,8.018593788146972656e-01,7.748331427574157715e-01,7.663244605064392090e-01,7.447333931922912598e-01,6.771150827407836914e-01,5.832118988037109375e-01
5.759837031364440918e-01,5.908473730087280273e-01,6.342778205871582031e-01,6.279339790344238281e-01,6.463756561279296875e-01,6.690914630889892578e-01,7.075480818748474121e-01,7.292951345443725586e-01,7.457062602043151855e-01,7.541633844375610352e-01,7.587685585021972656e-01,7.610363960266113281e-01,7.520719170570373535e-01,7.332737445831298828e-01,6.936488747596740723e-01,6.502109766006469727e-01,6.147093772888183594e-01,5.694968700408935547e-01,5.484738945960998535e-01,5.248957872390747070e-01,5.235775113105773926e-01,5.391905307769775391e-01,5.925538539886474609e-01,6.471279263496398926e-01,6.824558973312377930e-01,7.278259992599487305e-01,7.801655530929565430e-01,8.143652677536010742e-01,8.423594832420349121e-01,8.567279577255249023e-01,8.667783141136169434e-01,8.752628564834594727e-01,8.808842897415161133e-01,8.845013380050659180e-01,8.851974010467529297e-01,8.854087591171264648e-01,8.854070901870727539e-01,8.854033946990966797e-01,8.854033946990966797e-01,8.854033946990966797e-01,8.854033946990966797e-01,8.854033946990966797e-01,8.854033946990966797e-01,8.854033946990966797e-01,8.854033946990966797e-01,8.854033946990966797e-01,8.854033946990966797e-01,8.854033946990966797e-01,8.854033946990966797e-01,8.854033946990966797e-01,8.854033946990966797e-01,8.854033946990966797e-01,8.854033946990966797e-01,8.854033946990966797e-01,8.854033946990966797e-01,8.854033946990966797e-01,8.854033946990966797e-01,8.854033946990966797e-01,8.854033946990966797e-01,8.854033946990966797e-01,8.854037523269653320e-01,8.854061365127563477e-01,8.854007720947265625e-01,8.853733539581298828e-01,8.852573633193969727e-01,8.845686912536621094e-01,8.830138444900512695e-01,8.810086846351623535e-01,8.780162334442138672e-01,8.743047118186950684e-01,8.680231571197509766e-01,8.589209318161010742e-01,8.470531702041625977e-01,8.327422142028808594e-01,7.983244657516479492e-01,7.725998163223266602e-01,7.662492394447326660e-01,7.430715560913085938e-01,6.942288875579833984e-01,5.934395790100097656e-01
5.856010913848876953e-01,6.094905138015747070e-01,6.510220170021057129e-01,6.518325209617614746e-01,6.743336915969848633e-01,6.975103616714477539e-01,7.325653433799743652e-01,7.537522315979003906e-01,7.667982578277587891e-01,7.736412286758422852e-01,7.743420004844665527e-01,7.760862112045288086e-01,7.668684720993041992e-01,7.457678914070129395e-01,6.953994035720825195e-01,6.420543193817138672e-01,6.096594929695129395e-01,5.600808262825012207e-01,5.301530361175537109e-01,5.176575183868408203e-01,5.209436416625976562e-01,5.332148075103759766e-01,5.812078118324279785e-01,6.264616847038269043e-01,6.612603068351745605e-01,7.119506001472473145e-01,7.640817761421203613e-01,8.109823465347290039e-01,8.416737914085388184e-01,8.633308410644531250e-01,8.777962327003479004e-01,8.866503238677978516e-01,8.917551040649414062e-01,8.962876796722412109e-01,8.971803188323974609e-01,8.974868059158325195e-01,8.974937200546264648e-01,8.974799513816833496e-01,8.974796533584594727e-01,8.974796533584594727e-01,8.974796533584594727e-01,8.974796533584594727e-01,8.974796533584594727e-01,8.974796533584594727e-01,8.974796533584594727e-01,8.974796533584594727e-01,8.974796533584594727e-01,8.974796533584594727e-01,8.974796533584594727e-01,8.974796533584594727e-01,8.974796533584594727e-01,8.974796533584594727e-01,8.974796533584594727e-01,8.974796533584594727e-01,8.974796533584594727e-01,8.974796533584594727e-01,8.974796533584594727e-01,8.974796533584594727e-01,8.974796533584594727e-01,8.974796533584594727e-01,8.974802494049072266e-01,8.974832296371459961e-01,8.974843025207519531e-01,8.975172638893127441e-01,8.973149061203002930e-01,8.965864181518554688e-01,8.951684832572937012e-01,8.932808637619018555e-01,8.911219835281372070e-01,8.871868848800659180e-01,8.810502886772155762e-01,8.720318078994750977e-01,8.623301982879638672e-01,8.480507135391235352e-01,8.182787299156188965e-01,7.959873676300048828e-01,7.858529090881347656e-01,7.581084966659545898e-01,7.064228653907775879e-01,6.076674461364746094e-01
5.862092971801757812e-01,6.089253425598144531e-01,6.536276340484619141e-01,6.547073125839233398e-01,6.780284047126770020e-01,7.020538449287414551e-01,7.388929128646850586e-01,7.600039243698120117e-01,7.734681367874145508e-01,7.786176204681396484e-01,7.819419503211975098e-01,7.784086465835571289e-01,7.706840038299560547e-01,7.509659528732299805e-01,6.886696815490722656e-01,6.297215223312377930e-01,5.798465609550476074e-01,5.536248683929443359e-01,5.336040258407592773e-01,5.085857510566711426e-01,5.034028291702270508e-01,5.225169062614440918e-01,5.565158724784851074e-01,6.027515530586242676e-01,6.366469264030456543e-01,6.836685538291931152e-01,7.515105009078979492e-01,8.036956191062927246e-01,8.416243791580200195e-01,8.640428185462951660e-01,8.825273513793945312e-01,8.890035748481750488e-01,8.960474729537963867e-01,9.018282890319824219e-01,9.028657674789428711e-01,9.031722545623779297e-01,9.031597375869750977e-01,9.031497240066528320e-01,9.031499028205871582e-01,9.031499028205871582e-01,9.031499028205871582e-01,9.031499028205871582e-01,9.031499028205871582e-01,9.031499028205871582e-01,9.031499028205871582e-01,9.031499028205871582e-01,9.031499028205871582e-01,9.031499028205871582e-01,9.031499028205871582e-01,9.031499028205871582e-01,9.031499028205871582e-01,9.031499028205871582e-01,9.031499028205871582e-01,9.031499028205871582e-01,9.031499028205871582e-01,9.031499028205871582e-01,9.031499028205871582e-01,9.031499028205871582e-01,9.031499028205871582e-01,9.031499028205871582e-01,9.031504988670349121e-01,9.031525850296020508e-01,9.031727313995361328e-01,9.031926393508911133e-01,9.029688835144042969e-01,9.022175669670104980e-01,9.009395837783813477e-01,8.995096683502197266e-01,8.970090150833129883e-01,8.931941986083984375e-01,8.870422840118408203e-01,8.788657188415527344e-01,8.685727715492248535e-01,8.554667234420776367e-01,8.276749253273010254e-01,8.058695793151855469e-01,7.978038787841796875e-01,7.732279300689697266e-01,7.197768688201904297e-01,6.134914755821228027e-01
5.891788005828857422e-01,6.140736937522888184e-01,6.573621034622192383e-01,6.578851938247680664e-01,6.817372441291809082e-01,7.060160636901855469e-01,7.433656454086303711e-01,7.646455764770507812e-01,7.769247293472290039e-01,7.837716341018676758e-01,7.866528630256652832e-01,7.761768698692321777e-01,7.709409594535827637e-01,7.512613534927368164e-01,6.925229430198669434e-01,6.349807977676391602e-01,5.871043205261230469e-01,5.397381782531738281e-01,5.123220086097717285e-01,4.944029748439788818e-01,4.910373985767364502e-01,5.058454871177673340e-01,5.343150496482849121e-01,5.884655117988586426e-01,6.291375160217285156e-01,6.740416288375854492e-01,7.406682372093200684e-01,7.993026375770568848e-01,8.419405221939086914e-01,8.642991781234741211e-01,8.827965259552001953e-01,8.910197019577026367e-01,8.990110158920288086e-01,9.040176868438720703e-01,9.053224921226501465e-01,9.056165218353271484e-01,9.056043624877929688e-01,9.055945277214050293e-01,9.055932760238647461e-01,9.055932760238647461e-01,9.055932760238647461e-01,9.055932760238647461e-01,9.055932760238647461e-01,9.055932760238647461e-01,9.055932760238647461e-01,9.055932760238647461e-01,9.055932760238647461e-01,9.055932760238647461e-01,9.055932760238647461e-01,9.055932760238647461e-01,9.055932760238647461e-01,9.055932760238647461e-01,9.055932760238647461e-01,9.055932760238647461e-01,9.055932760238647461e-01,9.055932760238647461e-01,9.055932760238647461e-01,9.055932760238647461e-01,9.055932760238647461e-01,9.055932760238647461e-01,9.055936336517333984e-01,9.055963754653930664e-01,9.056217670440673828e-01,9.056229591369628906e-01,9.053977131843566895e-01,9.047110080718994141e-01,9.036214351654052734e-01,9.019796848297119141e-01,8.994621634483337402e-01,8.957194089889526367e-01,8.896179199218750000e-01,8.807703852653503418e-01,8.713624477386474609e-01,8.590619564056396484e-01,8.305643200874328613e-01,8.090415000915527344e-01,8.007929325103759766e-01,7.751340866088867188e-01,7.216414213180541992e-01,6.156538128852844238e-01
5.886971354484558105e-01,6.143175959587097168e-01,6.567448973655700684e-01,6.576027870178222656e-01,6.812385320663452148e-01,7.055748105049133301e-01,7.430654764175415039e-01,7.644861936569213867e-01,7.769302129745483398e-01,7.878165245056152344e-01,7.925477027893066406e-01,7.802445292472839355e-01,7.779724597930908203e-01,7.480593919754028320e-01,7.011091113090515137e-01,6.267349123954772949e-01,5.782157182693481445e-01,5.409851074218750000e-01,5.142204761505126953e-01,4.939816296100616455e-01,4.921226203441619873e-01,4.987371265888214111e-01,5.207587480545043945e-01,5.732554793357849121e-01,6.179070472717285156e-01,6.715618371963500977e-01,7.112354040145874023e-01,7.915337681770324707e-01,8.412690162658691406e-01,8.611708879470825195e-01,8.822000026702880859e-01,8.902982473373413086e-01,8.983126878738403320e-01,9.036053419113159180e-01,9.048970937728881836e-01,9.053039550781250000e-01,9.053249359130859375e-01,9.053117632865905762e-01,9.053092002868652344e-01,9.053092002868652344e-01,9.053092002868652344e-01,9.053092002868652344e-01,9.053092002868652344e-01,9.053092002868652344e-01,9.053092002868652344e-01,9.053092002868652344e-01,9.053092002868652344e-01,9.053092002868652344e-01,9.053092002868652344e-01,9.053092002868652344e-01,9.053092002868652344e-01,9.053092002868652344e-01,9.053092002868652344e-01,9.053092002868652344e-01,9.053092002868652344e-01,9.053092002868652344e-01,9.053092002868652344e-01,9.053092002868652344e-01,9.053092002868652344e-01,9.053092002868652344e-01,9.053095579147338867e-01,9.053115844726562500e-01,9.053359031677246094e-01,9.053480625152587891e-01,9.051196575164794922e-01,9.044817090034484863e-01,9.033946990966796875e-01,9.016047716140747070e-01,8.991291522979736328e-01,8.952397704124450684e-01,8.887602090835571289e-01,8.801462650299072266e-01,8.711630702018737793e-01,8.581234216690063477e-01,8.292409777641296387e-01,8.083762526512145996e-01,8.007963299751281738e-01,7.746165990829467773e-01,7.219867706298828125e-01,6.160566806793212891e-01
5.887225270271301270e-01,6.143060922622680664e-01,6.569180488586425781e-01,6.577569246292114258e-01,6.812846064567565918e-01,7.055036425590515137e-01,7.428327798843383789e-01,7.636188268661499023e-01,7.788141965866088867e-01,7.881927490234375000e-01,7.922173142433166504e-01,7.802691459655761719e-01,7.806807160377502441e-01,7.611296176910400391e-01,7.070894837379455566e-01,6.317495703697204590e-01,5.793054103851318359e-01,5.412802100181579590e-01,5.108739137649536133e-01,4.970530569553375244e-01,4.906997382640838623e-01,4.913650155067443848e-01,5.198343396186828613e-01,5.649596452713012695e-01,6.281939744949340820e-01,6.707388162612915039e-01,7.165573239326477051e-01,7.851955890655517578e-01,8.381323814392089844e-01,8.595180511474609375e-01,8.835423588752746582e-01,8.928215503692626953e-01,8.981927633285522461e-01,9.037048816680908203e-01,9.048864841461181641e-01,9.053406119346618652e-01,9.053564071655273438e-01,9.053368568420410156e-01,9.053338766098022461e-01,9.053338766098022461e-01,9.053338766098022461e-01,9.053338766098022461e-01,9.053338766098022461e-01,9.053338766098022461e-01,9.053338766098022461e-01,9.053338766098022461e-01,9.053338766098022461e-01,9.053338766098022461e-01,9.053338766098022461e-01,9.053338766098022461e-01,9.053338766098022461e-01,9.053338766098022461e-01,9.053338766098022461e-01,9.053338766098022461e-01,9.053338766098022461e-01,9.053338766098022461e-01,9.053338766098022461e-01,9.053338766098022461e-01,9.053338766098022461e-01,9.053338766098022461e-01,9.053341150283813477e-01,9.053356647491455078e-01,9.053572416305541992e-01,9.053781628608703613e-01,9.051495790481567383e-01,9.045431613922119141e-01,9.034051895141601562e-01,9.016187191009521484e-01,8.991127610206604004e-01,8.950926065444946289e-01,8.886245489120483398e-01,8.803093433380126953e-01,8.709113597869873047e-01,8.577843308448791504e-01,8.293098211288452148e-01,8.084083795547485352e-01,8.006691932678222656e-01,7.746298313140869141e-01,7.219793796539306641e-01,6.160824298858642578e-01
5.887015461921691895e-01,6.142692565917968750e-01,6.568921208381652832e-01,6.577169895172119141e-01,6.812526583671569824e-01,7.054656147956848145e-01,7.427289485931396484e-01,7.634063959121704102e-01,7.819557189941406250e-01,7.931911349296569824e-01,7.949187755584716797e-01,7.855852246284484863e-01,7.810125350952148438e-01,7.600011825561523438e-01,7.164090871810913086e-01,6.342563033103942871e-01,5.817158818244934082e-01,5.463508963584899902e-01,5.206296443939208984e-01,5.098111033439636230e-01,4.995785951614379883e-01,4.938902556896209717e-01,5.273720026016235352e-01,5.643784999847412109e-01,6.359635591506958008e-01,6.725643873214721680e-01,7.225946187973022461e-01,7.846919298171997070e-01,8.353312015533447266e-01,8.588882684707641602e-01,8.844176530838012695e-01,8.930183649063110352e-01,8.977218866348266602e-01,9.033821821212768555e-01,9.052550792694091797e-01,9.053314924240112305e-01,9.053627252578735352e-01,9.053312540054321289e-01,9.053283333778381348e-01,9.053283333778381348e-01,9.053283333778381348e-01,9.053283333778381348e-01,9.053283333778381348e-01,9.053283333778381348e-01,9.053283333778381348e-01,9.053283333778381348e-01,9.053283333778381348e-01,9.053283333778381348e-01,9.053283333778381348e-01,9.053283333778381348e-01,9.053283333778381348e-01,9.053283333778381348e-01,9.053283333778381348e-01,9.053283333778381348e-01,9.053283333778381348e-01,9.053283333778381348e-01,9.053283333778381348e-01,9.053283333778381348e-01,9.053283333778381348e-01,9.053283333778381348e-01,9.053285717964172363e-01,9.053298830986022949e-01,9.053540229797363281e-01,9.053707122802734375e-01,9.051684141159057617e-01,9.045517444610595703e-01,9.033974409103393555e-01,9.016230702400207520e-01,8.990783691406250000e-01,8.949623107910156250e-01,8.886692523956298828e-01,8.801974058151245117e-01,8.707540035247802734e-01,8.578689098358154297e-01,8.293223977088928223e-01,8.082357048988342285e-01,8.006241321563720703e-01,7.746315002441406250e-01,7.220166325569152832e-01,6.160358190536499023e-01
5.886945724487304688e-01,6.142578721046447754e-01,6.568790674209594727e-01,6.577018499374389648e-01,6.812337636947631836e-01,7.054196000099182129e-01,7.421057224273681641e-01,7.639634609222412109e-01,7.822259068489074707e-01,7.936291098594665527e-01,7.944611907005310059e-01,7.879974842071533203e-01,7.818249464035034180e-01,7.602896094322204590e-01,7.312647104263305664e-01,6.395666003227233887e-01,5.840137004852294922e-01,5.451505184173583984e-01,5.258797407150268555e-01,5.118643641471862793e-01,4.975119531154632568e-01,4.951544106006622314e-01,5.387637615203857422e-01,5.792729854583740234e-01,6.403724551200866699e-01,6.857393383979797363e-01,7.247539758682250977e-01,7.890019416809082031e-01,8.379987478256225586e-01,8.629603385925292969e-01,8.841316699981689453e-01,8.917463421821594238e-01,8.981595039367675781e-01,9.031650424003601074e-01,9.050615429878234863e-01,9.052399396896362305e-01,9.053614139556884766e-01,9.053317904472351074e-01,9.053283333778381348e-01,9.053283333778381348e-01,9.053283333778381348e-01,9.053283333778381348e-01,9.053283333778381348e-01,9.053283333778381348e-01,9.053283333778381348e-01,9.053283333778381348e-01,9.053283333778381348e-01,9.053283333778381348e-01,9.053283333778381348e-01,9.053283333778381348e-01,9.053283333778381348e-01,9.053283333778381348e-01,9.053283333778381348e-01,9.053283333778381348e-01,9.053283333778381348e-01,9.053283333778381348e-01,9.053283333778381348e-01,9.053283333778381348e-01,9.053283333778381348e-01,9.053283333778381348e-01,9.053285121917724609e-01,9.053297042846679688e-01,9.053524136543273926e-01,9.053744077682495117e-01,9.051629304885864258e-01,9.045405983924865723e-01,9.033981561660766602e-01,9.016392827033996582e-01,8.990623950958251953e-01,8.949759006500244141e-01,8.886583447456359863e-01,8.801600933074951172e-01,8.708235621452331543e-01,8.578867316246032715e-01,8.292571306228637695e-01,8.082436323165893555e-01,8.006496429443359375e-01,7.746550440788269043e-01,7.220228910446166992e-01,6.160455346107482910e-01
5.886876583099365234e-01,6.142466664314270020e-01,6.568660736083984375e-01,6.576865911483764648e-01,6.812277436256408691e-01,7.054027318954467773e-01,7.418061494827270508e-01,7.645965814590454102e-01,7.840883731842041016e-01,7.942250967025756836e-01,7.945313453674316406e-01,7.943066954612731934e-01,7.835637331008911133e-01,7.656801939010620117e-01,7.296660542488098145e-01,6.469118595123291016e-01,5.848522186279296875e-01,5.465067625045776367e-01,5.311465859413146973e-01,5.183808803558349609e-01,5.032781362533569336e-01,5.070993900299072266e-01,5.434701442718505859e-01,5.801907181739807129e-01,6.607049703598022461e-01,6.988267302513122559e-01,7.311164140701293945e-01,7.879667282104492188e-01,8.377751111984252930e-01,8.683761358261108398e-01,8.822833299636840820e-01,8.903839588165283203e-01,8.986029624938964844e-01,9.032046794891357422e-01,9.049767255783081055e-01,9.051867723464965820e-01,9.053376317024230957e-01,9.053267240524291992e-01,9.053283333778381348e-01,9.053283333778381348e-01,9.053283333778381348e-01,9.053283333778381348e-01,9.053283333778381348e-01,9.053283333778381348e-01,9.053283333778381348e-01,9.053283333778381348e-01,9.053283333778381348e-01,9.053283333778381348e-01,9.053283333778381348e-01,9.053283333778381348e-01,9.053283333778381348e-01,9.053283333778381348e-01,9.053283333778381348e-01,9.053283333778381348e-01,9.053283333778381348e-01,9.053283333778381348e-01,9.053283333778381348e-01,9.053283333778381348e-01,9.053283333778381348e-01,9.053283333778381348e-01,9.053285121917724609e-01,9.053297042846679688e-01,9.053523540496826172e-01,9.053734540939331055e-01,9.051614999771118164e-01,9.045417904853820801e-01,9.034025073051452637e-01,9.016457796096801758e-01,8.990695476531982422e-01,8.949666023254394531e-01,8.886605501174926758e-01,8.801909685134887695e-01,8.708333373069763184e-01,8.578784465789794922e-01,8.292738199234008789e-01,8.082623481750488281e-01,8.006620407104492188e-01,7.746667861938476562e-01,7.220340371131896973e-01,6.160541772842407227e-01
5.886806845664978027e-01,6.142354011535644531e-01,6.568530797958374023e-01,6.576714515686035156e-01,6.812126636505126953e-01,7.054026126861572266e-01,7.417724728584289551e-01,7.642383575439453125e-01,7.841051816940307617e-01,7.926339507102966309e-01,7.939249277114868164e-01,7.955439090728759766e-01,7.833920717239379883e-01,7.664315104484558105e-01,7.361572980880737305e-01,6.489248275756835938e-01,5.861907005310058594e-01,5.492604970932006836e-01,5.356133580207824707e-01,5.203489661216735840e-01,5.084347128868103027e-01,5.203853845596313477e-01,5.479407310485839844e-01,5.840487480163574219e-01,6.827527284622192383e-01,7.037973999977111816e-01,7.414689064025878906e-01,7.911783456802368164e-01,8.344979882240295410e-01,8.650832176208496094e-01,8.839929103851318359e-01,8.897098302841186523e-01,8.979753851890563965e-01,9.016439914703369141e-01,9.042836427688598633e-01,9.051784276962280273e-01,9.053283929824829102e-01,9.053303599357604980e-01,9.053283333778381348e-01,9.053283333778381348e-01,9.053283333778381348e-01,9.053283333778381348e-01,9.053283333778381348e-01,9.053283333778381348e-01,9.053283333778381348e-01,9.053283333778381348e-01,9.053283333778381348e-01,9.053283333778381348e-01,9.053283333778381348e-01,9.053283333778381348e-01,9.053283333778381348e-01,9.053283333778381348e-01,9.053283333778381348e-01,9.053283333778381348e-01,9.053283333778381348e-01,9.053283333778381348e-01,9.053283333778381348e-01,9.053283333778381348e-01,9.053283333778381348e-01,9.053283333778381348e-01,9.053285121917724609e-01,9.053297042846679688e-01,9.053521156311035156e-01,9.053734540939331055e-01,9.051614999771118164e-01,9.045423865318298340e-01,9.034037590026855469e-01,9.016473889350891113e-01,8.990721702575683594e-01,8.949688076972961426e-01,8.886656761169433594e-01,8.801976442337036133e-01,8.708401918411254883e-01,8.578865528106689453e-01,8.292876482009887695e-01,8.082765340805053711e-01,8.006746768951416016e-01,7.746796607971191406e-01,7.220448255538940430e-01,6.160605549812316895e-01
5.886740088462829590e-01,6.142243742942810059e-01,6.568401455879211426e-01,6.576562523841857910e-01,6.812046170234680176e-01,7.054222226142883301e-01,7.418494820594787598e-01,7.642165422439575195e-01,7.838231325149536133e-01,7.925779819488525391e-01,7.953498959541320801e-01,7.959507703781127930e-01,7.849893569946289062e-01,7.678961753845214844e-01,7.335373759269714355e-01,6.505020856857299805e-01,5.875160694122314453e-01,5.521171689033508301e-01,5.369316339492797852e-01,5.249010920524597168e-01,5.171331763267517090e-01,5.395514965057373047e-01,5.530405044555664062e-01,6.040186882019042969e-01,6.885707974433898926e-01,7.186521291732788086e-01,7.510248422622680664e-01,7.902004718780517578e-01,8.323740959167480469e-01,8.615769147872924805e-01,8.831515312194824219e-01,8.903115987777709961e-01,8.973078727722167969e-01,9.004907608032226562e-01,9.036016464233398438e-01,9.050488471984863281e-01,9.053174257278442383e-01,9.053393602371215820e-01,9.053283333778381348e-01,9.053283333778381348e-01,9.053283333778381348e-01,9.053283333778381348e-01,9.053283333778381348e-01,9.053283333778381348e-01,9.053283333778381348e-01,9.053283333778381348e-01,9.053283333778381348e-01,9.053283333778381348e-01,9.053283333778381348e-01,9.053283333778381348e-01,9.053283333778381348e-01,9.053283333778381348e-01,9.053283333778381348e-01,9.053283333778381348e-01,9.053283333778381348e-01,9.053283333778381348e-01,9.053283333778381348e-01,9.053283333778381348e-01,9.053283333778381348e-01,9.053283333778381348e-01,9.053285121917724609e-01,9.053297042846679688e-01,9.053521156311035156e-01,9.053735136985778809e-01,9.051617383956909180e-01,9.045428037643432617e-01,9.034045934677124023e-01,9.016487598419189453e-01,8.990740776062011719e-01,8.949723243713378906e-01,8.886710405349731445e-01,8.802046179771423340e-01,8.708474636077880859e-01,8.578963279724121094e-01,8.292997479438781738e-01,8.082895278930664062e-01,8.006876707077026367e-01,7.746920585632324219e-01,7.220550179481506348e-01,6.160676479339599609e-01
5.886673331260681152e-01,6.142135858535766602e-01,6.568276286125183105e-01,6.576415896415710449e-01,6.811885237693786621e-01,7.054247260093688965e-01,7.419087886810302734e-01,7.636178731918334961e-01,7.836149930953979492e-01,7.905769348144531250e-01,7.954733371734619141e-01,7.960186600685119629e-01,7.847675085067749023e-01,7.704977989196777344e-01,7.339345216751098633e-01,6.491465568542480469e-01,5.923815369606018066e-01,5.478191971778869629e-01,5.368044376373291016e-01,5.255116820335388184e-01,5.226024389266967773e-01,5.411455631256103516e-01,5.598001480102539062e-01,6.227451562881469727e-01,7.193626165390014648e-01,7.328417301177978516e-01,7.515808343887329102e-01,8.015649318695068359e-01,8.285874128341674805e-01,8.604836463928222656e-01,8.855863809585571289e-01,8.922424316406250000e-01,8.950381278991699219e-01,8.996590375900268555e-01,9.038443565368652344e-01,9.051424860954284668e-01,9.053272604942321777e-01,9.053337574005126953e-01,9.053283333778381348e-01,9.053283333778381348e-01,9.053283333778381348e-01,9.053283333778381348e-01,9.053283333778381348e-01,9.053283333778381348e-01,9.053283333778381348e-01,9.053283333778381348e-01,9.053283333778381348e-01,9.053283333778381348e-01,9.053283333778381348e-01,9.053283333778381348e-01,9.053283333778381348e-01,9.053283333778381348e-01,9.053283333778381348e-01,9.053283333778381348e-01,9.053283333778381348e-01,9.053283333778381348e-01,9.053283333778381348e-01,9.053283333778381348e-01,9.053283333778381348e-01,9.053283333778381348e-01,9.053285121917724609e-01,9.053297042846679688e-01,9.053521156311035156e-01,9.053735136985778809e-01,9.051617980003356934e-01,9.045432209968566895e-01,9.034054875373840332e-01,9.016500711441040039e-01,8.990761041641235352e-01,8.949755430221557617e-01,8.886760473251342773e-01,8.802113533020019531e-01,8.708555698394775391e-01,8.579061627388000488e-01,8.293112516403198242e-01,8.083022832870483398e-01,8.007003068923950195e-01,7.747043371200561523e-01,7.220648527145385742e-01,6.160747408866882324e-01
5.886611938476562500e-01,6.142032742500305176e-01,6.568154096603393555e-01,6.576270461082458496e-01,6.811797618865966797e-01,7.054228782653808594e-01,7.420075535774230957e-01,7.632175683975219727e-01,7.831827402114868164e-01,7.905794382095336914e-01,7.953706979751586914e-01,7.987444400787353516e-01,7.865759134292602539e-01,7.701594829559326172e-01,7.344570159912109375e-01,6.487423181533813477e-01,5.911861658096313477e-01,5.543732643127441406e-01,5.338793992996215820e-01,5.335379242897033691e-01,5.313664674758911133e-01,5.518556237220764160e-01,5.716072916984558105e-01,6.318973302841186523e-01,7.215794324874877930e-01,7.518104910850524902e-01,7.694693803787231445e-01,8.114966154098510742e-01,8.389897346496582031e-01,8.600555658340454102e-01,8.828370571136474609e-01,8.929400444030761719e-01,8.949414491653442383e-01,8.999186754226684570e-01,9.036100506782531738e-01,9.052555561065673828e-01,9.053462743759155273e-01,9.053388833999633789e-01,9.053283333778381348e-01,9.053283333778381348e-01,9.053283333778381348e-01,9.053283333778381348e-01,9.053283333778381348e-01,9.053283333778381348e-01,9.053283333778381348e-01,9.053283333778381348e-01,9.053283333778381348e-01,9.053283333778381348e-01,9.053283333778381348e-01,9.053283333778381348e-01,9.053283333778381348e-01,9.053283333778381348e-01,9.053283333778381348e-01,9.053283333778381348e-01,9.053283333778381348e-01,9.053283333778381348e-01,9.053283333778381348e-01,9.053283333778381348e-01,9.053283333778381348e-01,9.053283333778381348e-01,9.053285121917724609e-01,9.053297042846679688e-01,9.053521156311035156e-01,9.053733944892883301e-01,9.051619768142700195e-01,9.045437574386596680e-01,9.034062623977661133e-01,9.016516208648681641e-01,8.990780115127563477e-01,8.949787616729736328e-01,8.886809945106506348e-01,8.802182078361511230e-01,8.708633184432983398e-01,8.579156398773193359e-01,8.293228149414062500e-01,8.083148598670959473e-01,8.007128238677978516e-01,7.747166156768798828e-01,7.220752239227294922e-01,6.160817146301269531e-01
5.886557698249816895e-01,6.141940355300903320e-01,6.568040251731872559e-01,6.576133966445922852e-01,6.811672449111938477e-01,7.054026126861572266e-01,7.417489886283874512e-01,7.633882164955139160e-01,7.826362848281860352e-01,7.912145256996154785e-01,7.971630096435546875e-01,7.981921434402465820e-01,7.917826175689697266e-01,7.698792219161987305e-01,7.259986400604248047e-01,6.638053655624389648e-01,5.849387049674987793e-01,5.590546727180480957e-01,5.335268378257751465e-01,5.352752804756164551e-01,5.375188589096069336e-01,5.568891167640686035e-01,5.893424749374389648e-01,6.465737819671630859e-01,7.285758256912231445e-01,7.831598520278930664e-01,7.945500612258911133e-01,8.122335076332092285e-01,8.522562980651855469e-01,8.681559562683105469e-01,8.839398026466369629e-01,8.952091932296752930e-01,8.982317447662353516e-01,9.015150070190429688e-01,9.046442508697509766e-01,9.050252437591552734e-01,9.053516983985900879e-01,9.053353071212768555e-01,9.053283333778381348e-01,9.053283333778381348e-01,9.053283333778381348e-01,9.053283333778381348e-01,9.053283333778381348e-01,9.053283333778381348e-01,9.053283333778381348e-01,9.053283333778381348e-01,9.053283333778381348e-01,9.053283333778381348e-01,9.053283333778381348e-01,9.053283333778381348e-01,9.053283333778381348e-01,9.053283333778381348e-01,9.053283333778381348e-01,9.053283333778381348e-01,9.053283333778381348e-01,9.053283333778381348e-01,9.053283333778381348e-01,9.053283333778381348e-01,9.053283333778381348e-01,9.053283333778381348e-01,9.053285121917724609e-01,9.053297042846679688e-01,9.053519964218139648e-01,9.053733348846435547e-01,9.051622152328491211e-01,9.045441150665283203e-01,9.034070968627929688e-01,9.016529321670532227e-01,8.990800380706787109e-01,8.949819803237915039e-01,8.886860609054565430e-01,8.802247643470764160e-01,8.708713054656982422e-01,8.579250574111938477e-01,8.293341398239135742e-01,8.083277344703674316e-01,8.007254600524902344e-01,7.747287750244140625e-01,7.220853567123413086e-01,6.160888075828552246e-01
5.886507630348205566e-01,6.141856908798217773e-01,6.567939519882202148e-01,6.576014161109924316e-01,6.811634898185729980e-01,7.053648233413696289e-01,7.415683269500732422e-01,7.633502483367919922e-01,7.815898060798645020e-01,7.927994728088378906e-01,7.963353991508483887e-01,8.026074767112731934e-01,7.936549782752990723e-01,7.722235918045043945e-01,7.261263132095336914e-01,6.721486449241638184e-01,6.068843603134155273e-01,5.487226843833923340e-01,5.407791137695312500e-01,5.473527312278747559e-01,5.495348572731018066e-01,5.583801269531250000e-01,6.088999509811401367e-01,6.642152070999145508e-01,7.378313541412353516e-01,8.036735057830810547e-01,8.089476823806762695e-01,8.345854282379150391e-01,8.622908592224121094e-01,8.772604465484619141e-01,8.869179487228393555e-01,8.994521498680114746e-01,9.001157879829406738e-01,9.027040004730224609e-01,9.051274061203002930e-01,9.050848484039306641e-01,9.053542613983154297e-01,9.053276777267456055e-01,9.053283333778381348e-01,9.053283333778381348e-01,9.053283333778381348e-01,9.053283333778381348e-01,9.053283333778381348e-01,9.053283333778381348e-01,9.053283333778381348e-01,9.053283333778381348e-01,9.053283333778381348e-01,9.053283333778381348e-01,9.053283333778381348e-01,9.053283333778381348e-01,9.053283333778381348e-01,9.053283333778381348e-01,9.053283333778381348e-01,9.053283333778381348e-01,9.053283333778381348e-01,9.053283333778381348e-01,9.053283333778381348e-01,9.053283333778381348e-01,9.053283333778381348e-01,9.053283333778381348e-01,9.053285121917724609e-01,9.053297042846679688e-01,9.053521156311035156e-01,9.053734540939331055e-01,9.051623344421386719e-01,9.045447111129760742e-01,9.034081101417541504e-01,9.016542434692382812e-01,8.990820646286010742e-01,8.949853181838989258e-01,8.886909484863281250e-01,8.802313804626464844e-01,8.708791732788085938e-01,8.579345941543579102e-01,8.293457031250000000e-01,8.083403110504150391e-01,8.007381558418273926e-01,7.747409343719482422e-01,7.220953106880187988e-01,6.160958409309387207e-01
5.886462330818176270e-01,6.141782402992248535e-01,6.567850112915039062e-01,6.575907468795776367e-01,6.811521053314208984e-01,7.053295373916625977e-01,7.414129972457885742e-01,7.628628015518188477e-01,7.831221818923950195e-01,7.933796644210815430e-01,8.000371456146240234e-01,8.093535900115966797e-01,7.951864600181579590e-01,7.735161781311035156e-01,7.346185445785522461e-01,6.713645458221435547e-01,6.247363686561584473e-01,5.730104446411132812e-01,5.487937927246093750e-01,5.520267486572265625e-01,5.580187439918518066e-01,5.740854740142822266e-01,6.253371238708496094e-01,6.796820163726806641e-01,7.459713220596313477e-01,8.133683204650878906e-01,8.342421650886535645e-01,8.471975326538085938e-01,8.693702220916748047e-01,8.852880597114562988e-01,8.925465345382690430e-01,9.007166624069213867e-01,9.043574333190917969e-01,9.050241708755493164e-01,9.050645828247070312e-01,9.050610661506652832e-01,9.053478240966796875e-01,9.053341150283813477e-01,9.053283333778381348e-01,9.053283333778381348e-01,9.053283333778381348e-01,9.053283333778381348e-01,9.053283333778381348e-01,9.053283333778381348e-01,9.053283333778381348e-01,9.053283333778381348e-01,9.053283333778381348e-01,9.053283333778381348e-01,9.053283333778381348e-01,9.053283333778381348e-01,9.053283333778381348e-01,9.053283333778381348e-01,9.053283333778381348e-01,9.053283333778381348e-01,9.053283333778381348e-01,9.053283333778381348e-01,9.053283333778381348e-01,9.053283333778381348e-01,9.053283333778381348e-01,9.053283333778381348e-01,9.053285121917724609e-01,9.053297042846679688e-01,9.053520560264587402e-01,9.053733348846435547e-01,9.051624536514282227e-01,9.045451879501342773e-01,9.034088850021362305e-01,9.016555547714233398e-01,8.990840911865234375e-01,8.949885368347167969e-01,8.886959552764892578e-01,8.802380561828613281e-01,8.708870410919189453e-01,8.579439520835876465e-01,8.293570876121520996e-01,8.083528876304626465e-01,8.007507324218750000e-01,7.747532129287719727e-01,7.221055030822753906e-01,6.161028742790222168e-01
5.886418819427490234e-01,6.141711473464965820e-01,6.567761898040771484e-01,6.575808525085449219e-01,6.811254620552062988e-01,7.053397893905639648e-01,7.413231134414672852e-01,7.633925080299377441e-01,7.844140529632568359e-01,7.921960353851318359e-01,8.032902479171752930e-01,8.159886598587036133e-01,7.975062131881713867e-01,7.819433808326721191e-01,7.411347031593322754e-01,6.966121196746826172e-01,6.446585655212402344e-01,5.987176895141601562e-01,5.741043090820312500e-01,5.604363083839416504e-01,5.621798634529113770e-01,6.020982861518859863e-01,6.462411880493164062e-01,6.970066428184509277e-01,7.597261667251586914e-01,8.165998458862304688e-01,8.456362485885620117e-01,8.634871244430541992e-01,8.798836469650268555e-01,8.928052186965942383e-01,8.963577151298522949e-01,9.028013944625854492e-01,9.050649404525756836e-01,9.051077365875244141e-01,9.055856466293334961e-01,9.050410985946655273e-01,9.053406715393066406e-01,9.053307175636291504e-01,9.053283333778381348e-01,9.053283333778381348e-01,9.053283333778381348e-01,9.053283333778381348e-01,9.053283333778381348e-01,9.053283333778381348e-01,9.053283333778381348e-01,9.053283333778381348e-01,9.053283333778381348e-01,9.053283333778381348e-01,9.053283333778381348e-01,9.053283333778381348e-01,9.053283333778381348e-01,9.053283333778381348e-01,9.053283333778381348e-01,9.053283333778381348e-01,9.053283333778381348e-01,9.053283333778381348e-01,9.053283333778381348e-01,9.053283333778381348e-01,9.053283333778381348e-01,9.053283333778381348e-01,9.053285121917724609e-01,9.053297042846679688e-01,9.053520560264587402e-01,9.053732752799987793e-01,9.051625728607177734e-01,9.045456647872924805e-01,9.034098982810974121e-01,9.016569256782531738e-01,8.990861177444458008e-01,8.949915170669555664e-01,8.887009620666503906e-01,8.802447319030761719e-01,8.708950281143188477e-01,8.579533100128173828e-01,8.293685913085937500e-01,8.083655238151550293e-01,8.007632493972778320e-01,7.747655510902404785e-01,7.221154570579528809e-01,6.161099672317504883e-01
5.886372923851013184e-01,6.141638159751892090e-01,6.567683219909667969e-01,6.575717329978942871e-01,6.810996532440185547e-01,7.053486108779907227e-01,7.417417764663696289e-01,7.651497125625610352e-01,7.827140092849731445e-01,7.956621050834655762e-01,8.065381050109863281e-01,8.173782229423522949e-01,8.021456003189086914e-01,7.864166498184204102e-01,7.661135196685791016e-01,7.223577499389648438e-01,6.796221137046813965e-01,6.098064184188842773e-01,5.948081016540527344e-01,5.729163885116577148e-01,5.837761163711547852e-01,6.239613890647888184e-01,6.634856462478637695e-01,7.209913730621337891e-01,7.745215892791748047e-01,8.228009939193725586e-01,8.491990566253662109e-01,8.774379491806030273e-01,8.842966556549072266e-01,8.943771719932556152e-01,8.989393711090087891e-01,9.026139974594116211e-01,9.060372710227966309e-01,9.049956798553466797e-01,9.054969549179077148e-01,9.052531123161315918e-01,9.053405523300170898e-01,9.053317308425903320e-01,9.053283333778381348e-01,9.053283333778381348e-01,9.053283333778381348e-01,9.053283333778381348e-01,9.053283333778381348e-01,9.053283333778381348e-01,9.053283333778381348e-01,9.053283333778381348e-01,9.053283333778381348e-01,9.053283333778381348e-01,9.053283333778381348e-01,9.053283333778381348e-01,9.053283333778381348e-01,9.053283333778381348e-01,9.053283333778381348e-01,9.053283333778381348e-01,9.053283333778381348e-01,9.053283333778381348e-01,9.053283333778381348e-01,9.053283333778381348e-01,9.053283333778381348e-01,9.053283333778381348e-01,9.053285121917724609e-01,9.053297042846679688e-01,9.053519964218139648e-01,9.053733348846435547e-01,9.051628708839416504e-01,9.045461416244506836e-01,9.034107327461242676e-01,9.016583561897277832e-01,8.990881443023681641e-01,8.949949145317077637e-01,8.887059688568115234e-01,8.802518248558044434e-01,8.709028959274291992e-01,8.579629659652709961e-01,8.293802142143249512e-01,8.083782196044921875e-01,8.007759451866149902e-01,7.747777700424194336e-01,7.221255302429199219e-01,6.161171793937683105e-01
5.886321067810058594e-01,6.141560673713684082e-01,6.567596793174743652e-01,6.575617194175720215e-01,6.810978055000305176e-01,7.053333520889282227e-01,7.419673204421997070e-01,7.649405002593994141e-01,7.797046899795532227e-01,7.973201870918273926e-01,8.159198164939880371e-01,8.198156356811523438e-01,8.106327652931213379e-01,7.941918373107910156e-01,7.781164646148681641e-01,7.566479444503784180e-01,7.017741799354553223e-01,6.301040649414062500e-01,6.070144772529602051e-01,5.925864577293395996e-01,6.027510166168212891e-01,6.435412168502807617e-01,6.892402172088623047e-01,7.308294177055358887e-01,7.923854589462280273e-01,8.308491706848144531e-01,8.612821698188781738e-01,8.805643320083618164e-01,8.918858766555786133e-01,8.986399769783020020e-01,9.004017114639282227e-01,9.017562270164489746e-01,9.053311347961425781e-01,9.057096242904663086e-01,9.051378369331359863e-01,9.053633809089660645e-01,9.053379297256469727e-01,9.053328037261962891e-01,9.053283333778381348e-01,9.053283333778381348e-01,9.053283333778381348e-01,9.053283333778381348e-01,9.053283333778381348e-01,9.053283333778381348e-01,9.053283333778381348e-01,9.053283333778381348e-01,9.053283333778381348e-01,9.053283333778381348e-01,9.053283333778381348e-01,9.053283333778381348e-01,9.053283333778381348e-01,9.053283333778381348e-01,9.053283333778381348e-01,9.053283333778381348e-01,9.053283333778381348e-01,9.053283333778381348e-01,9.053283333778381348e-01,9.053283333778381348e-01,9.053283333778381348e-01,9.053283333778381348e-01,9.053285121917724609e-01,9.053297042846679688e-01,9.053519368171691895e-01,9.053733348846435547e-01,9.051630496978759766e-01,9.045465588569641113e-01,9.034116268157958984e-01,9.016596674919128418e-01,8.990900516510009766e-01,8.949980735778808594e-01,8.887109756469726562e-01,8.802584409713745117e-01,8.709107637405395508e-01,8.579726219177246094e-01,8.293918371200561523e-01,8.083909749984741211e-01,8.007888793945312500e-01,7.747901678085327148e-01,7.221357822418212891e-01,6.161243319511413574e-01
5.886267423629760742e-01,6.141472458839416504e-01,6.567499041557312012e-01,6.575506925582885742e-01,6.810927391052246094e-01,7.053138017654418945e-01,7.423602342605590820e-01,7.628722190856933594e-01,7.809798717498779297e-01,7.972342371940612793e-01,8.187549114227294922e-01,8.216645121574401855e-01,8.182944655418395996e-01,8.110283613204956055e-01,7.780460119247436523e-01,7.740048766136169434e-01,7.253017425537109375e-01,6.531265974044799805e-01,6.213530302047729492e-01,6.170138716697692871e-01,6.211549639701843262e-01,6.577326059341430664e-01,6.924361586570739746e-01,7.485716342926025391e-01,8.068283796310424805e-01,8.383075594902038574e-01,8.647970557212829590e-01,8.874659538269042969e-01,8.950170278549194336e-01,9.008397459983825684e-01,9.028427600860595703e-01,9.030479192733764648e-01,9.044435024261474609e-01,9.055231213569641113e-01,9.054294824600219727e-01,9.053828716278076172e-01,9.053354263305664062e-01,9.053285121917724609e-01,9.053263664245605469e-01,9.053263664245605469e-01,9.053263664245605469e-01,9.053263664245605469e-01,9.053263664245605469e-01,9.053262472152709961e-01,9.053262472152709961e-01,9.053262472152709961e-01,9.053262472152709961e-01,9.053262472152709961e-01,9.053261280059814453e-01,9.053261280059814453e-01,9.053261280059814453e-01,9.053260684013366699e-01,9.053260684013366699e-01,9.053260684013366699e-01,9.053260684013366699e-01,9.053260684013366699e-01,9.053261280059814453e-01,9.053261280059814453e-01,9.053261280059814453e-01,9.053260684013366699e-01,9.053263664245605469e-01,9.053274393081665039e-01,9.053497314453125000e-01,9.053708314895629883e-01,9.051609635353088379e-01,9.045450091361999512e-01,9.034108519554138184e-01,9.016594290733337402e-01,8.990903496742248535e-01,8.949995636940002441e-01,8.887141942977905273e-01,8.802639245986938477e-01,8.709179162979125977e-01,8.579815626144409180e-01,8.294029235839843750e-01,8.084037303924560547e-01,8.008016943931579590e-01,7.748025059700012207e-01,7.221463918685913086e-01,6.161316037178039551e-01
5.886209011077880859e-01,6.141377687454223633e-01,6.567388772964477539e-01,6.575374007225036621e-01,6.810622215270996094e-01,7.052908539772033691e-01,7.424404621124267578e-01,7.616682052612304688e-01,7.819527387619018555e-01,8.031225204467773438e-01,8.214942216873168945e-01,8.209211826324462891e-01,8.258891105651855469e-01,8.132824897766113281e-01,7.967446446418762207e-01,7.777603864669799805e-01,7.534253597259521484e-01,6.650559902191162109e-01,6.359343528747558594e-01,6.313880681991577148e-01,6.269711256027221680e-01,6.707858443260192871e-01,6.974818706512451172e-01,7.644742131233215332e-01,8.148392438888549805e-01,8.446961045265197754e-01,8.704664111137390137e-01,8.883745670318603516e-01,8.966358304023742676e-01,9.026768207550048828e-01,9.042565822601318359e-01,9.048005938529968262e-01,9.049906730651855469e-01,9.052266478538513184e-01,9.052275419235229492e-01,9.053708314895629883e-01,9.053319096565246582e-01,9.053248167037963867e-01,9.053208827972412109e-01,9.053208827972412109e-01,9.053210616111755371e-01,9.053211212158203125e-01,9.053211212158203125e-01,9.053211212158203125e-01,9.053212404251098633e-01,9.053212404251098633e-01,9.053212404251098633e-01,9.053212404251098633e-01,9.053213596343994141e-01,9.053213596343994141e-01,9.053214192390441895e-01,9.053213596343994141e-01,9.053214192390441895e-01,9.053215980529785156e-01,9.053215980529785156e-01,9.053215980529785156e-01,9.053217172622680664e-01,9.053217172622680664e-01,9.053217768669128418e-01,9.053217768669128418e-01,9.053220748901367188e-01,9.053231477737426758e-01,9.053455591201782227e-01,9.053668975830078125e-01,9.051569700241088867e-01,9.045405387878417969e-01,9.034069776535034180e-01,9.016560912132263184e-01,8.990867137908935547e-01,8.949950933456420898e-01,8.887096047401428223e-01,8.802593350410461426e-01,8.709137439727783203e-01,8.579811453819274902e-01,8.294056653976440430e-01,8.084093332290649414e-01,8.008077144622802734e-01,7.748075723648071289e-01,7.221485972404479980e-01,6.161325573921203613e-01
5.886100530624389648e-01,6.141239404678344727e-01,6.567229628562927246e-01,6.575238108634948730e-01,6.810473203659057617e-01,7.052500247955322266e-01,7.418659329414367676e-01,7.625746726989746094e-01,7.820469141006469727e-01,8.055020570755004883e-01,8.213789463043212891e-01,8.211400508880615234e-01,8.278608322143554688e-01,8.187946081161499023e-01,8.085826635360717773e-01,7.943116426467895508e-01,7.587919235229492188e-01,6.834750175476074219e-01,6.454554796218872070e-01,6.371115446090698242e-01,6.462918519973754883e-01,6.741342544555664062e-01,7.090731263160705566e-01,7.698947191238403320e-01,8.214426040649414062e-01,8.493714332580566406e-01,8.738471865653991699e-01,8.886801600456237793e-01,8.982822299003601074e-01,9.040316939353942871e-01,9.046305418014526367e-01,9.051641225814819336e-01,9.052351713180541992e-01,9.053643941879272461e-01,9.054476022720336914e-01,9.053739309310913086e-01,9.053910970687866211e-01,9.053935408592224121e-01,9.053918123245239258e-01,9.053920507431030273e-01,9.053922295570373535e-01,9.053926467895507812e-01,9.053927659988403320e-01,9.053931236267089844e-01,9.053933620452880859e-01,9.053937196731567383e-01,9.053939580917358398e-01,9.053941965103149414e-01,9.053944945335388184e-01,9.053947329521179199e-01,9.053949117660522461e-01,9.053952693939208984e-01,9.053953886032104492e-01,9.053956866264343262e-01,9.053959250450134277e-01,9.053962230682373047e-01,9.053964614868164062e-01,9.053966999053955078e-01,9.053970575332641602e-01,9.053974151611328125e-01,9.053977727890014648e-01,9.053993821144104004e-01,9.054223895072937012e-01,9.054447412490844727e-01,9.052376747131347656e-01,9.046198725700378418e-01,9.034807682037353516e-01,9.017149209976196289e-01,8.991358280181884766e-01,8.950456380844116211e-01,8.887746334075927734e-01,8.803360462188720703e-01,8.710014820098876953e-01,8.580518960952758789e-01,8.294713497161865234e-01,8.084552884101867676e-01,8.008378148078918457e-01,7.748261094093322754e-01,7.221468687057495117e-01,6.161320209503173828e-01
5.886170268058776855e-01,6.141329407691955566e-01,6.567296981811523438e-01,6.575419902801513672e-01,6.810746192932128906e-01,7.052870988845825195e-01,7.416750788688659668e-01,7.635578513145446777e-01,7.844305038452148438e-01,8.054200410842895508e-01,8.203389048576354980e-01,8.273419737815856934e-01,8.294644355773925781e-01,8.245275020599365234e-01,8.122147917747497559e-01,8.021044731140136719e-01,7.659975290298461914e-01,6.890872120857238770e-01,6.581172347068786621e-01,6.434497237205505371e-01,6.602683663368225098e-01,6.719702482223510742e-01,7.149257063865661621e-01,7.835119962692260742e-01,8.245588541030883789e-01,8.513369560241699219e-01,8.767640590667724609e-01,8.889864087104797363e-01,8.986386060714721680e-01,9.038755893707275391e-01,9.049440622329711914e-01,9.056336879730224609e-01,9.055080413818359375e-01,9.054581522941589355e-01,9.054863452911376953e-01,9.054828286170959473e-01,9.054799675941467285e-01,9.054802656173706055e-01,9.054794311523437500e-01,9.054786562919616699e-01,9.054777622222900391e-01,9.054768681526184082e-01,9.054758548736572266e-01,9.054751396179199219e-01,9.054743051528930664e-01,9.054733514785766602e-01,9.054725170135498047e-01,9.054716229438781738e-01,9.054707884788513184e-01,9.054698944091796875e-01,9.054691791534423828e-01,9.054682254791259766e-01,9.054673910140991211e-01,9.054665565490722656e-01,9.054656028747558594e-01,9.054647088050842285e-01,9.054638743400573730e-01,9.054629802703857422e-01,9.054623842239379883e-01,9.054613113403320312e-01,9.054608345031738281e-01,9.054615497589111328e-01,9.054843187332153320e-01,9.055075645446777344e-01,9.053025245666503906e-01,9.046822786331176758e-01,9.035507440567016602e-01,9.017897248268127441e-01,8.992099761962890625e-01,8.951155543327331543e-01,8.888968825340270996e-01,8.804696202278137207e-01,8.711270093917846680e-01,8.582143187522888184e-01,8.297007083892822266e-01,8.087016344070434570e-01,8.010939359664916992e-01,7.750743031501770020e-01,7.224307656288146973e-01,6.165249943733215332e-01
5.888010263442993164e-01,6.143105030059814453e-01,6.569842100143432617e-01,6.577990055084228516e-01,6.813285946846008301e-01,7.054671049118041992e-01,7.418268322944641113e-01,7.631915211677551270e-01,7.848739624023437500e-01,8.034398555755615234e-01,8.193858861923217773e-01,8.286675810813903809e-01,8.304235935211181641e-01,8.272571563720703125e-01,8.236268758773803711e-01,8.046746253967285156e-01,7.684854269027709961e-01,7.010458707809448242e-01,6.663780212402343750e-01,6.529567837715148926e-01,6.642655730247497559e-01,6.857433319091796875e-01,7.238823175430297852e-01,7.815549373626708984e-01,8.284434080123901367e-01,8.542048931121826172e-01,8.783893585205078125e-01,8.896650075912475586e-01,8.983838558197021484e-01,9.030772447586059570e-01,9.041259288787841797e-01,9.047278761863708496e-01,9.046614170074462891e-01,9.046319723129272461e-01,9.046348333358764648e-01,9.046292901039123535e-01,9.046276807785034180e-01,9.046275019645690918e-01,9.046270251274108887e-01,9.046260714530944824e-01,9.046252965927124023e-01,9.046243429183959961e-01,9.046233892440795898e-01,9.046225547790527344e-01,9.046215415000915527e-01,9.046207666397094727e-01,9.046198725700378418e-01,9.046189188957214355e-01,9.046180248260498047e-01,9.046170711517333984e-01,9.046161174774169922e-01,9.046152830123901367e-01,9.046143293380737305e-01,9.046134948730468750e-01,9.046124219894409180e-01,9.046117067337036133e-01,9.046107530593872070e-01,9.046097993850708008e-01,9.046088457107543945e-01,9.046080112457275391e-01,9.046074748039245605e-01,9.046080708503723145e-01,9.046281576156616211e-01,9.046614170074462891e-01,9.044570922851562500e-01,9.038795828819274902e-01,9.027752280235290527e-01,9.010082483291625977e-01,8.984289169311523438e-01,8.943632245063781738e-01,8.880743384361267090e-01,8.796509504318237305e-01,8.703318834304809570e-01,8.574503660202026367e-01,8.288430571556091309e-01,8.078500032424926758e-01,8.004561662673950195e-01,7.742156982421875000e-01,7.216168045997619629e-01,6.159970164299011230e-01
5.891571640968322754e-01,6.141797304153442383e-01,6.566529870033264160e-01,6.571509242057800293e-01,6.804448366165161133e-01,7.042847871780395508e-01,7.404571771621704102e-01,7.616927623748779297e-01,7.823481559753417969e-01,8.016700744628906250e-01,8.193278312683105469e-01,8.278670310974121094e-01,8.311414718627929688e-01,8.303912878036499023e-01,8.246978521347045898e-01,8.075070381164550781e-01,7.756407260894775391e-01,7.205154299736022949e-01,6.722545027732849121e-01,6.600907444953918457e-01,6.780527830123901367e-01,6.895923614501953125e-01,7.321643829345703125e-01,7.896378040313720703e-01,8.271131515502929688e-01,8.541835546493530273e-01,8.801229000091552734e-01,8.892577886581420898e-01,8.975062370300292969e-01,9.023917913436889648e-01,9.034902453422546387e-01,9.037518501281738281e-01,9.037337899208068848e-01,9.037196636199951172e-01,9.037163853645324707e-01,9.037132859230041504e-01,9.037135839462280273e-01,9.037123918533325195e-01,9.037111997604370117e-01,9.037102460861206055e-01,9.037090539932250977e-01,9.037079811096191406e-01,9.037070274353027344e-01,9.037060737609863281e-01,9.037048816680908203e-01,9.037037491798400879e-01,9.037027359008789062e-01,9.037017822265625000e-01,9.037007093429565430e-01,9.036996364593505859e-01,9.036986827850341797e-01,9.036974906921386719e-01,9.036965370178222656e-01,9.036953449249267578e-01,9.036942720413208008e-01,9.036933183670043945e-01,9.036923050880432129e-01,9.036911725997924805e-01,9.036900997161865234e-01,9.036890268325805664e-01,9.036883115768432617e-01,9.036883115768432617e-01,9.037042856216430664e-01,9.037337899208068848e-01,9.035480022430419922e-01,9.029998779296875000e-01,9.019622802734375000e-01,9.002499580383300781e-01,8.977004289627075195e-01,8.936434984207153320e-01,8.874102830886840820e-01,8.790738582611083984e-01,8.698130249977111816e-01,8.568387031555175781e-01,8.282504081726074219e-01,8.071032762527465820e-01,7.996409535408020020e-01,7.733849287033081055e-01,7.204588651657104492e-01,6.144753098487854004e-01
5.884079933166503906e-01,6.125016212463378906e-01,6.548569202423095703e-01,6.552612781524658203e-01,6.780964136123657227e-01,7.014880776405334473e-01,7.375687360763549805e-01,7.588703036308288574e-01,7.791273593902587891e-01,7.983071804046630859e-01,8.160644769668579102e-01,8.262841701507568359e-01,8.307248950004577637e-01,8.341927528381347656e-01,8.270151615142822266e-01,8.118725419044494629e-01,7.823475599288940430e-01,7.338013648986816406e-01,6.829054355621337891e-01,6.628293991088867188e-01,6.814811229705810547e-01,7.079735398292541504e-01,7.273999452590942383e-01,7.927902936935424805e-01,8.299750089645385742e-01,8.532946109771728516e-01,8.789916038513183594e-01,8.899981379508972168e-01,8.972361087799072266e-01,9.012031555175781250e-01,9.015915989875793457e-01,9.019942283630371094e-01,9.019491076469421387e-01,9.019313454627990723e-01,9.019252657890319824e-01,9.019192457199096680e-01,9.019131660461425781e-01,9.019071459770202637e-01,9.019011259078979492e-01,9.018950462341308594e-01,9.018889665603637695e-01,9.018828868865966797e-01,9.018769264221191406e-01,9.018707871437072754e-01,9.018647670745849609e-01,9.018585681915283203e-01,9.018526077270507812e-01,9.018466472625732422e-01,9.018406867980957031e-01,9.018347263336181641e-01,9.018286466598510742e-01,9.018226265907287598e-01,9.018164873123168945e-01,9.018103480339050293e-01,9.018043279647827148e-01,9.017983675003051758e-01,9.017922878265380859e-01,9.017863273620605469e-01,9.017803072929382324e-01,9.017742872238159180e-01,9.017683267593383789e-01,9.017630815505981445e-01,9.017769098281860352e-01,9.018020033836364746e-01,9.016283750534057617e-01,9.011589288711547852e-01,9.001986980438232422e-01,8.986014127731323242e-01,8.961452245712280273e-01,8.921548128128051758e-01,8.860827684402465820e-01,8.775880336761474609e-01,8.682941198348999023e-01,8.554416894912719727e-01,8.269680738449096680e-01,8.060649633407592773e-01,7.985049486160278320e-01,7.719320058822631836e-01,7.191761136054992676e-01,6.127021908760070801e-01
5.864670872688293457e-01,6.097782254219055176e-01,6.518775224685668945e-01,6.520057320594787598e-01,6.745848655700683594e-01,6.974237561225891113e-01,7.329915761947631836e-01,7.535952329635620117e-01,7.734390497207641602e-01,7.925271987915039062e-01,8.103438019752502441e-01,8.201373815536499023e-01,8.274060487747192383e-01,8.314719200134277344e-01,8.213701248168945312e-01,8.119352459907531738e-01,7.839082479476928711e-01,7.399871349334716797e-01,7.001841068267822266e-01,6.688945293426513672e-01,6.854155063629150391e-01,7.062739133834838867e-01,7.505270242691040039e-01,7.922800779342651367e-01,8.270165920257568359e-01,8.504123687744140625e-01,8.738936185836791992e-01,8.843778371810913086e-01,8.916612267494201660e-01,8.949417471885681152e-01,8.952773809432983398e-01,8.954958915710449219e-01,8.954536914825439453e-01,8.954393863677978516e-01,8.954307436943054199e-01,8.954217433929443359e-01,8.954125642776489258e-01,8.954036235809326172e-01,8.953943252563476562e-01,8.953853845596313477e-01,8.953764438629150391e-01,8.953672051429748535e-01,8.953582048416137695e-01,8.953491449356079102e-01,8.953401446342468262e-01,8.953310251235961914e-01,8.953219652175903320e-01,8.953128457069396973e-01,8.953038454055786133e-01,8.952947854995727539e-01,8.952858448028564453e-01,8.952766656875610352e-01,8.952677249908447266e-01,8.952585458755493164e-01,8.952496051788330078e-01,8.952406048774719238e-01,8.952314853668212891e-01,8.952223658561706543e-01,8.952134847640991211e-01,8.952046036720275879e-01,8.951952457427978516e-01,8.951864242553710938e-01,8.951951861381530762e-01,8.952124118804931641e-01,8.950774669647216797e-01,8.946278691291809082e-01,8.938183188438415527e-01,8.923512697219848633e-01,8.900275826454162598e-01,8.861820697784423828e-01,8.802880048751831055e-01,8.720756769180297852e-01,8.626464605331420898e-01,8.496501445770263672e-01,8.213620781898498535e-01,8.010447025299072266e-01,7.939195632934570312e-01,7.675413489341735840e-01,7.151761651039123535e-01,6.077108979225158691e-01
5.825383663177490234e-01,6.038832068443298340e-01,6.454454660415649414e-01,6.448019146919250488e-01,6.661996245384216309e-01,6.881829500198364258e-01,7.228956222534179688e-01,7.430686354637145996e-01,7.622436285018920898e-01,7.803235054016113281e-01,7.970594167709350586e-01,8.073194026947021484e-01,8.177342414855957031e-01,8.232319951057434082e-01,8.132520318031311035e-01,8.065240383148193359e-01,7.804138660430908203e-01,7.455708980560302734e-01,6.982744336128234863e-01,6.679615974426269531e-01,6.905194520950317383e-01,7.074143886566162109e-01,7.425847649574279785e-01,7.864524126052856445e-01,8.194856643676757812e-01,8.427491188049316406e-01,8.625003099441528320e-01,8.759481906890869141e-01,8.827322125434875488e-01,8.842606544494628906e-01,8.843832015991210938e-01,8.846227526664733887e-01,8.845743536949157715e-01,8.845440149307250977e-01,8.845240473747253418e-01,8.845034837722778320e-01,8.844834566116333008e-01,8.844633102416992188e-01,8.844432830810546875e-01,8.844231367111206055e-01,8.844028711318969727e-01,8.843827843666076660e-01,8.843625783920288086e-01,8.843424320220947266e-01,8.843224048614501953e-01,8.843023180961608887e-01,8.842822313308715820e-01,8.842619061470031738e-01,8.842418193817138672e-01,8.842219114303588867e-01,8.842018246650695801e-01,8.841815590858459473e-01,8.841616511344909668e-01,8.841414451599121094e-01,8.841212987899780273e-01,8.841012716293334961e-01,8.840814232826232910e-01,8.840612769126892090e-01,8.840410709381103516e-01,8.840211033821105957e-01,8.840008378028869629e-01,8.839809298515319824e-01,8.839914798736572266e-01,8.840368986129760742e-01,8.839098215103149414e-01,8.835602402687072754e-01,8.828774690628051758e-01,8.814101815223693848e-01,8.790580034255981445e-01,8.753677010536193848e-01,8.695358037948608398e-01,8.616516590118408203e-01,8.525999188423156738e-01,8.395766019821166992e-01,8.107952475547790527e-01,7.916855216026306152e-01,7.853915691375732422e-01,7.605828046798706055e-01,7.071975469589233398e-01,6.017405986785888672e-01
5.753745436668395996e-01,5.940449833869934082e-01,6.345358490943908691e-01,6.318081021308898926e-01,6.512084007263183594e-01,6.719580888748168945e-01,7.057641744613647461e-01,7.251068353652954102e-01,7.435261607170104980e-01,7.608019113540649414e-01,7.763248682022094727e-01,7.879531979560852051e-01,7.970710992813110352e-01,8.029134273529052734e-01,7.951085567474365234e-01,7.871537208557128906e-01,7.657369375228881836e-01,7.273314595222473145e-01,6.769536733627319336e-01,6.646038889884948730e-01,6.715563535690307617e-01,6.905637979507446289e-01,7.340403795242309570e-01,7.722438573837280273e-01,7.988464832305908203e-01,8.251705765724182129e-01,8.422588109970092773e-01,8.537160158157348633e-01,8.590356111526489258e-01,8.609749674797058105e-01,8.608024120330810547e-01,8.610752820968627930e-01,8.610054254531860352e-01,8.609592318534851074e-01,8.609222173690795898e-01,8.608855009078979492e-01,8.608484268188476562e-01,8.608117103576660156e-01,8.607747554779052734e-01,8.607379198074340820e-01,8.607008457183837891e-01,8.606641292572021484e-01,8.606272935867309570e-01,8.605904579162597656e-01,8.605535030364990234e-01,8.605169057846069336e-01,8.604800701141357422e-01,8.604432344436645508e-01,8.604063987731933594e-01,8.603695631027221680e-01,8.603327274322509766e-01,8.602961301803588867e-01,8.602592945098876953e-01,8.602225780487060547e-01,8.601858019828796387e-01,8.601489067077636719e-01,8.601122498512268066e-01,8.600755929946899414e-01,8.600388169288635254e-01,8.600019216537475586e-01,8.599649667739868164e-01,8.599272966384887695e-01,8.599323630332946777e-01,8.599656820297241211e-01,8.598151803016662598e-01,8.595482110977172852e-01,8.591458797454833984e-01,8.579618334770202637e-01,8.559085130691528320e-01,8.521439433097839355e-01,8.465222120285034180e-01,8.387281894683837891e-01,8.300091028213500977e-01,8.169981241226196289e-01,7.877410650253295898e-01,7.700116634368896484e-01,7.670647501945495605e-01,7.439093589782714844e-01,6.925646066665649414e-01,5.922771096229553223e-01
5.643824934959411621e-01,5.786246061325073242e-01,6.173480749130249023e-01,6.113601922988891602e-01,6.278085708618164062e-01,6.468163132667541504e-01,6.787397861480712891e-01,6.960756778717041016e-01,7.120456695556640625e-01,7.269395589828491211e-01,7.403548359870910645e-01,7.528318166732788086e-01,7.607940435409545898e-01,7.639313936233520508e-01,7.610805034637451172e-01,7.511993646621704102e-01,7.294794917106628418e-01,6.954566836357116699e-01,6.443796157836914062e-01,6.267126798629760742e-01,6.474575400352478027e-01,6.611045598983764648e-01,7.086146473884582520e-01,7.304397225379943848e-01,7.590220570564270020e-01,7.806996107101440430e-01,7.985095977783203125e-01,8.128128051757812500e-01,8.171861171722412109e-01,8.186450004577636719e-01,8.184468746185302734e-01,8.185370564460754395e-01,8.184445500373840332e-01,8.183776736259460449e-01,8.183190822601318359e-01,8.182604312896728516e-01,8.182016611099243164e-01,8.181428909301757812e-01,8.180843591690063477e-01,8.180255889892578125e-01,8.179669380187988281e-01,8.179082870483398438e-01,8.178495764732360840e-01,8.177912235260009766e-01,8.177323341369628906e-01,8.176739215850830078e-01,8.176153898239135742e-01,8.175566196441650391e-01,8.174979686737060547e-01,8.174394369125366211e-01,8.173807859420776367e-01,8.173223733901977539e-01,8.172637820243835449e-01,8.172053098678588867e-01,8.171466588973999023e-01,8.170882463455200195e-01,8.170294761657714844e-01,8.169711828231811523e-01,8.169125318527221680e-01,8.168542385101318359e-01,8.167957067489624023e-01,8.167359828948974609e-01,8.167285919189453125e-01,8.167010545730590820e-01,8.165071606636047363e-01,8.161008358001708984e-01,8.156440854072570801e-01,8.143330812454223633e-01,8.124653100967407227e-01,8.095175623893737793e-01,8.042953014373779297e-01,7.970367670059204102e-01,7.894309759140014648e-01,7.773951292037963867e-01,7.479238510131835938e-01,7.330041527748107910e-01,7.344289422035217285e-01,7.134302258491516113e-01,6.685386896133422852e-01,5.795661807060241699e-01
5.498378872871398926e-01,5.541213154792785645e-01,5.890475511550903320e-01,5.790410041809082031e-01,5.922514200210571289e-01,6.085619330406188965e-01,6.381777524948120117e-01,6.527541875839233398e-01,6.665737628936767578e-01,6.786106228828430176e-01,6.909706592559814453e-01,7.001460194587707520e-01,7.059589624404907227e-01,7.067956924438476562e-01,7.025147676467895508e-01,6.862335205078125000e-01,6.676102876663208008e-01,6.599011421203613281e-01,5.982763171195983887e-01,5.913624167442321777e-01,6.096625328063964844e-01,6.157201528549194336e-01,6.497640609741210938e-01,6.770372390747070312e-01,6.960225701332092285e-01,7.190443277359008789e-01,7.366423606872558594e-01,7.473369836807250977e-01,7.518506050109863281e-01,7.510792016983032227e-01,7.520049214363098145e-01,7.517806291580200195e-01,7.516762614250183105e-01,7.515852451324462891e-01,7.515033483505249023e-01,7.514210343360900879e-01,7.513391971588134766e-01,7.512568235397338867e-01,7.511749863624572754e-01,7.510929703712463379e-01,7.510108351707458496e-01,7.509288787841796875e-01,7.508468627929687500e-01,7.507647275924682617e-01,7.506827712059020996e-01,7.506007552146911621e-01,7.505188584327697754e-01,7.504369020462036133e-01,7.503549456596374512e-01,7.502729892730712891e-01,7.501911520957946777e-01,7.501093149185180664e-01,7.500272393226623535e-01,7.499453425407409668e-01,7.498635649681091309e-01,7.497814297676086426e-01,7.496998906135559082e-01,7.496179342269897461e-01,7.495361566543579102e-01,7.494542598724365234e-01,7.493715882301330566e-01,7.492859959602355957e-01,7.492617964744567871e-01,7.491837143898010254e-01,7.490302324295043945e-01,7.487488985061645508e-01,7.482343912124633789e-01,7.468463182449340820e-01,7.445818781852722168e-01,7.412171959877014160e-01,7.365229725837707520e-01,7.301667928695678711e-01,7.241718769073486328e-01,7.129037380218505859e-01,6.834642291069030762e-01,6.727311015129089355e-01,6.816290616989135742e-01,6.628599762916564941e-01,6.336038112640380859e-01,5.563781261444091797e-01
5.325891971588134766e-01,5.238340497016906738e-01,5.546826124191284180e-01,5.387913584709167480e-01,5.466877222061157227e-01,5.595422387123107910e-01,5.837687253952026367e-01,5.949358940124511719e-01,6.052904725074768066e-01,6.134636998176574707e-01,6.235631108283996582e-01,6.302319169044494629e-01,6.334879398345947266e-01,6.334901452064514160e-01,6.344579458236694336e-01,6.106062531471252441e-01,5.931552052497863770e-01,5.833117365837097168e-01,5.392723679542541504e-01,5.437996387481689453e-01,5.403592586517333984e-01,5.603576302528381348e-01,5.894899964332580566e-01,6.102020144462585449e-01,6.216467618942260742e-01,6.383666992187500000e-01,6.546573042869567871e-01,6.569403409957885742e-01,6.625426411628723145e-01,6.619982123374938965e-01,6.624438166618347168e-01,6.621390581130981445e-01,6.620371341705322266e-01,6.619461774826049805e-01,6.618590354919433594e-01,6.617717146873474121e-01,6.616845130920410156e-01,6.615972518920898438e-01,6.615100502967834473e-01,6.614229679107666016e-01,6.613356471061706543e-01,6.612485647201538086e-01,6.611614823341369629e-01,6.610742807388305664e-01,6.609871983528137207e-01,6.609001159667968750e-01,6.608130931854248047e-01,6.607261300086975098e-01,6.606390476226806641e-01,6.605520844459533691e-01,6.604651212692260742e-01,6.603782773017883301e-01,6.602912545204162598e-01,6.602042913436889648e-01,6.601173877716064453e-01,6.600304245948791504e-01,6.599436998367309570e-01,6.598566770553588867e-01,6.597698926925659180e-01,6.596832275390625000e-01,6.595954298973083496e-01,6.595032811164855957e-01,6.594381332397460938e-01,6.593778133392333984e-01,6.591665744781494141e-01,6.589571237564086914e-01,6.586368083953857422e-01,6.574789285659790039e-01,6.554813981056213379e-01,6.523001790046691895e-01,6.490815877914428711e-01,6.442515850067138672e-01,6.403843164443969727e-01,6.306927800178527832e-01,6.032186746597290039e-01,5.958466529846191406e-01,6.114534735679626465e-01,5.967009067535400391e-01,5.878911614418029785e-01,5.268163084983825684e-01
5.116032958030700684e-01,4.894260466098785400e-01,5.142447948455810547e-01,4.909971058368682861e-01,4.925812482833862305e-01,5.011631250381469727e-01,5.197662115097045898e-01,5.277107954025268555e-01,5.347784161567687988e-01,5.394718647003173828e-01,5.456255078315734863e-01,5.500406026840209961e-01,5.496582984924316406e-01,5.495493412017822266e-01,5.508540272712707520e-01,5.269442200660705566e-01,5.126280188560485840e-01,5.066263079643249512e-01,4.863968491554260254e-01,4.859300851821899414e-01,4.931959509849548340e-01,5.071122646331787109e-01,5.165445804595947266e-01,5.323504805564880371e-01,5.465016365051269531e-01,5.578917264938354492e-01,5.669425129890441895e-01,5.698744058609008789e-01,5.699259638786315918e-01,5.694561004638671875e-01,5.700915455818176270e-01,5.698463320732116699e-01,5.697375535964965820e-01,5.696427822113037109e-01,5.695562362670898438e-01,5.694695711135864258e-01,5.693829655647277832e-01,5.692964792251586914e-01,5.692100524902343750e-01,5.691234469413757324e-01,5.690370202064514160e-01,5.689505338668823242e-01,5.688640475273132324e-01,5.687776803970336914e-01,5.686912536621093750e-01,5.686049461364746094e-01,5.685185790061950684e-01,5.684322714805603027e-01,5.683460235595703125e-01,5.682597756385803223e-01,5.681733489036560059e-01,5.680873394012451172e-01,5.680009722709655762e-01,5.679149031639099121e-01,5.678287744522094727e-01,5.677425861358642578e-01,5.676563382148742676e-01,5.675702095031738281e-01,5.674842000007629395e-01,5.673981904983520508e-01,5.673117041587829590e-01,5.672191977500915527e-01,5.671341419219970703e-01,5.670936703681945801e-01,5.670622587203979492e-01,5.669859051704406738e-01,5.667465329170227051e-01,5.662047266960144043e-01,5.646930336952209473e-01,5.622620582580566406e-01,5.591998696327209473e-01,5.555853247642517090e-01,5.536425113677978516e-01,5.454657673835754395e-01,5.214051604270935059e-01,5.172959566116333008e-01,5.383198857307434082e-01,5.279943346977233887e-01,5.396265983581542969e-01,4.964801073074340820e-01
4.905986189842224121e-01,4.557331800460815430e-01,4.713677465915679932e-01,4.409506916999816895e-01,4.362866282463073730e-01,4.406436979770660400e-01,4.540671110153198242e-01,4.581595659255981445e-01,4.624522924423217773e-01,4.647333920001983643e-01,4.680348038673400879e-01,4.704732894897460938e-01,4.713474214076995850e-01,4.742797613143920898e-01,4.736388921737670898e-01,4.597762525081634521e-01,4.485975801944732666e-01,4.411586523056030273e-01,4.314802885055541992e-01,4.274810552597045898e-01,4.313726425170898438e-01,4.444938302040100098e-01,4.492777287960052490e-01,4.606606364250183105e-01,4.700884819030761719e-01,4.780505299568176270e-01,4.793730676174163818e-01,4.818587303161621094e-01,4.822817742824554443e-01,4.822507798671722412e-01,4.819801449775695801e-01,4.819200634956359863e-01,4.818444848060607910e-01,4.817690849304199219e-01,4.816964268684387207e-01,4.816236793994903564e-01,4.815511107444763184e-01,4.814784228801727295e-01,4.814058840274810791e-01,4.813333451747894287e-01,4.812607765197753906e-01,4.811881482601165771e-01,4.811156988143920898e-01,4.810433089733123779e-01,4.809707701206207275e-01,4.808983802795410156e-01,4.808258712291717529e-01,4.807536005973815918e-01,4.806813001632690430e-01,4.806088805198669434e-01,4.805366992950439453e-01,4.804643094539642334e-01,4.803920984268188477e-01,4.803198277950286865e-01,4.802475571632385254e-01,4.801752567291259766e-01,4.801033139228820801e-01,4.800310134887695312e-01,4.799590110778808594e-01,4.798868000507354736e-01,4.798144996166229248e-01,4.797386229038238525e-01,4.796559512615203857e-01,4.795912206172943115e-01,4.795781672000885010e-01,4.795853495597839355e-01,4.795085787773132324e-01,4.794192314147949219e-01,4.788483083248138428e-01,4.778217673301696777e-01,4.768995046615600586e-01,4.753368496894836426e-01,4.753063321113586426e-01,4.694577753543853760e-01,4.494598805904388428e-01,4.482194185256958008e-01,4.717651307582855225e-01,4.687607288360595703e-01,4.949623942375183105e-01,4.690818190574645996e-01
4.694200754165649414e-01,4.224324524402618408e-01,4.285653531551361084e-01,3.950884044170379639e-01,3.841245770454406738e-01,3.856900036334991455e-01,3.961050808429718018e-01,3.990474343299865723e-01,4.020507335662841797e-01,4.031034708023071289e-01,4.047020673751831055e-01,4.053606986999511719e-01,4.054200649261474609e-01,4.074772894382476807e-01,4.053607285022735596e-01,3.964657187461853027e-01,3.899736404418945312e-01,3.850464820861816406e-01,3.841692209243774414e-01,3.842039108276367188e-01,3.846854567527770996e-01,3.909226655960083008e-01,3.938033282756805420e-01,3.971226215362548828e-01,4.018510580062866211e-01,4.068495631217956543e-01,4.090169072151184082e-01,4.104972183704376221e-01,4.098004996776580811e-01,4.099301099777221680e-01,4.097568988800048828e-01,4.096580147743225098e-01,4.096022844314575195e-01,4.095457196235656738e-01,4.094882011413574219e-01,4.094304740428924561e-01,4.093730449676513672e-01,4.093155264854431152e-01,4.092579782009124756e-01,4.092006385326385498e-01,4.091430902481079102e-01,4.090857505798339844e-01,4.090283513069152832e-01,4.089710116386413574e-01,4.089137911796569824e-01,4.088564217090606689e-01,4.087990522384643555e-01,4.087417125701904297e-01,4.086844921112060547e-01,4.086272120475769043e-01,4.085700511932373047e-01,4.085127115249633789e-01,4.084556400775909424e-01,4.083983898162841797e-01,4.083413481712341309e-01,4.082840085029602051e-01,4.082268774509429932e-01,4.081697762012481689e-01,4.081128537654876709e-01,4.080556929111480713e-01,4.079993665218353271e-01,4.079419076442718506e-01,4.078874588012695312e-01,4.078377485275268555e-01,4.078069925308227539e-01,4.077879190444946289e-01,4.078082740306854248e-01,4.077142477035522461e-01,4.073335528373718262e-01,4.064988195896148682e-01,4.056579172611236572e-01,4.045722186565399170e-01,4.052242040634155273e-01,4.015282392501831055e-01,3.856611847877502441e-01,3.876716494560241699e-01,4.134913980960845947e-01,4.177100956439971924e-01,4.560133814811706543e-01,4.460533261299133301e-01
4.513996541500091553e-01,3.938320577144622803e-01,3.929966390132904053e-01,3.573070764541625977e-01,3.413739502429962158e-01,3.406651020050048828e-01,3.481116890907287598e-01,3.498364090919494629e-01,3.515266478061676025e-01,3.518958091735839844e-01,3.524771928787231445e-01,3.528820574283599854e-01,3.536634147167205811e-01,3.543367981910705566e-01,3.540920317173004150e-01,3.507246971130371094e-01,3.445631861686706543e-01,3.404608368873596191e-01,3.430465459823608398e-01,3.381507396697998047e-01,3.400167524814605713e-01,3.468635678291320801e-01,3.456355035305023193e-01,3.501235842704772949e-01,3.522212505340576172e-01,3.535644412040710449e-01,3.530839085578918457e-01,3.536568582057952881e-01,3.537369966506958008e-01,3.536858558654785156e-01,3.535288572311401367e-01,3.534755110740661621e-01,3.534304499626159668e-01,3.533901572227478027e-01,3.533490896224975586e-01,3.533080816268920898e-01,3.532669842243194580e-01,3.532259464263916016e-01,3.531849384307861328e-01,3.531439900398254395e-01,3.531031012535095215e-01,3.530621528625488281e-01,3.530210852622985840e-01,3.529803156852722168e-01,3.529393076896667480e-01,3.528983891010284424e-01,3.528574109077453613e-01,3.528168201446533203e-01,3.527758121490478516e-01,3.527350127696990967e-01,3.526942729949951172e-01,3.526535034179687500e-01,3.526125550270080566e-01,3.525718450546264648e-01,3.525310754776000977e-01,3.524904251098632812e-01,3.524495065212249756e-01,3.524089455604553223e-01,3.523681461811065674e-01,3.523274958133697510e-01,3.522870242595672607e-01,3.522465825080871582e-01,3.522037267684936523e-01,3.521749973297119141e-01,3.521364927291870117e-01,3.520814478397369385e-01,3.520857095718383789e-01,3.521303534507751465e-01,3.520796597003936768e-01,3.520025014877319336e-01,3.517425060272216797e-01,3.512868285179138184e-01,3.521228432655334473e-01,3.494935035705566406e-01,3.363060355186462402e-01,3.391750752925872803e-01,3.653264641761779785e-01,3.756886124610900879e-01,4.224468767642974854e-01,4.258209764957427979e-01
4.349705874919891357e-01,3.689488470554351807e-01,3.612800836563110352e-01,3.251708149909973145e-01,3.061358332633972168e-01,3.047624230384826660e-01,3.108683824539184570e-01,3.122559487819671631e-01,3.134148120880126953e-01,3.133914172649383545e-01,3.133724331855773926e-01,3.134436607360839844e-01,3.135522007942199707e-01,3.134504854679107666e-01,3.135218620300292969e-01,3.118559718132019043e-01,3.088795244693756104e-01,3.079209327697753906e-01,3.075705766677856445e-01,3.067258298397064209e-01,3.086141645908355713e-01,3.103362917900085449e-01,3.103966414928436279e-01,3.124893903732299805e-01,3.124002218246459961e-01,3.132786750793457031e-01,3.133245706558227539e-01,3.134363293647766113e-01,3.132708072662353516e-01,3.132241070270538330e-01,3.131482601165771484e-01,3.131219148635864258e-01,3.130872249603271484e-01,3.130571246147155762e-01,3.130272626876831055e-01,3.129975497722625732e-01,3.129676878452301025e-01,3.129379749298095703e-01,3.129081726074218750e-01,3.128784000873565674e-01,3.128488063812255859e-01,3.128189444541931152e-01,3.127889931201934814e-01,3.127595186233520508e-01,3.127297163009643555e-01,3.127000331878662109e-01,3.126703500747680664e-01,3.126406073570251465e-01,3.126109242439270020e-01,3.125814199447631836e-01,3.125514984130859375e-01,3.125219643115997314e-01,3.124923706054687500e-01,3.124627470970153809e-01,3.124332129955291748e-01,3.124034404754638672e-01,3.123738169670104980e-01,3.123442530632019043e-01,3.123145103454589844e-01,3.122850954532623291e-01,3.122557997703552246e-01,3.122263848781585693e-01,3.121972680091857910e-01,3.121654689311981201e-01,3.121349215507507324e-01,3.121052086353302002e-01,3.120646774768829346e-01,3.120131492614746094e-01,3.119886517524719238e-01,3.118718266487121582e-01,3.117360174655914307e-01,3.115178644657135010e-01,3.122605979442596436e-01,3.104330897331237793e-01,2.992416620254516602e-01,3.025996088981628418e-01,3.288316130638122559e-01,3.441989719867706299e-01,3.968338072299957275e-01,4.101063013076782227e-01
4.212147295475006104e-01,3.491326570510864258e-01,3.364118337631225586e-01,2.999974191188812256e-01,2.791744172573089600e-01,2.769984900951385498e-01,2.819510698318481445e-01,2.831172943115234375e-01,2.840043604373931885e-01,2.838781476020812988e-01,2.838142514228820801e-01,2.838590741157531738e-01,2.839103937149047852e-01,2.837876379489898682e-01,2.839687168598175049e-01,2.834753096103668213e-01,2.825332581996917725e-01,2.814632058143615723e-01,2.815774679183959961e-01,2.810262441635131836e-01,2.814702391624450684e-01,2.823469042778015137e-01,2.828203439712524414e-01,2.837155759334564209e-01,2.831067740917205811e-01,2.835865318775177002e-01,2.836948931217193604e-01,2.834828495979309082e-01,2.834853231906890869e-01,2.834234833717346191e-01,2.833908200263977051e-01,2.833701968193054199e-01,2.833468317985534668e-01,2.833254039287567139e-01,2.833036780357360840e-01,2.832820415496826172e-01,2.832604646682739258e-01,2.832388877868652344e-01,2.832172811031341553e-01,2.831957340240478516e-01,2.831742465496063232e-01,2.831527888774871826e-01,2.831311225891113281e-01,2.831094861030578613e-01,2.830879092216491699e-01,2.830663919448852539e-01,2.830448746681213379e-01,2.830233275890350342e-01,2.830017209053039551e-01,2.829802930355072021e-01,2.829587459564208984e-01,2.829371690750122070e-01,2.829157710075378418e-01,2.828941941261291504e-01,2.828725278377532959e-01,2.828512191772460938e-01,2.828297615051269531e-01,2.828082740306854248e-01,2.827869057655334473e-01,2.827653884887695312e-01,2.827440202236175537e-01,2.827228307723999023e-01,2.827010154724121094e-01,2.826803326606750488e-01,2.826588153839111328e-01,2.826337218284606934e-01,2.826105654239654541e-01,2.826012074947357178e-01,2.825921773910522461e-01,2.825911641120910645e-01,2.825722694396972656e-01,2.824636697769165039e-01,2.831040024757385254e-01,2.817936539649963379e-01,2.718693315982818604e-01,2.751448750495910645e-01,3.007483482360839844e-01,3.195699453353881836e-01,3.763038516044616699e-01,3.975823223590850830e-01
4.091774225234985352e-01,3.324935734272003174e-01,3.159816861152648926e-01,2.799525260925292969e-01,2.584261894226074219e-01,2.558352947235107422e-01,2.600296139717102051e-01,2.610223293304443359e-01,2.617991268634796143e-01,2.617084383964538574e-01,2.616525888442993164e-01,2.616549730300903320e-01,2.616440653800964355e-01,2.615315914154052734e-01,2.615752220153808594e-01,2.615492343902587891e-01,2.611125707626342773e-01,2.605891823768615723e-01,2.605755329132080078e-01,2.608714401721954346e-01,2.610812783241271973e-01,2.613494992256164551e-01,2.613413631916046143e-01,2.614549994468688965e-01,2.613143026828765869e-01,2.613075673580169678e-01,2.615313827991485596e-01,2.614105939865112305e-01,2.613893747329711914e-01,2.613523602485656738e-01,2.613302469253540039e-01,2.613169848918914795e-01,2.613001465797424316e-01,2.612839341163635254e-01,2.612674832344055176e-01,2.612509131431579590e-01,2.612345814704895020e-01,2.612181007862091064e-01,2.612018585205078125e-01,2.611852884292602539e-01,2.611690163612365723e-01,2.611525058746337891e-01,2.611361742019653320e-01,2.611196637153625488e-01,2.611033320426940918e-01,2.610866427421569824e-01,2.610705792903900146e-01,2.610539793968200684e-01,2.610377073287963867e-01,2.610213458538055420e-01,2.610049247741699219e-01,2.609884440898895264e-01,2.609720826148986816e-01,2.609557509422302246e-01,2.609393000602722168e-01,2.609231472015380859e-01,2.609068155288696289e-01,2.608905732631683350e-01,2.608740925788879395e-01,2.608576118946075439e-01,2.608413696289062500e-01,2.608251571655273438e-01,2.608088850975036621e-01,2.607921957969665527e-01,2.607757747173309326e-01,2.607589662075042725e-01,2.607416212558746338e-01,2.607261836528778076e-01,2.607112228870391846e-01,2.606957852840423584e-01,2.606803178787231445e-01,2.606022655963897705e-01,2.611205577850341797e-01,2.600743770599365234e-01,2.511767745018005371e-01,2.544548809528350830e-01,2.794663310050964355e-01,3.010009527206420898e-01,3.605886995792388916e-01,3.876355886459350586e-01
3.991112709045410156e-01,3.188935518264770508e-01,2.997294068336486816e-01,2.643899917602539062e-01,2.423070967197418213e-01,2.394192814826965332e-01,2.430800497531890869e-01,2.439705729484558105e-01,2.446638941764831543e-01,2.445990443229675293e-01,2.445612847805023193e-01,2.445618510246276855e-01,2.445466518402099609e-01,2.444489896297454834e-01,2.445508837699890137e-01,2.446511089801788330e-01,2.444407045841217041e-01,2.441610097885131836e-01,2.441923618316650391e-01,2.440546452999114990e-01,2.443361878395080566e-01,2.444701790809631348e-01,2.443302869796752930e-01,2.444493472576141357e-01,2.444684505462646484e-01,2.443824708461761475e-01,2.443666756153106689e-01,2.443213462829589844e-01,2.443289458751678467e-01,2.443128824234008789e-01,2.442983984947204590e-01,2.442859709262847900e-01,2.442731559276580811e-01,2.442602813243865967e-01,2.442474365234375000e-01,2.442344427108764648e-01,2.442216575145721436e-01,2.442087531089782715e-01,2.441956996917724609e-01,2.441828846931457520e-01,2.441700696945190430e-01,2.441571950912475586e-01,2.441445291042327881e-01,2.441315650939941406e-01,2.441185712814331055e-01,2.441060841083526611e-01,2.440931499004364014e-01,2.440801262855529785e-01,2.440673708915710449e-01,2.440544664859771729e-01,2.440418601036071777e-01,2.440289258956909180e-01,2.440160512924194336e-01,2.440031468868255615e-01,2.439904510974884033e-01,2.439776957035064697e-01,2.439648509025573730e-01,2.439519464969635010e-01,2.439392209053039551e-01,2.439264655113220215e-01,2.439136505126953125e-01,2.439008057117462158e-01,2.438881099224090576e-01,2.438753247261047363e-01,2.438623011112213135e-01,2.438491582870483398e-01,2.438359260559082031e-01,2.438225746154785156e-01,2.438097596168518066e-01,2.437967061996459961e-01,2.437837123870849609e-01,2.437196969985961914e-01,2.441442608833312988e-01,2.433088421821594238e-01,2.352295517921447754e-01,2.385413348674774170e-01,2.629385590553283691e-01,2.863722741603851318e-01,3.479843735694885254e-01,3.796847164630889893e-01
3.908099830150604248e-01,3.077798485755920410e-01,2.866292595863342285e-01,2.519695162773132324e-01,2.295337617397308350e-01,2.264067828655242920e-01,2.296727001667022705e-01,2.304628789424896240e-01,2.310854494571685791e-01,2.310298383235931396e-01,2.310008406639099121e-01,2.309955358505249023e-01,2.309741377830505371e-01,2.309373021125793457e-01,2.309570312500000000e-01,2.309696972370147705e-01,2.309364378452301025e-01,2.308652102947235107e-01,2.307881116867065430e-01,2.308619320392608643e-01,2.308980524539947510e-01,2.308905124664306641e-01,2.308754026889801025e-01,2.308495640754699707e-01,2.308495342731475830e-01,2.308633625507354736e-01,2.308475375175476074e-01,2.308302819728851318e-01,2.308113276958465576e-01,2.308050394058227539e-01,2.307963073253631592e-01,2.307853996753692627e-01,2.307748794555664062e-01,2.307644784450531006e-01,2.307541668415069580e-01,2.307439744472503662e-01,2.307334542274475098e-01,2.307232618331909180e-01,2.307128310203552246e-01,2.307024300098419189e-01,2.306922078132629395e-01,2.306819260120391846e-01,2.306715846061706543e-01,2.306612730026245117e-01,2.306508719921112061e-01,2.306406795978546143e-01,2.306305766105651855e-01,2.306200563907623291e-01,2.306097149848937988e-01,2.305994629859924316e-01,2.305890023708343506e-01,2.305788099765777588e-01,2.305684685707092285e-01,2.305581271648406982e-01,2.305478453636169434e-01,2.305374741554260254e-01,2.305272817611694336e-01,2.305168211460113525e-01,2.305066287517547607e-01,2.304964065551757812e-01,2.304861247539520264e-01,2.304759025573730469e-01,2.304654419422149658e-01,2.304552793502807617e-01,2.304449975490570068e-01,2.304345667362213135e-01,2.304243445396423340e-01,2.304140925407409668e-01,2.304036617279052734e-01,2.303934395313262939e-01,2.303828299045562744e-01,2.303293347358703613e-01,2.306854128837585449e-01,2.300090491771697998e-01,2.225939631462097168e-01,2.259172201156616211e-01,2.498123347759246826e-01,2.745956778526306152e-01,3.377305865287780762e-01,3.732004165649414062e-01
3.838110864162445068e-01,2.985786795616149902e-01,2.758305966854095459e-01,2.418460249900817871e-01,2.191911637783050537e-01,2.158586382865905762e-01,2.188143432140350342e-01,2.195158302783966064e-01,2.200822830200195312e-01,2.200345098972320557e-01,2.200110554695129395e-01,2.200032770633697510e-01,2.199924290180206299e-01,2.199815809726715088e-01,2.199863195419311523e-01,2.199876010417938232e-01,2.199774682521820068e-01,2.199403643608093262e-01,2.199387848377227783e-01,2.199130654335021973e-01,2.199304997920989990e-01,2.199139297008514404e-01,2.199142873287200928e-01,2.199071943759918213e-01,2.199007570743560791e-01,2.198867797851562500e-01,2.198754549026489258e-01,2.198669016361236572e-01,2.198596894741058350e-01,2.198490202426910400e-01,2.198418080806732178e-01,2.198332548141479492e-01,2.198245823383331299e-01,2.198162078857421875e-01,2.198076546192169189e-01,2.197991609573364258e-01,2.197908163070678711e-01,2.197822332382202148e-01,2.197736799716949463e-01,2.197652757167816162e-01,2.197569310665130615e-01,2.197484076023101807e-01,2.197399139404296875e-01,2.197313010692596436e-01,2.197232544422149658e-01,2.197145223617553711e-01,2.197061479091644287e-01,2.196977734565734863e-01,2.196891307830810547e-01,2.196808457374572754e-01,2.196722328662872314e-01,2.196637988090515137e-01,2.196553945541381836e-01,2.196469306945800781e-01,2.196385264396667480e-01,2.196299433708190918e-01,2.196215689182281494e-01,2.196132242679595947e-01,2.196047604084014893e-01,2.195962369441986084e-01,2.195880115032196045e-01,2.195793986320495605e-01,2.195710539817810059e-01,2.195623517036437988e-01,2.195541858673095703e-01,2.195456624031066895e-01,2.195371687412261963e-01,2.195290625095367432e-01,2.195205092430114746e-01,2.195120453834533691e-01,2.195028364658355713e-01,2.194581627845764160e-01,2.197630703449249268e-01,2.192142009735107422e-01,2.123449146747589111e-01,2.156737148761749268e-01,2.391579747200012207e-01,2.649279832839965820e-01,3.292297422885894775e-01,3.678080737590789795e-01
3.778378069400787354e-01,2.908447980880737305e-01,2.668076753616333008e-01,2.334594726562500000e-01,2.106592059135437012e-01,2.071495652198791504e-01,2.098534405231475830e-01,2.104771435260772705e-01,2.109946906566619873e-01,2.109528779983520508e-01,2.109323740005493164e-01,2.109251022338867188e-01,2.109177708625793457e-01,2.109108567237854004e-01,2.109038233757019043e-01,2.109001874923706055e-01,2.108918726444244385e-01,2.108811438083648682e-01,2.108765542507171631e-01,2.108718752861022949e-01,2.108615040779113770e-01,2.108522653579711914e-01,2.108465433120727539e-01,2.108424305915832520e-01,2.108342945575714111e-01,2.108258306980133057e-01,2.108180224895477295e-01,2.108113765716552734e-01,2.108057737350463867e-01,2.107982337474822998e-01,2.107911407947540283e-01,2.107840776443481445e-01,2.107771933078765869e-01,2.107700109481811523e-01,2.107630074024200439e-01,2.107558548450469971e-01,2.107487916946411133e-01,2.107417285442352295e-01,2.107346057891845703e-01,2.107277512550354004e-01,2.107206284999847412e-01,2.107134461402893066e-01,2.107065320014953613e-01,2.106993794441223145e-01,2.106924355030059814e-01,2.106853127479553223e-01,2.106783688068389893e-01,2.106714248657226562e-01,2.106642127037048340e-01,2.106570303440093994e-01,2.106500566005706787e-01,2.106432020664215088e-01,2.106360793113708496e-01,2.106289863586425781e-01,2.106219232082366943e-01,2.106149792671203613e-01,2.106078863143920898e-01,2.106009125709533691e-01,2.105938196182250977e-01,2.105869948863983154e-01,2.105798125267028809e-01,2.105726897716522217e-01,2.105656564235687256e-01,2.105587124824523926e-01,2.105516195297241211e-01,2.105446457862854004e-01,2.105374634265899658e-01,2.105304896831512451e-01,2.105233967304229736e-01,2.105164527893066406e-01,2.105087041854858398e-01,2.104700207710266113e-01,2.107364535331726074e-01,2.102892696857452393e-01,2.038738429546356201e-01,2.072034478187561035e-01,2.303388416767120361e-01,2.568515539169311523e-01,3.220625519752502441e-01,3.632457256317138672e-01
