5.834024548530578613e-01,5.976880788803100586e-01,6.267715692520141602e-01,6.188142299652099609e-01,6.430591344833374023e-01,6.539349555969238281e-01,6.840584874153137207e-01,6.985641717910766602e-01,7.111521959304809570e-01,7.133151292800903320e-01,7.154320478439331055e-01,7.183644175529479980e-01,7.236561775207519531e-01,7.117165923118591309e-01,6.915036439895629883e-01,6.657783985137939453e-01,6.402272582054138184e-01,6.114386320114135742e-01,6.086342930793762207e-01,5.998873710632324219e-01,5.920345783233642578e-01,6.088968515396118164e-01,6.304619312286376953e-01,6.661504507064819336e-01,6.869598031044006348e-01,7.104414105415344238e-01,7.347402572631835938e-01,7.739858627319335938e-01,7.964295148849487305e-01,8.047110438346862793e-01,8.133525848388671875e-01,8.231643438339233398e-01,8.252240419387817383e-01,8.287988305091857910e-01,8.291825652122497559e-01,8.297420740127563477e-01,8.297180533409118652e-01,8.297177553176879883e-01,8.297177553176879883e-01,8.297177553176879883e-01,8.297177553176879883e-01,8.297177553176879883e-01,8.297177553176879883e-01,8.297177553176879883e-01,8.297177553176879883e-01,8.297177553176879883e-01,8.297177553176879883e-01,8.297177553176879883e-01,8.297177553176879883e-01,8.297177553176879883e-01,8.297177553176879883e-01,8.297177553176879883e-01,8.297177553176879883e-01,8.297177553176879883e-01,8.297177553176879883e-01,8.297177553176879883e-01,8.297177553176879883e-01,8.297177553176879883e-01,8.297177553176879883e-01,8.297177553176879883e-01,8.297183513641357422e-01,8.297199010848999023e-01,8.297309875488281250e-01,8.296777009963989258e-01,8.294304013252258301e-01,8.290033340454101562e-01,8.281319141387939453e-01,8.263173103332519531e-01,8.234797120094299316e-01,8.194962739944458008e-01,8.142957091331481934e-01,8.066040873527526855e-01,7.968276739120483398e-01,7.858006954193115234e-01,7.639678120613098145e-01,7.405082583427429199e-01,7.343804240226745605e-01,7.291400432586669922e-01,6.448091864585876465e-01,5.760591626167297363e-01
5.795493125915527344e-01,5.981958508491516113e-01,6.480002403259277344e-01,6.185337305068969727e-01,6.515257954597473145e-01,6.740317344665527344e-01,7.057633996009826660e-01,7.269765138626098633e-01,7.389638423919677734e-01,7.439038753509521484e-01,7.484808564186096191e-01,7.519481778144836426e-01,7.435750961303710938e-01,7.327272295951843262e-01,6.973556876182556152e-01,6.653087735176086426e-01,6.300528049468994141e-01,6.132598519325256348e-01,5.853185057640075684e-01,5.653691291809082031e-01,5.615878105163574219e-01,5.694571733474731445e-01,6.191605925559997559e-01,6.507284641265869141e-01,6.904432177543640137e-01,7.197845578193664551e-01,7.677034139633178711e-01,8.031205534934997559e-01,8.316930532455444336e-01,8.472594022750854492e-01,8.575757741928100586e-01,8.640162944793701172e-01,8.688158988952636719e-01,8.721767663955688477e-01,8.732415437698364258e-01,8.736072778701782227e-01,8.736113905906677246e-01,8.736065626144409180e-01,8.736065626144409180e-01,8.736065626144409180e-01,8.736065626144409180e-01,8.736065626144409180e-01,8.736065626144409180e-01,8.736065626144409180e-01,8.736065626144409180e-01,8.736065626144409180e-01,8.736065626144409180e-01,8.736065626144409180e-01,8.736065626144409180e-01,8.736065626144409180e-01,8.736065626144409180e-01,8.736065626144409180e-01,8.736065626144409180e-01,8.736065626144409180e-01,8.736065626144409180e-01,8.736065626144409180e-01,8.736065626144409180e-01,8.736065626144409180e-01,8.736065626144409180e-01,8.736065626144409180e-01,8.736073970794677734e-01,8.736078739166259766e-01,8.735968470573425293e-01,8.734918832778930664e-01,8.732705116271972656e-01,8.728839755058288574e-01,8.715966939926147461e-01,8.696141242980957031e-01,8.668367862701416016e-01,8.627976179122924805e-01,8.571885824203491211e-01,8.482738137245178223e-01,8.390411138534545898e-01,8.248978853225708008e-01,7.998248338699340820e-01,7.775604724884033203e-01,7.645374536514282227e-01,7.502849102020263672e-01,6.782302856445312500e-01,5.986379981040954590e-01
5.915910005569458008e-01,6.111655235290527344e-01,6.348221302032470703e-01,6.224904656410217285e-01,6.499764323234558105e-01,6.737099885940551758e-01,7.132439613342285156e-01,7.330909967422485352e-01,7.436987161636352539e-01,7.498136758804321289e-01,7.524173259735107422e-01,7.527211904525756836e-01,7.466440200805664062e-01,7.177337408065795898e-01,6.741175651550292969e-01,6.407445669174194336e-01,6.066272258758544922e-01,5.711934566497802734e-01,5.473989844322204590e-01,5.200254321098327637e-01,5.225327014923095703e-01,5.308943986892700195e-01,5.674037933349609375e-01,6.186744570732116699e-01,6.499853730201721191e-01,7.049890756607055664e-01,7.477903962135314941e-01,7.963258028030395508e-01,8.269007205963134766e-01,8.449840545654296875e-01,8.597651720046997070e-01,8.696953654289245605e-01,8.750363588333129883e-01,8.803547024726867676e-01,8.813567757606506348e-01,8.817542195320129395e-01,8.817633390426635742e-01,8.817465305328369141e-01,8.817465305328369141e-01,8.817465305328369141e-01,8.817465305328369141e-01,8.817465305328369141e-01,8.817465305328369141e-01,8.817465305328369141e-01,8.817465305328369141e-01,8.817465305328369141e-01,8.817465305328369141e-01,8.817465305328369141e-01,8.817465305328369141e-01,8.817465305328369141e-01,8.817465305328369141e-01,8.817465305328369141e-01,8.817465305328369141e-01,8.817465305328369141e-01,8.817465305328369141e-01,8.817465305328369141e-01,8.817465305328369141e-01,8.817465305328369141e-01,8.817465305328369141e-01,8.817465305328369141e-01,8.817470073699951172e-01,8.817480802536010742e-01,8.817404508590698242e-01,8.816744089126586914e-01,8.815388679504394531e-01,8.809620141983032227e-01,8.796998262405395508e-01,8.776178359985351562e-01,8.748981952667236328e-01,8.710981011390686035e-01,8.653819561004638672e-01,8.571844100952148438e-01,8.473749160766601562e-01,8.313039541244506836e-01,8.018580675125122070e-01,7.748316526412963867e-01,7.663229703903198242e-01,7.447319030761718750e-01,6.771140098571777344e-01,5.832110643386840820e-01
5.759838819503784180e-01,5.908476710319519043e-01,6.342781186103820801e-01,6.279326081275939941e-01,6.463930606842041016e-01,6.692247986793518066e-01,7.084112167358398438e-01,7.277666330337524414e-01,7.425275444984436035e-01,7.489244341850280762e-01,7.491658926010131836e-01,7.432206273078918457e-01,7.253758907318115234e-01,7.023507356643676758e-01,6.431779265403747559e-01,6.008643507957458496e-01,5.543610453605651855e-01,5.106877088546752930e-01,4.703012704849243164e-01,4.649136364459991455e-01,4.662858843803405762e-01,4.886402487754821777e-01,5.240523815155029297e-01,5.868521332740783691e-01,6.169031858444213867e-01,6.560951471328735352e-01,7.232862710952758789e-01,7.731813192367553711e-01,8.156285285949707031e-01,8.414070010185241699e-01,8.611034154891967773e-01,8.701093196868896484e-01,8.774214982986450195e-01,8.840815424919128418e-01,8.851011991500854492e-01,8.854202032089233398e-01,8.854143619537353516e-01,8.854037523269653320e-01,8.854033946990966797e-01,8.854033946990966797e-01,8.854033946990966797e-01,8.854033946990966797e-01,8.854033946990966797e-01,8.854033946990966797e-01,8.854033946990966797e-01,8.854033946990966797e-01,8.854033946990966797e-01,8.854033946990966797e-01,8.854033946990966797e-01,8.854033946990966797e-01,8.854033946990966797e-01,8.854033946990966797e-01,8.854033946990966797e-01,8.854033946990966797e-01,8.854033946990966797e-01,8.854033946990966797e-01,8.854033946990966797e-01,8.854033946990966797e-01,8.854033946990966797e-01,8.854033946990966797e-01,8.854037523269653320e-01,8.854061365127563477e-01,8.854007720947265625e-01,8.853732943534851074e-01,8.852573633193969727e-01,8.845685720443725586e-01,8.830138444900512695e-01,8.810085058212280273e-01,8.780159950256347656e-01,8.743044137954711914e-01,8.680227994918823242e-01,8.589202761650085449e-01,8.470520973205566406e-01,8.327413797378540039e-01,7.983231544494628906e-01,7.725981473922729492e-01,7.662476301193237305e-01,7.430700063705444336e-01,6.942275762557983398e-01,5.934387445449829102e-01
5.856012105941772461e-01,6.094908714294433594e-01,6.510223746299743652e-01,6.518368124961853027e-01,6.743537187576293945e-01,6.976680755615234375e-01,7.333862781524658203e-01,7.515711784362792969e-01,7.619475126266479492e-01,7.691361904144287109e-01,7.661238908767700195e-01,7.659606933593750000e-01,7.527416944503784180e-01,7.190707325935363770e-01,6.518827676773071289e-01,5.977373123168945312e-01,5.542966723442077637e-01,5.238307118415832520e-01,4.984009265899658203e-01,4.785547256469726562e-01,4.814667701721191406e-01,4.921409189701080322e-01,5.385532379150390625e-01,5.777836441993713379e-01,6.141998767852783203e-01,6.621680259704589844e-01,7.245658636093139648e-01,7.846032381057739258e-01,8.265501260757446289e-01,8.517901897430419922e-01,8.716790080070495605e-01,8.811385631561279297e-01,8.899165391921997070e-01,8.957035541534423828e-01,8.971173167228698730e-01,8.974950313568115234e-01,8.974918127059936523e-01,8.974795341491699219e-01,8.974796533584594727e-01,8.974796533584594727e-01,8.974796533584594727e-01,8.974796533584594727e-01,8.974796533584594727e-01,8.974796533584594727e-01,8.974796533584594727e-01,8.974796533584594727e-01,8.974796533584594727e-01,8.974796533584594727e-01,8.974796533584594727e-01,8.974796533584594727e-01,8.974796533584594727e-01,8.974796533584594727e-01,8.974796533584594727e-01,8.974796533584594727e-01,8.974796533584594727e-01,8.974796533584594727e-01,8.974796533584594727e-01,8.974796533584594727e-01,8.974796533584594727e-01,8.974796533584594727e-01,8.974802494049072266e-01,8.974832296371459961e-01,8.974844217300415039e-01,8.975172042846679688e-01,8.973149061203002930e-01,8.965862989425659180e-01,8.951684236526489258e-01,8.932806253433227539e-01,8.911216855049133301e-01,8.871865868568420410e-01,8.810497522354125977e-01,8.720312118530273438e-01,8.623293638229370117e-01,8.480494618415832520e-01,8.182774782180786133e-01,7.959858179092407227e-01,7.858514189720153809e-01,7.581067085266113281e-01,7.064216732978820801e-01,6.076664924621582031e-01
5.862094163894653320e-01,6.089256405830383301e-01,6.536279916763305664e-01,6.547069549560546875e-01,6.780179142951965332e-01,7.026344537734985352e-01,7.384501695632934570e-01,7.586837410926818848e-01,7.702960371971130371e-01,7.753686308860778809e-01,7.757691740989685059e-01,7.693653106689453125e-01,7.574896812438964844e-01,7.182381749153137207e-01,6.638880968093872070e-01,6.003355979919433594e-01,5.586417317390441895e-01,5.214148759841918945e-01,4.961708784103393555e-01,4.698296487331390381e-01,4.676092267036437988e-01,4.804634749889373779e-01,5.086563229560852051e-01,5.636053085327148438e-01,6.100289821624755859e-01,6.628004908561706543e-01,7.126400470733642578e-01,7.879627943038940430e-01,8.355629444122314453e-01,8.577268123626708984e-01,8.790339827537536621e-01,8.874063491821289062e-01,8.960312604904174805e-01,9.015297889709472656e-01,9.027179479598999023e-01,9.031915664672851562e-01,9.031623601913452148e-01,9.031511545181274414e-01,9.031499028205871582e-01,9.031499028205871582e-01,9.031499028205871582e-01,9.031499028205871582e-01,9.031499028205871582e-01,9.031499028205871582e-01,9.031499028205871582e-01,9.031499028205871582e-01,9.031499028205871582e-01,9.031499028205871582e-01,9.031499028205871582e-01,9.031499028205871582e-01,9.031499028205871582e-01,9.031499028205871582e-01,9.031499028205871582e-01,9.031499028205871582e-01,9.031499028205871582e-01,9.031499028205871582e-01,9.031499028205871582e-01,9.031499028205871582e-01,9.031499028205871582e-01,9.031499028205871582e-01,9.031504988670349121e-01,9.031525850296020508e-01,9.031727313995361328e-01,9.031926393508911133e-01,9.029688835144042969e-01,9.022175073623657227e-01,9.009394049644470215e-01,8.995095491409301758e-01,8.970088362693786621e-01,8.931938409805297852e-01,8.870416879653930664e-01,8.788648843765258789e-01,8.685718774795532227e-01,8.554655313491821289e-01,8.276736736297607422e-01,8.058680295944213867e-01,7.978023886680603027e-01,7.732263207435607910e-01,7.197756171226501465e-01,6.134904623031616211e-01
5.891789793968200684e-01,6.140738725662231445e-01,6.573623418807983398e-01,6.578766107559204102e-01,6.817395687103271484e-01,7.062072753906250000e-01,7.427142262458801270e-01,7.631707191467285156e-01,7.766211032867431641e-01,7.837576866149902344e-01,7.808870077133178711e-01,7.736496329307556152e-01,7.619092464447021484e-01,7.390736341476440430e-01,6.661768555641174316e-01,6.012289524078369141e-01,5.527446866035461426e-01,5.206290483474731445e-01,4.948928952217102051e-01,4.716736674308776855e-01,4.704010188579559326e-01,4.816269576549530029e-01,5.082839131355285645e-01,5.493608713150024414e-01,6.086196899414062500e-01,6.532658934593200684e-01,7.063798904418945312e-01,7.836042642593383789e-01,8.392027616500854492e-01,8.586021661758422852e-01,8.823885321617126465e-01,8.903726339340209961e-01,8.981330394744873047e-01,9.041529893875122070e-01,9.051536321640014648e-01,9.055923223495483398e-01,9.056104421615600586e-01,9.055957794189453125e-01,9.055932760238647461e-01,9.055932760238647461e-01,9.055932760238647461e-01,9.055932760238647461e-01,9.055932760238647461e-01,9.055932760238647461e-01,9.055932760238647461e-01,9.055932760238647461e-01,9.055932760238647461e-01,9.055932760238647461e-01,9.055932760238647461e-01,9.055932760238647461e-01,9.055932760238647461e-01,9.055932760238647461e-01,9.055932760238647461e-01,9.055932760238647461e-01,9.055932760238647461e-01,9.055932760238647461e-01,9.055932760238647461e-01,9.055932760238647461e-01,9.055932760238647461e-01,9.055932760238647461e-01,9.055936336517333984e-01,9.055963754653930664e-01,9.056217670440673828e-01,9.056230783462524414e-01,9.053977131843566895e-01,9.047108888626098633e-01,9.036213159561157227e-01,9.019794464111328125e-01,8.994618654251098633e-01,8.957190513610839844e-01,8.896174430847167969e-01,8.807696700096130371e-01,8.713616132736206055e-01,8.590610027313232422e-01,8.305629491806030273e-01,8.090398311614990234e-01,8.007913827896118164e-01,7.751325964927673340e-01,7.216400504112243652e-01,6.156529188156127930e-01
5.886972546577453613e-01,6.143177747726440430e-01,6.567450761795043945e-01,6.576005220413208008e-01,6.811972260475158691e-01,7.055269479751586914e-01,7.432270646095275879e-01,7.643058896064758301e-01,7.785517573356628418e-01,7.873266935348510742e-01,7.890343666076660156e-01,7.752646207809448242e-01,7.680009007453918457e-01,7.318038344383239746e-01,6.835330724716186523e-01,6.069012284278869629e-01,5.572315454483032227e-01,5.172765851020812988e-01,4.943589568138122559e-01,4.724396765232086182e-01,4.680842459201812744e-01,4.736637175083160400e-01,5.090695023536682129e-01,5.507265329360961914e-01,6.165934801101684570e-01,6.618505120277404785e-01,7.054766416549682617e-01,7.790101766586303711e-01,8.350800871849060059e-01,8.587510585784912109e-01,8.825097084045410156e-01,8.926786184310913086e-01,8.980311155319213867e-01,9.033715724945068359e-01,9.048361778259277344e-01,9.053109884262084961e-01,9.053351879119873047e-01,9.053124189376831055e-01,9.053092002868652344e-01,9.053092002868652344e-01,9.053092002868652344e-01,9.053092002868652344e-01,9.053092002868652344e-01,9.053092002868652344e-01,9.053092002868652344e-01,9.053092002868652344e-01,9.053092002868652344e-01,9.053092002868652344e-01,9.053092002868652344e-01,9.053092002868652344e-01,9.053092002868652344e-01,9.053092002868652344e-01,9.053092002868652344e-01,9.053092002868652344e-01,9.053092002868652344e-01,9.053092002868652344e-01,9.053092002868652344e-01,9.053092002868652344e-01,9.053092002868652344e-01,9.053092002868652344e-01,9.053095579147338867e-01,9.053115844726562500e-01,9.053359031677246094e-01,9.053480625152587891e-01,9.051195383071899414e-01,9.044816493988037109e-01,9.033946990966796875e-01,9.016045928001403809e-01,8.991289734840393066e-01,8.952393531799316406e-01,8.887597322463989258e-01,8.801454901695251465e-01,8.711622357368469238e-01,8.581221699714660645e-01,8.292396068572998047e-01,8.083747625350952148e-01,8.007947802543640137e-01,7.746152877807617188e-01,7.219855785369873047e-01,6.160558462142944336e-01
5.887225866317749023e-01,6.143062114715576172e-01,6.569182872772216797e-01,6.577447652816772461e-01,6.812558174133300781e-01,7.054169774055480957e-01,7.429447174072265625e-01,7.642923593521118164e-01,7.788946628570556641e-01,7.871389985084533691e-01,7.919065356254577637e-01,7.771525979042053223e-01,7.738229036331176758e-01,7.518525123596191406e-01,6.950308680534362793e-01,6.126182079315185547e-01,5.594245791435241699e-01,5.224256515502929688e-01,4.969442188739776611e-01,4.908765256404876709e-01,4.818273186683654785e-01,4.768172502517700195e-01,5.101655721664428711e-01,5.485901236534118652e-01,6.277692317962646484e-01,6.631786823272705078e-01,7.134878635406494141e-01,7.815634608268737793e-01,8.321356773376464844e-01,8.567476272583007812e-01,8.826081752777099609e-01,8.918911814689636230e-01,8.985222578048706055e-01,9.034596085548400879e-01,9.052336215972900391e-01,9.053109288215637207e-01,9.053665399551391602e-01,9.053363800048828125e-01,9.053338766098022461e-01,9.053338766098022461e-01,9.053338766098022461e-01,9.053338766098022461e-01,9.053338766098022461e-01,9.053338766098022461e-01,9.053338766098022461e-01,9.053338766098022461e-01,9.053338766098022461e-01,9.053338766098022461e-01,9.053338766098022461e-01,9.053338766098022461e-01,9.053338766098022461e-01,9.053338766098022461e-01,9.053338766098022461e-01,9.053338766098022461e-01,9.053338766098022461e-01,9.053338766098022461e-01,9.053338766098022461e-01,9.053338766098022461e-01,9.053338766098022461e-01,9.053338766098022461e-01,9.053341150283813477e-01,9.053355455398559570e-01,9.053572416305541992e-01,9.053782224655151367e-01,9.051495790481567383e-01,9.045431613922119141e-01,9.034051299095153809e-01,9.016185402870178223e-01,8.991125822067260742e-01,8.950922489166259766e-01,8.886239528656005859e-01,8.803085088729858398e-01,8.709105253219604492e-01,8.577831983566284180e-01,8.293085098266601562e-01,8.084068298339843750e-01,8.006678819656372070e-01,7.746282815933227539e-01,7.219782471656799316e-01,6.160815954208374023e-01
5.887016057968139648e-01,6.142693161964416504e-01,6.568923592567443848e-01,6.577212810516357422e-01,6.812450885772705078e-01,7.055277824401855469e-01,7.428792119026184082e-01,7.637974023818969727e-01,7.815009355545043945e-01,7.915976047515869141e-01,7.934585809707641602e-01,7.821500301361083984e-01,7.758629918098449707e-01,7.551521062850952148e-01,7.036194205284118652e-01,6.200141906738281250e-01,5.673978328704833984e-01,5.295383334159851074e-01,5.088125467300415039e-01,4.964461922645568848e-01,4.799382090568542480e-01,4.802772998809814453e-01,5.196856260299682617e-01,5.642661452293395996e-01,6.316623091697692871e-01,6.680526733398437500e-01,7.202226519584655762e-01,7.840203046798706055e-01,8.318367004394531250e-01,8.590619564056396484e-01,8.835117220878601074e-01,8.906522989273071289e-01,8.973550796508789062e-01,9.026761054992675781e-01,9.050139188766479492e-01,9.052543640136718750e-01,9.053636789321899414e-01,9.053333997726440430e-01,9.053283333778381348e-01,9.053283333778381348e-01,9.053283333778381348e-01,9.053283333778381348e-01,9.053283333778381348e-01,9.053283333778381348e-01,9.053283333778381348e-01,9.053283333778381348e-01,9.053283333778381348e-01,9.053283333778381348e-01,9.053283333778381348e-01,9.053283333778381348e-01,9.053283333778381348e-01,9.053283333778381348e-01,9.053283333778381348e-01,9.053283333778381348e-01,9.053283333778381348e-01,9.053283333778381348e-01,9.053283333778381348e-01,9.053283333778381348e-01,9.053283333778381348e-01,9.053283333778381348e-01,9.053285717964172363e-01,9.053298830986022949e-01,9.053539037704467773e-01,9.053707122802734375e-01,9.051685333251953125e-01,9.045516848564147949e-01,9.033973217010498047e-01,9.016228914260864258e-01,8.990780115127563477e-01,8.949618339538574219e-01,8.886686563491821289e-01,8.801966905593872070e-01,8.707531094551086426e-01,8.578679561614990234e-01,8.293209075927734375e-01,8.082340955734252930e-01,8.006225824356079102e-01,7.746301889419555664e-01,7.220153808593750000e-01,6.160349249839782715e-01
5.886945724487304688e-01,6.142579317092895508e-01,6.568790674209594727e-01,6.577004790306091309e-01,6.812295317649841309e-01,7.053721547126770020e-01,7.423754930496215820e-01,7.634238004684448242e-01,7.814260721206665039e-01,7.921463847160339355e-01,7.938394546508789062e-01,7.848773002624511719e-01,7.788711190223693848e-01,7.553028464317321777e-01,7.195713520050048828e-01,6.286165714263916016e-01,5.696423053741455078e-01,5.301808118820190430e-01,5.157887339591979980e-01,5.042499303817749023e-01,4.861536026000976562e-01,4.912263453006744385e-01,5.272524356842041016e-01,5.648764967918395996e-01,6.447317600250244141e-01,6.849858760833740234e-01,7.213137745857238770e-01,7.812288403511047363e-01,8.335572481155395508e-01,8.656056523323059082e-01,8.819609284400939941e-01,8.896460533142089844e-01,8.985403180122375488e-01,9.027819633483886719e-01,9.048500061035156250e-01,9.050890207290649414e-01,9.053446054458618164e-01,9.053280353546142578e-01,9.053283333778381348e-01,9.053283333778381348e-01,9.053283333778381348e-01,9.053283333778381348e-01,9.053283333778381348e-01,9.053283333778381348e-01,9.053283333778381348e-01,9.053283333778381348e-01,9.053283333778381348e-01,9.053283333778381348e-01,9.053283333778381348e-01,9.053283333778381348e-01,9.053283333778381348e-01,9.053283333778381348e-01,9.053283333778381348e-01,9.053283333778381348e-01,9.053283333778381348e-01,9.053283333778381348e-01,9.053283333778381348e-01,9.053283333778381348e-01,9.053283333778381348e-01,9.053283333778381348e-01,9.053285121917724609e-01,9.053297042846679688e-01,9.053523540496826172e-01,9.053744077682495117e-01,9.051628112792968750e-01,9.045405387878417969e-01,9.033980369567871094e-01,9.016391038894653320e-01,8.990621566772460938e-01,8.949754238128662109e-01,8.886578083038330078e-01,8.801594376564025879e-01,8.708225488662719727e-01,8.578854799270629883e-01,8.292557597160339355e-01,8.082422018051147461e-01,8.006479740142822266e-01,7.746534943580627441e-01,7.220216393470764160e-01,6.160445809364318848e-01
5.886875987052917480e-01,6.142466068267822266e-01,6.568659543991088867e-01,6.576882600784301758e-01,6.812270879745483398e-01,7.053940892219543457e-01,7.418999671936035156e-01,7.641620635986328125e-01,7.831766605377197266e-01,7.928647398948669434e-01,7.925406694412231445e-01,7.911952733993530273e-01,7.793671488761901855e-01,7.590602040290832520e-01,7.210914492607116699e-01,6.334899067878723145e-01,5.700379610061645508e-01,5.334045290946960449e-01,5.157426595687866211e-01,5.056350827217102051e-01,4.896325170993804932e-01,5.010291934013366699e-01,5.313547253608703613e-01,5.641680955886840820e-01,6.687875986099243164e-01,6.906832456588745117e-01,7.196604013442993164e-01,7.839694023132324219e-01,8.269778490066528320e-01,8.612236380577087402e-01,8.800247907638549805e-01,8.888708353042602539e-01,8.964304327964782715e-01,9.010106325149536133e-01,9.042385220527648926e-01,9.051881432533264160e-01,9.053248167037963867e-01,9.053310751914978027e-01,9.053283333778381348e-01,9.053283333778381348e-01,9.053283333778381348e-01,9.053283333778381348e-01,9.053283333778381348e-01,9.053283333778381348e-01,9.053283333778381348e-01,9.053283333778381348e-01,9.053283333778381348e-01,9.053283333778381348e-01,9.053283333778381348e-01,9.053283333778381348e-01,9.053283333778381348e-01,9.053283333778381348e-01,9.053283333778381348e-01,9.053283333778381348e-01,9.053283333778381348e-01,9.053283333778381348e-01,9.053283333778381348e-01,9.053283333778381348e-01,9.053283333778381348e-01,9.053283333778381348e-01,9.053285121917724609e-01,9.053297042846679688e-01,9.053524732589721680e-01,9.053734540939331055e-01,9.051613807678222656e-01,9.045417904853820801e-01,9.034024477005004883e-01,9.016455411911010742e-01,8.990694284439086914e-01,8.949662446975708008e-01,8.886599540710449219e-01,8.801900744438171387e-01,8.708324432373046875e-01,8.578772544860839844e-01,8.292723894119262695e-01,8.082605600357055664e-01,8.006604909896850586e-01,7.746651768684387207e-01,7.220328450202941895e-01,6.160532236099243164e-01
5.886806845664978027e-01,6.142352223396301270e-01,6.568528413772583008e-01,6.576720476150512695e-01,6.812066435813903809e-01,7.053990364074707031e-01,7.417306900024414062e-01,7.638177871704101562e-01,7.833047509193420410e-01,7.908642888069152832e-01,7.907570600509643555e-01,7.928180694580078125e-01,7.790958881378173828e-01,7.583838701248168945e-01,7.238394618034362793e-01,6.344063878059387207e-01,5.704714655876159668e-01,5.343628525733947754e-01,5.199952125549316406e-01,5.053961277008056641e-01,4.961732029914855957e-01,5.172649621963500977e-01,5.341250300407409668e-01,5.746278166770935059e-01,6.720775365829467773e-01,6.976006031036376953e-01,7.365984916687011719e-01,7.789766192436218262e-01,8.260700702667236328e-01,8.585777878761291504e-01,8.813287615776062012e-01,8.886486291885375977e-01,8.973766565322875977e-01,9.004149436950683594e-01,9.040046930313110352e-01,9.050970673561096191e-01,9.053346514701843262e-01,9.053389430046081543e-01,9.053283333778381348e-01,9.053283333778381348e-01,9.053283333778381348e-01,9.053283333778381348e-01,9.053283333778381348e-01,9.053283333778381348e-01,9.053283333778381348e-01,9.053283333778381348e-01,9.053283333778381348e-01,9.053283333778381348e-01,9.053283333778381348e-01,9.053283333778381348e-01,9.053283333778381348e-01,9.053283333778381348e-01,9.053283333778381348e-01,9.053283333778381348e-01,9.053283333778381348e-01,9.053283333778381348e-01,9.053283333778381348e-01,9.053283333778381348e-01,9.053283333778381348e-01,9.053283333778381348e-01,9.053285121917724609e-01,9.053297042846679688e-01,9.053521156311035156e-01,9.053735136985778809e-01,9.051613807678222656e-01,9.045422077178955078e-01,9.034036397933959961e-01,9.016471505165100098e-01,8.990719318389892578e-01,8.949685096740722656e-01,8.886649012565612793e-01,8.801968097686767578e-01,8.708391189575195312e-01,8.578853607177734375e-01,8.292860984802246094e-01,8.082749247550964355e-01,8.006729483604431152e-01,7.746778726577758789e-01,7.220435738563537598e-01,6.160595417022705078e-01
5.886738300323486328e-01,6.142241954803466797e-01,6.568398475646972656e-01,6.576564311981201172e-01,6.812081336975097656e-01,7.054281830787658691e-01,7.418425083160400391e-01,7.634496688842773438e-01,7.833712697029113770e-01,7.887238264083862305e-01,7.909831404685974121e-01,7.934929132461547852e-01,7.794167995452880859e-01,7.603611946105957031e-01,7.217177152633666992e-01,6.304184794425964355e-01,5.723422169685363770e-01,5.342064499855041504e-01,5.204353332519531250e-01,5.051731467247009277e-01,5.010488033294677734e-01,5.245516300201416016e-01,5.426716208457946777e-01,5.959736704826354980e-01,6.884183883666992188e-01,7.110816240310668945e-01,7.397078275680541992e-01,7.826419472694396973e-01,8.226068019866943359e-01,8.546757102012634277e-01,8.778885602951049805e-01,8.884356021881103516e-01,8.941165208816528320e-01,8.988459706306457520e-01,9.036414623260498047e-01,9.051274061203002930e-01,9.053314924240112305e-01,9.053359031677246094e-01,9.053283333778381348e-01,9.053283333778381348e-01,9.053283333778381348e-01,9.053283333778381348e-01,9.053283333778381348e-01,9.053283333778381348e-01,9.053283333778381348e-01,9.053283333778381348e-01,9.053283333778381348e-01,9.053283333778381348e-01,9.053283333778381348e-01,9.053283333778381348e-01,9.053283333778381348e-01,9.053283333778381348e-01,9.053283333778381348e-01,9.053283333778381348e-01,9.053283333778381348e-01,9.053283333778381348e-01,9.053283333778381348e-01,9.053283333778381348e-01,9.053283333778381348e-01,9.053283333778381348e-01,9.053285121917724609e-01,9.053297042846679688e-01,9.053521156311035156e-01,9.053735136985778809e-01,9.051617383956909180e-01,9.045426845550537109e-01,9.034044742584228516e-01,9.016485810279846191e-01,8.990737199783325195e-01,8.949719667434692383e-01,8.886702656745910645e-01,8.802037239074707031e-01,8.708464503288269043e-01,8.578953742980957031e-01,8.292980194091796875e-01,8.082877993583679199e-01,8.006858825683593750e-01,7.746903896331787109e-01,7.220534682273864746e-01,6.160667538642883301e-01
5.886671543121337891e-01,6.142133474349975586e-01,6.568273305892944336e-01,6.576414704322814941e-01,6.811900138854980469e-01,7.054400444030761719e-01,7.418329119682312012e-01,7.634154558181762695e-01,7.822993397712707520e-01,7.884387373924255371e-01,7.914206385612487793e-01,7.951810359954833984e-01,7.799738645553588867e-01,7.613552808761596680e-01,7.206754088401794434e-01,6.282306909561157227e-01,5.738413929939270020e-01,5.340104103088378906e-01,5.171347260475158691e-01,5.068584084510803223e-01,5.052787065505981445e-01,5.245579481124877930e-01,5.442994236946105957e-01,6.062456965446472168e-01,7.019417285919189453e-01,7.299225330352783203e-01,7.470519542694091797e-01,7.942643761634826660e-01,8.243516683578491211e-01,8.586723804473876953e-01,8.806467652320861816e-01,8.902596235275268555e-01,8.948625922203063965e-01,8.997242450714111328e-01,9.034327268600463867e-01,9.050825238227844238e-01,9.053153991699218750e-01,9.053348302841186523e-01,9.053283333778381348e-01,9.053283333778381348e-01,9.053283333778381348e-01,9.053283333778381348e-01,9.053283333778381348e-01,9.053283333778381348e-01,9.053283333778381348e-01,9.053283333778381348e-01,9.053283333778381348e-01,9.053283333778381348e-01,9.053283333778381348e-01,9.053283333778381348e-01,9.053283333778381348e-01,9.053283333778381348e-01,9.053283333778381348e-01,9.053283333778381348e-01,9.053283333778381348e-01,9.053283333778381348e-01,9.053283333778381348e-01,9.053283333778381348e-01,9.053283333778381348e-01,9.053283333778381348e-01,9.053285121917724609e-01,9.053297042846679688e-01,9.053520560264587402e-01,9.053735136985778809e-01,9.051617383956909180e-01,9.045431613922119141e-01,9.034053087234497070e-01,9.016499519348144531e-01,8.990757465362548828e-01,8.949750065803527832e-01,8.886754512786865234e-01,8.802105188369750977e-01,8.708544373512268066e-01,8.579046726226806641e-01,8.293097019195556641e-01,8.083005547523498535e-01,8.006983995437622070e-01,7.747026681900024414e-01,7.220636010169982910e-01,6.160737276077270508e-01
5.886609554290771484e-01,6.142028570175170898e-01,6.568149924278259277e-01,6.576266884803771973e-01,6.811878085136413574e-01,7.054342031478881836e-01,7.417789101600646973e-01,7.630947828292846680e-01,7.813731431961059570e-01,7.869988679885864258e-01,7.925728559494018555e-01,7.939543724060058594e-01,7.845568656921386719e-01,7.605929374694824219e-01,7.098331451416015625e-01,6.347297430038452148e-01,5.738527178764343262e-01,5.390390157699584961e-01,5.131625533103942871e-01,5.101481080055236816e-01,5.150135755538940430e-01,5.367501378059387207e-01,5.574745535850524902e-01,6.190066337585449219e-01,7.067296504974365234e-01,7.460054159164428711e-01,7.715187668800354004e-01,7.992425560951232910e-01,8.367620706558227539e-01,8.584229946136474609e-01,8.804684877395629883e-01,8.932169079780578613e-01,8.947530984878540039e-01,8.997614383697509766e-01,9.037793874740600586e-01,9.050797224044799805e-01,9.053198099136352539e-01,9.053400158882141113e-01,9.053283333778381348e-01,9.053283333778381348e-01,9.053283333778381348e-01,9.053283333778381348e-01,9.053283333778381348e-01,9.053283333778381348e-01,9.053283333778381348e-01,9.053283333778381348e-01,9.053283333778381348e-01,9.053283333778381348e-01,9.053283333778381348e-01,9.053283333778381348e-01,9.053283333778381348e-01,9.053283333778381348e-01,9.053283333778381348e-01,9.053283333778381348e-01,9.053283333778381348e-01,9.053283333778381348e-01,9.053283333778381348e-01,9.053283333778381348e-01,9.053283333778381348e-01,9.053283333778381348e-01,9.053285121917724609e-01,9.053297042846679688e-01,9.053520560264587402e-01,9.053734540939331055e-01,9.051619768142700195e-01,9.045436978340148926e-01,9.034061431884765625e-01,9.016515016555786133e-01,8.990777730941772461e-01,8.949782848358154297e-01,8.886803388595581055e-01,8.802171945571899414e-01,8.708622455596923828e-01,8.579142689704895020e-01,8.293210268020629883e-01,8.083130121231079102e-01,8.007109165191650391e-01,7.747146487236022949e-01,7.220734953880310059e-01,6.160806417465209961e-01
5.886553525924682617e-01,6.141934394836425781e-01,6.568036079406738281e-01,6.576129198074340820e-01,6.811802387237548828e-01,7.054066061973571777e-01,7.417928576469421387e-01,7.633825540542602539e-01,7.806125879287719727e-01,7.894104719161987305e-01,7.940563559532165527e-01,7.975442409515380859e-01,7.891843318939208984e-01,7.626539468765258789e-01,7.060549855232238770e-01,6.457183361053466797e-01,5.860049724578857422e-01,5.398930311203002930e-01,5.158083438873291016e-01,5.159720778465270996e-01,5.245661735534667969e-01,5.390894412994384766e-01,5.716553926467895508e-01,6.279863119125366211e-01,7.076607346534729004e-01,7.774161696434020996e-01,7.884690761566162109e-01,8.092496395111083984e-01,8.506604433059692383e-01,8.666563034057617188e-01,8.822810649871826172e-01,8.966581821441650391e-01,8.992576599121093750e-01,9.006929397583007812e-01,9.047104120254516602e-01,9.047871232032775879e-01,9.053497314453125000e-01,9.053365588188171387e-01,9.053283333778381348e-01,9.053283333778381348e-01,9.053283333778381348e-01,9.053283333778381348e-01,9.053283333778381348e-01,9.053283333778381348e-01,9.053283333778381348e-01,9.053283333778381348e-01,9.053283333778381348e-01,9.053283333778381348e-01,9.053283333778381348e-01,9.053283333778381348e-01,9.053283333778381348e-01,9.053283333778381348e-01,9.053283333778381348e-01,9.053283333778381348e-01,9.053283333778381348e-01,9.053283333778381348e-01,9.053283333778381348e-01,9.053283333778381348e-01,9.053283333778381348e-01,9.053283333778381348e-01,9.053285121917724609e-01,9.053297042846679688e-01,9.053520560264587402e-01,9.053733348846435547e-01,9.051622152328491211e-01,9.045442342758178711e-01,9.034070968627929688e-01,9.016525745391845703e-01,8.990796804428100586e-01,8.949814438819885254e-01,8.886853456497192383e-01,8.802237510681152344e-01,8.708702921867370605e-01,8.579236268997192383e-01,8.293325901031494141e-01,8.083257079124450684e-01,8.007235527038574219e-01,7.747269272804260254e-01,7.220837473869323730e-01,6.160877346992492676e-01
5.886504650115966797e-01,6.141850948333740234e-01,6.567934155464172363e-01,6.576007604598999023e-01,6.811732053756713867e-01,7.053604125976562500e-01,7.416085004806518555e-01,7.623213529586791992e-01,7.801507115364074707e-01,7.893249988555908203e-01,7.959765195846557617e-01,8.012355566024780273e-01,7.934390306472778320e-01,7.622002363204956055e-01,7.098068594932556152e-01,6.514242291450500488e-01,6.001667380332946777e-01,5.434592366218566895e-01,5.279369950294494629e-01,5.266162753105163574e-01,5.348839163780212402e-01,5.463221073150634766e-01,5.972682833671569824e-01,6.457198858261108398e-01,7.155526280403137207e-01,7.903786301612854004e-01,8.013148307800292969e-01,8.283877968788146973e-01,8.580317497253417969e-01,8.737574219703674316e-01,8.866057395935058594e-01,8.984798192977905273e-01,9.005194306373596191e-01,9.030802249908447266e-01,9.047267436981201172e-01,9.050136208534240723e-01,9.053143262863159180e-01,9.053304195404052734e-01,9.053283333778381348e-01,9.053283333778381348e-01,9.053283333778381348e-01,9.053283333778381348e-01,9.053283333778381348e-01,9.053283333778381348e-01,9.053283333778381348e-01,9.053283333778381348e-01,9.053283333778381348e-01,9.053283333778381348e-01,9.053283333778381348e-01,9.053283333778381348e-01,9.053283333778381348e-01,9.053283333778381348e-01,9.053283333778381348e-01,9.053283333778381348e-01,9.053283333778381348e-01,9.053283333778381348e-01,9.053283333778381348e-01,9.053283333778381348e-01,9.053283333778381348e-01,9.053283333778381348e-01,9.053285121917724609e-01,9.053297042846679688e-01,9.053520560264587402e-01,9.053734540939331055e-01,9.051623344421386719e-01,9.045445919036865234e-01,9.034079313278198242e-01,9.016540050506591797e-01,8.990817070007324219e-01,8.949847221374511719e-01,8.886902332305908203e-01,8.802305459976196289e-01,8.708781003952026367e-01,8.579330444335937500e-01,8.293439745903015137e-01,8.083382844924926758e-01,8.007361292839050293e-01,7.747390866279602051e-01,7.220937013626098633e-01,6.160947084426879883e-01
5.886458754539489746e-01,6.141777634620666504e-01,6.567843556404113770e-01,6.575901508331298828e-01,6.811491847038269043e-01,7.053497433662414551e-01,7.417647838592529297e-01,7.634458541870117188e-01,7.824844121932983398e-01,7.912515401840209961e-01,7.991737127304077148e-01,8.077895641326904297e-01,7.912880182266235352e-01,7.689047455787658691e-01,7.179792523384094238e-01,6.714419722557067871e-01,6.302914023399353027e-01,5.724978446960449219e-01,5.450720191001892090e-01,5.339834690093994141e-01,5.374572873115539551e-01,5.614264607429504395e-01,6.081138253211975098e-01,6.520683169364929199e-01,7.253196239471435547e-01,8.014231920242309570e-01,8.318631052970886230e-01,8.401336669921875000e-01,8.675907254219055176e-01,8.836849331855773926e-01,8.897294998168945312e-01,8.987460136413574219e-01,9.034630656242370605e-01,9.047385454177856445e-01,9.048970937728881836e-01,9.050103425979614258e-01,9.053413867950439453e-01,9.053318500518798828e-01,9.053283333778381348e-01,9.053283333778381348e-01,9.053283333778381348e-01,9.053283333778381348e-01,9.053283333778381348e-01,9.053283333778381348e-01,9.053283333778381348e-01,9.053283333778381348e-01,9.053283333778381348e-01,9.053283333778381348e-01,9.053283333778381348e-01,9.053283333778381348e-01,9.053283333778381348e-01,9.053283333778381348e-01,9.053283333778381348e-01,9.053283333778381348e-01,9.053283333778381348e-01,9.053283333778381348e-01,9.053283333778381348e-01,9.053283333778381348e-01,9.053283333778381348e-01,9.053283333778381348e-01,9.053285121917724609e-01,9.053297042846679688e-01,9.053519964218139648e-01,9.053733348846435547e-01,9.051623940467834473e-01,9.045450687408447266e-01,9.034087657928466797e-01,9.016553759574890137e-01,8.990836739540100098e-01,8.949879407882690430e-01,8.886952400207519531e-01,8.802371025085449219e-01,8.708856105804443359e-01,8.579424619674682617e-01,8.293553590774536133e-01,8.083508014678955078e-01,8.007485270500183105e-01,7.747511863708496094e-01,7.221037149429321289e-01,6.161018013954162598e-01
5.886415243148803711e-01,6.141705513000488281e-01,6.567756533622741699e-01,6.575800180435180664e-01,6.811183691024780273e-01,7.053481340408325195e-01,7.418613433837890625e-01,7.639734745025634766e-01,7.815650701522827148e-01,7.913465499877929688e-01,8.055315017700195312e-01,8.166138529777526855e-01,7.990531921386718750e-01,7.723950147628784180e-01,7.411695718765258789e-01,7.013750076293945312e-01,6.593829989433288574e-01,5.904431939125061035e-01,5.679073333740234375e-01,5.418134927749633789e-01,5.528121590614318848e-01,5.827521085739135742e-01,6.251626610755920410e-01,6.795520782470703125e-01,7.308634519577026367e-01,8.055049180984497070e-01,8.365012407302856445e-01,8.590251207351684570e-01,8.746503591537475586e-01,8.899583816528320312e-01,8.937963247299194336e-01,9.016003608703613281e-01,9.046955108642578125e-01,9.045522212982177734e-01,9.056004285812377930e-01,9.050641059875488281e-01,9.053655862808227539e-01,9.053326845169067383e-01,9.053283333778381348e-01,9.053283333778381348e-01,9.053283333778381348e-01,9.053283333778381348e-01,9.053283333778381348e-01,9.053283333778381348e-01,9.053283333778381348e-01,9.053283333778381348e-01,9.053283333778381348e-01,9.053283333778381348e-01,9.053283333778381348e-01,9.053283333778381348e-01,9.053283333778381348e-01,9.053283333778381348e-01,9.053283333778381348e-01,9.053283333778381348e-01,9.053283333778381348e-01,9.053283333778381348e-01,9.053283333778381348e-01,9.053283333778381348e-01,9.053283333778381348e-01,9.053283333778381348e-01,9.053285121917724609e-01,9.053297042846679688e-01,9.053519964218139648e-01,9.053733348846435547e-01,9.051625728607177734e-01,9.045455455780029297e-01,9.034097194671630859e-01,9.016567468643188477e-01,8.990856409072875977e-01,8.949910998344421387e-01,8.887001276016235352e-01,8.802435398101806641e-01,8.708936572074890137e-01,8.579518795013427734e-01,8.293666839599609375e-01,8.083634972572326660e-01,8.007612228393554688e-01,7.747633457183837891e-01,7.221139073371887207e-01,6.161088943481445312e-01
5.886368155479431152e-01,6.141629815101623535e-01,6.567673683166503906e-01,6.575707793235778809e-01,6.811037063598632812e-01,7.053728699684143066e-01,7.420760393142700195e-01,7.650421857833862305e-01,7.800455689430236816e-01,7.931679487228393555e-01,8.097378611564636230e-01,8.149276971817016602e-01,8.004708290100097656e-01,7.879509925842285156e-01,7.650673389434814453e-01,7.371048927307128906e-01,6.895272731781005859e-01,6.113045215606689453e-01,5.772001147270202637e-01,5.591658353805541992e-01,5.719106197357177734e-01,6.028520464897155762e-01,6.380127072334289551e-01,6.909089088439941406e-01,7.488094568252563477e-01,8.051604628562927246e-01,8.444263935089111328e-01,8.740009069442749023e-01,8.796906471252441406e-01,8.912923336029052734e-01,8.983310461044311523e-01,9.010851383209228516e-01,9.059547185897827148e-01,9.050260186195373535e-01,9.053730368614196777e-01,9.052262306213378906e-01,9.053069353103637695e-01,9.053339958190917969e-01,9.053283333778381348e-01,9.053283333778381348e-01,9.053283333778381348e-01,9.053283333778381348e-01,9.053283333778381348e-01,9.053283333778381348e-01,9.053283333778381348e-01,9.053283333778381348e-01,9.053283333778381348e-01,9.053283333778381348e-01,9.053283333778381348e-01,9.053283333778381348e-01,9.053283333778381348e-01,9.053283333778381348e-01,9.053283333778381348e-01,9.053283333778381348e-01,9.053283333778381348e-01,9.053283333778381348e-01,9.053283333778381348e-01,9.053283333778381348e-01,9.053283333778381348e-01,9.053283333778381348e-01,9.053285121917724609e-01,9.053297042846679688e-01,9.053519964218139648e-01,9.053733348846435547e-01,9.051628112792968750e-01,9.045461416244506836e-01,9.034105539321899414e-01,9.016580581665039062e-01,8.990877866744995117e-01,8.949943780899047852e-01,8.887051343917846680e-01,8.802504539489746094e-01,8.709014654159545898e-01,8.579612970352172852e-01,8.293783068656921387e-01,8.083759546279907227e-01,8.007739186286926270e-01,7.747756838798522949e-01,7.221239209175109863e-01,6.161159276962280273e-01
5.886315703392028809e-01,6.141551733016967773e-01,6.567588448524475098e-01,6.575607061386108398e-01,6.810970306396484375e-01,7.053333520889282227e-01,7.425034046173095703e-01,7.639923095703125000e-01,7.794917225837707520e-01,7.975162267684936523e-01,8.189567327499389648e-01,8.216826915740966797e-01,8.114587068557739258e-01,7.999227046966552734e-01,7.726423144340515137e-01,7.587298154830932617e-01,7.181594371795654297e-01,6.390747427940368652e-01,5.980672240257263184e-01,5.859393477439880371e-01,6.031690835952758789e-01,6.157825589179992676e-01,6.547558307647705078e-01,7.032205462455749512e-01,7.754461765289306641e-01,8.147916793823242188e-01,8.491318225860595703e-01,8.757321238517761230e-01,8.876706361770629883e-01,8.950378298759460449e-01,9.003099203109741211e-01,9.020431041717529297e-01,9.049742221832275391e-01,9.056586027145385742e-01,9.050023555755615234e-01,9.054396152496337891e-01,9.053196310997009277e-01,9.053333401679992676e-01,9.053283333778381348e-01,9.053283333778381348e-01,9.053283333778381348e-01,9.053283333778381348e-01,9.053283333778381348e-01,9.053283333778381348e-01,9.053283333778381348e-01,9.053283333778381348e-01,9.053283333778381348e-01,9.053283333778381348e-01,9.053283333778381348e-01,9.053283333778381348e-01,9.053283333778381348e-01,9.053283333778381348e-01,9.053283333778381348e-01,9.053283333778381348e-01,9.053283333778381348e-01,9.053283333778381348e-01,9.053283333778381348e-01,9.053283333778381348e-01,9.053283333778381348e-01,9.053283333778381348e-01,9.053285121917724609e-01,9.053297042846679688e-01,9.053519964218139648e-01,9.053732752799987793e-01,9.051629900932312012e-01,9.045463800430297852e-01,9.034115076065063477e-01,9.016593098640441895e-01,8.990895748138427734e-01,8.949976563453674316e-01,8.887100219726562500e-01,8.802571892738342285e-01,8.709092140197753906e-01,8.579708337783813477e-01,8.293895721435546875e-01,8.083888292312622070e-01,8.007864952087402344e-01,7.747877836227416992e-01,7.221342325210571289e-01,6.161230206489562988e-01
5.886262655258178711e-01,6.141463518142700195e-01,6.567488908767700195e-01,6.575495600700378418e-01,6.810819506645202637e-01,7.053193449974060059e-01,7.424746155738830566e-01,7.623909115791320801e-01,7.797077298164367676e-01,7.994421720504760742e-01,8.199127316474914551e-01,8.179186582565307617e-01,8.197508454322814941e-01,8.125592470169067383e-01,7.879672646522521973e-01,7.752662897109985352e-01,7.471675276756286621e-01,6.583595275878906250e-01,6.138877272605895996e-01,6.169037818908691406e-01,6.173386573791503906e-01,6.345771551132202148e-01,6.561151742935180664e-01,7.243463993072509766e-01,7.868781089782714844e-01,8.248176574707031250e-01,8.519256114959716797e-01,8.807435631752014160e-01,8.901093006134033203e-01,8.987298011779785156e-01,9.023337364196777344e-01,9.027701020240783691e-01,9.043630361557006836e-01,9.056688547134399414e-01,9.053889513015747070e-01,9.053032398223876953e-01,9.053453207015991211e-01,9.053279161453247070e-01,9.053263664245605469e-01,9.053263664245605469e-01,9.053263664245605469e-01,9.053262472152709961e-01,9.053262472152709961e-01,9.053262472152709961e-01,9.053262472152709961e-01,9.053262472152709961e-01,9.053262472152709961e-01,9.053262472152709961e-01,9.053261280059814453e-01,9.053261280059814453e-01,9.053261280059814453e-01,9.053261280059814453e-01,9.053260684013366699e-01,9.053260684013366699e-01,9.053260684013366699e-01,9.053260684013366699e-01,9.053260684013366699e-01,9.053260684013366699e-01,9.053261280059814453e-01,9.053261280059814453e-01,9.053262472152709961e-01,9.053274393081665039e-01,9.053497314453125000e-01,9.053709506988525391e-01,9.051609039306640625e-01,9.045449495315551758e-01,9.034106731414794922e-01,9.016591310501098633e-01,8.990900516510009766e-01,8.949988484382629395e-01,8.887131810188293457e-01,8.802626132965087891e-01,8.709166049957275391e-01,8.579797744750976562e-01,8.294007778167724609e-01,8.084014654159545898e-01,8.007994294166564941e-01,7.748004198074340820e-01,7.221445441246032715e-01,6.161302328109741211e-01
5.886204838752746582e-01,6.141366958618164062e-01,6.567378044128417969e-01,6.575365066528320312e-01,6.810594201087951660e-01,7.052621841430664062e-01,7.423021793365478516e-01,7.623586654663085938e-01,7.823487520217895508e-01,8.052035570144653320e-01,8.222928047180175781e-01,8.215643167495727539e-01,8.287616372108459473e-01,8.204001784324645996e-01,7.999587655067443848e-01,7.903202772140502930e-01,7.597188949584960938e-01,6.718826293945312500e-01,6.307625174522399902e-01,6.278995275497436523e-01,6.205663084983825684e-01,6.582850217819213867e-01,6.836743354797363281e-01,7.341294288635253906e-01,7.954776287078857422e-01,8.361754417419433594e-01,8.606691360473632812e-01,8.826065063476562500e-01,8.935971260070800781e-01,9.016907215118408203e-01,9.039045572280883789e-01,9.043558835983276367e-01,9.046411514282226562e-01,9.051316976547241211e-01,9.052973389625549316e-01,9.054113626480102539e-01,9.053283929824829102e-01,9.053250551223754883e-01,9.053209424018859863e-01,9.053209424018859863e-01,9.053210616111755371e-01,9.053211212158203125e-01,9.053211212158203125e-01,9.053211212158203125e-01,9.053212404251098633e-01,9.053212404251098633e-01,9.053213596343994141e-01,9.053213596343994141e-01,9.053213596343994141e-01,9.053214192390441895e-01,9.053214192390441895e-01,9.053214192390441895e-01,9.053214192390441895e-01,9.053215980529785156e-01,9.053215980529785156e-01,9.053215980529785156e-01,9.053215980529785156e-01,9.053217172622680664e-01,9.053217768669128418e-01,9.053217768669128418e-01,9.053220748901367188e-01,9.053232073783874512e-01,9.053455591201782227e-01,9.053669571876525879e-01,9.051569104194641113e-01,9.045404195785522461e-01,9.034066796302795410e-01,9.016559123992919922e-01,8.990864157676696777e-01,8.949943780899047852e-01,8.887087106704711914e-01,8.802580833435058594e-01,8.709120750427246094e-01,8.579795360565185547e-01,8.294038176536560059e-01,8.084069490432739258e-01,8.008054494857788086e-01,7.748053669929504395e-01,7.221465110778808594e-01,6.161311864852905273e-01
5.886095166206359863e-01,6.141230463981628418e-01,6.567219495773315430e-01,6.575226783752441406e-01,6.810339093208312988e-01,7.052149772644042969e-01,7.416870594024658203e-01,7.627710700035095215e-01,7.828837633132934570e-01,8.047044277191162109e-01,8.200694322586059570e-01,8.226987123489379883e-01,8.295395374298095703e-01,8.211250305175781250e-01,8.143762350082397461e-01,8.020727634429931641e-01,7.702991366386413574e-01,6.849752664566040039e-01,6.575169563293457031e-01,6.343046426773071289e-01,6.407801508903503418e-01,6.639429330825805664e-01,7.028805613517761230e-01,7.462367415428161621e-01,8.016930222511291504e-01,8.446528315544128418e-01,8.677374124526977539e-01,8.859809041023254395e-01,8.965567350387573242e-01,9.024078249931335449e-01,9.045950770378112793e-01,9.047143459320068359e-01,9.052145481109619141e-01,9.053472280502319336e-01,9.054230451583862305e-01,9.053449034690856934e-01,9.054017066955566406e-01,9.053936004638671875e-01,9.053918123245239258e-01,9.053921103477478027e-01,9.053922891616821289e-01,9.053925871849060059e-01,9.053928852081298828e-01,9.053932428359985352e-01,9.053934216499328613e-01,9.053937196731567383e-01,9.053940773010253906e-01,9.053941369056701660e-01,9.053944945335388184e-01,9.053947925567626953e-01,9.053949713706970215e-01,9.053952097892761230e-01,9.053955078125000000e-01,9.053957462310791016e-01,9.053959250450134277e-01,9.053962826728820801e-01,9.053965806961059570e-01,9.053966999053955078e-01,9.053971171379089355e-01,9.053974151611328125e-01,9.053978919982910156e-01,9.053994417190551758e-01,9.054224491119384766e-01,9.054448604583740234e-01,9.052376747131347656e-01,9.046198725700378418e-01,9.034807085990905762e-01,9.017146229743957520e-01,8.991355299949645996e-01,8.950451612472534180e-01,8.887736201286315918e-01,8.803346753120422363e-01,8.709999322891235352e-01,8.580501675605773926e-01,8.294692039489746094e-01,8.084529042243957520e-01,8.008353710174560547e-01,7.748239040374755859e-01,7.221449017524719238e-01,6.161307096481323242e-01
5.886162519454956055e-01,6.141318082809448242e-01,6.567286252975463867e-01,6.575406193733215332e-01,6.810767054557800293e-01,7.052780389785766602e-01,7.417280077934265137e-01,7.636194825172424316e-01,7.850005030632019043e-01,8.054972887039184570e-01,8.214254975318908691e-01,8.301690220832824707e-01,8.348579406738281250e-01,8.259226083755493164e-01,8.207890987396240234e-01,8.040146827697753906e-01,7.668303251266479492e-01,7.056660652160644531e-01,6.720800399780273438e-01,6.586902141571044922e-01,6.511649489402770996e-01,6.663333177566528320e-01,7.012107372283935547e-01,7.694109082221984863e-01,8.110316395759582520e-01,8.473440408706665039e-01,8.716675639152526855e-01,8.867602348327636719e-01,8.978099822998046875e-01,9.023856520652770996e-01,9.047853350639343262e-01,9.054518938064575195e-01,9.054586887359619141e-01,9.054032564163208008e-01,9.054887890815734863e-01,9.055002927780151367e-01,9.054740667343139648e-01,9.054800868034362793e-01,9.054793119430541992e-01,9.054785370826721191e-01,9.054775238037109375e-01,9.054766893386840820e-01,9.054759144783020020e-01,9.054749011993408203e-01,9.054740667343139648e-01,9.054732322692871094e-01,9.054722785949707031e-01,9.054714441299438477e-01,9.054706096649169922e-01,9.054697751998901367e-01,9.054690003395080566e-01,9.054681062698364258e-01,9.054671525955200195e-01,9.054664373397827148e-01,9.054654836654663086e-01,9.054646492004394531e-01,9.054638147354125977e-01,9.054628610610961914e-01,9.054620265960693359e-01,9.054611325263977051e-01,9.054607152938842773e-01,9.054612517356872559e-01,9.054841995239257812e-01,9.055073261260986328e-01,9.053022861480712891e-01,9.046818017959594727e-01,9.035502672195434570e-01,9.017894268035888672e-01,8.992093801498413086e-01,8.951148390769958496e-01,8.888957500457763672e-01,8.804682493209838867e-01,8.711254596710205078e-01,8.582123517990112305e-01,8.296984434127807617e-01,8.086990118026733398e-01,8.010914325714111328e-01,7.750719785690307617e-01,7.224287986755371094e-01,6.165237426757812500e-01
5.888003706932067871e-01,6.143095493316650391e-01,6.569830179214477539e-01,6.577976346015930176e-01,6.813257336616516113e-01,7.054594755172729492e-01,7.417557835578918457e-01,7.632834911346435547e-01,7.845046520233154297e-01,8.030658364295959473e-01,8.201588988304138184e-01,8.312335014343261719e-01,8.334602713584899902e-01,8.316477537155151367e-01,8.316237926483154297e-01,8.116878867149353027e-01,7.722893357276916504e-01,7.258097529411315918e-01,6.803218126296997070e-01,6.613323688507080078e-01,6.601496934890747070e-01,6.816545128822326660e-01,7.102537751197814941e-01,7.720508575439453125e-01,8.203456997871398926e-01,8.499146103858947754e-01,8.722607493400573730e-01,8.867591619491577148e-01,8.973037004470825195e-01,9.026626348495483398e-01,9.039352536201477051e-01,9.045891165733337402e-01,9.046743512153625488e-01,9.046276211738586426e-01,9.046330451965332031e-01,9.046287536621093750e-01,9.046276807785034180e-01,9.046272635459899902e-01,9.046269655227661133e-01,9.046258926391601562e-01,9.046250581741333008e-01,9.046242237091064453e-01,9.046232700347900391e-01,9.046223759651184082e-01,9.046213626861572266e-01,9.046205282211303711e-01,9.046195745468139648e-01,9.046186804771423340e-01,9.046179056167602539e-01,9.046169519424438477e-01,9.046159982681274414e-01,9.046151041984558105e-01,9.046141505241394043e-01,9.046131372451782227e-01,9.046123027801513672e-01,9.046114683151245117e-01,9.046106338500976562e-01,9.046096205711364746e-01,9.046087265014648438e-01,9.046078324317932129e-01,9.046072363853454590e-01,9.046080112457275391e-01,9.046279788017272949e-01,9.046610593795776367e-01,9.044569730758666992e-01,9.038792252540588379e-01,9.027749300003051758e-01,9.010078907012939453e-01,8.984284400939941406e-01,8.943625688552856445e-01,8.880733251571655273e-01,8.796495199203491211e-01,8.703303337097167969e-01,8.574483394622802734e-01,8.288407921791076660e-01,8.078474998474121094e-01,8.004535436630249023e-01,7.742131948471069336e-01,7.216144800186157227e-01,6.159954667091369629e-01
5.891566872596740723e-01,6.141787171363830566e-01,6.566517949104309082e-01,6.571494340896606445e-01,6.804450154304504395e-01,7.042830586433410645e-01,7.404428124427795410e-01,7.616220712661743164e-01,7.822725772857666016e-01,8.015878200531005859e-01,8.203440904617309570e-01,8.310560584068298340e-01,8.345093727111816406e-01,8.370287418365478516e-01,8.310182094573974609e-01,8.156135082244873047e-01,7.865556478500366211e-01,7.430374622344970703e-01,6.898125410079956055e-01,6.607432365417480469e-01,6.780368685722351074e-01,6.854086518287658691e-01,7.183932065963745117e-01,7.826960086822509766e-01,8.212857246398925781e-01,8.471480607986450195e-01,8.727385997772216797e-01,8.864741921424865723e-01,8.957728147506713867e-01,9.019762277603149414e-01,9.034030437469482422e-01,9.037783145904541016e-01,9.037387371063232422e-01,9.037190675735473633e-01,9.037162065505981445e-01,9.037131071090698242e-01,9.037134647369384766e-01,9.037121534347534180e-01,9.037108421325683594e-01,9.037098884582519531e-01,9.037088155746459961e-01,9.037078619003295898e-01,9.037067890167236328e-01,9.037057161331176758e-01,9.037046432495117188e-01,9.037036895751953125e-01,9.037025570869445801e-01,9.037014842033386230e-01,9.037004709243774414e-01,9.036993980407714844e-01,9.036983847618103027e-01,9.036972522735595703e-01,9.036961793899536133e-01,9.036949872970581055e-01,9.036941528320312500e-01,9.036930203437805176e-01,9.036918878555297852e-01,9.036909341812133789e-01,9.036899805068969727e-01,9.036887288093566895e-01,9.036880731582641602e-01,9.036879539489746094e-01,9.037040472030639648e-01,9.037333726882934570e-01,9.035477638244628906e-01,9.029994010925292969e-01,9.019619226455688477e-01,9.002494812011718750e-01,8.976998329162597656e-01,8.936427235603332520e-01,8.874090909957885742e-01,8.790723085403442383e-01,8.698114156723022461e-01,8.568366765975952148e-01,8.282481431961059570e-01,8.071007728576660156e-01,7.996386289596557617e-01,7.733824849128723145e-01,7.204567193984985352e-01,6.144738197326660156e-01
5.884073376655578613e-01,6.125004887580871582e-01,6.548554301261901855e-01,6.552596092224121094e-01,6.780953407287597656e-01,7.014842629432678223e-01,7.375582456588745117e-01,7.588430643081665039e-01,7.791203856468200684e-01,7.984466552734375000e-01,8.165467977523803711e-01,8.277258276939392090e-01,8.362041711807250977e-01,8.429689407348632812e-01,8.328928947448730469e-01,8.216630220413208008e-01,7.917240262031555176e-01,7.631484270095825195e-01,6.975091099739074707e-01,6.766437292098999023e-01,6.812196969985961914e-01,6.941015720367431641e-01,7.265484929084777832e-01,7.835527658462524414e-01,8.196699619293212891e-01,8.470189571380615234e-01,8.735663890838623047e-01,8.869145512580871582e-01,8.961243629455566406e-01,9.007129669189453125e-01,9.014824628829956055e-01,9.020085334777832031e-01,9.019589424133300781e-01,9.019346237182617188e-01,9.019243121147155762e-01,9.019184112548828125e-01,9.019122123718261719e-01,9.019060730934143066e-01,9.019001126289367676e-01,9.018939733505249023e-01,9.018880128860473633e-01,9.018817543983459473e-01,9.018757343292236328e-01,9.018697738647460938e-01,9.018636941909790039e-01,9.018574953079223633e-01,9.018516540527343750e-01,9.018455743789672852e-01,9.018394947052001953e-01,9.018335342407226562e-01,9.018273949623107910e-01,9.018213748931884766e-01,9.018151760101318359e-01,9.018092155456542969e-01,9.018031954765319824e-01,9.017969369888305664e-01,9.017910361289978027e-01,9.017851352691650391e-01,9.017790555953979492e-01,9.017729759216308594e-01,9.017670750617980957e-01,9.017618894577026367e-01,9.017757177352905273e-01,9.018005728721618652e-01,9.016268849372863770e-01,9.011574983596801758e-01,9.001973867416381836e-01,8.985998630523681641e-01,8.961438536643981934e-01,8.921532630920410156e-01,8.860809206962585449e-01,8.775861263275146484e-01,8.682916164398193359e-01,8.554390668869018555e-01,8.269653320312500000e-01,8.060619831085205078e-01,7.985020875930786133e-01,7.719292640686035156e-01,7.191737890243530273e-01,6.127001047134399414e-01
5.864662528038024902e-01,6.097769141197204590e-01,6.518760323524475098e-01,6.520039439201354980e-01,6.745833158493041992e-01,6.974215507507324219e-01,7.329871654510498047e-01,7.536034584045410156e-01,7.734248638153076172e-01,7.922580838203430176e-01,8.094549179077148438e-01,8.219090700149536133e-01,8.313215970993041992e-01,8.364304304122924805e-01,8.281395435333251953e-01,8.232468366622924805e-01,7.984253764152526855e-01,7.689829468727111816e-01,7.108887434005737305e-01,6.788353919982910156e-01,6.780518293380737305e-01,6.930767893791198730e-01,7.440839409828186035e-01,7.834130525588989258e-01,8.196835517883300781e-01,8.426723480224609375e-01,8.677594661712646484e-01,8.815469741821289062e-01,8.907236456871032715e-01,8.943996429443359375e-01,8.952341675758361816e-01,8.954523801803588867e-01,8.954535722732543945e-01,8.954406976699829102e-01,8.954294323921203613e-01,8.954202532768249512e-01,8.954111933708190918e-01,8.954021930694580078e-01,8.953930735588073730e-01,8.953839540481567383e-01,8.953746557235717773e-01,8.953656554222106934e-01,8.953565359115600586e-01,8.953474760055541992e-01,8.953383564949035645e-01,8.953294157981872559e-01,8.953202962875366211e-01,8.953111767768859863e-01,8.953020572662353516e-01,8.952929973602294922e-01,8.952839374542236328e-01,8.952746391296386719e-01,8.952658176422119141e-01,8.952567577362060547e-01,8.952476382255554199e-01,8.952387571334838867e-01,8.952296972274780273e-01,8.952205181121826172e-01,8.952115774154663086e-01,8.952024579048156738e-01,8.951932191848754883e-01,8.951843976974487305e-01,8.951932191848754883e-01,8.952103853225708008e-01,8.950750827789306641e-01,8.946257233619689941e-01,8.938160538673400879e-01,8.923491239547729492e-01,8.900253772735595703e-01,8.861794471740722656e-01,8.802855610847473145e-01,8.720729351043701172e-01,8.626438379287719727e-01,8.496466279029846191e-01,8.213581442832946777e-01,8.010407686233520508e-01,7.939159274101257324e-01,7.675377130508422852e-01,7.151729464530944824e-01,6.077085137367248535e-01
5.825372934341430664e-01,6.038814187049865723e-01,6.454435586929321289e-01,6.447996497154235840e-01,6.661972999572753906e-01,6.881802678108215332e-01,7.228926420211791992e-01,7.430667281150817871e-01,7.622070312500000000e-01,7.799605131149291992e-01,7.964420914649963379e-01,8.111073970794677734e-01,8.225841522216796875e-01,8.254711031913757324e-01,8.217406272888183594e-01,8.121345043182373047e-01,7.934100627899169922e-01,7.628653049468994141e-01,7.115623950958251953e-01,6.723073124885559082e-01,6.750805377960205078e-01,7.031164169311523438e-01,7.349543571472167969e-01,7.767802476882934570e-01,8.128937482833862305e-01,8.358931541442871094e-01,8.563842773437500000e-01,8.734687566757202148e-01,8.814947605133056641e-01,8.838709592819213867e-01,8.843722939491271973e-01,8.846129179000854492e-01,8.845704793930053711e-01,8.845407962799072266e-01,8.845207691192626953e-01,8.845005035400390625e-01,8.844801187515258789e-01,8.844600319862365723e-01,8.844398856163024902e-01,8.844196200370788574e-01,8.843994140625000000e-01,8.843792676925659180e-01,8.843590021133422852e-01,8.843388557434082031e-01,8.843187093734741211e-01,8.842986822128295898e-01,8.842782974243164062e-01,8.842582702636718750e-01,8.842380642890930176e-01,8.842178583145141602e-01,8.841977119445800781e-01,8.841775655746459961e-01,8.841575384140014648e-01,8.841371536254882812e-01,8.841171264648437500e-01,8.840969800949096680e-01,8.840769529342651367e-01,8.840568661689758301e-01,8.840366601943969727e-01,8.840166926383972168e-01,8.839963674545288086e-01,8.839762210845947266e-01,8.839870691299438477e-01,8.840324878692626953e-01,8.839052319526672363e-01,8.835557699203491211e-01,8.828729391098022461e-01,8.814055919647216797e-01,8.790529966354370117e-01,8.753625154495239258e-01,8.695306777954101562e-01,8.616462945938110352e-01,8.525947332382202148e-01,8.395714759826660156e-01,8.107895851135253906e-01,7.916799783706665039e-01,7.853868007659912109e-01,7.605785131454467773e-01,7.071933746337890625e-01,6.017380952835083008e-01
5.753732323646545410e-01,5.940428972244262695e-01,6.345332860946655273e-01,6.318054795265197754e-01,6.512053012847900391e-01,6.719552278518676758e-01,7.057612538337707520e-01,7.250947952270507812e-01,7.434860467910766602e-01,7.600692510604858398e-01,7.768380641937255859e-01,7.917912006378173828e-01,8.020883798599243164e-01,8.069678544998168945e-01,8.044937849044799805e-01,7.907084226608276367e-01,7.727321386337280273e-01,7.535362243652343750e-01,6.955708265304565430e-01,6.581308841705322266e-01,6.601204872131347656e-01,6.839156150817871094e-01,7.187870144844055176e-01,7.557044029235839844e-01,7.900166511535644531e-01,8.154890537261962891e-01,8.355909585952758789e-01,8.507919907569885254e-01,8.576834201812744141e-01,8.607875108718872070e-01,8.607156276702880859e-01,8.610950112342834473e-01,8.609985113143920898e-01,8.609528541564941406e-01,8.609164953231811523e-01,8.608797788619995117e-01,8.608424663543701172e-01,8.608055114746093750e-01,8.607686758041381836e-01,8.607317209243774414e-01,8.606946468353271484e-01,8.606578111648559570e-01,8.606207370758056641e-01,8.605836629867553711e-01,8.605469465255737305e-01,8.605099320411682129e-01,8.604730367660522461e-01,8.604361414909362793e-01,8.603993654251098633e-01,8.603623509407043457e-01,8.603254556655883789e-01,8.602887392044067383e-01,8.602517843246459961e-01,8.602148294448852539e-01,8.601781725883483887e-01,8.601409792900085449e-01,8.601043820381164551e-01,8.600674867630004883e-01,8.600305318832397461e-01,8.599938154220581055e-01,8.599566221237182617e-01,8.599188327789306641e-01,8.599239587783813477e-01,8.599572181701660156e-01,8.598067760467529297e-01,8.595393896102905273e-01,8.591371774673461914e-01,8.579533100128173828e-01,8.558998107910156250e-01,8.521355986595153809e-01,8.465136289596557617e-01,8.387200832366943359e-01,8.300014138221740723e-01,8.169900774955749512e-01,7.877327203750610352e-01,7.700035572052001953e-01,7.670571208000183105e-01,7.439023256301879883e-01,6.925585269927978516e-01,5.922733545303344727e-01
5.643808245658874512e-01,5.786218643188476562e-01,6.173452138900756836e-01,6.113569736480712891e-01,6.278048753738403320e-01,6.468123197555541992e-01,6.787354350090026855e-01,6.960816979408264160e-01,7.120305299758911133e-01,7.260569334030151367e-01,7.417169213294982910e-01,7.550429701805114746e-01,7.631256580352783203e-01,7.675323486328125000e-01,7.730873823165893555e-01,7.530989050865173340e-01,7.421853542327880859e-01,7.131887078285217285e-01,6.647597551345825195e-01,6.252279281616210938e-01,6.337918639183044434e-01,6.477345824241638184e-01,6.898514032363891602e-01,7.200017571449279785e-01,7.464790344238281250e-01,7.722731828689575195e-01,7.947199940681457520e-01,8.102166652679443359e-01,8.157616853713989258e-01,8.183885812759399414e-01,8.184362649917602539e-01,8.185381889343261719e-01,8.184367418289184570e-01,8.183689117431640625e-01,8.183099031448364258e-01,8.182510137557983398e-01,8.181921243667602539e-01,8.181333541870117188e-01,8.180744647979736328e-01,8.180156946182250977e-01,8.179569244384765625e-01,8.178980350494384766e-01,8.178391456604003906e-01,8.177803754806518555e-01,8.177217245101928711e-01,8.176629543304443359e-01,8.176040649414062500e-01,8.175454735755920410e-01,8.174867630004882812e-01,8.174281120300292969e-01,8.173691034317016602e-01,8.173104524612426758e-01,8.172516822814941406e-01,8.171930313110351562e-01,8.171343803405761719e-01,8.170757889747619629e-01,8.170170783996582031e-01,8.169584274291992188e-01,8.168997764587402344e-01,8.168411254882812500e-01,8.167825341224670410e-01,8.167228698730468750e-01,8.167153000831604004e-01,8.166874647140502930e-01,8.164932727813720703e-01,8.160868883132934570e-01,8.156299591064453125e-01,8.143185377120971680e-01,8.124503493309020996e-01,8.095027804374694824e-01,8.042813539505004883e-01,7.970229387283325195e-01,7.894173860549926758e-01,7.773813009262084961e-01,7.479099035263061523e-01,7.329909801483154297e-01,7.344169616699218750e-01,7.134195566177368164e-01,6.685307621955871582e-01,5.795613527297973633e-01
5.498359799385070801e-01,5.541179776191711426e-01,5.890437364578247070e-01,5.790368914604187012e-01,5.922469496726989746e-01,6.085573434829711914e-01,6.381728649139404297e-01,6.527581810951232910e-01,6.665986180305480957e-01,6.782708168029785156e-01,6.912620663642883301e-01,7.016216516494750977e-01,7.079005241394042969e-01,7.088689804077148438e-01,7.146303057670593262e-01,6.912980079650878906e-01,6.845044493675231934e-01,6.712412238121032715e-01,6.166150569915771484e-01,5.971625447273254395e-01,5.916680097579956055e-01,6.106753349304199219e-01,6.327964067459106445e-01,6.718109846115112305e-01,6.897855997085571289e-01,7.119606137275695801e-01,7.322309613227844238e-01,7.456707358360290527e-01,7.504696846008300781e-01,7.509752511978149414e-01,7.518654465675354004e-01,7.517791986465454102e-01,7.516640424728393555e-01,7.515723705291748047e-01,7.514901161193847656e-01,7.514078617095947266e-01,7.513254880905151367e-01,7.512432336807250977e-01,7.511609792709350586e-01,7.510786056518554688e-01,7.509965300559997559e-01,7.509142756462097168e-01,7.508319616317749023e-01,7.507498264312744141e-01,7.506675124168395996e-01,7.505853176116943359e-01,7.505031228065490723e-01,7.504209280014038086e-01,7.503387928009033203e-01,7.502565383911132812e-01,7.501744031906127930e-01,7.500923871994018555e-01,7.500104308128356934e-01,7.499282956123352051e-01,7.498461008071899414e-01,7.497640848159790039e-01,7.496819496154785156e-01,7.495998144149780273e-01,7.495179176330566406e-01,7.494359016418457031e-01,7.493528127670288086e-01,7.492672801017761230e-01,7.492426633834838867e-01,7.491645812988281250e-01,7.490108013153076172e-01,7.487294673919677734e-01,7.482150793075561523e-01,7.468266487121582031e-01,7.445624470710754395e-01,7.411976456642150879e-01,7.365033030509948730e-01,7.301477193832397461e-01,7.241536974906921387e-01,7.128859162330627441e-01,6.834461092948913574e-01,6.727136373519897461e-01,6.816130876541137695e-01,6.628450155258178711e-01,6.335935592651367188e-01,5.563713312149047852e-01
5.325870513916015625e-01,5.238305926322937012e-01,5.546786189079284668e-01,5.387865900993347168e-01,5.466824769973754883e-01,5.595364570617675781e-01,5.837624073028564453e-01,5.949465036392211914e-01,6.053720712661743164e-01,6.134611368179321289e-01,6.228893399238586426e-01,6.294942498207092285e-01,6.348920464515686035e-01,6.380393505096435547e-01,6.367032527923583984e-01,6.186194419860839844e-01,6.031475067138671875e-01,5.853108763694763184e-01,5.520509481430053711e-01,5.413585305213928223e-01,5.421451330184936523e-01,5.551052689552307129e-01,5.827996134757995605e-01,6.040284633636474609e-01,6.183664798736572266e-01,6.345857977867126465e-01,6.511355638504028320e-01,6.575813293457031250e-01,6.612151861190795898e-01,6.619758009910583496e-01,6.623538732528686523e-01,6.621059179306030273e-01,6.620233058929443359e-01,6.619321107864379883e-01,6.618446111679077148e-01,6.617571115493774414e-01,6.616696119308471680e-01,6.615820527076721191e-01,6.614944934844970703e-01,6.614072918891906738e-01,6.613199114799499512e-01,6.612325906753540039e-01,6.611452698707580566e-01,6.610578298568725586e-01,6.609705686569213867e-01,6.608832478523254395e-01,6.607959866523742676e-01,6.607085466384887695e-01,6.606214046478271484e-01,6.605340838432312012e-01,6.604470610618591309e-01,6.603598594665527344e-01,6.602725982666015625e-01,6.601854562759399414e-01,6.600983738899230957e-01,6.600113511085510254e-01,6.599242687225341797e-01,6.598370075225830078e-01,6.597499847412109375e-01,6.596629619598388672e-01,6.595749855041503906e-01,6.594827175140380859e-01,6.594171524047851562e-01,6.593568325042724609e-01,6.591453552246093750e-01,6.589355468750000000e-01,6.586153507232666016e-01,6.574569344520568848e-01,6.554595232009887695e-01,6.522780060768127441e-01,6.490588188171386719e-01,6.442305445671081543e-01,6.403636336326599121e-01,6.306723952293395996e-01,6.031985878944396973e-01,5.958266854286193848e-01,6.114346981048583984e-01,5.966828465461730957e-01,5.878782272338867188e-01,5.268080830574035645e-01
5.116009712219238281e-01,4.894223809242248535e-01,5.142403841018676758e-01,4.909920096397399902e-01,4.925755262374877930e-01,5.011568069458007812e-01,5.197595953941345215e-01,5.277134776115417480e-01,5.348232984542846680e-01,5.395008325576782227e-01,5.449737310409545898e-01,5.497480034828186035e-01,5.519052147865295410e-01,5.549637675285339355e-01,5.521333217620849609e-01,5.405696034431457520e-01,5.260280966758728027e-01,5.039858818054199219e-01,5.012062191963195801e-01,4.850756824016571045e-01,4.886295199394226074e-01,4.965467751026153564e-01,5.167348980903625488e-01,5.270780324935913086e-01,5.419811606407165527e-01,5.553199648857116699e-01,5.655152201652526855e-01,5.684297084808349609e-01,5.694421529769897461e-01,5.696311593055725098e-01,5.699841976165771484e-01,5.698341131210327148e-01,5.697234869003295898e-01,5.696281790733337402e-01,5.695413947105407715e-01,5.694546103477478027e-01,5.693676471710205078e-01,5.692809820175170898e-01,5.691941976547241211e-01,5.691074132919311523e-01,5.690207481384277344e-01,5.689340233802795410e-01,5.688474178314208984e-01,5.687607526779174805e-01,5.686741471290588379e-01,5.685875415802001953e-01,5.685009956359863281e-01,5.684144496917724609e-01,5.683279037475585938e-01,5.682413578033447266e-01,5.681548118591308594e-01,5.680685043334960938e-01,5.679821372032165527e-01,5.678956508636474609e-01,5.678091645240783691e-01,5.677229762077331543e-01,5.676366090774536133e-01,5.675501823425292969e-01,5.674639344215393066e-01,5.673775672912597656e-01,5.672908425331115723e-01,5.671983957290649414e-01,5.671129226684570312e-01,5.670723915100097656e-01,5.670405626296997070e-01,5.669646263122558594e-01,5.667252540588378906e-01,5.661832094192504883e-01,5.646723508834838867e-01,5.622415542602539062e-01,5.591799616813659668e-01,5.555650591850280762e-01,5.536228418350219727e-01,5.454458594322204590e-01,5.213862657546997070e-01,5.172770619392395020e-01,5.383017659187316895e-01,5.279776453971862793e-01,5.396134853363037109e-01,4.964727163314819336e-01
4.905963540077209473e-01,4.557296335697174072e-01,4.713633954524993896e-01,4.409458041191101074e-01,4.362811148166656494e-01,4.406373500823974609e-01,4.540603160858154297e-01,4.581446945667266846e-01,4.624545872211456299e-01,4.646674096584320068e-01,4.672651886940002441e-01,4.709868729114532471e-01,4.735656678676605225e-01,4.751489162445068359e-01,4.740637838840484619e-01,4.714515805244445801e-01,4.537211358547210693e-01,4.428973793983459473e-01,4.388900399208068848e-01,4.302886724472045898e-01,4.253658652305603027e-01,4.427517652511596680e-01,4.489600062370300293e-01,4.544815123081207275e-01,4.665241241455078125e-01,4.730310142040252686e-01,4.791447818279266357e-01,4.812618792057037354e-01,4.819892644882202148e-01,4.822884500026702881e-01,4.819854497909545898e-01,4.819068312644958496e-01,4.818320572376251221e-01,4.817561507225036621e-01,4.816833734512329102e-01,4.816104769706726074e-01,4.815376996994018555e-01,4.814648628234863281e-01,4.813922643661499023e-01,4.813194274902343750e-01,4.812466502189636230e-01,4.811740815639495850e-01,4.811012446880340576e-01,4.810284972190856934e-01,4.809559285640716553e-01,4.808833897113800049e-01,4.808108508586883545e-01,4.807380735874176025e-01,4.806656837463378906e-01,4.805931150913238525e-01,4.805205762386322021e-01,4.804480373859405518e-01,4.803755879402160645e-01,4.803031384944915771e-01,4.802307188510894775e-01,4.801583588123321533e-01,4.800860583782196045e-01,4.800136685371398926e-01,4.799412488937377930e-01,4.798689484596252441e-01,4.797965288162231445e-01,4.797205626964569092e-01,4.796377420425415039e-01,4.795725941658020020e-01,4.795593619346618652e-01,4.795667231082916260e-01,4.794894456863403320e-01,4.793997108936309814e-01,4.788288176059722900e-01,4.778020679950714111e-01,4.768797457218170166e-01,4.753178358078002930e-01,4.752880334854125977e-01,4.694396555423736572e-01,4.494424760341644287e-01,4.482028782367706299e-01,4.717493951320648193e-01,4.687464237213134766e-01,4.949516952037811279e-01,4.690750837326049805e-01
4.694178104400634766e-01,4.224289059638977051e-01,4.285612702369689941e-01,3.950841724872589111e-01,3.841198980808258057e-01,3.856849074363708496e-01,3.960995376110076904e-01,3.990400433540344238e-01,4.020550847053527832e-01,4.031769037246704102e-01,4.042661786079406738e-01,4.059975743293762207e-01,4.070174098014831543e-01,4.067337214946746826e-01,4.063771367073059082e-01,4.051368236541748047e-01,3.921094238758087158e-01,3.856276869773864746e-01,3.901369273662567139e-01,3.826258480548858643e-01,3.847744762897491455e-01,3.893162608146667480e-01,3.947947919368743896e-01,3.948857188224792480e-01,4.013267159461975098e-01,4.059371352195739746e-01,4.083806872367858887e-01,4.101903736591339111e-01,4.097040295600891113e-01,4.099870026111602783e-01,4.097962379455566406e-01,4.096477925777435303e-01,4.095917344093322754e-01,4.095351397991180420e-01,4.094773828983306885e-01,4.094198346138000488e-01,4.093618988990783691e-01,4.093043208122253418e-01,4.092467725276947021e-01,4.091891050338745117e-01,4.091315269470214844e-01,4.090740978717803955e-01,4.090166091918945312e-01,4.089588522911071777e-01,4.089013636112213135e-01,4.088440239429473877e-01,4.087863862514495850e-01,4.087289869785308838e-01,4.086717665195465088e-01,4.086142778396606445e-01,4.085568785667419434e-01,4.084994494915008545e-01,4.084420204162597656e-01,4.083847105503082275e-01,4.083274602890014648e-01,4.082702398300170898e-01,4.082129597663879395e-01,4.081556200981140137e-01,4.080984592437744141e-01,4.080411195755004883e-01,4.079846143722534180e-01,4.079271852970123291e-01,4.078724980354309082e-01,4.078225195407867432e-01,4.077917337417602539e-01,4.077727496623992920e-01,4.077930152416229248e-01,4.076991379261016846e-01,4.073181748390197754e-01,4.064838886260986328e-01,4.056426882743835449e-01,4.045568406581878662e-01,4.052085280418395996e-01,4.015127420425415039e-01,3.856464028358459473e-01,3.876571059226989746e-01,4.134775698184967041e-01,4.176974594593048096e-01,4.560036659240722656e-01,4.460476934909820557e-01
4.513976871967315674e-01,3.938291966915130615e-01,3.929929733276367188e-01,3.573033213615417480e-01,3.413696885108947754e-01,3.406606912612915039e-01,3.481067419052124023e-01,3.498278558254241943e-01,3.515359461307525635e-01,3.519310653209686279e-01,3.524453043937683105e-01,3.531941175460815430e-01,3.536612391471862793e-01,3.536267876625061035e-01,3.551889657974243164e-01,3.540523052215576172e-01,3.472144901752471924e-01,3.413103818893432617e-01,3.425512909889221191e-01,3.391445875167846680e-01,3.410632312297821045e-01,3.457024693489074707e-01,3.473003208637237549e-01,3.499036133289337158e-01,3.503723442554473877e-01,3.536609411239624023e-01,3.530713915824890137e-01,3.535082340240478516e-01,3.537112176418304443e-01,3.537255525588989258e-01,3.535452485084533691e-01,3.534663021564483643e-01,3.534223437309265137e-01,3.533820509910583496e-01,3.533408045768737793e-01,3.532995581626892090e-01,3.532586991786956787e-01,3.532175421714782715e-01,3.531762957572937012e-01,3.531353473663330078e-01,3.530943095684051514e-01,3.530533313751220703e-01,3.530119955539703369e-01,3.529710769653320312e-01,3.529300689697265625e-01,3.528889715671539307e-01,3.528480529785156250e-01,3.528071045875549316e-01,3.527662158012390137e-01,3.527253270149230957e-01,3.526844978332519531e-01,3.526432216167449951e-01,3.526024818420410156e-01,3.525615334510803223e-01,3.525208234786987305e-01,3.524797558784484863e-01,3.524391055107116699e-01,3.523982167243957520e-01,3.523573279380798340e-01,3.523166179656982422e-01,3.522760868072509766e-01,3.522354364395141602e-01,3.521925806999206543e-01,3.521635532379150391e-01,3.521250486373901367e-01,3.520699739456176758e-01,3.520739972591400146e-01,3.521184027194976807e-01,3.520675897598266602e-01,3.519903421401977539e-01,3.517307937145233154e-01,3.512747585773468018e-01,3.521110415458679199e-01,3.494817912578582764e-01,3.362946510314941406e-01,3.391637504100799561e-01,3.653154671192169189e-01,3.756791055202484131e-01,4.224392175674438477e-01,4.258162379264831543e-01
4.349687695503234863e-01,3.689461052417755127e-01,3.612768054008483887e-01,3.251676559448242188e-01,3.061323165893554688e-01,3.047586679458618164e-01,3.108642995357513428e-01,3.122496604919433594e-01,3.134126067161560059e-01,3.134184479713439941e-01,3.133261203765869141e-01,3.135100007057189941e-01,3.132613301277160645e-01,3.131288588047027588e-01,3.140653967857360840e-01,3.134967386722564697e-01,3.101347088813781738e-01,3.094546794891357422e-01,3.079134225845336914e-01,3.082933425903320312e-01,3.083259463310241699e-01,3.094426989555358887e-01,3.098382949829101562e-01,3.122001290321350098e-01,3.123865127563476562e-01,3.130102157592773438e-01,3.137739300727844238e-01,3.132553100585937500e-01,3.133272230625152588e-01,3.132044374942779541e-01,3.131366372108459473e-01,3.131170272827148438e-01,3.130813241004943848e-01,3.130508065223693848e-01,3.130210638046264648e-01,3.129910826683044434e-01,3.129613697528839111e-01,3.129312992095947266e-01,3.129014968872070312e-01,3.128717243671417236e-01,3.128419518470764160e-01,3.128119707107543945e-01,3.127822875976562500e-01,3.127524256706237793e-01,3.127225637435913086e-01,3.126930296421051025e-01,3.126630485057830811e-01,3.126332163810729980e-01,3.126036524772644043e-01,3.125739097595214844e-01,3.125441074371337891e-01,3.125143051147460938e-01,3.124846220016479492e-01,3.124549388885498047e-01,3.124252557754516602e-01,3.123955130577087402e-01,3.123658299446105957e-01,3.123361170291900635e-01,3.123065829277038574e-01,3.122768998146057129e-01,3.122473359107971191e-01,3.122178614139556885e-01,3.121885955333709717e-01,3.121568560600280762e-01,3.121263980865478516e-01,3.120965361595153809e-01,3.120560050010681152e-01,3.120047152042388916e-01,3.119798302650451660e-01,3.118630647659301758e-01,3.117271661758422852e-01,3.115088939666748047e-01,3.122516274452209473e-01,3.104242086410522461e-01,2.992327809333801270e-01,3.025910854339599609e-01,3.288227319717407227e-01,3.441912829875946045e-01,3.968273401260375977e-01,4.101025164127349854e-01
4.212129712104797363e-01,3.491304218769073486e-01,3.364090919494628906e-01,2.999947071075439453e-01,2.791712880134582520e-01,2.769953608512878418e-01,2.819476723670959473e-01,2.831135988235473633e-01,2.840005755424499512e-01,2.838876545429229736e-01,2.838417887687683105e-01,2.838237881660461426e-01,2.837969660758972168e-01,2.839379012584686279e-01,2.840462923049926758e-01,2.836266756057739258e-01,2.832962572574615479e-01,2.820532321929931641e-01,2.814034223556518555e-01,2.814906835556030273e-01,2.819370031356811523e-01,2.821467518806457520e-01,2.826441228389739990e-01,2.836878299713134766e-01,2.833551168441772461e-01,2.830391824245452881e-01,2.836784422397613525e-01,2.834708094596862793e-01,2.835742235183715820e-01,2.834240496158599854e-01,2.833771109580993652e-01,2.833649218082427979e-01,2.833423018455505371e-01,2.833204567432403564e-01,2.832986712455749512e-01,2.832770645618438721e-01,2.832554578781127930e-01,2.832338809967041016e-01,2.832121253013610840e-01,2.831906080245971680e-01,2.831688821315765381e-01,2.831474542617797852e-01,2.831256687641143799e-01,2.831040024757385254e-01,2.830824851989746094e-01,2.830610275268554688e-01,2.830392122268676758e-01,2.830176353454589844e-01,2.829960882663726807e-01,2.829744219779968262e-01,2.829529047012329102e-01,2.829313576221466064e-01,2.829097509384155273e-01,2.828883528709411621e-01,2.828668057918548584e-01,2.828451693058013916e-01,2.828236222267150879e-01,2.828021645545959473e-01,2.827805876731872559e-01,2.827590107917785645e-01,2.827377319335937500e-01,2.827161550521850586e-01,2.826946377754211426e-01,2.826736867427825928e-01,2.826521396636962891e-01,2.826270461082458496e-01,2.826040983200073242e-01,2.825945615768432617e-01,2.825853824615478516e-01,2.825844287872314453e-01,2.825655937194824219e-01,2.824567556381225586e-01,2.830970883369445801e-01,2.817865610122680664e-01,2.718627452850341797e-01,2.751381397247314453e-01,3.007413446903228760e-01,3.195637762546539307e-01,3.762986958026885986e-01,3.975792825222015381e-01
4.091759324073791504e-01,3.324914574623107910e-01,3.159791827201843262e-01,2.799500226974487305e-01,2.584236860275268555e-01,2.558326721191406250e-01,2.600269615650177002e-01,2.610194683074951172e-01,2.617948651313781738e-01,2.617105245590209961e-01,2.616603374481201172e-01,2.616387009620666504e-01,2.616221904754638672e-01,2.616506218910217285e-01,2.614910006523132324e-01,2.615426182746887207e-01,2.615719139575958252e-01,2.612064480781555176e-01,2.603675425052642822e-01,2.609801292419433594e-01,2.608545422554016113e-01,2.611804902553558350e-01,2.614743113517761230e-01,2.613898515701293945e-01,2.613586485385894775e-01,2.614495158195495605e-01,2.614327669143676758e-01,2.614014148712158203e-01,2.613755762577056885e-01,2.613610625267028809e-01,2.613297104835510254e-01,2.613126039505004883e-01,2.612965106964111328e-01,2.612800002098083496e-01,2.612634897232055664e-01,2.612470984458923340e-01,2.612305283546447754e-01,2.612140178680419922e-01,2.611975967884063721e-01,2.611811757087707520e-01,2.611646354198455811e-01,2.611483335494995117e-01,2.611317038536071777e-01,2.611154019832611084e-01,2.610988616943359375e-01,2.610823512077331543e-01,2.610661387443542480e-01,2.610497772693634033e-01,2.610331177711486816e-01,2.610166668891906738e-01,2.610003054141998291e-01,2.609838843345642090e-01,2.609674930572509766e-01,2.609510421752929688e-01,2.609348595142364502e-01,2.609182596206665039e-01,2.609018683433532715e-01,2.608854174613952637e-01,2.608691453933715820e-01,2.608526647090911865e-01,2.608363926410675049e-01,2.608200609683990479e-01,2.608037292957305908e-01,2.607869505882263184e-01,2.607704997062683105e-01,2.607536911964416504e-01,2.607364654541015625e-01,2.607210278511047363e-01,2.607059478759765625e-01,2.606905102729797363e-01,2.606750130653381348e-01,2.605965733528137207e-01,2.611149549484252930e-01,2.600691020488739014e-01,2.511713206768035889e-01,2.544497847557067871e-01,2.794608473777770996e-01,3.009960055351257324e-01,3.605846762657165527e-01,3.876332342624664307e-01
3.991100192070007324e-01,3.188917040824890137e-01,2.997272014617919922e-01,2.643878757953643799e-01,2.423048615455627441e-01,2.394174933433532715e-01,2.430778145790100098e-01,2.439681887626647949e-01,2.446598112583160400e-01,2.445980608463287354e-01,2.445631027221679688e-01,2.445421218872070312e-01,2.445420026779174805e-01,2.445300221443176270e-01,2.444042861461639404e-01,2.445430755615234375e-01,2.446101009845733643e-01,2.443659901618957520e-01,2.440521419048309326e-01,2.441620826721191406e-01,2.442011535167694092e-01,2.444340586662292480e-01,2.445079684257507324e-01,2.442843317985534668e-01,2.444142997264862061e-01,2.444317936897277832e-01,2.443462312221527100e-01,2.443403303623199463e-01,2.443158328533172607e-01,2.443065941333770752e-01,2.442970573902130127e-01,2.442828118801116943e-01,2.442698478698730469e-01,2.442568838596343994e-01,2.442440688610076904e-01,2.442311644554138184e-01,2.442183494567871094e-01,2.442052960395812988e-01,2.441924810409545898e-01,2.441795468330383301e-01,2.441667914390563965e-01,2.441537678241729736e-01,2.441408038139343262e-01,2.441281378269195557e-01,2.441152930259704590e-01,2.441023290157318115e-01,2.440893948078155518e-01,2.440765500068664551e-01,2.440636754035949707e-01,2.440507113933563232e-01,2.440378963947296143e-01,2.440249323844909668e-01,2.440123856067657471e-01,2.439993321895599365e-01,2.439866065979003906e-01,2.439737021923065186e-01,2.439607977867126465e-01,2.439478337764739990e-01,2.439353168010711670e-01,2.439221739768981934e-01,2.439096570014953613e-01,2.438966929912567139e-01,2.438837289810180664e-01,2.438711822032928467e-01,2.438581585884094238e-01,2.438448369503021240e-01,2.438318431377410889e-01,2.438181936740875244e-01,2.438052594661712646e-01,2.437921762466430664e-01,2.437792420387268066e-01,2.437152266502380371e-01,2.441398501396179199e-01,2.433043718338012695e-01,2.352253794670104980e-01,2.385371029376983643e-01,2.629341781139373779e-01,2.863682210445404053e-01,3.479809463024139404e-01,3.796825408935546875e-01
3.908088207244873047e-01,3.077780902385711670e-01,2.866272926330566406e-01,2.519678473472595215e-01,2.295320928096771240e-01,2.264048457145690918e-01,2.296707630157470703e-01,2.304606735706329346e-01,2.310824394226074219e-01,2.310287058353424072e-01,2.310010790824890137e-01,2.309877872467041016e-01,2.309848666191101074e-01,2.309619486331939697e-01,2.309080958366394043e-01,2.309741973876953125e-01,2.309910953044891357e-01,2.308870553970336914e-01,2.308339178562164307e-01,2.308157086372375488e-01,2.308587431907653809e-01,2.309123277664184570e-01,2.308927476406097412e-01,2.308192253112792969e-01,2.308631241321563721e-01,2.308621704578399658e-01,2.308389246463775635e-01,2.308281958103179932e-01,2.308178544044494629e-01,2.307989001274108887e-01,2.307934761047363281e-01,2.307827174663543701e-01,2.307723164558410645e-01,2.307619154453277588e-01,2.307514250278472900e-01,2.307412028312683105e-01,2.307306230068206787e-01,2.307201921939849854e-01,2.307101488113403320e-01,2.306998074054718018e-01,2.306892275810241699e-01,2.306788563728332520e-01,2.306687235832214355e-01,2.306583523750305176e-01,2.306478917598724365e-01,2.306376695632934570e-01,2.306272387504577637e-01,2.306167781352996826e-01,2.306065261363983154e-01,2.305963039398193359e-01,2.305857241153717041e-01,2.305755913257598877e-01,2.305653691291809082e-01,2.305550277233123779e-01,2.305443882942199707e-01,2.305342257022857666e-01,2.305238544940948486e-01,2.305134832859039307e-01,2.305032312870025635e-01,2.304929196834564209e-01,2.304825782775878906e-01,2.304722964763641357e-01,2.304618954658508301e-01,2.304516434669494629e-01,2.304415106773376465e-01,2.304312586784362793e-01,2.304208278656005859e-01,2.304106056690216064e-01,2.304001748561859131e-01,2.303897142410278320e-01,2.303792536258697510e-01,2.303256988525390625e-01,2.306813895702362061e-01,2.300054430961608887e-01,2.225902974605560303e-01,2.259136736392974854e-01,2.498087286949157715e-01,2.745919823646545410e-01,3.377274870872497559e-01,3.731986284255981445e-01
3.838100135326385498e-01,2.985773384571075439e-01,2.758290171623229980e-01,2.418446838855743408e-01,2.191894650459289551e-01,2.158568501472473145e-01,2.188125848770141602e-01,2.195140719413757324e-01,2.200800776481628418e-01,2.200329899787902832e-01,2.200095951557159424e-01,2.200010120868682861e-01,2.199924588203430176e-01,2.199807465076446533e-01,2.199714779853820801e-01,2.199821770191192627e-01,2.199709415435791016e-01,2.199637293815612793e-01,2.199238538742065430e-01,2.199162244796752930e-01,2.199219763278961182e-01,2.199172079563140869e-01,2.198995053768157959e-01,2.198984324932098389e-01,2.199029028415679932e-01,2.198870778083801270e-01,2.198697626590728760e-01,2.198659181594848633e-01,2.198560833930969238e-01,2.198480367660522461e-01,2.198393046855926514e-01,2.198308706283569336e-01,2.198224663734436035e-01,2.198137342929840088e-01,2.198052704334259033e-01,2.197967171669006348e-01,2.197885811328887939e-01,2.197799086570739746e-01,2.197712063789367676e-01,2.197626531124114990e-01,2.197543382644653320e-01,2.197459638118743896e-01,2.197374403476715088e-01,2.197291254997253418e-01,2.197206020355224609e-01,2.197119593620300293e-01,2.197034358978271484e-01,2.196949720382690430e-01,2.196865379810333252e-01,2.196781635284423828e-01,2.196696102619171143e-01,2.196610867977142334e-01,2.196527421474456787e-01,2.196441590785980225e-01,2.196358442306518555e-01,2.196272909641265869e-01,2.196187674999237061e-01,2.196103334426879883e-01,2.196017503738403320e-01,2.195935547351837158e-01,2.195849418640136719e-01,2.195766270160675049e-01,2.195678949356079102e-01,2.195596992969512939e-01,2.195511162281036377e-01,2.195428311824798584e-01,2.195343077182769775e-01,2.195258140563964844e-01,2.195174396038055420e-01,2.195088565349578857e-01,2.194999456405639648e-01,2.194546759128570557e-01,2.197599112987518311e-01,2.192109227180480957e-01,2.123419940471649170e-01,2.156710624694824219e-01,2.391548156738281250e-01,2.649250626564025879e-01,3.292273879051208496e-01,3.678065538406372070e-01
3.778368830680847168e-01,2.908435463905334473e-01,2.668064236640930176e-01,2.334578931331634521e-01,2.106579840183258057e-01,2.071481049060821533e-01,2.098518311977386475e-01,2.104754745960235596e-01,2.109927833080291748e-01,2.109510600566864014e-01,2.109310626983642578e-01,2.109237313270568848e-01,2.109166383743286133e-01,2.109091281890869141e-01,2.109016180038452148e-01,2.108954489231109619e-01,2.108917832374572754e-01,2.108812630176544189e-01,2.108716368675231934e-01,2.108691036701202393e-01,2.108636200428009033e-01,2.108526229858398438e-01,2.108435928821563721e-01,2.108395993709564209e-01,2.108339965343475342e-01,2.108247578144073486e-01,2.108167409896850586e-01,2.108098864555358887e-01,2.108026146888732910e-01,2.107963263988494873e-01,2.107892334461212158e-01,2.107820212841033936e-01,2.107750475406646729e-01,2.107678353786468506e-01,2.107608616352081299e-01,2.107537388801574707e-01,2.107466161251068115e-01,2.107397615909576416e-01,2.107326090335845947e-01,2.107254564762115479e-01,2.107183933258056641e-01,2.107113301753997803e-01,2.107042372226715088e-01,2.106972634792327881e-01,2.106902003288269043e-01,2.106829583644866943e-01,2.106761634349822998e-01,2.106691002845764160e-01,2.106618583202362061e-01,2.106546759605407715e-01,2.106477022171020508e-01,2.106406390666961670e-01,2.106337249279022217e-01,2.106267511844635010e-01,2.106195390224456787e-01,2.106126248836517334e-01,2.106054425239562988e-01,2.105984389781951904e-01,2.105913460254669189e-01,2.105841636657714844e-01,2.105772197246551514e-01,2.105700969696044922e-01,2.105632424354553223e-01,2.105561792850494385e-01,2.105490565299987793e-01,2.105421423912048340e-01,2.105350196361541748e-01,2.105278372764587402e-01,2.105208337306976318e-01,2.105140686035156250e-01,2.105061709880828857e-01,2.104675173759460449e-01,2.107336819171905518e-01,2.102866172790527344e-01,2.038711011409759521e-01,2.072010040283203125e-01,2.303362786769866943e-01,2.568490803241729736e-01,3.220601081848144531e-01,3.632442355155944824e-01
3.726797103881835938e-01,2.842504382133483887e-01,2.591608762741088867e-01,2.263986468315124512e-01,2.035065591335296631e-01,1.998416781425476074e-01,2.023388743400573730e-01,2.028938829898834229e-01,2.033701539039611816e-01,2.033328711986541748e-01,2.033152580261230469e-01,2.033091187477111816e-01,2.033031284809112549e-01,2.032971084117889404e-01,2.032911479473114014e-01,2.032849490642547607e-01,2.032797336578369141e-01,2.032733559608459473e-01,2.032669484615325928e-01,2.032621204853057861e-01,2.032564878463745117e-01,2.032493650913238525e-01,2.032431662082672119e-01,2.032377123832702637e-01,2.032318711280822754e-01,2.032253444194793701e-01,2.032193839550018311e-01,2.032131552696228027e-01,2.032071650028228760e-01,2.032015323638916016e-01,2.031953632831573486e-01,2.031894922256469727e-01,2.031831741333007812e-01,2.031774520874023438e-01,2.031716108322143555e-01,2.031654417514801025e-01,2.031594514846801758e-01,2.031534314155578613e-01,2.031475901603698730e-01,2.031415104866027832e-01,2.031355202198028564e-01,2.031297087669372559e-01,2.031234204769134521e-01,2.031176388263702393e-01,2.031117677688598633e-01,2.031058073043823242e-01,2.030996680259704590e-01,2.030938863754272461e-01,2.030877470970153809e-01,2.030818760395050049e-01,2.030757367610931396e-01,2.030699551105499268e-01,2.030638456344604492e-01,2.030580341815948486e-01,2.030520737171173096e-01,2.030460536479949951e-01,2.030403017997741699e-01,2.030342519283294678e-01,2.030282020568847656e-01,2.030223011970520020e-01,2.030160427093505859e-01,2.030103504657745361e-01,2.030043900012969971e-01,2.029981911182403564e-01,2.029926478862762451e-01,2.029864192008972168e-01,2.029806077480316162e-01,2.029745578765869141e-01,2.029685974121093750e-01,2.029626071453094482e-01,2.029559612274169922e-01,2.029221951961517334e-01,2.031577825546264648e-01,2.027933001518249512e-01,1.967597007751464844e-01,2.000876069068908691e-01,2.229216694831848145e-01,2.500039339065551758e-01,3.159336149692535400e-01,3.593326807022094727e-01
