5.887227654457092285e-01,6.143063306808471680e-01,6.569184660911560059e-01,6.577490568161010742e-01,6.812390089035034180e-01,7.054917812347412109e-01,7.432109117507934570e-01,7.649084329605102539e-01,7.770251035690307617e-01,7.847515344619750977e-01,7.894938588142395020e-01,7.724760174751281738e-01,7.599236965179443359e-01,7.291560769081115723e-01,6.722887754440307617e-01,5.908313393592834473e-01,5.450703501701354980e-01,5.004859566688537598e-01,4.857695400714874268e-01,4.755001068115234375e-01,4.646665453910827637e-01,4.673157334327697754e-01,5.082053542137145996e-01,5.476554632186889648e-01,6.255710124969482422e-01,6.668396592140197754e-01,7.128808498382568359e-01,7.796165347099304199e-01,8.306111097335815430e-01,8.617650270462036133e-01,8.809984922409057617e-01,8.892409801483154297e-01,8.979088068008422852e-01,9.028491973876953125e-01,9.048991203308105469e-01,9.051527976989746094e-01,9.053494930267333984e-01,9.053349494934082031e-01,9.053340554237365723e-01,9.053338766098022461e-01,9.053338766098022461e-01,9.053338766098022461e-01,9.053338766098022461e-01,9.053338766098022461e-01,9.053338766098022461e-01,9.053338766098022461e-01,9.053338766098022461e-01,9.053338766098022461e-01,9.053338766098022461e-01,9.053338766098022461e-01,9.053338766098022461e-01,9.053338766098022461e-01,9.053338766098022461e-01,9.053338766098022461e-01,9.053338766098022461e-01,9.053338766098022461e-01,9.053338766098022461e-01,9.053338766098022461e-01,9.053338766098022461e-01,9.053338766098022461e-01,9.053341150283813477e-01,9.053356647491455078e-01,9.053572416305541992e-01,9.053782224655151367e-01,9.051495790481567383e-01,9.045430421829223633e-01,9.034050107002258301e-01,9.016183614730834961e-01,8.991124629974365234e-01,8.950920104980468750e-01,8.886235952377319336e-01,8.803081512451171875e-01,8.709099292755126953e-01,8.577826023101806641e-01,8.293077945709228516e-01,8.084061145782470703e-01,8.006671667098999023e-01,7.746275663375854492e-01,7.219777107238769531e-01,6.160812973976135254e-01
5.887016654014587402e-01,6.142694950103759766e-01,6.568925380706787109e-01,6.577202677726745605e-01,6.812469363212585449e-01,7.055021524429321289e-01,7.431336641311645508e-01,7.630123496055603027e-01,7.777113318443298340e-01,7.847355604171752930e-01,7.882868051528930664e-01,7.755112648010253906e-01,7.706757783889770508e-01,7.446166276931762695e-01,6.801947355270385742e-01,5.924544334411621094e-01,5.472567677497863770e-01,5.093032121658325195e-01,4.901691377162933350e-01,4.839483499526977539e-01,4.685250222682952881e-01,4.764228761196136475e-01,5.116690397262573242e-01,5.440176725387573242e-01,6.453862190246582031e-01,6.711670756340026855e-01,7.046163678169250488e-01,7.800279855728149414e-01,8.273211717605590820e-01,8.583070039749145508e-01,8.800524473190307617e-01,8.886021375656127930e-01,8.962295651435852051e-01,9.009031057357788086e-01,9.042150974273681641e-01,9.051625132560729980e-01,9.053449630737304688e-01,9.053338766098022461e-01,9.053279161453247070e-01,9.053283333778381348e-01,9.053283333778381348e-01,9.053283333778381348e-01,9.053283333778381348e-01,9.053283333778381348e-01,9.053283333778381348e-01,9.053283333778381348e-01,9.053283333778381348e-01,9.053283333778381348e-01,9.053283333778381348e-01,9.053283333778381348e-01,9.053283333778381348e-01,9.053283333778381348e-01,9.053283333778381348e-01,9.053283333778381348e-01,9.053283333778381348e-01,9.053283333778381348e-01,9.053283333778381348e-01,9.053283333778381348e-01,9.053283333778381348e-01,9.053283333778381348e-01,9.053285717964172363e-01,9.053298830986022949e-01,9.053539037704467773e-01,9.053707122802734375e-01,9.051685333251953125e-01,9.045516848564147949e-01,9.033972024917602539e-01,9.016227722167968750e-01,8.990778923034667969e-01,8.949616551399230957e-01,8.886682987213134766e-01,8.801962733268737793e-01,8.707525730133056641e-01,8.578674793243408203e-01,8.293203711509704590e-01,8.082333803176879883e-01,8.006221055984497070e-01,7.746294140815734863e-01,7.220148444175720215e-01,6.160346269607543945e-01
5.886946916580200195e-01,6.142580509185791016e-01,6.568792462348937988e-01,6.577025651931762695e-01,6.812387704849243164e-01,7.054026126861572266e-01,7.427471280097961426e-01,7.617269158363342285e-01,7.794305086135864258e-01,7.858583927154541016e-01,7.869005203247070312e-01,7.770369052886962891e-01,7.709466218948364258e-01,7.443793416023254395e-01,6.810624599456787109e-01,6.019842624664306641e-01,5.460490584373474121e-01,5.156849026679992676e-01,4.963079988956451416e-01,4.898851215839385986e-01,4.708081185817718506e-01,4.946798980236053467e-01,5.089061856269836426e-01,5.548674464225769043e-01,6.533527374267578125e-01,6.745044589042663574e-01,7.159803509712219238e-01,7.612794637680053711e-01,8.203890919685363770e-01,8.584843277931213379e-01,8.787282705307006836e-01,8.879292011260986328e-01,8.958398103713989258e-01,9.004172086715698242e-01,9.041032791137695312e-01,9.050806760787963867e-01,9.053496122360229492e-01,9.053409099578857422e-01,9.053298830986022949e-01,9.053283333778381348e-01,9.053283333778381348e-01,9.053283333778381348e-01,9.053283333778381348e-01,9.053283333778381348e-01,9.053283333778381348e-01,9.053283333778381348e-01,9.053283333778381348e-01,9.053283333778381348e-01,9.053283333778381348e-01,9.053283333778381348e-01,9.053283333778381348e-01,9.053283333778381348e-01,9.053283333778381348e-01,9.053283333778381348e-01,9.053283333778381348e-01,9.053283333778381348e-01,9.053283333778381348e-01,9.053283333778381348e-01,9.053283333778381348e-01,9.053283333778381348e-01,9.053285121917724609e-01,9.053297042846679688e-01,9.053524732589721680e-01,9.053744077682495117e-01,9.051628112792968750e-01,9.045405387878417969e-01,9.033980369567871094e-01,9.016390442848205566e-01,8.990619778633117676e-01,8.949754238128662109e-01,8.886575698852539062e-01,8.801589608192443848e-01,8.708221316337585449e-01,8.578851222991943359e-01,8.292552232742309570e-01,8.082415461540222168e-01,8.006473779678344727e-01,7.746528387069702148e-01,7.220211625099182129e-01,6.160443425178527832e-01
5.886877179145812988e-01,6.142467260360717773e-01,6.568660736083984375e-01,6.576893925666809082e-01,6.812398433685302734e-01,7.054312229156494141e-01,7.421244978904724121e-01,7.628088593482971191e-01,7.785334587097167969e-01,7.863547801971435547e-01,7.828800082206726074e-01,7.778181433677673340e-01,7.684369087219238281e-01,7.382630705833435059e-01,6.921159029006958008e-01,6.017846465110778809e-01,5.537961721420288086e-01,5.116722583770751953e-01,4.919749200344085693e-01,4.835863709449768066e-01,4.730787575244903564e-01,4.934851527214050293e-01,5.155453085899353027e-01,5.557062029838562012e-01,6.616697907447814941e-01,6.841211915016174316e-01,7.128267288208007812e-01,7.717690467834472656e-01,8.048955202102661133e-01,8.507944345474243164e-01,8.750489354133605957e-01,8.865252733230590820e-01,8.926395177841186523e-01,8.985571861267089844e-01,9.038896560668945312e-01,9.050753116607666016e-01,9.052921533584594727e-01,9.053401947021484375e-01,9.053297042846679688e-01,9.053283333778381348e-01,9.053283333778381348e-01,9.053283333778381348e-01,9.053283333778381348e-01,9.053283333778381348e-01,9.053283333778381348e-01,9.053283333778381348e-01,9.053283333778381348e-01,9.053283333778381348e-01,9.053283333778381348e-01,9.053283333778381348e-01,9.053283333778381348e-01,9.053283333778381348e-01,9.053283333778381348e-01,9.053283333778381348e-01,9.053283333778381348e-01,9.053283333778381348e-01,9.053283333778381348e-01,9.053283333778381348e-01,9.053283333778381348e-01,9.053283333778381348e-01,9.053285121917724609e-01,9.053297042846679688e-01,9.053524732589721680e-01,9.053733944892883301e-01,9.051614403724670410e-01,9.045417904853820801e-01,9.034024477005004883e-01,9.016454815864562988e-01,8.990691900253295898e-01,8.949660062789916992e-01,8.886597156524658203e-01,8.801897764205932617e-01,8.708320856094360352e-01,8.578768968582153320e-01,8.292719125747680664e-01,8.082602024078369141e-01,8.006598949432373047e-01,7.746647596359252930e-01,7.220325469970703125e-01,6.160531044006347656e-01
5.886808037757873535e-01,6.142353415489196777e-01,6.568529605865478516e-01,6.576725244522094727e-01,6.812436580657958984e-01,7.054157257080078125e-01,7.417435646057128906e-01,7.625678181648254395e-01,7.789937257766723633e-01,7.831939458847045898e-01,7.794670462608337402e-01,7.843199968338012695e-01,7.687900066375732422e-01,7.368958592414855957e-01,6.787893772125244141e-01,6.001044511795043945e-01,5.418867468833923340e-01,5.088154673576354980e-01,4.909476935863494873e-01,4.797275662422180176e-01,4.736771285533905029e-01,4.985172748565673828e-01,5.231139659881591797e-01,5.603533387184143066e-01,6.528504490852355957e-01,6.916110515594482422e-01,7.154704332351684570e-01,7.737642526626586914e-01,8.149275183677673340e-01,8.492422103881835938e-01,8.703966140747070312e-01,8.869910240173339844e-01,8.948295712471008301e-01,8.992198705673217773e-01,9.032313823699951172e-01,9.050730466842651367e-01,9.053550362586975098e-01,9.053424596786499023e-01,9.053289890289306641e-01,9.053283333778381348e-01,9.053283333778381348e-01,9.053283333778381348e-01,9.053283333778381348e-01,9.053283333778381348e-01,9.053283333778381348e-01,9.053283333778381348e-01,9.053283333778381348e-01,9.053283333778381348e-01,9.053283333778381348e-01,9.053283333778381348e-01,9.053283333778381348e-01,9.053283333778381348e-01,9.053283333778381348e-01,9.053283333778381348e-01,9.053283333778381348e-01,9.053283333778381348e-01,9.053283333778381348e-01,9.053283333778381348e-01,9.053283333778381348e-01,9.053283333778381348e-01,9.053285121917724609e-01,9.053297042846679688e-01,9.053521156311035156e-01,9.053735136985778809e-01,9.051614999771118164e-01,9.045422077178955078e-01,9.034035205841064453e-01,9.016471505165100098e-01,8.990717530250549316e-01,8.949682712554931641e-01,8.886647224426269531e-01,8.801965713500976562e-01,8.708388805389404297e-01,8.578851222991943359e-01,8.292858004570007324e-01,8.082745075225830078e-01,8.006725311279296875e-01,7.746776342391967773e-01,7.220433950424194336e-01,6.160594224929809570e-01
5.886738896369934082e-01,6.142243146896362305e-01,6.568400859832763672e-01,6.576565504074096680e-01,6.812319755554199219e-01,7.054482102394104004e-01,7.418057918548583984e-01,7.622626423835754395e-01,7.792533636093139648e-01,7.784099578857421875e-01,7.778933048248291016e-01,7.847003340721130371e-01,7.629194259643554688e-01,7.362653017044067383e-01,6.710202097892761230e-01,5.912325978279113770e-01,5.377895832061767578e-01,5.085808038711547852e-01,4.927348792552947998e-01,4.662197530269622803e-01,4.643566310405731201e-01,4.988402426242828369e-01,5.199605226516723633e-01,5.818194746971130371e-01,6.594576239585876465e-01,6.886171698570251465e-01,7.351123690605163574e-01,7.600405812263488770e-01,8.188335895538330078e-01,8.486371040344238281e-01,8.711793422698974609e-01,8.872671127319335938e-01,8.937033414840698242e-01,8.986569643020629883e-01,9.034987688064575195e-01,9.053711891174316406e-01,9.053323268890380859e-01,9.053492546081542969e-01,9.053277969360351562e-01,9.053283333778381348e-01,9.053283333778381348e-01,9.053283333778381348e-01,9.053283333778381348e-01,9.053283333778381348e-01,9.053283333778381348e-01,9.053283333778381348e-01,9.053283333778381348e-01,9.053283333778381348e-01,9.053283333778381348e-01,9.053283333778381348e-01,9.053283333778381348e-01,9.053283333778381348e-01,9.053283333778381348e-01,9.053283333778381348e-01,9.053283333778381348e-01,9.053283333778381348e-01,9.053283333778381348e-01,9.053283333778381348e-01,9.053283333778381348e-01,9.053283333778381348e-01,9.053285121917724609e-01,9.053297042846679688e-01,9.053521156311035156e-01,9.053735136985778809e-01,9.051617383956909180e-01,9.045426845550537109e-01,9.034044742584228516e-01,9.016485214233398438e-01,8.990736007690429688e-01,8.949717879295349121e-01,8.886700868606567383e-01,8.802036046981811523e-01,8.708462715148925781e-01,8.578950166702270508e-01,8.292976617813110352e-01,8.082872629165649414e-01,8.006855249404907227e-01,7.746899127960205078e-01,7.220532298088073730e-01,6.160666346549987793e-01
5.886672139167785645e-01,6.142134666442871094e-01,6.568273901939392090e-01,6.576414704322814941e-01,6.812175512313842773e-01,7.054663300514221191e-01,7.419112920761108398e-01,7.630929946899414062e-01,7.771915197372436523e-01,7.808665037155151367e-01,7.833286523818969727e-01,7.873290777206420898e-01,7.615416646003723145e-01,7.276477813720703125e-01,6.605364084243774414e-01,5.884170532226562500e-01,5.518715381622314453e-01,5.082796216011047363e-01,4.843626916408538818e-01,4.647620022296905518e-01,4.732506275177001953e-01,4.961849451065063477e-01,5.113506317138671875e-01,5.719381570816040039e-01,6.508424282073974609e-01,7.163978815078735352e-01,7.287607192993164062e-01,7.633311748504638672e-01,8.080172538757324219e-01,8.588020801544189453e-01,8.734353780746459961e-01,8.882340192794799805e-01,8.935409784317016602e-01,8.981332778930664062e-01,9.034998416900634766e-01,9.046385288238525391e-01,9.052853584289550781e-01,9.053390026092529297e-01,9.053304195404052734e-01,9.053283333778381348e-01,9.053283333778381348e-01,9.053283333778381348e-01,9.053283333778381348e-01,9.053283333778381348e-01,9.053283333778381348e-01,9.053283333778381348e-01,9.053283333778381348e-01,9.053283333778381348e-01,9.053283333778381348e-01,9.053283333778381348e-01,9.053283333778381348e-01,9.053283333778381348e-01,9.053283333778381348e-01,9.053283333778381348e-01,9.053283333778381348e-01,9.053283333778381348e-01,9.053283333778381348e-01,9.053283333778381348e-01,9.053283333778381348e-01,9.053283333778381348e-01,9.053285121917724609e-01,9.053297042846679688e-01,9.053521156311035156e-01,9.053735733032226562e-01,9.051617383956909180e-01,9.045431613922119141e-01,9.034053087234497070e-01,9.016499519348144531e-01,8.990756273269653320e-01,8.949749469757080078e-01,8.886752128601074219e-01,8.802101612091064453e-01,8.708542585372924805e-01,8.579044342041015625e-01,8.293094038963317871e-01,8.083000779151916504e-01,8.006981611251831055e-01,7.747023701667785645e-01,7.220634222030639648e-01,6.160737276077270508e-01
5.886609554290771484e-01,6.142030358314514160e-01,6.568151116371154785e-01,6.576267480850219727e-01,6.812015771865844727e-01,7.054562568664550781e-01,7.417809367179870605e-01,7.637877464294433594e-01,7.755130529403686523e-01,7.798199653625488281e-01,7.877947092056274414e-01,7.852116227149963379e-01,7.703141570091247559e-01,7.316014766693115234e-01,6.517705917358398438e-01,6.087909936904907227e-01,5.566090345382690430e-01,5.096775889396667480e-01,4.757987856864929199e-01,4.743113517761230469e-01,4.881487786769866943e-01,5.145680308341979980e-01,5.212537646293640137e-01,5.744093060493469238e-01,6.392062902450561523e-01,7.184053063392639160e-01,7.387799620628356934e-01,7.727897167205810547e-01,8.200896978378295898e-01,8.472763299942016602e-01,8.784713745117187500e-01,8.910302519798278809e-01,8.926388025283813477e-01,9.002062082290649414e-01,9.039791822433471680e-01,9.048663377761840820e-01,9.052180051803588867e-01,9.053214788436889648e-01,9.053243398666381836e-01,9.053283333778381348e-01,9.053283333778381348e-01,9.053283333778381348e-01,9.053283333778381348e-01,9.053283333778381348e-01,9.053283333778381348e-01,9.053283333778381348e-01,9.053283333778381348e-01,9.053283333778381348e-01,9.053283333778381348e-01,9.053283333778381348e-01,9.053283333778381348e-01,9.053283333778381348e-01,9.053283333778381348e-01,9.053283333778381348e-01,9.053283333778381348e-01,9.053283333778381348e-01,9.053283333778381348e-01,9.053283333778381348e-01,9.053283333778381348e-01,9.053283333778381348e-01,9.053285121917724609e-01,9.053297042846679688e-01,9.053521156311035156e-01,9.053734540939331055e-01,9.051620960235595703e-01,9.045436382293701172e-01,9.034061431884765625e-01,9.016514420509338379e-01,8.990777134895324707e-01,8.949782848358154297e-01,8.886802196502685547e-01,8.802169561386108398e-01,8.708620667457580566e-01,8.579142093658447266e-01,8.293207883834838867e-01,8.083128333091735840e-01,8.007107973098754883e-01,7.747145891189575195e-01,7.220735549926757812e-01,6.160806417465209961e-01
5.886554121971130371e-01,6.141936779022216797e-01,6.568036675453186035e-01,6.576129794120788574e-01,6.811788082122802734e-01,7.054200172424316406e-01,7.423998713493347168e-01,7.634577751159667969e-01,7.762655019760131836e-01,7.850370407104492188e-01,7.908647060394287109e-01,7.958097457885742188e-01,7.769032716751098633e-01,7.365205883979797363e-01,6.604076623916625977e-01,6.174464821815490723e-01,5.790538787841796875e-01,5.262398123741149902e-01,4.994911551475524902e-01,4.829313755035400391e-01,4.918828606605529785e-01,5.197525620460510254e-01,5.434061884880065918e-01,5.797928571701049805e-01,6.495826244354248047e-01,7.195281386375427246e-01,7.621542811393737793e-01,7.779263257980346680e-01,8.318750858306884766e-01,8.452764749526977539e-01,8.687948584556579590e-01,8.894901275634765625e-01,8.967514038085937500e-01,8.991159200668334961e-01,9.034394025802612305e-01,9.041440486907958984e-01,9.054152965545654297e-01,9.053310751914978027e-01,9.053329229354858398e-01,9.053283333778381348e-01,9.053283333778381348e-01,9.053283333778381348e-01,9.053283333778381348e-01,9.053283333778381348e-01,9.053283333778381348e-01,9.053283333778381348e-01,9.053283333778381348e-01,9.053283333778381348e-01,9.053283333778381348e-01,9.053283333778381348e-01,9.053283333778381348e-01,9.053283333778381348e-01,9.053283333778381348e-01,9.053283333778381348e-01,9.053283333778381348e-01,9.053283333778381348e-01,9.053283333778381348e-01,9.053283333778381348e-01,9.053283333778381348e-01,9.053283333778381348e-01,9.053285121917724609e-01,9.053297042846679688e-01,9.053520560264587402e-01,9.053733348846435547e-01,9.051622152328491211e-01,9.045441150665283203e-01,9.034070968627929688e-01,9.016526937484741211e-01,8.990796804428100586e-01,8.949814438819885254e-01,8.886851072311401367e-01,8.802236318588256836e-01,8.708701133728027344e-01,8.579235076904296875e-01,8.293324708938598633e-01,8.083255290985107422e-01,8.007234334945678711e-01,7.747268676757812500e-01,7.220838069915771484e-01,6.160876750946044922e-01
5.886504650115966797e-01,6.141852736473083496e-01,6.567934751510620117e-01,6.576008796691894531e-01,6.811385154724121094e-01,7.053999304771423340e-01,7.425460815429687500e-01,7.631260752677917480e-01,7.781243324279785156e-01,7.862336635589599609e-01,7.985647916793823242e-01,7.988027930259704590e-01,7.867245674133300781e-01,7.467793226242065430e-01,6.935490369796752930e-01,6.409773826599121094e-01,6.153440475463867188e-01,5.557317733764648438e-01,5.259811282157897949e-01,4.911431372165679932e-01,5.072060227394104004e-01,5.234506726264953613e-01,5.621984004974365234e-01,6.004023551940917969e-01,6.473239660263061523e-01,7.564169764518737793e-01,7.619038224220275879e-01,8.056519031524658203e-01,8.352221250534057617e-01,8.552784323692321777e-01,8.729932308197021484e-01,8.938874602317810059e-01,8.998252153396606445e-01,9.023368954658508301e-01,9.037024378776550293e-01,9.048610925674438477e-01,9.052037000656127930e-01,9.053317904472351074e-01,9.053372144699096680e-01,9.053283333778381348e-01,9.053283333778381348e-01,9.053283333778381348e-01,9.053283333778381348e-01,9.053283333778381348e-01,9.053283333778381348e-01,9.053283333778381348e-01,9.053283333778381348e-01,9.053283333778381348e-01,9.053283333778381348e-01,9.053283333778381348e-01,9.053283333778381348e-01,9.053283333778381348e-01,9.053283333778381348e-01,9.053283333778381348e-01,9.053283333778381348e-01,9.053283333778381348e-01,9.053283333778381348e-01,9.053283333778381348e-01,9.053283333778381348e-01,9.053283333778381348e-01,9.053285121917724609e-01,9.053297042846679688e-01,9.053520560264587402e-01,9.053734540939331055e-01,9.051623344421386719e-01,9.045445919036865234e-01,9.034079313278198242e-01,9.016540050506591797e-01,8.990817070007324219e-01,8.949846029281616211e-01,8.886902332305908203e-01,8.802303671836853027e-01,8.708778023719787598e-01,8.579330444335937500e-01,8.293437957763671875e-01,8.083382844924926758e-01,8.007362484931945801e-01,7.747390270233154297e-01,7.220938205718994141e-01,6.160947680473327637e-01
5.886459946632385254e-01,6.141778230667114258e-01,6.567845344543457031e-01,6.575902700424194336e-01,6.811140179634094238e-01,7.053676843643188477e-01,7.427998781204223633e-01,7.649474143981933594e-01,7.788313627243041992e-01,7.897611856460571289e-01,8.077383041381835938e-01,8.044235706329345703e-01,7.948609590530395508e-01,7.657563090324401855e-01,7.161271572113037109e-01,6.981943249702453613e-01,6.512682437896728516e-01,5.773968100547790527e-01,5.356727838516235352e-01,5.172588229179382324e-01,5.229196548461914062e-01,5.403243303298950195e-01,5.734062790870666504e-01,6.064634323120117188e-01,6.704768538475036621e-01,7.656592130661010742e-01,8.030537962913513184e-01,8.102596402168273926e-01,8.527074456214904785e-01,8.727309703826904297e-01,8.838165402412414551e-01,8.931394815444946289e-01,9.012799263000488281e-01,9.022434353828430176e-01,9.031894207000732422e-01,9.049919247627258301e-01,9.053454399108886719e-01,9.053452014923095703e-01,9.053245782852172852e-01,9.053283333778381348e-01,9.053283333778381348e-01,9.053283333778381348e-01,9.053283333778381348e-01,9.053283333778381348e-01,9.053283333778381348e-01,9.053283333778381348e-01,9.053283333778381348e-01,9.053283333778381348e-01,9.053283333778381348e-01,9.053283333778381348e-01,9.053283333778381348e-01,9.053283333778381348e-01,9.053283333778381348e-01,9.053283333778381348e-01,9.053283333778381348e-01,9.053283333778381348e-01,9.053283333778381348e-01,9.053283333778381348e-01,9.053283333778381348e-01,9.053283333778381348e-01,9.053285121917724609e-01,9.053297042846679688e-01,9.053519964218139648e-01,9.053733348846435547e-01,9.051624536514282227e-01,9.045450687408447266e-01,9.034087657928466797e-01,9.016553163528442383e-01,8.990837931632995605e-01,8.949879407882690430e-01,8.886952400207519531e-01,8.802370429039001465e-01,8.708856701850891113e-01,8.579425215721130371e-01,8.293552398681640625e-01,8.083509206771850586e-01,8.007487058639526367e-01,7.747514247894287109e-01,7.221038937568664551e-01,6.161019802093505859e-01
5.886415839195251465e-01,6.141706705093383789e-01,6.567757725715637207e-01,6.575802564620971680e-01,6.810938119888305664e-01,7.053074240684509277e-01,7.427742481231689453e-01,7.643079161643981934e-01,7.775927782058715820e-01,7.944521903991699219e-01,8.135679960250854492e-01,8.128749132156372070e-01,8.046773672103881836e-01,7.838466167449951172e-01,7.620913386344909668e-01,7.228940725326538086e-01,6.861422061920166016e-01,6.079429388046264648e-01,5.527183413505554199e-01,5.407802462577819824e-01,5.469046235084533691e-01,5.627695322036743164e-01,5.963729023933410645e-01,6.288905739784240723e-01,6.855425238609313965e-01,7.638235092163085938e-01,8.196903467178344727e-01,8.416153788566589355e-01,8.602038025856018066e-01,8.842784166336059570e-01,8.906959891319274902e-01,8.994959592819213867e-01,9.009859561920166016e-01,9.039519429206848145e-01,9.055939912796020508e-01,9.047654867172241211e-01,9.053777456283569336e-01,9.053366184234619141e-01,9.053294658660888672e-01,9.053283333778381348e-01,9.053283333778381348e-01,9.053283333778381348e-01,9.053283333778381348e-01,9.053283333778381348e-01,9.053283333778381348e-01,9.053283333778381348e-01,9.053283333778381348e-01,9.053283333778381348e-01,9.053283333778381348e-01,9.053283333778381348e-01,9.053283333778381348e-01,9.053283333778381348e-01,9.053283333778381348e-01,9.053283333778381348e-01,9.053283333778381348e-01,9.053283333778381348e-01,9.053283333778381348e-01,9.053283333778381348e-01,9.053283333778381348e-01,9.053283333778381348e-01,9.053285121917724609e-01,9.053297042846679688e-01,9.053520560264587402e-01,9.053733348846435547e-01,9.051625728607177734e-01,9.045454859733581543e-01,9.034097194671630859e-01,9.016567468643188477e-01,8.990857601165771484e-01,8.949910998344421387e-01,8.887001276016235352e-01,8.802435398101806641e-01,8.708937168121337891e-01,8.579517602920532227e-01,8.293668031692504883e-01,8.083635568618774414e-01,8.007614612579345703e-01,7.747637033462524414e-01,7.221140265464782715e-01,6.161090731620788574e-01
5.886369347572326660e-01,6.141633391380310059e-01,6.567677259445190430e-01,6.575710773468017578e-01,6.810940504074096680e-01,7.052743434906005859e-01,7.426428794860839844e-01,7.633002996444702148e-01,7.789731025695800781e-01,7.983860969543457031e-01,8.180859088897705078e-01,8.175870180130004883e-01,8.155045509338378906e-01,8.065620660781860352e-01,7.785358428955078125e-01,7.480209469795227051e-01,7.260404229164123535e-01,6.466838121414184570e-01,5.731460452079772949e-01,5.677042603492736816e-01,5.732216238975524902e-01,5.748218297958374023e-01,6.027607321739196777e-01,6.508794426918029785e-01,7.067947983741760254e-01,7.828441858291625977e-01,8.252460360527038574e-01,8.592583537101745605e-01,8.678498268127441406e-01,8.853492736816406250e-01,8.963412046432495117e-01,8.995741605758666992e-01,9.055297374725341797e-01,9.044207334518432617e-01,9.051542282104492188e-01,9.053193330764770508e-01,9.051642417907714844e-01,9.053421020507812500e-01,9.053292274475097656e-01,9.053283333778381348e-01,9.053283333778381348e-01,9.053283333778381348e-01,9.053283333778381348e-01,9.053283333778381348e-01,9.053283333778381348e-01,9.053283333778381348e-01,9.053283333778381348e-01,9.053283333778381348e-01,9.053283333778381348e-01,9.053283333778381348e-01,9.053283333778381348e-01,9.053283333778381348e-01,9.053283333778381348e-01,9.053283333778381348e-01,9.053283333778381348e-01,9.053283333778381348e-01,9.053283333778381348e-01,9.053283333778381348e-01,9.053283333778381348e-01,9.053283333778381348e-01,9.053285121917724609e-01,9.053297042846679688e-01,9.053519964218139648e-01,9.053733348846435547e-01,9.051628112792968750e-01,9.045461416244506836e-01,9.034106135368347168e-01,9.016580581665039062e-01,8.990879058837890625e-01,8.949944972991943359e-01,8.887052536010742188e-01,8.802505135536193848e-01,8.709016442298889160e-01,8.579612970352172852e-01,8.293783664703369141e-01,8.083761930465698242e-01,8.007741570472717285e-01,7.747757434844970703e-01,7.221241593360900879e-01,6.161162257194519043e-01
5.886317491531372070e-01,6.141555309295654297e-01,6.567590832710266113e-01,6.575610041618347168e-01,6.810763478279113770e-01,7.052342891693115234e-01,7.424660325050354004e-01,7.623053789138793945e-01,7.816591858863830566e-01,8.033279776573181152e-01,8.232027292251586914e-01,8.220065236091613770e-01,8.212587833404541016e-01,8.191612958908081055e-01,7.907677888870239258e-01,7.849086523056030273e-01,7.437064647674560547e-01,6.687045693397521973e-01,6.096029281616210938e-01,5.873515605926513672e-01,5.862035155296325684e-01,5.779415369033813477e-01,6.157663464546203613e-01,6.591305136680603027e-01,7.362749576568603516e-01,7.838730216026306152e-01,8.342841267585754395e-01,8.620513081550598145e-01,8.815121650695800781e-01,8.885348439216613770e-01,8.974717855453491211e-01,9.012856483459472656e-01,9.054399728775024414e-01,9.060467481613159180e-01,9.046237468719482422e-01,9.057881832122802734e-01,9.052079916000366211e-01,9.053329825401306152e-01,9.053294062614440918e-01,9.053283333778381348e-01,9.053283333778381348e-01,9.053283333778381348e-01,9.053283333778381348e-01,9.053283333778381348e-01,9.053283333778381348e-01,9.053283333778381348e-01,9.053283333778381348e-01,9.053283333778381348e-01,9.053283333778381348e-01,9.053283333778381348e-01,9.053283333778381348e-01,9.053283333778381348e-01,9.053283333778381348e-01,9.053283333778381348e-01,9.053283333778381348e-01,9.053283333778381348e-01,9.053283333778381348e-01,9.053283333778381348e-01,9.053283333778381348e-01,9.053283333778381348e-01,9.053285121917724609e-01,9.053297042846679688e-01,9.053519964218139648e-01,9.053732752799987793e-01,9.051629900932312012e-01,9.045463800430297852e-01,9.034114480018615723e-01,9.016593694686889648e-01,8.990897536277770996e-01,8.949975967407226562e-01,8.887101411819458008e-01,8.802573680877685547e-01,8.709093928337097168e-01,8.579710125923156738e-01,8.293897509574890137e-01,8.083891272544860840e-01,8.007867336273193359e-01,7.747883796691894531e-01,7.221344709396362305e-01,6.161232590675354004e-01
5.886264443397521973e-01,6.141467690467834473e-01,6.567491888999938965e-01,6.575499176979064941e-01,6.810666322708129883e-01,7.052320241928100586e-01,7.418176531791687012e-01,7.627062797546386719e-01,7.830185890197753906e-01,8.055124878883361816e-01,8.233870267868041992e-01,8.212916851043701172e-01,8.305224180221557617e-01,8.242726922035217285e-01,8.122236728668212891e-01,7.951759099960327148e-01,7.677522897720336914e-01,6.840950250625610352e-01,6.315006017684936523e-01,6.107528805732727051e-01,5.896350741386413574e-01,5.944748520851135254e-01,6.289855241775512695e-01,6.762706637382507324e-01,7.443844079971313477e-01,7.977553606033325195e-01,8.367210626602172852e-01,8.658879995346069336e-01,8.798905611038208008e-01,8.934204578399658203e-01,9.001399278640747070e-01,9.011135101318359375e-01,9.036141633987426758e-01,9.060727357864379883e-01,9.055243730545043945e-01,9.050714969635009766e-01,9.053196907043457031e-01,9.053316116333007812e-01,9.053289890289306641e-01,9.053263664245605469e-01,9.053263664245605469e-01,9.053262472152709961e-01,9.053263664245605469e-01,9.053262472152709961e-01,9.053262472152709961e-01,9.053262472152709961e-01,9.053262472152709961e-01,9.053262472152709961e-01,9.053261280059814453e-01,9.053261280059814453e-01,9.053261280059814453e-01,9.053260684013366699e-01,9.053260684013366699e-01,9.053260684013366699e-01,9.053260684013366699e-01,9.053261280059814453e-01,9.053260684013366699e-01,9.053260684013366699e-01,9.053261280059814453e-01,9.053261280059814453e-01,9.053262472152709961e-01,9.053274393081665039e-01,9.053497314453125000e-01,9.053708314895629883e-01,9.051609039306640625e-01,9.045449495315551758e-01,9.034106731414794922e-01,9.016592502593994141e-01,8.990900516510009766e-01,8.949989080429077148e-01,8.887133002281188965e-01,8.802627325057983398e-01,8.709166049957275391e-01,8.579800724983215332e-01,8.294011354446411133e-01,8.084019422531127930e-01,8.007997274398803711e-01,7.748008966445922852e-01,7.221449613571166992e-01,6.161306500434875488e-01
5.886207222938537598e-01,6.141370534896850586e-01,6.567383408546447754e-01,6.575366854667663574e-01,6.810622811317443848e-01,7.052074074745178223e-01,7.415637373924255371e-01,7.634953260421752930e-01,7.846007347106933594e-01,8.058405518531799316e-01,8.195438385009765625e-01,8.291603326797485352e-01,8.348338007926940918e-01,8.275493383407592773e-01,8.198328614234924316e-01,8.158957958221435547e-01,7.802178859710693359e-01,7.046729326248168945e-01,6.303766965866088867e-01,6.167681813240051270e-01,5.973312258720397949e-01,6.049711108207702637e-01,6.384946703910827637e-01,6.858196258544921875e-01,7.549931406974792480e-01,8.087595701217651367e-01,8.393248319625854492e-01,8.694170713424682617e-01,8.864701986312866211e-01,8.963326811790466309e-01,9.014539718627929688e-01,9.030059576034545898e-01,9.035987257957458496e-01,9.047607183456420898e-01,9.056001305580139160e-01,9.055297970771789551e-01,9.053312540054321289e-01,9.053195714950561523e-01,9.053184986114501953e-01,9.053209424018859863e-01,9.053210020065307617e-01,9.053211212158203125e-01,9.053211212158203125e-01,9.053211212158203125e-01,9.053212404251098633e-01,9.053212404251098633e-01,9.053213596343994141e-01,9.053213596343994141e-01,9.053213596343994141e-01,9.053214192390441895e-01,9.053214192390441895e-01,9.053214192390441895e-01,9.053214788436889648e-01,9.053215980529785156e-01,9.053215980529785156e-01,9.053215980529785156e-01,9.053217172622680664e-01,9.053217172622680664e-01,9.053217172622680664e-01,9.053217768669128418e-01,9.053220748901367188e-01,9.053232073783874512e-01,9.053455591201782227e-01,9.053669571876525879e-01,9.051569700241088867e-01,9.045404195785522461e-01,9.034067392349243164e-01,9.016559123992919922e-01,8.990864753723144531e-01,8.949944972991943359e-01,8.887088298797607422e-01,8.802582025527954102e-01,8.709123134613037109e-01,8.579797744750976562e-01,8.294041156768798828e-01,8.084071874618530273e-01,8.008060455322265625e-01,7.748058438301086426e-01,7.221470475196838379e-01,6.161315441131591797e-01
5.886096954345703125e-01,6.141234636306762695e-01,6.567222476005554199e-01,6.575230956077575684e-01,6.810504198074340820e-01,7.052338123321533203e-01,7.415592074394226074e-01,7.631978988647460938e-01,7.845987081527709961e-01,8.034999370574951172e-01,8.188352584838867188e-01,8.348213434219360352e-01,8.363789319992065430e-01,8.311250209808349609e-01,8.315248489379882812e-01,8.157411813735961914e-01,7.835550308227539062e-01,7.224060297012329102e-01,6.472684741020202637e-01,6.131171584129333496e-01,6.157248616218566895e-01,6.220065951347351074e-01,6.443386673927307129e-01,6.929576992988586426e-01,7.621232271194458008e-01,8.155772089958190918e-01,8.457896113395690918e-01,8.734414577484130859e-01,8.892227411270141602e-01,8.967109918594360352e-01,9.022489786148071289e-01,9.042868018150329590e-01,9.051318168640136719e-01,9.052111506462097168e-01,9.053487181663513184e-01,9.052337408065795898e-01,9.054567813873291016e-01,9.054030776023864746e-01,9.053938388824462891e-01,9.053921103477478027e-01,9.053924083709716797e-01,9.053925275802612305e-01,9.053929448127746582e-01,9.053931236267089844e-01,9.053933620452880859e-01,9.053937196731567383e-01,9.053940773010253906e-01,9.053941965103149414e-01,9.053944945335388184e-01,9.053947925567626953e-01,9.053950309753417969e-01,9.053952693939208984e-01,9.053955078125000000e-01,9.053956866264343262e-01,9.053959846496582031e-01,9.053963422775268555e-01,9.053964614868164062e-01,9.053967595100402832e-01,9.053971171379089355e-01,9.053972959518432617e-01,9.053978919982910156e-01,9.053994417190551758e-01,9.054225683212280273e-01,9.054447412490844727e-01,9.052376747131347656e-01,9.046198129653930664e-01,9.034807682037353516e-01,9.017148017883300781e-01,8.991354703903198242e-01,8.950451612472534180e-01,8.887737393379211426e-01,8.803348541259765625e-01,8.710003495216369629e-01,8.580507040023803711e-01,8.294697999954223633e-01,8.084533214569091797e-01,8.008359670639038086e-01,7.748245000839233398e-01,7.221453189849853516e-01,6.161310076713562012e-01
5.886166691780090332e-01,6.141324043273925781e-01,6.567290425300598145e-01,6.575410962104797363e-01,6.810924410820007324e-01,7.053267955780029297e-01,7.417889237403869629e-01,7.632929086685180664e-01,7.844851016998291016e-01,8.029758930206298828e-01,8.226282596588134766e-01,8.361207246780395508e-01,8.411258459091186523e-01,8.368831872940063477e-01,8.337616920471191406e-01,8.124749660491943359e-01,7.831642627716064453e-01,7.452883720397949219e-01,6.656471490859985352e-01,6.342760324478149414e-01,6.165156960487365723e-01,6.285287141799926758e-01,6.520698666572570801e-01,7.027332782745361328e-01,7.712152600288391113e-01,8.187688589096069336e-01,8.498487472534179688e-01,8.778983354568481445e-01,8.892203569412231445e-01,8.980650901794433594e-01,9.037314653396606445e-01,9.052724838256835938e-01,9.051774740219116211e-01,9.053154587745666504e-01,9.054835438728332520e-01,9.055334329605102539e-01,9.054612517356872559e-01,9.054806828498840332e-01,9.054816365242004395e-01,9.054784774780273438e-01,9.054776430130004883e-01,9.054766297340393066e-01,9.054757356643676758e-01,9.054749011993408203e-01,9.054740667343139648e-01,9.054731130599975586e-01,9.054722189903259277e-01,9.054714441299438477e-01,9.054706692695617676e-01,9.054697751998901367e-01,9.054690003395080566e-01,9.054681062698364258e-01,9.054671525955200195e-01,9.054663777351379395e-01,9.054654240608215332e-01,9.054645299911499023e-01,9.054636955261230469e-01,9.054627418518066406e-01,9.054620265960693359e-01,9.054610729217529297e-01,9.054605960845947266e-01,9.054612517356872559e-01,9.054841995239257812e-01,9.055073857307434082e-01,9.053022265434265137e-01,9.046818017959594727e-01,9.035502672195434570e-01,9.017893075942993164e-01,8.992094397544860840e-01,8.951148390769958496e-01,8.888958692550659180e-01,8.804682493209838867e-01,8.711256980895996094e-01,8.582127690315246582e-01,8.296989202499389648e-01,8.086996078491210938e-01,8.010920286178588867e-01,7.750725150108337402e-01,7.224293947219848633e-01,6.165242791175842285e-01
5.888006687164306641e-01,6.143099665641784668e-01,6.569834351539611816e-01,6.577979922294616699e-01,6.813371181488037109e-01,7.054969668388366699e-01,7.417857646942138672e-01,7.633377313613891602e-01,7.836083173751831055e-01,8.022306561470031738e-01,8.227069377899169922e-01,8.347241878509521484e-01,8.417071700096130371e-01,8.438870906829833984e-01,8.383468389511108398e-01,8.220114707946777344e-01,7.925298213958740234e-01,7.507706880569458008e-01,6.795408129692077637e-01,6.506707668304443359e-01,6.191130876541137695e-01,6.370251774787902832e-01,6.566870212554931641e-01,7.141265869140625000e-01,7.796125411987304688e-01,8.256905078887939453e-01,8.521896600723266602e-01,8.783309459686279297e-01,8.904003500938415527e-01,8.995962142944335938e-01,9.037606120109558105e-01,9.040589332580566406e-01,9.047732353210449219e-01,9.046430587768554688e-01,9.046059846878051758e-01,9.046281576156616211e-01,9.046304225921630859e-01,9.046277999877929688e-01,9.046272039413452148e-01,9.046257734298706055e-01,9.046249389648437500e-01,9.046241044998168945e-01,9.046230316162109375e-01,9.046223163604736328e-01,9.046212434768676758e-01,9.046204090118408203e-01,9.046194553375244141e-01,9.046185016632080078e-01,9.046177268028259277e-01,9.046167135238647461e-01,9.046159982681274414e-01,9.046149253845214844e-01,9.046140909194946289e-01,9.046131968498229980e-01,9.046123027801513672e-01,9.046113491058349609e-01,9.046105146408081055e-01,9.046095013618469238e-01,9.046086668968200684e-01,9.046078324317932129e-01,9.046070575714111328e-01,9.046078324317932129e-01,9.046278595924377441e-01,9.046609401702880859e-01,9.044568538665771484e-01,9.038791656494140625e-01,9.027748107910156250e-01,9.010078907012939453e-01,8.984283208847045898e-01,8.943625688552856445e-01,8.880734443664550781e-01,8.796496391296386719e-01,8.703305721282958984e-01,8.574486970901489258e-01,8.288413286209106445e-01,8.078478574752807617e-01,8.004541397094726562e-01,7.742136716842651367e-01,7.216149568557739258e-01,6.159957051277160645e-01
5.891568660736083984e-01,6.141792535781860352e-01,6.566521525382995605e-01,6.571497321128845215e-01,6.804440617561340332e-01,7.042903304100036621e-01,7.404148578643798828e-01,7.614982724189758301e-01,7.819547653198242188e-01,8.010249137878417969e-01,8.190404176712036133e-01,8.330204486846923828e-01,8.387848138809204102e-01,8.423547744750976562e-01,8.395864963531494141e-01,8.279392719268798828e-01,8.071233034133911133e-01,7.509443163871765137e-01,6.915045976638793945e-01,6.638115644454956055e-01,6.339487433433532715e-01,6.488698124885559082e-01,6.763314008712768555e-01,7.315568923950195312e-01,7.894210815429687500e-01,8.300797939300537109e-01,8.546431660652160645e-01,8.794504404067993164e-01,8.911807537078857422e-01,8.997575044631958008e-01,9.031820297241210938e-01,9.034841060638427734e-01,9.037798047065734863e-01,9.037270545959472656e-01,9.037098884582519531e-01,9.037173986434936523e-01,9.037135839462280273e-01,9.037104249000549316e-01,9.037103056907653809e-01,9.037097096443176270e-01,9.037088155746459961e-01,9.037077426910400391e-01,9.037065505981445312e-01,9.037055969238281250e-01,9.037044048309326172e-01,9.037036895751953125e-01,9.037024378776550293e-01,9.037013053894042969e-01,9.037003517150878906e-01,9.036992788314819336e-01,9.036982059478759766e-01,9.036972522735595703e-01,9.036961197853088379e-01,9.036949872970581055e-01,9.036940336227416992e-01,9.036929607391357422e-01,9.036917686462402344e-01,9.036908149719238281e-01,9.036897420883178711e-01,9.036885499954223633e-01,9.036878347396850586e-01,9.036878347396850586e-01,9.037038683891296387e-01,9.037332534790039062e-01,9.035475254058837891e-01,9.029993414878845215e-01,9.019618034362792969e-01,9.002494812011718750e-01,8.976998329162597656e-01,8.936425447463989258e-01,8.874091506004333496e-01,8.790724873542785645e-01,8.698117733001708984e-01,8.568371534347534180e-01,8.282483816146850586e-01,8.071012496948242188e-01,7.996389865875244141e-01,7.733829021453857422e-01,7.204572558403015137e-01,6.144740581512451172e-01
5.884075760841369629e-01,6.125007271766662598e-01,6.548559069633483887e-01,6.552600860595703125e-01,6.780957579612731934e-01,7.014896869659423828e-01,7.376054525375366211e-01,7.587690949440002441e-01,7.793101072311401367e-01,7.984473109245300293e-01,8.152942061424255371e-01,8.306545019149780273e-01,8.394657373428344727e-01,8.457570075988769531e-01,8.386796712875366211e-01,8.319189548492431641e-01,8.066989183425903320e-01,7.669710516929626465e-01,7.050707340240478516e-01,6.636289358139038086e-01,6.477779150009155273e-01,6.695836186408996582e-01,7.018753290176391602e-01,7.387745380401611328e-01,7.961485385894775391e-01,8.319907188415527344e-01,8.579473495483398438e-01,8.794276714324951172e-01,8.924157023429870605e-01,8.996404409408569336e-01,9.014070034027099609e-01,9.017072319984436035e-01,9.019793272018432617e-01,9.019399881362915039e-01,9.019253849983215332e-01,9.019188880920410156e-01,9.019107818603515625e-01,9.019062519073486328e-01,9.018999338150024414e-01,9.018937349319458008e-01,9.018876552581787109e-01,9.018814563751220703e-01,9.018753767013549805e-01,9.018692970275878906e-01,9.018632769584655762e-01,9.018572568893432617e-01,9.018511772155761719e-01,9.018452167510986328e-01,9.018390178680419922e-01,9.018330574035644531e-01,9.018267989158630371e-01,9.018207788467407227e-01,9.018147587776184082e-01,9.018087387084960938e-01,9.018026590347290039e-01,9.017966389656066895e-01,9.017905592918395996e-01,9.017845392227172852e-01,9.017785787582397461e-01,9.017724990844726562e-01,9.017665386199951172e-01,9.017612934112548828e-01,9.017751812934875488e-01,9.018000364303588867e-01,9.016263484954833984e-01,9.011569023132324219e-01,9.001967906951904297e-01,8.985995054244995117e-01,8.961434364318847656e-01,8.921527862548828125e-01,8.860807418823242188e-01,8.775861263275146484e-01,8.682917356491088867e-01,8.554391264915466309e-01,8.269653916358947754e-01,8.060623407363891602e-01,7.985023260116577148e-01,7.719296216964721680e-01,7.191738486289978027e-01,6.127001047134399414e-01
5.864664912223815918e-01,6.097774505615234375e-01,6.518764495849609375e-01,6.520044803619384766e-01,6.745812892913818359e-01,6.974235773086547852e-01,7.329894304275512695e-01,7.536190748214721680e-01,7.734742760658264160e-01,7.916476726531982422e-01,8.093255758285522461e-01,8.234360814094543457e-01,8.352528810501098633e-01,8.394535779953002930e-01,8.343724012374877930e-01,8.288102746009826660e-01,8.046365976333618164e-01,7.749999761581420898e-01,7.155966162681579590e-01,6.671447157859802246e-01,6.411823034286499023e-01,6.677707433700561523e-01,7.083525657653808594e-01,7.411116361618041992e-01,7.946815490722656250e-01,8.297510147094726562e-01,8.557188510894775391e-01,8.758066892623901367e-01,8.872808218002319336e-01,8.932261466979980469e-01,8.952704668045043945e-01,8.952404856681823730e-01,8.954753875732421875e-01,8.954461812973022461e-01,8.954290151596069336e-01,8.954198956489562988e-01,8.954107761383056641e-01,8.954016566276550293e-01,8.953925371170043945e-01,8.953834772109985352e-01,8.953742980957031250e-01,8.953651785850524902e-01,8.953561186790466309e-01,8.953469991683959961e-01,8.953379392623901367e-01,8.953289985656738281e-01,8.953197002410888672e-01,8.953106403350830078e-01,8.953015804290771484e-01,8.952925205230712891e-01,8.952834010124206543e-01,8.952744603157043457e-01,8.952653408050537109e-01,8.952560424804687500e-01,8.952469825744628906e-01,8.952381014823913574e-01,8.952289819717407227e-01,8.952198028564453125e-01,8.952109217643737793e-01,8.952018022537231445e-01,8.951925039291381836e-01,8.951835632324218750e-01,8.951922655105590820e-01,8.952094912528991699e-01,8.950743675231933594e-01,8.946249485015869141e-01,8.938152194023132324e-01,8.923485279083251953e-01,8.900246620178222656e-01,8.861790895462036133e-01,8.802849650382995605e-01,8.720727562904357910e-01,8.626434803009033203e-01,8.496464490890502930e-01,8.213581442832946777e-01,8.010406494140625000e-01,7.939159870147705078e-01,7.675375938415527344e-01,7.151727676391601562e-01,6.077085137367248535e-01
5.825375914573669434e-01,6.038818359375000000e-01,6.454440951347351074e-01,6.448001861572265625e-01,6.661968231201171875e-01,6.881831288337707520e-01,7.229003906250000000e-01,7.430698871612548828e-01,7.622066736221313477e-01,7.792671322822570801e-01,7.973871231079101562e-01,8.137376308441162109e-01,8.241117000579833984e-01,8.285501003265380859e-01,8.300930261611938477e-01,8.167703151702880859e-01,7.984543442726135254e-01,7.672111988067626953e-01,7.214503288269042969e-01,6.708617210388183594e-01,6.445930004119873047e-01,6.632300615310668945e-01,6.900955438613891602e-01,7.471172809600830078e-01,7.853828668594360352e-01,8.202295303344726562e-01,8.470507860183715820e-01,8.646964430809020996e-01,8.768962621688842773e-01,8.825759887695312500e-01,8.844395875930786133e-01,8.844636678695678711e-01,8.845915794372558594e-01,8.845468759536743164e-01,8.845198154449462891e-01,8.844996094703674316e-01,8.844794034957885742e-01,8.844590783119201660e-01,8.844388723373413086e-01,8.844186067581176758e-01,8.843984603881835938e-01,8.843783736228942871e-01,8.843581676483154297e-01,8.843376636505126953e-01,8.843176364898681641e-01,8.842973709106445312e-01,8.842772245407104492e-01,8.842570185661315918e-01,8.842368125915527344e-01,8.842166662216186523e-01,8.841965198516845703e-01,8.841763734817504883e-01,8.841561675071716309e-01,8.841359615325927734e-01,8.841158151626586914e-01,8.840956687927246094e-01,8.840754628181457520e-01,8.840553164482116699e-01,8.840352296829223633e-01,8.840150833129882812e-01,8.839946985244750977e-01,8.839745521545410156e-01,8.839852809906005859e-01,8.840306997299194336e-01,8.839036226272583008e-01,8.835538625717163086e-01,8.828711509704589844e-01,8.814039230346679688e-01,8.790515065193176270e-01,8.753609657287597656e-01,8.695291280746459961e-01,8.616451621055603027e-01,8.525937795639038086e-01,8.395707607269287109e-01,8.107889890670776367e-01,7.916795015335083008e-01,7.853863835334777832e-01,7.605785131454467773e-01,7.071930170059204102e-01,6.017380356788635254e-01
5.753737092018127441e-01,5.940434932708740234e-01,6.345340609550476074e-01,6.318063735961914062e-01,6.512056589126586914e-01,6.719560623168945312e-01,7.057629227638244629e-01,7.251071333885192871e-01,7.435100674629211426e-01,7.598664164543151855e-01,7.768765687942504883e-01,7.929775714874267578e-01,8.012778759002685547e-01,8.084706664085388184e-01,8.153117895126342773e-01,7.970693707466125488e-01,7.813116312026977539e-01,7.530312538146972656e-01,7.090675234794616699e-01,6.477435827255249023e-01,6.415280103683471680e-01,6.495183706283569336e-01,6.721773147583007812e-01,7.260046005249023438e-01,7.632147669792175293e-01,7.939886450767517090e-01,8.234465718269348145e-01,8.399373292922973633e-01,8.532014489173889160e-01,8.598005771636962891e-01,8.605030775070190430e-01,8.611063957214355469e-01,8.610227704048156738e-01,8.609579801559448242e-01,8.609153032302856445e-01,8.608782291412353516e-01,8.608410358428955078e-01,8.608043193817138672e-01,8.607670664787292480e-01,8.607300519943237305e-01,8.606932163238525391e-01,8.606560230255126953e-01,8.606191873550415039e-01,8.605822324752807617e-01,8.605451583862304688e-01,8.605081439018249512e-01,8.604712486267089844e-01,8.604342937469482422e-01,8.603972196578979492e-01,8.603602647781372070e-01,8.603231906890869141e-01,8.602864742279052734e-01,8.602495193481445312e-01,8.602126240730285645e-01,8.601756095886230469e-01,8.601387739181518555e-01,8.601018786430358887e-01,8.600651621818542480e-01,8.600280284881591797e-01,8.599910736083984375e-01,8.599540591239929199e-01,8.599162101745605469e-01,8.599212169647216797e-01,8.599543571472167969e-01,8.598036766052246094e-01,8.595364093780517578e-01,8.591340780258178711e-01,8.579505681991577148e-01,8.558970689773559570e-01,8.521332740783691406e-01,8.465111851692199707e-01,8.387179970741271973e-01,8.299994468688964844e-01,8.169884681701660156e-01,7.877310514450073242e-01,7.700020670890808105e-01,7.670556306838989258e-01,7.439011335372924805e-01,6.925576329231262207e-01,5.922731757164001465e-01
5.643814802169799805e-01,5.786228179931640625e-01,6.173462271690368652e-01,6.113580465316772461e-01,6.278059482574462891e-01,6.468133926391601562e-01,6.787365674972534180e-01,6.960911750793457031e-01,7.121111750602722168e-01,7.261444926261901855e-01,7.411839962005615234e-01,7.540292739868164062e-01,7.632325291633605957e-01,7.688542604446411133e-01,7.761476039886474609e-01,7.553816437721252441e-01,7.495522499084472656e-01,7.283294796943664551e-01,6.654567718505859375e-01,6.184831261634826660e-01,6.181001067161560059e-01,6.219537854194641113e-01,6.453347206115722656e-01,7.028062343597412109e-01,7.292720079421997070e-01,7.514246702194213867e-01,7.803945541381835938e-01,8.000860214233398438e-01,8.112323284149169922e-01,8.177176713943481445e-01,8.181191682815551758e-01,8.186802268028259277e-01,8.184501528739929199e-01,8.183704614639282227e-01,8.183083534240722656e-01,8.182492852210998535e-01,8.181903362274169922e-01,8.181314468383789062e-01,8.180726766586303711e-01,8.180136680603027344e-01,8.179545402526855469e-01,8.178958892822265625e-01,8.178369402885437012e-01,8.177780508995056152e-01,8.177193403244018555e-01,8.176604509353637695e-01,8.176014423370361328e-01,8.175427913665771484e-01,8.174839019775390625e-01,8.174251317977905273e-01,8.173663616180419922e-01,8.173075318336486816e-01,8.172488212585449219e-01,8.171900510787963867e-01,8.171310424804687500e-01,8.170723915100097656e-01,8.170135617256164551e-01,8.169549703598022461e-01,8.168960809707641602e-01,8.168374300003051758e-01,8.167786598205566406e-01,8.167188763618469238e-01,8.167111873626708984e-01,8.166834712028503418e-01,8.164891004562377930e-01,8.160825967788696289e-01,8.156256675720214844e-01,8.143144249916076660e-01,8.124459981918334961e-01,8.094986081123352051e-01,8.042778968811035156e-01,7.970194816589355469e-01,7.894141674041748047e-01,7.773779630661010742e-01,7.479067444801330566e-01,7.329883575439453125e-01,7.344146370887756348e-01,7.134176492691040039e-01,6.685293316841125488e-01,5.795605182647705078e-01
5.498367547988891602e-01,5.541192293167114258e-01,5.890451073646545410e-01,5.790383219718933105e-01,5.922486782073974609e-01,6.085587739944458008e-01,6.381742954254150391e-01,6.527668237686157227e-01,6.666365861892700195e-01,6.782473325729370117e-01,6.911298036575317383e-01,7.004530429840087891e-01,7.099893093109130859e-01,7.146551012992858887e-01,7.160998582839965820e-01,7.002655267715454102e-01,6.878121495246887207e-01,6.668104529380798340e-01,6.229625344276428223e-01,5.833490490913391113e-01,5.816452503204345703e-01,5.889372825622558594e-01,6.065540313720703125e-01,6.508858799934387207e-01,6.742653250694274902e-01,6.943185329437255859e-01,7.195290327072143555e-01,7.394542694091796875e-01,7.474715709686279297e-01,7.507000565528869629e-01,7.512713074684143066e-01,7.519206404685974121e-01,7.516850233078002930e-01,7.515786290168762207e-01,7.514885663986206055e-01,7.514061331748962402e-01,7.513235807418823242e-01,7.512412071228027344e-01,7.511588931083679199e-01,7.510763406753540039e-01,7.509940266609191895e-01,7.509117126464843750e-01,7.508294582366943359e-01,7.507470250129699707e-01,7.506648302078247070e-01,7.505825757980346680e-01,7.505003213882446289e-01,7.504178881645202637e-01,7.503356337547302246e-01,7.502533197402954102e-01,7.501711845397949219e-01,7.500888109207153320e-01,7.500066757202148438e-01,7.499244213104248047e-01,7.498422861099243164e-01,7.497600913047790527e-01,7.496777772903442383e-01,7.495957016944885254e-01,7.495135664939880371e-01,7.494312524795532227e-01,7.493484020233154297e-01,7.492626309394836426e-01,7.492378354072570801e-01,7.491595745086669922e-01,7.490056753158569336e-01,7.487244606018066406e-01,7.482100725173950195e-01,7.468216419219970703e-01,7.445576190948486328e-01,7.411929368972778320e-01,7.364984750747680664e-01,7.301433086395263672e-01,7.241493463516235352e-01,7.128816246986389160e-01,6.834420561790466309e-01,6.727100014686584473e-01,6.816097497940063477e-01,6.628421545028686523e-01,6.335914731025695801e-01,5.563703179359436035e-01
5.325879454612731934e-01,5.238322019577026367e-01,5.546802282333374023e-01,5.387882590293884277e-01,5.466844439506530762e-01,5.595382452011108398e-01,5.837644338607788086e-01,5.949426889419555664e-01,6.053855419158935547e-01,6.134194135665893555e-01,6.219267845153808594e-01,6.299995779991149902e-01,6.347938179969787598e-01,6.387521624565124512e-01,6.365360617637634277e-01,6.238206624984741211e-01,6.047399640083312988e-01,5.790786743164062500e-01,5.712994933128356934e-01,5.236707329750061035e-01,5.318844914436340332e-01,5.377425551414489746e-01,5.520423054695129395e-01,5.841988325119018555e-01,6.068395376205444336e-01,6.236902475357055664e-01,6.415019631385803223e-01,6.560411453247070312e-01,6.604813933372497559e-01,6.619435548782348633e-01,6.616618633270263672e-01,6.621477007865905762e-01,6.620296239852905273e-01,6.619348526000976562e-01,6.618434190750122070e-01,6.617558598518371582e-01,6.616681814193725586e-01,6.615805029869079590e-01,6.614930033683776855e-01,6.614054441452026367e-01,6.613179445266723633e-01,6.612306237220764160e-01,6.611431241035461426e-01,6.610557436943054199e-01,6.609681844711303711e-01,6.608808636665344238e-01,6.607934236526489258e-01,6.607060432434082031e-01,6.606186628341674805e-01,6.605312228202819824e-01,6.604440212249755859e-01,6.603567004203796387e-01,6.602693796157836914e-01,6.601822376251220703e-01,6.600949764251708984e-01,6.600075960159301758e-01,6.599204540252685547e-01,6.598331928253173828e-01,6.597461104393005371e-01,6.596589684486389160e-01,6.595710515975952148e-01,6.594784855842590332e-01,6.594128012657165527e-01,6.593522429466247559e-01,6.591408252716064453e-01,6.589310169219970703e-01,6.586105227470397949e-01,6.574522256851196289e-01,6.554548144340515137e-01,6.522733569145202637e-01,6.490540504455566406e-01,6.442266702651977539e-01,6.403594017028808594e-01,6.306684017181396484e-01,6.031946539878845215e-01,5.958228111267089844e-01,6.114310622215270996e-01,5.966798067092895508e-01,5.878760218620300293e-01,5.268067121505737305e-01
5.116019248962402344e-01,4.894239902496337891e-01,5.142422318458557129e-01,4.909940659999847412e-01,4.925777316093444824e-01,5.011590123176574707e-01,5.197619199752807617e-01,5.277138948440551758e-01,5.348371863365173340e-01,5.395516157150268555e-01,5.445658564567565918e-01,5.510990619659423828e-01,5.550978183746337891e-01,5.559061765670776367e-01,5.535898804664611816e-01,5.502719283103942871e-01,5.270392298698425293e-01,5.097942948341369629e-01,4.946994483470916748e-01,4.732896089553833008e-01,4.758762419223785400e-01,4.850523173809051514e-01,5.016192197799682617e-01,5.127981305122375488e-01,5.357432961463928223e-01,5.454695224761962891e-01,5.595381259918212891e-01,5.675647854804992676e-01,5.693945884704589844e-01,5.704200863838195801e-01,5.695177912712097168e-01,5.698534846305847168e-01,5.697210431098937988e-01,5.696270465850830078e-01,5.695406794548034668e-01,5.694538354873657227e-01,5.693668723106384277e-01,5.692800283432006836e-01,5.691932439804077148e-01,5.691063404083251953e-01,5.690194368362426758e-01,5.689326524734497070e-01,5.688460469245910645e-01,5.687593221664428711e-01,5.686725378036499023e-01,5.685858726501464844e-01,5.684993863105773926e-01,5.684125423431396484e-01,5.683258771896362305e-01,5.682392120361328125e-01,5.681526064872741699e-01,5.680660605430603027e-01,5.679795145988464355e-01,5.678931474685668945e-01,5.678065419197082520e-01,5.677200555801391602e-01,5.676336288452148438e-01,5.675472617149353027e-01,5.674607753753662109e-01,5.673744082450866699e-01,5.672875046730041504e-01,5.671949386596679688e-01,5.671092271804809570e-01,5.670688152313232422e-01,5.670371055603027344e-01,5.669608116149902344e-01,5.667215585708618164e-01,5.661793947219848633e-01,5.646688938140869141e-01,5.622382760047912598e-01,5.591770410537719727e-01,5.555619001388549805e-01,5.536197423934936523e-01,5.454425811767578125e-01,5.213828682899475098e-01,5.172738432884216309e-01,5.382989048957824707e-01,5.279754400253295898e-01,5.396118164062500000e-01,4.964718818664550781e-01
4.905973970890045166e-01,4.557313024997711182e-01,4.713654518127441406e-01,4.409480392932891846e-01,4.362833499908447266e-01,4.406400322914123535e-01,4.540629386901855469e-01,4.581431150436401367e-01,4.624645709991455078e-01,4.647186696529388428e-01,4.671311080455780029e-01,4.708728790283203125e-01,4.732817113399505615e-01,4.729997515678405762e-01,4.719659686088562012e-01,4.731823205947875977e-01,4.538402855396270752e-01,4.443885982036590576e-01,4.415815472602844238e-01,4.246981739997863770e-01,4.215546250343322754e-01,4.304503798484802246e-01,4.452815055847167969e-01,4.429327845573425293e-01,4.589700400829315186e-01,4.678752124309539795e-01,4.760647416114807129e-01,4.805796146392822266e-01,4.820824861526489258e-01,4.823081493377685547e-01,4.819592833518981934e-01,4.819475710391998291e-01,4.818365275859832764e-01,4.817552268505096436e-01,4.816836416721343994e-01,4.816105663776397705e-01,4.815375804901123047e-01,4.814647436141967773e-01,4.813919365406036377e-01,4.813190698623657227e-01,4.812461733818054199e-01,4.811732470989227295e-01,4.811006486415863037e-01,4.810278415679931641e-01,4.809551537036895752e-01,4.808824360370635986e-01,4.808097779750823975e-01,4.807371795177459717e-01,4.806644320487976074e-01,4.805919528007507324e-01,4.805193245410919189e-01,4.804465472698211670e-01,4.803740978240966797e-01,4.803015887737274170e-01,4.802289903163909912e-01,4.801565408706665039e-01,4.800841510295867920e-01,4.800117611885070801e-01,4.799392819404602051e-01,4.798669219017028809e-01,4.797942936420440674e-01,4.797181785106658936e-01,4.796352088451385498e-01,4.795702397823333740e-01,4.795567989349365234e-01,4.795639514923095703e-01,4.794863760471343994e-01,4.793964624404907227e-01,4.788257479667663574e-01,4.777987897396087646e-01,4.768767356872558594e-01,4.753149747848510742e-01,4.752853214740753174e-01,4.694373309612274170e-01,4.494400620460510254e-01,4.482007324695587158e-01,4.717476963996887207e-01,4.687449932098388672e-01,4.949510693550109863e-01,4.690747857093811035e-01
4.694188833236694336e-01,4.224305748939514160e-01,4.285633862018585205e-01,3.950862288475036621e-01,3.841221034526824951e-01,3.856870532035827637e-01,3.961019814014434814e-01,3.990401625633239746e-01,4.020752608776092529e-01,4.032337367534637451e-01,4.044446945190429688e-01,4.061317741870880127e-01,4.068800508975982666e-01,4.067768752574920654e-01,4.086892902851104736e-01,4.071189165115356445e-01,3.955556750297546387e-01,3.860468864440917969e-01,3.862198591232299805e-01,3.796760737895965576e-01,3.791476488113403320e-01,3.849263787269592285e-01,3.909198343753814697e-01,3.918816745281219482e-01,3.965544700622558594e-01,4.025219380855560303e-01,4.073507785797119141e-01,4.084736704826354980e-01,4.100921750068664551e-01,4.098283052444458008e-01,4.099305272102355957e-01,4.096621572971343994e-01,4.096015989780426025e-01,4.095362424850463867e-01,4.094775915145874023e-01,4.094199538230895996e-01,4.093623161315917969e-01,4.093047082424163818e-01,4.092468023300170898e-01,4.091891646385192871e-01,4.091315269470214844e-01,4.090739190578460693e-01,4.090162217617034912e-01,4.089586138725280762e-01,4.089009761810302734e-01,4.088435769081115723e-01,4.087860286235809326e-01,4.087284803390502930e-01,4.086711108684539795e-01,4.086135625839233398e-01,4.085560739040374756e-01,4.084985852241516113e-01,4.084411263465881348e-01,4.083836674690246582e-01,4.083263576030731201e-01,4.082689285278320312e-01,4.082117676734924316e-01,4.081544280052185059e-01,4.080970585346221924e-01,4.080396890640258789e-01,4.079833328723907471e-01,4.079256057739257812e-01,4.078709781169891357e-01,4.078209102153778076e-01,4.077899754047393799e-01,4.077708125114440918e-01,4.077910184860229492e-01,4.076971113681793213e-01,4.073163568973541260e-01,4.064821302890777588e-01,4.056410193443298340e-01,4.045550227165222168e-01,4.052068591117858887e-01,4.015108346939086914e-01,3.856449425220489502e-01,3.876553773880004883e-01,4.134758114814758301e-01,4.176964163780212402e-01,4.560030698776245117e-01,4.460477232933044434e-01
4.513986706733703613e-01,3.938306868076324463e-01,3.929947614669799805e-01,3.573054075241088867e-01,3.413717150688171387e-01,3.406625986099243164e-01,3.481089472770690918e-01,3.498296141624450684e-01,3.515288233757019043e-01,3.519402742385864258e-01,3.523620963096618652e-01,3.531925082206726074e-01,3.530927300453186035e-01,3.531067967414855957e-01,3.548319935798645020e-01,3.540247082710266113e-01,3.471563458442687988e-01,3.436854481697082520e-01,3.401935100555419922e-01,3.397789001464843750e-01,3.391126394271850586e-01,3.405645489692687988e-01,3.460911810398101807e-01,3.468899130821228027e-01,3.499383330345153809e-01,3.520652353763580322e-01,3.535037040710449219e-01,3.526675701141357422e-01,3.537327945232391357e-01,3.537383377552032471e-01,3.536743521690368652e-01,3.534806966781616211e-01,3.534287810325622559e-01,3.533827364444732666e-01,3.533416986465454102e-01,3.533004224300384521e-01,3.532592356204986572e-01,3.532181382179260254e-01,3.531770110130310059e-01,3.531356751918792725e-01,3.530947268009185791e-01,3.530537486076354980e-01,3.530126214027404785e-01,3.529712557792663574e-01,3.529304265975952148e-01,3.528893887996673584e-01,3.528483211994171143e-01,3.528074026107788086e-01,3.527662754058837891e-01,3.527252674102783203e-01,3.526842594146728516e-01,3.526432812213897705e-01,3.526023030281066895e-01,3.525614142417907715e-01,3.525204658508300781e-01,3.524797558784484863e-01,3.524386286735534668e-01,3.523977398872375488e-01,3.523570895195007324e-01,3.523161113262176514e-01,3.522754311561584473e-01,3.522349298000335693e-01,3.521918654441833496e-01,3.521630465984344482e-01,3.521243929862976074e-01,3.520690798759460449e-01,3.520728349685668945e-01,3.521174788475036621e-01,3.520666658878326416e-01,3.519892096519470215e-01,3.517296910285949707e-01,3.512737154960632324e-01,3.521099686622619629e-01,3.494807779788970947e-01,3.362939059734344482e-01,3.391628861427307129e-01,3.653144240379333496e-01,3.756783008575439453e-01,4.224390387535095215e-01,4.258163869380950928e-01
4.349696934223175049e-01,3.689475059509277344e-01,3.612785935401916504e-01,3.251693546772003174e-01,3.061342239379882812e-01,3.047604560852050781e-01,3.108662962913513184e-01,3.122516870498657227e-01,3.134142458438873291e-01,3.134238123893737793e-01,3.133835792541503906e-01,3.133706748485565186e-01,3.133981227874755859e-01,3.137624263763427734e-01,3.139282464981079102e-01,3.132263422012329102e-01,3.117074072360992432e-01,3.085105717182159424e-01,3.078289628028869629e-01,3.085395693778991699e-01,3.060494065284729004e-01,3.076637983322143555e-01,3.101205825805664062e-01,3.107718825340270996e-01,3.126509785652160645e-01,3.126849234104156494e-01,3.137171566486358643e-01,3.134649693965911865e-01,3.132892251014709473e-01,3.132304251194000244e-01,3.131721615791320801e-01,3.131225705146789551e-01,3.130871653556823730e-01,3.130517601966857910e-01,3.130218982696533203e-01,3.129919171333312988e-01,3.129621148109436035e-01,3.129321634769439697e-01,3.129022121429443359e-01,3.128723502159118652e-01,3.128426969051361084e-01,3.128128647804260254e-01,3.127828836441040039e-01,3.127528727054595947e-01,3.127232193946838379e-01,3.126932382583618164e-01,3.126636147499084473e-01,3.126337826251983643e-01,3.126039505004882812e-01,3.125741481781005859e-01,3.125443160533905029e-01,3.125145435333251953e-01,3.124848604202270508e-01,3.124551177024841309e-01,3.124252557754516602e-01,3.123955726623535156e-01,3.123660087585449219e-01,3.123361468315124512e-01,3.123064041137695312e-01,3.122766911983489990e-01,3.122473955154418945e-01,3.122178316116333008e-01,3.121885955333709717e-01,3.121566176414489746e-01,3.121262490749359131e-01,3.120961189270019531e-01,3.120556473731994629e-01,3.120041787624359131e-01,3.119792938232421875e-01,3.118625879287719727e-01,3.117267489433288574e-01,3.115086555480957031e-01,3.122511506080627441e-01,3.104237914085388184e-01,2.992321550846099854e-01,3.025905191898345947e-01,3.288223147392272949e-01,3.441909551620483398e-01,3.968273997306823730e-01,4.101026356220245361e-01
4.212138652801513672e-01,3.491317033767700195e-01,3.364109694957733154e-01,2.999963164329528809e-01,2.791730761528015137e-01,2.769969701766967773e-01,2.819492816925048828e-01,2.831153273582458496e-01,2.840010523796081543e-01,2.838913202285766602e-01,2.838333249092102051e-01,2.838343977928161621e-01,2.838321328163146973e-01,2.839180231094360352e-01,2.837820649147033691e-01,2.837422490119934082e-01,2.830741405487060547e-01,2.822501659393310547e-01,2.813182473182678223e-01,2.813525795936584473e-01,2.810774445533752441e-01,2.817128896713256836e-01,2.823111414909362793e-01,2.831096053123474121e-01,2.836399674415588379e-01,2.828011214733123779e-01,2.834174036979675293e-01,2.836863994598388672e-01,2.835260629653930664e-01,2.834817469120025635e-01,2.833782434463500977e-01,2.833623588085174561e-01,2.833444774150848389e-01,2.833213210105895996e-01,2.832996845245361328e-01,2.832779884338378906e-01,2.832563519477844238e-01,2.832347750663757324e-01,2.832130193710327148e-01,2.831914126873016357e-01,2.831698358058929443e-01,2.831481099128723145e-01,2.831264734268188477e-01,2.831048369407653809e-01,2.830832004547119141e-01,2.830613255500793457e-01,2.830399572849273682e-01,2.830183207988739014e-01,2.829967141151428223e-01,2.829749584197998047e-01,2.829533815383911133e-01,2.829318046569824219e-01,2.829102277755737305e-01,2.828885614871978760e-01,2.828671932220458984e-01,2.828455865383148193e-01,2.828238606452941895e-01,2.828024029731750488e-01,2.827810347080230713e-01,2.827593982219696045e-01,2.827378511428833008e-01,2.827163338661193848e-01,2.826948761940002441e-01,2.826739847660064697e-01,2.826523482799530029e-01,2.826271951198577881e-01,2.826041281223297119e-01,2.825945019721984863e-01,2.825853526592254639e-01,2.825843095779418945e-01,2.825654745101928711e-01,2.824565768241882324e-01,2.830969691276550293e-01,2.817865610122680664e-01,2.718624472618103027e-01,2.751379907131195068e-01,3.007411360740661621e-01,3.195636570453643799e-01,3.762988746166229248e-01,3.975795507431030273e-01
4.091769456863403320e-01,3.324926495552062988e-01,3.159807920455932617e-01,2.799515128135681152e-01,2.584251463413238525e-01,2.558340430259704590e-01,2.600284218788146973e-01,2.610210776329040527e-01,2.617944478988647461e-01,2.617125213146209717e-01,2.616662085056304932e-01,2.616284787654876709e-01,2.616310715675354004e-01,2.616468667984008789e-01,2.614503800868988037e-01,2.615586519241333008e-01,2.615889906883239746e-01,2.611323595046997070e-01,2.604044675827026367e-01,2.607297301292419434e-01,2.608830332756042480e-01,2.610610127449035645e-01,2.614133954048156738e-01,2.613419592380523682e-01,2.613099813461303711e-01,2.614558339118957520e-01,2.613584697246551514e-01,2.614901065826416016e-01,2.613693177700042725e-01,2.613608837127685547e-01,2.613424062728881836e-01,2.613091766834259033e-01,2.612969279289245605e-01,2.612809240818023682e-01,2.612643837928771973e-01,2.612478733062744141e-01,2.612314224243164062e-01,2.612149119377136230e-01,2.611985206604003906e-01,2.611820101737976074e-01,2.611654400825500488e-01,2.611490488052368164e-01,2.611326277256011963e-01,2.611162662506103516e-01,2.610994577407836914e-01,2.610830068588256836e-01,2.610666453838348389e-01,2.610503733158111572e-01,2.610337734222412109e-01,2.610172927379608154e-01,2.610009908676147461e-01,2.609845399856567383e-01,2.609680294990539551e-01,2.609514594078063965e-01,2.609350681304931641e-01,2.609185874462127686e-01,2.609023451805114746e-01,2.608859241008758545e-01,2.608695626258850098e-01,2.608530521392822266e-01,2.608366608619689941e-01,2.608203887939453125e-01,2.608040273189544678e-01,2.607873082160949707e-01,2.607708275318145752e-01,2.607540786266326904e-01,2.607366442680358887e-01,2.607210278511047363e-01,2.607061266899108887e-01,2.606906294822692871e-01,2.606749534606933594e-01,2.605966329574584961e-01,2.611151039600372314e-01,2.600689530372619629e-01,2.511714398860931396e-01,2.544497251510620117e-01,2.794609069824218750e-01,3.009962439537048340e-01,3.605849444866180420e-01,3.876335620880126953e-01
3.991107642650604248e-01,3.188929259777069092e-01,2.997286915779113770e-01,2.643892467021942139e-01,2.423062324523925781e-01,2.394186854362487793e-01,2.430790662765502930e-01,2.439696788787841797e-01,2.446607649326324463e-01,2.445993721485137939e-01,2.445652186870574951e-01,2.445470392704010010e-01,2.445456683635711670e-01,2.445368468761444092e-01,2.444104850292205811e-01,2.445573806762695312e-01,2.446204125881195068e-01,2.443814575672149658e-01,2.440621256828308105e-01,2.441511750221252441e-01,2.440372109413146973e-01,2.444021403789520264e-01,2.444444298744201660e-01,2.442968487739562988e-01,2.444198131561279297e-01,2.444703876972198486e-01,2.443552613258361816e-01,2.443427443504333496e-01,2.443073391914367676e-01,2.443099021911621094e-01,2.442951202392578125e-01,2.442843616008758545e-01,2.442709505558013916e-01,2.442579269409179688e-01,2.442449331283569336e-01,2.442319989204406738e-01,2.442191541194915771e-01,2.442062199115753174e-01,2.441932260990142822e-01,2.441804111003875732e-01,2.441675662994384766e-01,2.441548109054565430e-01,2.441415488719940186e-01,2.441287338733673096e-01,2.441159188747406006e-01,2.441029846668243408e-01,2.440901398658752441e-01,2.440772652626037598e-01,2.440643012523651123e-01,2.440513670444488525e-01,2.440386414527893066e-01,2.440255582332611084e-01,2.440129518508911133e-01,2.439998984336853027e-01,2.439871728420257568e-01,2.439741790294647217e-01,2.439612448215484619e-01,2.439485490322113037e-01,2.439356446266174316e-01,2.439228296279907227e-01,2.439101040363311768e-01,2.438971400260925293e-01,2.438842654228210449e-01,2.438714504241943359e-01,2.438587248325347900e-01,2.438452243804931641e-01,2.438319325447082520e-01,2.438185513019561768e-01,2.438057363033294678e-01,2.437924742698669434e-01,2.437795698642730713e-01,2.437156438827514648e-01,2.441399693489074707e-01,2.433046102523803711e-01,2.352254986763000488e-01,2.385371923446655273e-01,2.629343569278717041e-01,2.863683700561523438e-01,3.479812145233154297e-01,3.796828389167785645e-01
3.908095359802246094e-01,3.077792525291442871e-01,2.866287827491760254e-01,2.519689202308654785e-01,2.295331954956054688e-01,2.264059185981750488e-01,2.296721041202545166e-01,2.304620146751403809e-01,2.310835123062133789e-01,2.310297489166259766e-01,2.310022711753845215e-01,2.309890687465667725e-01,2.309848368167877197e-01,2.309612929821014404e-01,2.309153974056243896e-01,2.309588193893432617e-01,2.309553325176239014e-01,2.309164106845855713e-01,2.308382987976074219e-01,2.307665050029754639e-01,2.308497726917266846e-01,2.309031486511230469e-01,2.308682501316070557e-01,2.308672964572906494e-01,2.308434545993804932e-01,2.308403551578521729e-01,2.308511435985565186e-01,2.308352887630462646e-01,2.308209538459777832e-01,2.307989299297332764e-01,2.307920455932617188e-01,2.307843565940856934e-01,2.307732105255126953e-01,2.307626605033874512e-01,2.307522594928741455e-01,2.307420969009399414e-01,2.307315170764923096e-01,2.307209670543670654e-01,2.307109236717224121e-01,2.307004928588867188e-01,2.306902408599853516e-01,2.306796908378601074e-01,2.306693792343139648e-01,2.306588888168334961e-01,2.306486070156097412e-01,2.306382358074188232e-01,2.306279242038726807e-01,2.306175529956817627e-01,2.306071519851684570e-01,2.305969595909118652e-01,2.305862903594970703e-01,2.305763065814971924e-01,2.305657863616943359e-01,2.305556237697601318e-01,2.305451333522796631e-01,2.305346429347991943e-01,2.305244207382202148e-01,2.305139601230621338e-01,2.305038273334503174e-01,2.304935455322265625e-01,2.304830551147460938e-01,2.304727435111999512e-01,2.304625213146209717e-01,2.304522693157196045e-01,2.304418981075286865e-01,2.304315268993377686e-01,2.304210662841796875e-01,2.304108142852783203e-01,2.304006218910217285e-01,2.303901910781860352e-01,2.303797602653503418e-01,2.303259074687957764e-01,2.306817173957824707e-01,2.300057113170623779e-01,2.225904762744903564e-01,2.259139418601989746e-01,2.498091161251068115e-01,2.745922207832336426e-01,3.377279639244079590e-01,3.731990158557891846e-01
3.838107585906982422e-01,2.985782623291015625e-01,2.758301794528961182e-01,2.418456673622131348e-01,2.191905379295349121e-01,2.158580720424652100e-01,2.188137769699096680e-01,2.195150852203369141e-01,2.200811803340911865e-01,2.200340330600738525e-01,2.200106382369995117e-01,2.200020551681518555e-01,2.199934720993041992e-01,2.199825644493103027e-01,2.199718356132507324e-01,2.199808657169342041e-01,2.199758887290954590e-01,2.199738621711730957e-01,2.199203372001647949e-01,2.199300825595855713e-01,2.199035286903381348e-01,2.199183106422424316e-01,2.199002206325531006e-01,2.199059128761291504e-01,2.198973894119262695e-01,2.198907136917114258e-01,2.198751270771026611e-01,2.198658287525177002e-01,2.198568284511566162e-01,2.198504507541656494e-01,2.198398113250732422e-01,2.198316454887390137e-01,2.198230922222137451e-01,2.198144197463989258e-01,2.198061048984527588e-01,2.197974622249603271e-01,2.197892367839813232e-01,2.197806537151336670e-01,2.197721004486083984e-01,2.197635471820831299e-01,2.197550535202026367e-01,2.197466194629669189e-01,2.197382152080535889e-01,2.197297215461730957e-01,2.197211980819702148e-01,2.197125852108001709e-01,2.197041511535644531e-01,2.196954786777496338e-01,2.196871340274810791e-01,2.196787893772125244e-01,2.196701467037200928e-01,2.196616828441619873e-01,2.196533977985382080e-01,2.196447849273681641e-01,2.196364104747772217e-01,2.196278274059295654e-01,2.196192443370819092e-01,2.196108102798461914e-01,2.196023762226104736e-01,2.195937931537628174e-01,2.195853590965270996e-01,2.195770740509033203e-01,2.195685207843780518e-01,2.195600569248199463e-01,2.195513844490051270e-01,2.195433080196380615e-01,2.195348441600799561e-01,2.195263803005218506e-01,2.195178270339965820e-01,2.195094525814056396e-01,2.195001542568206787e-01,2.194551825523376465e-01,2.197603881359100342e-01,2.192113697528839111e-01,2.123424112796783447e-01,2.156712710857391357e-01,2.391554713249206543e-01,2.649255394935607910e-01,3.292277455329895020e-01,3.678068518638610840e-01
3.778374791145324707e-01,2.908444404602050781e-01,2.668073177337646484e-01,2.334590554237365723e-01,2.106586694717407227e-01,2.071490287780761719e-01,2.098529934883117676e-01,2.104763686656951904e-01,2.109938263893127441e-01,2.109520435333251953e-01,2.109318673610687256e-01,2.109245955944061279e-01,2.109174728393554688e-01,2.109100222587585449e-01,2.109028697013854980e-01,2.108961343765258789e-01,2.108924388885498047e-01,2.108836174011230469e-01,2.108733057975769043e-01,2.108685672283172607e-01,2.108639776706695557e-01,2.108533382415771484e-01,2.108444869518280029e-01,2.108387053012847900e-01,2.108345329761505127e-01,2.108258306980133057e-01,2.108178138732910156e-01,2.108100652694702148e-01,2.108032405376434326e-01,2.107973396778106689e-01,2.107898592948913574e-01,2.107827961444854736e-01,2.107760012149810791e-01,2.107687890529632568e-01,2.107615768909454346e-01,2.107545435428619385e-01,2.107474207878112793e-01,2.107405066490173340e-01,2.107332646846771240e-01,2.107263207435607910e-01,2.107189893722534180e-01,2.107121348381042480e-01,2.107048332691192627e-01,2.106978595256805420e-01,2.106909155845642090e-01,2.106837630271911621e-01,2.106767296791076660e-01,2.106696665287017822e-01,2.106625139713287354e-01,2.106552124023437500e-01,2.106482684612274170e-01,2.106411755084991455e-01,2.106343507766723633e-01,2.106272876262664795e-01,2.106201648712158203e-01,2.106130719184875488e-01,2.106059491634368896e-01,2.105989456176757812e-01,2.105916738510131836e-01,2.105848193168640137e-01,2.105778157711029053e-01,2.105705738067626953e-01,2.105636894702911377e-01,2.105565369129180908e-01,2.105494737625122070e-01,2.105424404144287109e-01,2.105353772640228271e-01,2.105283141136169434e-01,2.105212509632110596e-01,2.105143666267395020e-01,2.105064392089843750e-01,2.104679346084594727e-01,2.107341289520263672e-01,2.102870047092437744e-01,2.038714587688446045e-01,2.072012126445770264e-01,2.303367853164672852e-01,2.568494379520416260e-01,3.220604658126831055e-01,3.632445335388183594e-01
3.726803660392761230e-01,2.842513322830200195e-01,2.591620087623596191e-01,2.263994514942169189e-01,2.035073339939117432e-01,1.998422145843505859e-01,2.023396790027618408e-01,2.028947770595550537e-01,2.033707797527313232e-01,2.033336460590362549e-01,2.033160030841827393e-01,2.033100724220275879e-01,2.033039331436157227e-01,2.032977640628814697e-01,2.032918035984039307e-01,2.032857835292816162e-01,2.032803893089294434e-01,2.032739520072937012e-01,2.032684385776519775e-01,2.032624483108520508e-01,2.032573819160461426e-01,2.032510042190551758e-01,2.032445371150970459e-01,2.032381594181060791e-01,2.032324671745300293e-01,2.032266557216644287e-01,2.032204866409301758e-01,2.032137513160705566e-01,2.032080590724945068e-01,2.032019495964050293e-01,2.031961381435394287e-01,2.031901776790618896e-01,2.031840085983276367e-01,2.031781673431396484e-01,2.031720876693725586e-01,2.031660974025726318e-01,2.031601071357727051e-01,2.031541466712951660e-01,2.031482160091400146e-01,2.031421959400177002e-01,2.031360864639282227e-01,2.031303346157073975e-01,2.031241655349731445e-01,2.031182348728179932e-01,2.031122744083404541e-01,2.031063735485076904e-01,2.031002342700958252e-01,2.030942738056182861e-01,2.030883729457855225e-01,2.030824720859527588e-01,2.030763030052185059e-01,2.030704915523529053e-01,2.030643224716186523e-01,2.030584216117858887e-01,2.030524909496307373e-01,2.030465006828308105e-01,2.030407190322875977e-01,2.030346691608428955e-01,2.030287683010101318e-01,2.030228078365325928e-01,2.030167579650878906e-01,2.030110061168670654e-01,2.030048072338104248e-01,2.029987275600433350e-01,2.029929161071777344e-01,2.029868960380554199e-01,2.029810547828674316e-01,2.029749453067779541e-01,2.029691040515899658e-01,2.029630541801452637e-01,2.029564380645751953e-01,2.029227018356323242e-01,2.031581401824951172e-01,2.027937173843383789e-01,1.967601180076599121e-01,2.000880241394042969e-01,2.229222059249877930e-01,2.500043511390686035e-01,3.159338533878326416e-01,3.593329191207885742e-01
3.681837916374206543e-01,2.785656452178955078e-01,2.526062726974487305e-01,2.203795909881591797e-01,1.974315047264099121e-01,1.936302185058593750e-01,1.959554255008697510e-01,1.964503228664398193e-01,1.968910098075866699e-01,1.968576908111572266e-01,1.968420445919036865e-01,1.968371272087097168e-01,1.968317031860351562e-01,1.968267560005187988e-01,1.968216300010681152e-01,1.968166232109069824e-01,1.968114972114562988e-01,1.968062222003936768e-01,1.968010962009429932e-01,1.967958807945251465e-01,1.967908740043640137e-01,1.967856585979461670e-01,1.967806220054626465e-01,1.967754364013671875e-01,1.967702805995941162e-01,1.967652142047882080e-01,1.967599987983703613e-01,1.967549920082092285e-01,1.967498958110809326e-01,1.967445611953735352e-01,1.967393755912780762e-01,1.967343091964721680e-01,1.967291831970214844e-01,1.967240273952484131e-01,1.967189013957977295e-01,1.967139542102813721e-01,1.967087686061859131e-01,1.967036426067352295e-01,1.966984570026397705e-01,1.966934800148010254e-01,1.966882348060607910e-01,1.966830492019653320e-01,1.966780126094818115e-01,1.966727674007415771e-01,1.966678500175476074e-01,1.966627538204193115e-01,1.966575980186462402e-01,1.966524124145507812e-01,1.966474652290344238e-01,1.966422498226165771e-01,1.966371238231658936e-01,1.966320872306823730e-01,1.966268718242645264e-01,1.966216564178466797e-01,1.966166794300079346e-01,1.966116130352020264e-01,1.966064274311065674e-01,1.966012418270111084e-01,1.965963542461395264e-01,1.965912282466888428e-01,1.965859532356262207e-01,1.965810954570770264e-01,1.965757906436920166e-01,1.965706348419189453e-01,1.965656280517578125e-01,1.965606510639190674e-01,1.965554356575012207e-01,1.965501904487609863e-01,1.965452432632446289e-01,1.965401470661163330e-01,1.965342164039611816e-01,1.965047717094421387e-01,1.967153549194335938e-01,1.964190602302551270e-01,1.907103061676025391e-01,1.940347552299499512e-01,2.166047990322113037e-01,2.441307604312896729e-01,3.106355071067810059e-01,3.559404611587524414e-01
3.642290830612182617e-01,2.736130356788635254e-01,2.469268143177032471e-01,2.151882946491241455e-01,1.922095119953155518e-01,1.882878839969635010e-01,1.904675364494323730e-01,1.909095942974090576e-01,1.913197338581085205e-01,1.912894546985626221e-01,1.912755072116851807e-01,1.912708282470703125e-01,1.912667155265808105e-01,1.912624239921569824e-01,1.912576854228973389e-01,1.912533342838287354e-01,1.912489831447601318e-01,1.912443637847900391e-01,1.912401616573333740e-01,1.912356317043304443e-01,1.912312507629394531e-01,1.912266612052917480e-01,1.912221610546112061e-01,1.912177801132202148e-01,1.912133991718292236e-01,1.912088394165039062e-01,1.912043094635009766e-01,1.912000775337219238e-01,1.911955177783966064e-01,1.911911666393280029e-01,1.911868155002593994e-01,1.911824047565460205e-01,1.911779344081878662e-01,1.911733448505401611e-01,1.911689341068267822e-01,1.911645531654357910e-01,1.911602020263671875e-01,1.911556124687194824e-01,1.911512613296508789e-01,1.911468803882598877e-01,1.911426484584808350e-01,1.911379992961883545e-01,1.911336779594421387e-01,1.911292374134063721e-01,1.911248862743377686e-01,1.911203563213348389e-01,1.911158561706542969e-01,1.911114156246185303e-01,1.911071538925170898e-01,1.911027431488037109e-01,1.910982429981231689e-01,1.910937428474426270e-01,1.910893917083740234e-01,1.910848319530487061e-01,1.910806596279144287e-01,1.910762190818786621e-01,1.910717785358428955e-01,1.910673081874847412e-01,1.910627484321594238e-01,1.910584270954132080e-01,1.910540461540222168e-01,1.910495758056640625e-01,1.910453140735626221e-01,1.910407841205596924e-01,1.910364031791687012e-01,1.910320222377777100e-01,1.910275220870971680e-01,1.910232901573181152e-01,1.910187900066375732e-01,1.910142898559570312e-01,1.910091936588287354e-01,1.909829378128051758e-01,1.911734640598297119e-01,1.909333467483520508e-01,1.855045557022094727e-01,1.888242661952972412e-01,2.111604809761047363e-01,2.390367984771728516e-01,3.060075938701629639e-01,3.529703617095947266e-01
3.607224524021148682e-01,2.692642211914062500e-01,2.419607043266296387e-01,2.106674909591674805e-01,1.876754462718963623e-01,1.836444437503814697e-01,1.856971383094787598e-01,1.860918998718261719e-01,1.864754855632781982e-01,1.864480674266815186e-01,1.864352524280548096e-01,1.864314079284667969e-01,1.864277124404907227e-01,1.864235699176788330e-01,1.864197850227355957e-01,1.864159405231475830e-01,1.864121854305267334e-01,1.864083707332611084e-01,1.864044070243835449e-01,1.864003837108612061e-01,1.863965094089508057e-01,1.863928139209747314e-01,1.863888502120971680e-01,1.863850057125091553e-01,1.863809823989868164e-01,1.863773763179779053e-01,1.863734126091003418e-01,1.863694489002227783e-01,1.863656044006347656e-01,1.863619089126586914e-01,1.863577961921691895e-01,1.863539516925811768e-01,1.863501369953155518e-01,1.863463819026947021e-01,1.863422989845275879e-01,1.863384544849395752e-01,1.863347291946411133e-01,1.863307058811187744e-01,1.863270401954650879e-01,1.863230466842651367e-01,1.863194108009338379e-01,1.863155364990234375e-01,1.863112747669219971e-01,1.863076090812683105e-01,1.863035857677459717e-01,1.862999200820922852e-01,1.862960159778594971e-01,1.862920820713043213e-01,1.862882971763610840e-01,1.862845718860626221e-01,1.862807571887969971e-01,1.862767040729522705e-01,1.862730383872985840e-01,1.862690150737762451e-01,1.862651109695434570e-01,1.862613558769226074e-01,1.862574219703674316e-01,1.862536370754241943e-01,1.862497627735137939e-01,1.862458288669586182e-01,1.862418353557586670e-01,1.862381994724273682e-01,1.862344145774841309e-01,1.862305402755737305e-01,1.862265765666961670e-01,1.862227320671081543e-01,1.862188875675201416e-01,1.862151920795440674e-01,1.862114667892456055e-01,1.862071752548217773e-01,1.862025856971740723e-01,1.861793994903564453e-01,1.863531768321990967e-01,1.861609518527984619e-01,1.809762716293334961e-01,1.842905282974243164e-01,2.064195275306701660e-01,2.345704436302185059e-01,3.019193112850189209e-01,3.503379821777343750e-01
3.576376438140869141e-01,2.654605507850646973e-01,2.376333475112915039e-01,2.067420184612274170e-01,1.837373971939086914e-01,1.796105206012725830e-01,1.815584003925323486e-01,1.819115281105041504e-01,1.822719573974609375e-01,1.822466850280761719e-01,1.822347939014434814e-01,1.822313964366912842e-01,1.822281479835510254e-01,1.822246015071868896e-01,1.822212636470794678e-01,1.822176277637481689e-01,1.822143197059631348e-01,1.822108328342437744e-01,1.822074949741363525e-01,1.822039783000946045e-01,1.822006702423095703e-01,1.821972131729125977e-01,1.821937263011932373e-01,1.821904778480529785e-01,1.821871399879455566e-01,1.821837723255157471e-01,1.821802854537963867e-01,1.821768581867218018e-01,1.821734905242919922e-01,1.821698546409606934e-01,1.821666061878204346e-01,1.821631789207458496e-01,1.821598708629608154e-01,1.821565330028533936e-01,1.821529865264892578e-01,1.821496784687042236e-01,1.821462810039520264e-01,1.821429133415222168e-01,1.821394562721252441e-01,1.821359395980834961e-01,1.821326315402984619e-01,1.821294128894805908e-01,1.821257472038269043e-01,1.821223795413970947e-01,1.821189820766448975e-01,1.821156740188598633e-01,1.821123063564300537e-01,1.821087896823883057e-01,1.821055412292480469e-01,1.821020245552062988e-01,1.820985674858093262e-01,1.820951700210571289e-01,1.820918321609497070e-01,1.820885539054870605e-01,1.820850670337677002e-01,1.820816695690155029e-01,1.820783913135528564e-01,1.820748448371887207e-01,1.820716261863708496e-01,1.820679903030395508e-01,1.820647120475769043e-01,1.820613145828247070e-01,1.820579767227172852e-01,1.820544600486755371e-01,1.820511221885681152e-01,1.820476651191711426e-01,1.820442974567413330e-01,1.820409297943115234e-01,1.820376217365264893e-01,1.820341944694519043e-01,1.820301115512847900e-01,1.820091009140014648e-01,1.821679472923278809e-01,1.820159852504730225e-01,1.770407557487487793e-01,1.803435087203979492e-01,2.022830545902252197e-01,2.306693792343139648e-01,2.983116805553436279e-01,3.479943275451660156e-01
3.552459478378295898e-01,2.622942626476287842e-01,2.341432571411132812e-01,2.035856842994689941e-01,1.805849969387054443e-01,1.763871610164642334e-01,1.782720088958740234e-01,1.786174178123474121e-01,1.789578199386596680e-01,1.789334118366241455e-01,1.789226830005645752e-01,1.789195537567138672e-01,1.789165735244750977e-01,1.789133846759796143e-01,1.789103448390960693e-01,1.789075136184692383e-01,1.789043545722961426e-01,1.789013147354125977e-01,1.788982748985290527e-01,1.788952350616455078e-01,1.788923144340515137e-01,1.788892745971679688e-01,1.788862049579620361e-01,1.788830757141113281e-01,1.788800656795501709e-01,1.788772046566009521e-01,1.788741052150726318e-01,1.788710653781890869e-01,1.788679361343383789e-01,1.788648664951324463e-01,1.788619160652160645e-01,1.788589060306549072e-01,1.788558661937713623e-01,1.788528859615325928e-01,1.788498461246490479e-01,1.788467168807983398e-01,1.788439154624938965e-01,1.788406670093536377e-01,1.788378059864044189e-01,1.788347661495208740e-01,1.788317263126373291e-01,1.788284480571746826e-01,1.788256764411926270e-01,1.788226366043090820e-01,1.788194477558135986e-01,1.788164973258972168e-01,1.788135468959808350e-01,1.788103878498077393e-01,1.788074970245361328e-01,1.788043379783630371e-01,1.788013875484466553e-01,1.787983179092407227e-01,1.787953078746795654e-01,1.787920892238616943e-01,1.787891983985900879e-01,1.787862777709960938e-01,1.787831783294677734e-01,1.787803173065185547e-01,1.787771880626678467e-01,1.787740588188171387e-01,1.787711083889007568e-01,1.787678897380828857e-01,1.787651181221008301e-01,1.787620484828948975e-01,1.787590980529785156e-01,1.787559688091278076e-01,1.787530481815338135e-01,1.787499785423278809e-01,1.787468492984771729e-01,1.787441074848175049e-01,1.787402331829071045e-01,1.787213087081909180e-01,1.788692772388458252e-01,1.787457466125488281e-01,1.739444732666015625e-01,1.772526800632476807e-01,1.989195942878723145e-01,2.273621559143066406e-01,2.952052354812622070e-01,3.462709784507751465e-01
3.522583246231079102e-01,2.585262060165405273e-01,2.300035059452056885e-01,1.997266411781311035e-01,1.766581535339355469e-01,1.722873151302337646e-01,1.739269793033599854e-01,1.741954386234283447e-01,1.744953095912933350e-01,1.744748651981353760e-01,1.744653582572937012e-01,1.744627058506011963e-01,1.744600534439086914e-01,1.744576692581176758e-01,1.744547188282012939e-01,1.744520962238311768e-01,1.744496226310729980e-01,1.744469106197357178e-01,1.744439601898193359e-01,1.744415760040283203e-01,1.744387745857238770e-01,1.744361221790313721e-01,1.744335889816284180e-01,1.744309067726135254e-01,1.744283735752105713e-01,1.744255423545837402e-01,1.744229793548583984e-01,1.744202971458435059e-01,1.744174361228942871e-01,1.744149625301361084e-01,1.744122803211212158e-01,1.744095981121063232e-01,1.744069755077362061e-01,1.744042932987213135e-01,1.744015812873840332e-01,1.743990778923034668e-01,1.743963062763214111e-01,1.743938028812408447e-01,1.743910908699035645e-01,1.743884682655334473e-01,1.743859052658081055e-01,1.743831038475036621e-01,1.743803918361663818e-01,1.743777692317962646e-01,1.743750274181365967e-01,1.743723452091217041e-01,1.743698418140411377e-01,1.743673086166381836e-01,1.743644773960113525e-01,1.743619740009307861e-01,1.743592321872711182e-01,1.743566393852233887e-01,1.743537485599517822e-01,1.743511557579040527e-01,1.743487417697906494e-01,1.743458509445190430e-01,1.743434071540832520e-01,1.743407249450683594e-01,1.743381619453430176e-01,1.743352711200714111e-01,1.743327081203460693e-01,1.743299663066864014e-01,1.743273735046386719e-01,1.743249893188476562e-01,1.743221282958984375e-01,1.743193566799163818e-01,1.743168830871582031e-01,1.743143200874328613e-01,1.743115484714508057e-01,1.743089854717254639e-01,1.743058562278747559e-01,1.742879152297973633e-01,1.744306981563568115e-01,1.743092536926269531e-01,1.696805357933044434e-01,1.730755865573883057e-01,1.948012113571166992e-01,2.234544456005096436e-01,2.916896343231201172e-01,3.432705998420715332e-01
3.534522652626037598e-01,2.556054592132568359e-01,2.290337085723876953e-01,1.991982758045196533e-01,1.747835278511047363e-01,1.703475117683410645e-01,1.715838611125946045e-01,1.718492805957794189e-01,1.721447706222534180e-01,1.721247136592864990e-01,1.721163392066955566e-01,1.721140444278717041e-01,1.721116900444030762e-01,1.721094250679016113e-01,1.721070110797882080e-01,1.721046566963195801e-01,1.721022129058837891e-01,1.720999181270599365e-01,1.720974743366241455e-01,1.720951795578002930e-01,1.720927357673645020e-01,1.720902919769287109e-01,1.720878779888153076e-01,1.720854640007019043e-01,1.720832586288452148e-01,1.720811128616333008e-01,1.720785200595855713e-01,1.720760166645050049e-01,1.720737814903259277e-01,1.720712780952453613e-01,1.720690131187438965e-01,1.720665693283081055e-01,1.720643341541290283e-01,1.720619201660156250e-01,1.720595955848693848e-01,1.720571517944335938e-01,1.720546483993530273e-01,1.720523834228515625e-01,1.720501780509948730e-01,1.720476448535919189e-01,1.720454096794128418e-01,1.720429956912994385e-01,1.720405220985412598e-01,1.720383465290069580e-01,1.720358431339263916e-01,1.720334291458129883e-01,1.720310747623443604e-01,1.720287799835205078e-01,1.720263957977294922e-01,1.720239222049713135e-01,1.720217764377593994e-01,1.720193326473236084e-01,1.720169782638549805e-01,1.720145940780639648e-01,1.720121800899505615e-01,1.720098555088043213e-01,1.720075309276580811e-01,1.720050275325775146e-01,1.720026433467864990e-01,1.720003485679626465e-01,1.719979047775268555e-01,1.719957292079925537e-01,1.719934046268463135e-01,1.719910204410552979e-01,1.719887852668762207e-01,1.719862222671508789e-01,1.719840466976165771e-01,1.719815135002136230e-01,1.719791889190673828e-01,1.719769239425659180e-01,1.719745695590972900e-01,1.719544231891632080e-01,1.720592975616455078e-01,1.720522046089172363e-01,1.679023206233978271e-01,1.713132560253143311e-01,1.922459602355957031e-01,2.205627858638763428e-01,2.916405797004699707e-01,3.415902853012084961e-01
3.557899594306945801e-01,2.536365985870361328e-01,2.169762253761291504e-01,1.914370954036712646e-01,1.698949038982391357e-01,1.649757921695709229e-01,1.661608219146728516e-01,1.664640307426452637e-01,1.667151153087615967e-01,1.666951477527618408e-01,1.666879951953887939e-01,1.666860878467559814e-01,1.666840016841888428e-01,1.666818559169769287e-01,1.666796803474426270e-01,1.666778922080993652e-01,1.666758656501770020e-01,1.666738390922546387e-01,1.666717827320098877e-01,1.666697859764099121e-01,1.666677296161651611e-01,1.666653454303741455e-01,1.666636168956756592e-01,1.666613817214965820e-01,1.666594445705413818e-01,1.666572690010070801e-01,1.666554510593414307e-01,1.666534245014190674e-01,1.666514277458190918e-01,1.666491627693176270e-01,1.666472554206848145e-01,1.666450500488281250e-01,1.666429340839385986e-01,1.666411161422729492e-01,1.666390299797058105e-01,1.666368842124938965e-01,1.666350364685058594e-01,1.666329503059387207e-01,1.666307747364044189e-01,1.666287481784820557e-01,1.666266918182373047e-01,1.666246354579925537e-01,1.666226387023925781e-01,1.666206121444702148e-01,1.666186451911926270e-01,1.666166484355926514e-01,1.666145026683807373e-01,1.666124463081359863e-01,1.666104197502136230e-01,1.666084527969360352e-01,1.666064560413360596e-01,1.666044294834136963e-01,1.666024029254913330e-01,1.666003167629241943e-01,1.665982604026794434e-01,1.665961444377899170e-01,1.665940582752227783e-01,1.665921807289123535e-01,1.665900349617004395e-01,1.665881276130676270e-01,1.665859520435333252e-01,1.665840446949005127e-01,1.665820181369781494e-01,1.665799319744110107e-01,1.665779352188110352e-01,1.665757894515991211e-01,1.665738821029663086e-01,1.665718555450439453e-01,1.665698587894439697e-01,1.665676832199096680e-01,1.665675044059753418e-01,1.665433347225189209e-01,1.666108965873718262e-01,1.667931377887725830e-01,1.623811721801757812e-01,1.654352545738220215e-01,1.886169314384460449e-01,2.108100652694702148e-01,2.860372662544250488e-01,3.337820768356323242e-01
