5.891786813735961914e-01,6.140735149383544922e-01,6.573619842529296875e-01,6.578696966171264648e-01,6.816689968109130859e-01,7.057870626449584961e-01,7.437623739242553711e-01,7.637708187103271484e-01,7.769165039062500000e-01,7.763500809669494629e-01,7.776873707771301270e-01,7.674793004989624023e-01,7.467533349990844727e-01,7.076262235641479492e-01,6.320771574974060059e-01,5.509006381034851074e-01,5.074007511138916016e-01,4.835268259048461914e-01,4.611413180828094482e-01,4.401321411132812500e-01,4.362645447254180908e-01,4.412757754325866699e-01,4.803755879402160645e-01,5.137515664100646973e-01,5.907688140869140625e-01,6.319119930267333984e-01,6.854079365730285645e-01,7.536095976829528809e-01,8.197973966598510742e-01,8.496894836425781250e-01,8.768079280853271484e-01,8.885083198547363281e-01,8.965603709220886230e-01,9.020130038261413574e-01,9.051138162612915039e-01,9.054536819458007812e-01,9.056310057640075684e-01,9.055979847908020020e-01,9.055932760238647461e-01,9.055932760238647461e-01,9.055932760238647461e-01,9.055932760238647461e-01,9.055932760238647461e-01,9.055932760238647461e-01,9.055932760238647461e-01,9.055932760238647461e-01,9.055932760238647461e-01,9.055932760238647461e-01,9.055932760238647461e-01,9.055932760238647461e-01,9.055932760238647461e-01,9.055932760238647461e-01,9.055932760238647461e-01,9.055932760238647461e-01,9.055932760238647461e-01,9.055932760238647461e-01,9.055932760238647461e-01,9.055932760238647461e-01,9.055932760238647461e-01,9.055932760238647461e-01,9.055935740470886230e-01,9.055963754653930664e-01,9.056217670440673828e-01,9.056230783462524414e-01,9.053977727890014648e-01,9.047110080718994141e-01,9.036214351654052734e-01,9.019797444343566895e-01,8.994621038436889648e-01,8.957194089889526367e-01,8.896179795265197754e-01,8.807704448699951172e-01,8.713624477386474609e-01,8.590619564056396484e-01,8.305642604827880859e-01,8.090412616729736328e-01,8.007928133010864258e-01,7.751340270042419434e-01,7.216413617134094238e-01,6.156536340713500977e-01
5.886970162391662598e-01,6.143174171447753906e-01,6.567447185516357422e-01,6.575939059257507324e-01,6.811918020248413086e-01,7.055330872535705566e-01,7.430100440979003906e-01,7.645014524459838867e-01,7.755275368690490723e-01,7.769109010696411133e-01,7.798793315887451172e-01,7.630950212478637695e-01,7.464601993560791016e-01,7.155520915985107422e-01,6.322025060653686523e-01,5.660766959190368652e-01,5.161653161048889160e-01,4.871119558811187744e-01,4.587526619434356689e-01,4.452649354934692383e-01,4.367652237415313721e-01,4.404860436916351318e-01,4.818952679634094238e-01,5.244500041007995605e-01,5.885378122329711914e-01,6.348496675491333008e-01,6.868613958358764648e-01,7.547923326492309570e-01,8.148454427719116211e-01,8.544088602066040039e-01,8.764066696166992188e-01,8.868059515953063965e-01,8.972738981246948242e-01,9.021183252334594727e-01,9.047871828079223633e-01,9.050570726394653320e-01,9.053230285644531250e-01,9.053101539611816406e-01,9.053092002868652344e-01,9.053092002868652344e-01,9.053092002868652344e-01,9.053092002868652344e-01,9.053092002868652344e-01,9.053092002868652344e-01,9.053092002868652344e-01,9.053092002868652344e-01,9.053092002868652344e-01,9.053092002868652344e-01,9.053092002868652344e-01,9.053092002868652344e-01,9.053092002868652344e-01,9.053092002868652344e-01,9.053092002868652344e-01,9.053092002868652344e-01,9.053092002868652344e-01,9.053092002868652344e-01,9.053092002868652344e-01,9.053092002868652344e-01,9.053092002868652344e-01,9.053092002868652344e-01,9.053095579147338867e-01,9.053115844726562500e-01,9.053359031677246094e-01,9.053480625152587891e-01,9.051196575164794922e-01,9.044816493988037109e-01,9.033946990966796875e-01,9.016047716140747070e-01,8.991292119026184082e-01,8.952398300170898438e-01,8.887602090835571289e-01,8.801462650299072266e-01,8.711630105972290039e-01,8.581234216690063477e-01,8.292409181594848633e-01,8.083761334419250488e-01,8.007962703704833984e-01,7.746165990829467773e-01,7.219865918159484863e-01,6.160566806793212891e-01
5.887222886085510254e-01,6.143059134483337402e-01,6.569179296493530273e-01,6.577594280242919922e-01,6.812922358512878418e-01,7.055567502975463867e-01,7.432907223701477051e-01,7.636067867279052734e-01,7.735345959663391113e-01,7.808699607849121094e-01,7.820944786071777344e-01,7.657757401466369629e-01,7.553644180297851562e-01,7.153012156486511230e-01,6.397949457168579102e-01,5.692966580390930176e-01,5.306236147880554199e-01,4.843655228614807129e-01,4.637642502784729004e-01,4.528896212577819824e-01,4.429906904697418213e-01,4.472299516201019287e-01,4.811968207359313965e-01,5.209802389144897461e-01,5.987560749053955078e-01,6.379235982894897461e-01,6.859036684036254883e-01,7.562021613121032715e-01,8.127204179763793945e-01,8.515219092369079590e-01,8.733828067779541016e-01,8.862130045890808105e-01,8.951665163040161133e-01,9.007563591003417969e-01,9.042218923568725586e-01,9.051609039306640625e-01,9.053441286087036133e-01,9.053394198417663574e-01,9.053341150283813477e-01,9.053338766098022461e-01,9.053338766098022461e-01,9.053338766098022461e-01,9.053338766098022461e-01,9.053338766098022461e-01,9.053338766098022461e-01,9.053338766098022461e-01,9.053338766098022461e-01,9.053338766098022461e-01,9.053338766098022461e-01,9.053338766098022461e-01,9.053338766098022461e-01,9.053338766098022461e-01,9.053338766098022461e-01,9.053338766098022461e-01,9.053338766098022461e-01,9.053338766098022461e-01,9.053338766098022461e-01,9.053338766098022461e-01,9.053338766098022461e-01,9.053338766098022461e-01,9.053341150283813477e-01,9.053356647491455078e-01,9.053572416305541992e-01,9.053781628608703613e-01,9.051495790481567383e-01,9.045431613922119141e-01,9.034051895141601562e-01,9.016186594963073730e-01,8.991128206253051758e-01,8.950926065444946289e-01,8.886245489120483398e-01,8.803093433380126953e-01,8.709113597869873047e-01,8.577843904495239258e-01,8.293098211288452148e-01,8.084083199501037598e-01,8.006691932678222656e-01,7.746297121047973633e-01,7.219793796539306641e-01,6.160824298858642578e-01
5.887014269828796387e-01,6.142690181732177734e-01,6.568919420242309570e-01,6.577172279357910156e-01,6.812845468521118164e-01,7.054430842399597168e-01,7.428630590438842773e-01,7.612715959548950195e-01,7.739355564117431641e-01,7.778651714324951172e-01,7.783331871032714844e-01,7.679041624069213867e-01,7.609068155288696289e-01,7.242652177810668945e-01,6.384313106536865234e-01,5.655599236488342285e-01,5.221468210220336914e-01,4.868095815181732178e-01,4.682054519653320312e-01,4.588227570056915283e-01,4.454229176044464111e-01,4.542005956172943115e-01,4.867947995662689209e-01,5.164015293121337891e-01,6.135962009429931641e-01,6.351611018180847168e-01,6.824437379837036133e-01,7.509385347366333008e-01,8.086245059967041016e-01,8.480755090713500977e-01,8.716194033622741699e-01,8.860118389129638672e-01,8.944613933563232422e-01,8.991029262542724609e-01,9.039224982261657715e-01,9.050204157829284668e-01,9.053374528884887695e-01,9.053424596786499023e-01,9.053279161453247070e-01,9.053283333778381348e-01,9.053283333778381348e-01,9.053283333778381348e-01,9.053283333778381348e-01,9.053283333778381348e-01,9.053283333778381348e-01,9.053283333778381348e-01,9.053283333778381348e-01,9.053283333778381348e-01,9.053283333778381348e-01,9.053283333778381348e-01,9.053283333778381348e-01,9.053283333778381348e-01,9.053283333778381348e-01,9.053283333778381348e-01,9.053283333778381348e-01,9.053283333778381348e-01,9.053283333778381348e-01,9.053283333778381348e-01,9.053283333778381348e-01,9.053283333778381348e-01,9.053285717964172363e-01,9.053298830986022949e-01,9.053539037704467773e-01,9.053707122802734375e-01,9.051684141159057617e-01,9.045516848564147949e-01,9.033973813056945801e-01,9.016231298446655273e-01,8.990783691406250000e-01,8.949623107910156250e-01,8.886692523956298828e-01,8.801974058151245117e-01,8.707538843154907227e-01,8.578689694404602051e-01,8.293223977088928223e-01,8.082356452941894531e-01,8.006241321563720703e-01,7.746315002441406250e-01,7.220165729522705078e-01,6.160358190536499023e-01
5.886943936347961426e-01,6.142576932907104492e-01,6.568787097930908203e-01,6.577040553092956543e-01,6.812622547149658203e-01,7.054689526557922363e-01,7.426259517669677734e-01,7.614359855651855469e-01,7.763231396675109863e-01,7.781147956848144531e-01,7.745413780212402344e-01,7.698541283607482910e-01,7.541620731353759766e-01,7.224862575531005859e-01,6.345072388648986816e-01,5.663909912109375000e-01,5.163168907165527344e-01,4.904455840587615967e-01,4.712046980857849121e-01,4.594489037990570068e-01,4.456989467144012451e-01,4.618608355522155762e-01,4.885545372962951660e-01,5.303971171379089355e-01,6.137141585350036621e-01,6.437089443206787109e-01,6.817461848258972168e-01,7.390824556350708008e-01,8.020243644714355469e-01,8.468606472015380859e-01,8.690246939659118652e-01,8.843243718147277832e-01,8.923177719116210938e-01,8.983636498451232910e-01,9.039574265480041504e-01,9.050722122192382812e-01,9.053556919097900391e-01,9.053373336791992188e-01,9.053298830986022949e-01,9.053283333778381348e-01,9.053283333778381348e-01,9.053283333778381348e-01,9.053283333778381348e-01,9.053283333778381348e-01,9.053283333778381348e-01,9.053283333778381348e-01,9.053283333778381348e-01,9.053283333778381348e-01,9.053283333778381348e-01,9.053283333778381348e-01,9.053283333778381348e-01,9.053283333778381348e-01,9.053283333778381348e-01,9.053283333778381348e-01,9.053283333778381348e-01,9.053283333778381348e-01,9.053283333778381348e-01,9.053283333778381348e-01,9.053283333778381348e-01,9.053283333778381348e-01,9.053285121917724609e-01,9.053297042846679688e-01,9.053524136543273926e-01,9.053744077682495117e-01,9.051629304885864258e-01,9.045406579971313477e-01,9.033980965614318848e-01,9.016393423080444336e-01,8.990623950958251953e-01,8.949759602546691895e-01,8.886584043502807617e-01,8.801600933074951172e-01,8.708236217498779297e-01,8.578867912292480469e-01,8.292571306228637695e-01,8.082436919212341309e-01,8.006496429443359375e-01,7.746549844741821289e-01,7.220228910446166992e-01,6.160454750061035156e-01
5.886875391006469727e-01,6.142463684082031250e-01,6.568657159805297852e-01,6.576872467994689941e-01,6.812400817871093750e-01,7.054528594017028809e-01,7.422539591789245605e-01,7.625502347946166992e-01,7.751947641372680664e-01,7.782037854194641113e-01,7.754010558128356934e-01,7.704010009765625000e-01,7.494035363197326660e-01,7.064272761344909668e-01,6.433889865875244141e-01,5.610310435295104980e-01,5.187780857086181641e-01,4.843274950981140137e-01,4.693535566329956055e-01,4.452672302722930908e-01,4.423214197158813477e-01,4.659375250339508057e-01,4.917118549346923828e-01,5.269458889961242676e-01,6.150841116905212402e-01,6.554808020591735840e-01,6.925176382064819336e-01,7.435420751571655273e-01,7.893826961517333984e-01,8.424288034439086914e-01,8.668729662895202637e-01,8.817459344863891602e-01,8.914486765861511230e-01,8.983241319656372070e-01,9.035422801971435547e-01,9.051326513290405273e-01,9.053016304969787598e-01,9.053413867950439453e-01,9.053297042846679688e-01,9.053283333778381348e-01,9.053283333778381348e-01,9.053283333778381348e-01,9.053283333778381348e-01,9.053283333778381348e-01,9.053283333778381348e-01,9.053283333778381348e-01,9.053283333778381348e-01,9.053283333778381348e-01,9.053283333778381348e-01,9.053283333778381348e-01,9.053283333778381348e-01,9.053283333778381348e-01,9.053283333778381348e-01,9.053283333778381348e-01,9.053283333778381348e-01,9.053283333778381348e-01,9.053283333778381348e-01,9.053283333778381348e-01,9.053283333778381348e-01,9.053283333778381348e-01,9.053285121917724609e-01,9.053297042846679688e-01,9.053524732589721680e-01,9.053734540939331055e-01,9.051613807678222656e-01,9.045418500900268555e-01,9.034025669097900391e-01,9.016457796096801758e-01,8.990696668624877930e-01,8.949666023254394531e-01,8.886605501174926758e-01,8.801909685134887695e-01,8.708333969116210938e-01,8.578784465789794922e-01,8.292738199234008789e-01,8.082623481750488281e-01,8.006621599197387695e-01,7.746667861938476562e-01,7.220341563224792480e-01,6.160541176795959473e-01
5.886805653572082520e-01,6.142350435256958008e-01,6.568526029586791992e-01,6.576712727546691895e-01,6.812415719032287598e-01,7.054789066314697266e-01,7.421209812164306641e-01,7.635017037391662598e-01,7.747102379798889160e-01,7.758563756942749023e-01,7.746285200119018555e-01,7.744272947311401367e-01,7.505214810371398926e-01,7.096920013427734375e-01,6.328240633010864258e-01,5.644347667694091797e-01,5.165461301803588867e-01,4.794856607913970947e-01,4.597510695457458496e-01,4.436373114585876465e-01,4.446260929107666016e-01,4.680587649345397949e-01,4.943439662456512451e-01,5.303930044174194336e-01,6.102354526519775391e-01,6.547179222106933594e-01,6.860166788101196289e-01,7.438117265701293945e-01,8.014123439788818359e-01,8.406447172164916992e-01,8.625999689102172852e-01,8.830689787864685059e-01,8.934315443038940430e-01,8.985956907272338867e-01,9.032353162765502930e-01,9.049926400184631348e-01,9.053568243980407715e-01,9.053435325622558594e-01,9.053291082382202148e-01,9.053283333778381348e-01,9.053283333778381348e-01,9.053283333778381348e-01,9.053283333778381348e-01,9.053283333778381348e-01,9.053283333778381348e-01,9.053283333778381348e-01,9.053283333778381348e-01,9.053283333778381348e-01,9.053283333778381348e-01,9.053283333778381348e-01,9.053283333778381348e-01,9.053283333778381348e-01,9.053283333778381348e-01,9.053283333778381348e-01,9.053283333778381348e-01,9.053283333778381348e-01,9.053283333778381348e-01,9.053283333778381348e-01,9.053283333778381348e-01,9.053283333778381348e-01,9.053285121917724609e-01,9.053297042846679688e-01,9.053521156311035156e-01,9.053734540939331055e-01,9.051614999771118164e-01,9.045423865318298340e-01,9.034037590026855469e-01,9.016474485397338867e-01,8.990722894668579102e-01,8.949689865112304688e-01,8.886656165122985840e-01,8.801976442337036133e-01,8.708401918411254883e-01,8.578866124153137207e-01,8.292876482009887695e-01,8.082766532897949219e-01,8.006746768951416016e-01,7.746797204017639160e-01,7.220449447631835938e-01,6.160605549812316895e-01
5.886737108230590820e-01,6.142240166664123535e-01,6.568397283554077148e-01,6.576557159423828125e-01,6.812311410903930664e-01,7.054859995841979980e-01,7.426176667213439941e-01,7.626817226409912109e-01,7.743619680404663086e-01,7.743813991546630859e-01,7.773058414459228516e-01,7.758018374443054199e-01,7.523534297943115234e-01,7.127872705459594727e-01,6.240720152854919434e-01,5.678749680519104004e-01,5.177166461944580078e-01,4.888174831867218018e-01,4.636983573436737061e-01,4.364449381828308105e-01,4.400390386581420898e-01,4.722315371036529541e-01,4.887112975120544434e-01,5.469005703926086426e-01,6.030535101890563965e-01,6.574190855026245117e-01,6.957161426544189453e-01,7.408805489540100098e-01,8.064559698104858398e-01,8.415114879608154297e-01,8.655120134353637695e-01,8.858995437622070312e-01,8.928990364074707031e-01,8.983680009841918945e-01,9.037184715270996094e-01,9.052598476409912109e-01,9.052981138229370117e-01,9.053504467010498047e-01,9.053277969360351562e-01,9.053283333778381348e-01,9.053283333778381348e-01,9.053283333778381348e-01,9.053283333778381348e-01,9.053283333778381348e-01,9.053283333778381348e-01,9.053283333778381348e-01,9.053283333778381348e-01,9.053283333778381348e-01,9.053283333778381348e-01,9.053283333778381348e-01,9.053283333778381348e-01,9.053283333778381348e-01,9.053283333778381348e-01,9.053283333778381348e-01,9.053283333778381348e-01,9.053283333778381348e-01,9.053283333778381348e-01,9.053283333778381348e-01,9.053283333778381348e-01,9.053283333778381348e-01,9.053285121917724609e-01,9.053297042846679688e-01,9.053521156311035156e-01,9.053735136985778809e-01,9.051617383956909180e-01,9.045427441596984863e-01,9.034045934677124023e-01,9.016488790512084961e-01,8.990740776062011719e-01,8.949724435806274414e-01,8.886709809303283691e-01,8.802046775817871094e-01,8.708475232124328613e-01,8.578964471817016602e-01,8.292996883392333984e-01,8.082896471023559570e-01,8.006876707077026367e-01,7.746920585632324219e-01,7.220550179481506348e-01,6.160676479339599609e-01
5.886670351028442383e-01,6.142131090164184570e-01,6.568269729614257812e-01,6.576410531997680664e-01,6.812133789062500000e-01,7.055003643035888672e-01,7.427079677581787109e-01,7.625721096992492676e-01,7.729974985122680664e-01,7.772114872932434082e-01,7.819262742996215820e-01,7.765183448791503906e-01,7.561565637588500977e-01,7.147700190544128418e-01,6.274278759956359863e-01,5.712143182754516602e-01,5.391703248023986816e-01,4.948077499866485596e-01,4.631234705448150635e-01,4.477125108242034912e-01,4.548651278018951416e-01,4.765028953552246094e-01,4.866423010826110840e-01,5.313223004341125488e-01,6.054192781448364258e-01,6.766670346260070801e-01,7.012822628021240234e-01,7.397335767745971680e-01,7.964144945144653320e-01,8.442598581314086914e-01,8.663557171821594238e-01,8.855130076408386230e-01,8.925341367721557617e-01,8.977527022361755371e-01,9.031077027320861816e-01,9.044783115386962891e-01,9.052546024322509766e-01,9.053417444229125977e-01,9.053304195404052734e-01,9.053283333778381348e-01,9.053283333778381348e-01,9.053283333778381348e-01,9.053283333778381348e-01,9.053283333778381348e-01,9.053283333778381348e-01,9.053283333778381348e-01,9.053283333778381348e-01,9.053283333778381348e-01,9.053283333778381348e-01,9.053283333778381348e-01,9.053283333778381348e-01,9.053283333778381348e-01,9.053283333778381348e-01,9.053283333778381348e-01,9.053283333778381348e-01,9.053283333778381348e-01,9.053283333778381348e-01,9.053283333778381348e-01,9.053283333778381348e-01,9.053283333778381348e-01,9.053285121917724609e-01,9.053297042846679688e-01,9.053521156311035156e-01,9.053735733032226562e-01,9.051617980003356934e-01,9.045432209968566895e-01,9.034055471420288086e-01,9.016501903533935547e-01,8.990761041641235352e-01,8.949755430221557617e-01,8.886761069297790527e-01,8.802112936973571777e-01,8.708555698394775391e-01,8.579061627388000488e-01,8.293112516403198242e-01,8.083024024963378906e-01,8.007004261016845703e-01,7.747044563293457031e-01,7.220650911331176758e-01,6.160748004913330078e-01
5.886608958244323730e-01,6.142027378082275391e-01,6.568148136138916016e-01,6.576263904571533203e-01,6.811901330947875977e-01,7.054342031478881836e-01,7.425386905670166016e-01,7.632426023483276367e-01,7.739156484603881836e-01,7.809185981750488281e-01,7.880315780639648438e-01,7.788132429122924805e-01,7.676360607147216797e-01,7.209042906761169434e-01,6.319880485534667969e-01,5.917880535125732422e-01,5.561939477920532227e-01,5.089480876922607422e-01,4.636279046535491943e-01,4.552715420722961426e-01,4.691050946712493896e-01,4.871371686458587646e-01,5.001631975173950195e-01,5.410314798355102539e-01,5.876028537750244141e-01,6.832842826843261719e-01,7.098459601402282715e-01,7.541904449462890625e-01,8.024513721466064453e-01,8.368023633956909180e-01,8.728544116020202637e-01,8.887134790420532227e-01,8.918725252151489258e-01,9.004443883895874023e-01,9.037008881568908691e-01,9.046921730041503906e-01,9.051599502563476562e-01,9.053190946578979492e-01,9.053242802619934082e-01,9.053283333778381348e-01,9.053283333778381348e-01,9.053283333778381348e-01,9.053283333778381348e-01,9.053283333778381348e-01,9.053283333778381348e-01,9.053283333778381348e-01,9.053283333778381348e-01,9.053283333778381348e-01,9.053283333778381348e-01,9.053283333778381348e-01,9.053283333778381348e-01,9.053283333778381348e-01,9.053283333778381348e-01,9.053283333778381348e-01,9.053283333778381348e-01,9.053283333778381348e-01,9.053283333778381348e-01,9.053283333778381348e-01,9.053283333778381348e-01,9.053283333778381348e-01,9.053285121917724609e-01,9.053297042846679688e-01,9.053521156311035156e-01,9.053734540939331055e-01,9.051619768142700195e-01,9.045437574386596680e-01,9.034062623977661133e-01,9.016516208648681641e-01,8.990780115127563477e-01,8.949786424636840820e-01,8.886810541152954102e-01,8.802182674407958984e-01,8.708634972572326660e-01,8.579157590866088867e-01,8.293229341506958008e-01,8.083149194717407227e-01,8.007129430770874023e-01,7.747166156768798828e-01,7.220753431320190430e-01,6.160817742347717285e-01
5.886552929878234863e-01,6.141934990882873535e-01,6.568033695220947266e-01,6.576126217842102051e-01,6.811547279357910156e-01,7.053643465042114258e-01,7.425361871719360352e-01,7.634142637252807617e-01,7.754218578338623047e-01,7.853116989135742188e-01,7.917424440383911133e-01,7.898359894752502441e-01,7.761832475662231445e-01,7.302350401878356934e-01,6.590197086334228516e-01,6.181097626686096191e-01,5.850917100906372070e-01,5.247640013694763184e-01,4.900318086147308350e-01,4.665666520595550537e-01,4.681547284126281738e-01,4.966131150722503662e-01,5.256822705268859863e-01,5.558083653450012207e-01,5.911825299263000488e-01,6.842625141143798828e-01,7.381890416145324707e-01,7.628105878829956055e-01,8.175901174545288086e-01,8.387200832366943359e-01,8.634206056594848633e-01,8.867270350456237793e-01,8.953557014465332031e-01,8.986250162124633789e-01,9.027211070060729980e-01,9.041317701339721680e-01,9.053807258605957031e-01,9.053330421447753906e-01,9.053329229354858398e-01,9.053283333778381348e-01,9.053283333778381348e-01,9.053283333778381348e-01,9.053283333778381348e-01,9.053283333778381348e-01,9.053283333778381348e-01,9.053283333778381348e-01,9.053283333778381348e-01,9.053283333778381348e-01,9.053283333778381348e-01,9.053283333778381348e-01,9.053283333778381348e-01,9.053283333778381348e-01,9.053283333778381348e-01,9.053283333778381348e-01,9.053283333778381348e-01,9.053283333778381348e-01,9.053283333778381348e-01,9.053283333778381348e-01,9.053283333778381348e-01,9.053283333778381348e-01,9.053285121917724609e-01,9.053297042846679688e-01,9.053520560264587402e-01,9.053733348846435547e-01,9.051622152328491211e-01,9.045441150665283203e-01,9.034072160720825195e-01,9.016530513763427734e-01,8.990801572799682617e-01,8.949819803237915039e-01,8.886861801147460938e-01,8.802248239517211914e-01,8.708712458610534668e-01,8.579250574111938477e-01,8.293342590332031250e-01,8.083277940750122070e-01,8.007255792617797852e-01,7.747288942337036133e-01,7.220853567123413086e-01,6.160888671875000000e-01
5.886503458023071289e-01,6.141850948333740234e-01,6.567933559417724609e-01,6.576005220413208008e-01,6.811281442642211914e-01,7.053308486938476562e-01,7.426437139511108398e-01,7.637351751327514648e-01,7.786743640899658203e-01,7.879344820976257324e-01,7.995017170906066895e-01,7.989674806594848633e-01,7.863109111785888672e-01,7.450500130653381348e-01,6.935439109802246094e-01,6.476389765739440918e-01,6.221032738685607910e-01,5.553464293479919434e-01,5.161016583442687988e-01,4.805358648300170898e-01,4.800806045532226562e-01,5.068389773368835449e-01,5.385294556617736816e-01,5.633236169815063477e-01,6.051294803619384766e-01,7.141366004943847656e-01,7.411904335021972656e-01,7.874187231063842773e-01,8.198965787887573242e-01,8.517133593559265137e-01,8.660928010940551758e-01,8.901111483573913574e-01,8.991799354553222656e-01,9.018750786781311035e-01,9.034413099288940430e-01,9.047902822494506836e-01,9.052186608314514160e-01,9.053339958190917969e-01,9.053373336791992188e-01,9.053283333778381348e-01,9.053283333778381348e-01,9.053283333778381348e-01,9.053283333778381348e-01,9.053283333778381348e-01,9.053283333778381348e-01,9.053283333778381348e-01,9.053283333778381348e-01,9.053283333778381348e-01,9.053283333778381348e-01,9.053283333778381348e-01,9.053283333778381348e-01,9.053283333778381348e-01,9.053283333778381348e-01,9.053283333778381348e-01,9.053283333778381348e-01,9.053283333778381348e-01,9.053283333778381348e-01,9.053283333778381348e-01,9.053283333778381348e-01,9.053283333778381348e-01,9.053285121917724609e-01,9.053297042846679688e-01,9.053521156311035156e-01,9.053733348846435547e-01,9.051623344421386719e-01,9.045447111129760742e-01,9.034080505371093750e-01,9.016541838645935059e-01,8.990821242332458496e-01,8.949851989746093750e-01,8.886911273002624512e-01,8.802315592765808105e-01,8.708792924880981445e-01,8.579345941543579102e-01,8.293457627296447754e-01,8.083403110504150391e-01,8.007382154464721680e-01,7.747410535812377930e-01,7.220953702926635742e-01,6.160959005355834961e-01
5.886458754539489746e-01,6.141777634620666504e-01,6.567842960357666016e-01,6.575900912284851074e-01,6.811032891273498535e-01,7.053228616714477539e-01,7.428271174430847168e-01,7.650114297866821289e-01,7.784741520881652832e-01,7.912601232528686523e-01,8.087733983993530273e-01,8.069095611572265625e-01,7.947086095809936523e-01,7.654831409454345703e-01,7.300003767013549805e-01,7.050005793571472168e-01,6.644152402877807617e-01,5.934834480285644531e-01,5.258944630622863770e-01,5.041651725769042969e-01,5.076755285263061523e-01,5.307379364967346191e-01,5.475611090660095215e-01,5.662209391593933105e-01,6.137372255325317383e-01,7.240165472030639648e-01,7.733253240585327148e-01,7.948542833328247070e-01,8.375579118728637695e-01,8.658871650695800781e-01,8.783035874366760254e-01,8.886507749557495117e-01,9.010422229766845703e-01,9.015504121780395508e-01,9.030475616455078125e-01,9.049506187438964844e-01,9.053288698196411133e-01,9.053457975387573242e-01,9.053245782852172852e-01,9.053283333778381348e-01,9.053283333778381348e-01,9.053283333778381348e-01,9.053283333778381348e-01,9.053283333778381348e-01,9.053283333778381348e-01,9.053283333778381348e-01,9.053283333778381348e-01,9.053283333778381348e-01,9.053283333778381348e-01,9.053283333778381348e-01,9.053283333778381348e-01,9.053283333778381348e-01,9.053283333778381348e-01,9.053283333778381348e-01,9.053283333778381348e-01,9.053283333778381348e-01,9.053283333778381348e-01,9.053283333778381348e-01,9.053283333778381348e-01,9.053283333778381348e-01,9.053285121917724609e-01,9.053297042846679688e-01,9.053519964218139648e-01,9.053733348846435547e-01,9.051624536514282227e-01,9.045451879501342773e-01,9.034088850021362305e-01,9.016555547714233398e-01,8.990840911865234375e-01,8.949885368347167969e-01,8.886959552764892578e-01,8.802381753921508789e-01,8.708870410919189453e-01,8.579441308975219727e-01,8.293572068214416504e-01,8.083530664443969727e-01,8.007507324218750000e-01,7.747533321380615234e-01,7.221055030822753906e-01,6.161029338836669922e-01
5.886415839195251465e-01,6.141704320907592773e-01,6.567756533622741699e-01,6.575800180435180664e-01,6.810975074768066406e-01,7.052941918373107910e-01,7.427879571914672852e-01,7.640366554260253906e-01,7.779921293258666992e-01,7.951583266258239746e-01,8.162428140640258789e-01,8.149384260177612305e-01,8.068703413009643555e-01,7.904019355773925781e-01,7.658048868179321289e-01,7.343752980232238770e-01,7.015902400016784668e-01,6.239855885505676270e-01,5.537501573562622070e-01,5.254902839660644531e-01,5.336955189704895020e-01,5.567202568054199219e-01,5.580341219902038574e-01,5.764150619506835938e-01,6.392153501510620117e-01,7.145806550979614258e-01,7.912365794181823730e-01,8.201264142990112305e-01,8.448576927185058594e-01,8.719833493232727051e-01,8.852275013923645020e-01,8.960465788841247559e-01,9.007596969604492188e-01,9.039456248283386230e-01,9.052653908729553223e-01,9.048591852188110352e-01,9.053219556808471680e-01,9.053360223770141602e-01,9.053294658660888672e-01,9.053283333778381348e-01,9.053283333778381348e-01,9.053283333778381348e-01,9.053283333778381348e-01,9.053283333778381348e-01,9.053283333778381348e-01,9.053283333778381348e-01,9.053283333778381348e-01,9.053283333778381348e-01,9.053283333778381348e-01,9.053283333778381348e-01,9.053283333778381348e-01,9.053283333778381348e-01,9.053283333778381348e-01,9.053283333778381348e-01,9.053283333778381348e-01,9.053283333778381348e-01,9.053283333778381348e-01,9.053283333778381348e-01,9.053283333778381348e-01,9.053283333778381348e-01,9.053285121917724609e-01,9.053297042846679688e-01,9.053520560264587402e-01,9.053732752799987793e-01,9.051625728607177734e-01,9.045456647872924805e-01,9.034098982810974121e-01,9.016570448875427246e-01,8.990861177444458008e-01,8.949917554855346680e-01,8.887009620666503906e-01,8.802448511123657227e-01,8.708950281143188477e-01,8.579533696174621582e-01,8.293687105178833008e-01,8.083655834197998047e-01,8.007633686065673828e-01,7.747656702995300293e-01,7.221155762672424316e-01,6.161100268363952637e-01
5.886368751525878906e-01,6.141631603240966797e-01,6.567674875259399414e-01,6.575708985328674316e-01,6.810945272445678711e-01,7.052652835845947266e-01,7.425697445869445801e-01,7.631161212921142578e-01,7.794587612152099609e-01,7.998003959655761719e-01,8.206334114074707031e-01,8.186573982238769531e-01,8.204734325408935547e-01,8.131192922592163086e-01,7.840062379837036133e-01,7.594920396804809570e-01,7.410060763359069824e-01,6.644749641418457031e-01,5.869587659835815430e-01,5.667302012443542480e-01,5.588182806968688965e-01,5.717431306838989258e-01,5.669804811477661133e-01,6.005311012268066406e-01,6.552308797836303711e-01,7.311956882476806641e-01,7.868922948837280273e-01,8.375586271286010742e-01,8.525768518447875977e-01,8.740531206130981445e-01,8.899251818656921387e-01,8.969293832778930664e-01,9.049057364463806152e-01,9.045270681381225586e-01,9.049575924873352051e-01,9.053393602371215820e-01,9.051547050476074219e-01,9.053422808647155762e-01,9.053292870521545410e-01,9.053283333778381348e-01,9.053283333778381348e-01,9.053283333778381348e-01,9.053283333778381348e-01,9.053283333778381348e-01,9.053283333778381348e-01,9.053283333778381348e-01,9.053283333778381348e-01,9.053283333778381348e-01,9.053283333778381348e-01,9.053283333778381348e-01,9.053283333778381348e-01,9.053283333778381348e-01,9.053283333778381348e-01,9.053283333778381348e-01,9.053283333778381348e-01,9.053283333778381348e-01,9.053283333778381348e-01,9.053283333778381348e-01,9.053283333778381348e-01,9.053283333778381348e-01,9.053285121917724609e-01,9.053297042846679688e-01,9.053520560264587402e-01,9.053733348846435547e-01,9.051628708839416504e-01,9.045461416244506836e-01,9.034107327461242676e-01,9.016584157943725586e-01,8.990881443023681641e-01,8.949949741363525391e-01,8.887060880661010742e-01,8.802518248558044434e-01,8.709028959274291992e-01,8.579630851745605469e-01,8.293802738189697266e-01,8.083784580230712891e-01,8.007761240005493164e-01,7.747779488563537598e-01,7.221257090568542480e-01,6.161172389984130859e-01
5.886316895484924316e-01,6.141552329063415527e-01,6.567590236663818359e-01,6.575608849525451660e-01,6.810786128044128418e-01,7.052295207977294922e-01,7.423765063285827637e-01,7.623420953750610352e-01,7.817835807800292969e-01,8.042266368865966797e-01,8.225463628768920898e-01,8.227896690368652344e-01,8.277014493942260742e-01,8.247920870780944824e-01,8.025298118591308594e-01,7.997924089431762695e-01,7.605750560760498047e-01,6.994031071662902832e-01,6.087005138397216797e-01,5.839734673500061035e-01,5.792079567909240723e-01,5.726345777511596680e-01,5.797473192214965820e-01,6.141911745071411133e-01,6.750771403312683105e-01,7.381165027618408203e-01,8.049004077911376953e-01,8.402377367019653320e-01,8.661656379699707031e-01,8.793917894363403320e-01,8.922673463821411133e-01,8.988651037216186523e-01,9.042353630065917969e-01,9.060184955596923828e-01,9.047520160675048828e-01,9.057461619377136230e-01,9.052181839942932129e-01,9.053332209587097168e-01,9.053294658660888672e-01,9.053283333778381348e-01,9.053283333778381348e-01,9.053283333778381348e-01,9.053283333778381348e-01,9.053283333778381348e-01,9.053283333778381348e-01,9.053283333778381348e-01,9.053283333778381348e-01,9.053283333778381348e-01,9.053283333778381348e-01,9.053283333778381348e-01,9.053283333778381348e-01,9.053283333778381348e-01,9.053283333778381348e-01,9.053283333778381348e-01,9.053283333778381348e-01,9.053283333778381348e-01,9.053283333778381348e-01,9.053283333778381348e-01,9.053283333778381348e-01,9.053283333778381348e-01,9.053285121917724609e-01,9.053297042846679688e-01,9.053519964218139648e-01,9.053732752799987793e-01,9.051629900932312012e-01,9.045465588569641113e-01,9.034117460250854492e-01,9.016596674919128418e-01,8.990901708602905273e-01,8.949981927871704102e-01,8.887109756469726562e-01,8.802584409713745117e-01,8.709108829498291016e-01,8.579727411270141602e-01,8.293918967247009277e-01,8.083910942077636719e-01,8.007889389991760254e-01,7.747902274131774902e-01,7.221357822418212891e-01,6.161243915557861328e-01
5.886263251304626465e-01,6.141466498374938965e-01,6.567490100860595703e-01,6.575497388839721680e-01,6.810671687126159668e-01,7.052279114723205566e-01,7.417359352111816406e-01,7.628949880599975586e-01,7.834163904190063477e-01,8.055752515792846680e-01,8.220711946487426758e-01,8.259944915771484375e-01,8.332273960113525391e-01,8.277789354324340820e-01,8.182140588760375977e-01,8.101341724395751953e-01,7.878874540328979492e-01,7.072811722755432129e-01,6.356258988380432129e-01,5.985845327377319336e-01,5.909712314605712891e-01,5.831631422042846680e-01,6.092306971549987793e-01,6.383560299873352051e-01,6.932831406593322754e-01,7.561148405075073242e-01,8.106983900070190430e-01,8.471214771270751953e-01,8.677321672439575195e-01,8.855016231536865234e-01,8.957110643386840820e-01,8.999030590057373047e-01,9.026654958724975586e-01,9.058270454406738281e-01,9.055328369140625000e-01,9.050864577293395996e-01,9.053292870521545410e-01,9.053316116333007812e-01,9.053291082382202148e-01,9.053263664245605469e-01,9.053263664245605469e-01,9.053263664245605469e-01,9.053262472152709961e-01,9.053263664245605469e-01,9.053262472152709961e-01,9.053262472152709961e-01,9.053262472152709961e-01,9.053262472152709961e-01,9.053261280059814453e-01,9.053261280059814453e-01,9.053261280059814453e-01,9.053261280059814453e-01,9.053260684013366699e-01,9.053261280059814453e-01,9.053260684013366699e-01,9.053261280059814453e-01,9.053261280059814453e-01,9.053260684013366699e-01,9.053261280059814453e-01,9.053261280059814453e-01,9.053263664245605469e-01,9.053274393081665039e-01,9.053497314453125000e-01,9.053708910942077637e-01,9.051609039306640625e-01,9.045450091361999512e-01,9.034109115600585938e-01,9.016593694686889648e-01,8.990904092788696289e-01,8.949996232986450195e-01,8.887141942977905273e-01,8.802638649940490723e-01,8.709179162979125977e-01,8.579816818237304688e-01,8.294029235839843750e-01,8.084038496017456055e-01,8.008018732070922852e-01,7.748026251792907715e-01,7.221465110778808594e-01,6.161316633224487305e-01
5.886206626892089844e-01,6.141369938850402832e-01,6.567382216453552246e-01,6.575366854667663574e-01,6.810624003410339355e-01,7.052050828933715820e-01,7.415350079536437988e-01,7.634657621383666992e-01,7.846763730049133301e-01,8.054218888282775879e-01,8.202482461929321289e-01,8.324835300445556641e-01,8.408671617507934570e-01,8.323553800582885742e-01,8.270890116691589355e-01,8.204698562622070312e-01,7.918479442596435547e-01,7.336046695709228516e-01,6.475695371627807617e-01,6.200593113899230957e-01,5.946881175041198730e-01,5.922494530677795410e-01,6.300452947616577148e-01,6.607801914215087891e-01,7.057538032531738281e-01,7.703624367713928223e-01,8.185973167419433594e-01,8.525047898292541504e-01,8.754048347473144531e-01,8.921506404876708984e-01,8.987057209014892578e-01,9.014800786972045898e-01,9.029101133346557617e-01,9.046334028244018555e-01,9.056161642074584961e-01,9.055086374282836914e-01,9.053363800048828125e-01,9.053195714950561523e-01,9.053184986114501953e-01,9.053209424018859863e-01,9.053210020065307617e-01,9.053211212158203125e-01,9.053211212158203125e-01,9.053211212158203125e-01,9.053212404251098633e-01,9.053212404251098633e-01,9.053212404251098633e-01,9.053213596343994141e-01,9.053213596343994141e-01,9.053213596343994141e-01,9.053214192390441895e-01,9.053214192390441895e-01,9.053214192390441895e-01,9.053215980529785156e-01,9.053215980529785156e-01,9.053215980529785156e-01,9.053217172622680664e-01,9.053217172622680664e-01,9.053217768669128418e-01,9.053217768669128418e-01,9.053220152854919434e-01,9.053231477737426758e-01,9.053455591201782227e-01,9.053668975830078125e-01,9.051569700241088867e-01,9.045406579971313477e-01,9.034069180488586426e-01,9.016560316085815430e-01,8.990867733955383301e-01,8.949949741363525391e-01,8.887097835540771484e-01,8.802594542503356934e-01,8.709137439727783203e-01,8.579813241958618164e-01,8.294057846069335938e-01,8.084095716476440430e-01,8.008078336715698242e-01,7.748077511787414551e-01,7.221485972404479980e-01,6.161325573921203613e-01
5.886096954345703125e-01,6.141233444213867188e-01,6.567223072052001953e-01,6.575230956077575684e-01,6.810501813888549805e-01,7.052327394485473633e-01,7.415593862533569336e-01,7.631890773773193359e-01,7.845351696014404297e-01,8.030647039413452148e-01,8.196663856506347656e-01,8.360053300857543945e-01,8.399211168289184570e-01,8.366909027099609375e-01,8.368939161300659180e-01,8.238823413848876953e-01,7.920466065406799316e-01,7.532671689987182617e-01,6.587151288986206055e-01,6.219934225082397461e-01,6.104261875152587891e-01,6.079032421112060547e-01,6.293457150459289551e-01,6.662559509277343750e-01,7.272235751152038574e-01,7.831948995590209961e-01,8.280814886093139648e-01,8.592097163200378418e-01,8.801810741424560547e-01,8.930045366287231445e-01,8.998726606369018555e-01,9.034698605537414551e-01,9.047121405601501465e-01,9.050883054733276367e-01,9.053355455398559570e-01,9.052555561065673828e-01,9.054515361785888672e-01,9.054031968116760254e-01,9.053938388824462891e-01,9.053920507431030273e-01,9.053922891616821289e-01,9.053925871849060059e-01,9.053928256034851074e-01,9.053931236267089844e-01,9.053934812545776367e-01,9.053937196731567383e-01,9.053938984870910645e-01,9.053941965103149414e-01,9.053944945335388184e-01,9.053947329521179199e-01,9.053949117660522461e-01,9.053952693939208984e-01,9.053953886032104492e-01,9.053957462310791016e-01,9.053959250450134277e-01,9.053962826728820801e-01,9.053964614868164062e-01,9.053966999053955078e-01,9.053970575332641602e-01,9.053972959518432617e-01,9.053977727890014648e-01,9.053994417190551758e-01,9.054223895072937012e-01,9.054447412490844727e-01,9.052376151084899902e-01,9.046199321746826172e-01,9.034808874130249023e-01,9.017149209976196289e-01,8.991359472274780273e-01,8.950457572937011719e-01,8.887746334075927734e-01,8.803361654281616211e-01,8.710014820098876953e-01,8.580521345138549805e-01,8.294714689254760742e-01,8.084553480148315430e-01,8.008380532264709473e-01,7.748263478279113770e-01,7.221469879150390625e-01,6.161321401596069336e-01
5.886166095733642578e-01,6.141322851181030273e-01,6.567291021347045898e-01,6.575411558151245117e-01,6.810924410820007324e-01,7.053263187408447266e-01,7.417703270912170410e-01,7.633080482482910156e-01,7.843336462974548340e-01,8.026226758956909180e-01,8.224030733108520508e-01,8.386971354484558105e-01,8.422157764434814453e-01,8.384798765182495117e-01,8.409264087677001953e-01,8.217466473579406738e-01,8.042724728584289551e-01,7.557789087295532227e-01,6.760959625244140625e-01,6.331087946891784668e-01,6.216193437576293945e-01,6.208391785621643066e-01,6.390628814697265625e-01,6.776268482208251953e-01,7.446801662445068359e-01,7.969560623168945312e-01,8.348695039749145508e-01,8.658108115196228027e-01,8.815074563026428223e-01,8.954848051071166992e-01,9.013797044754028320e-01,9.043362140655517578e-01,9.049503803253173828e-01,9.052933454513549805e-01,9.054852128028869629e-01,9.055339097976684570e-01,9.054612517356872559e-01,9.054808616638183594e-01,9.054816961288452148e-01,9.054785966873168945e-01,9.054777622222900391e-01,9.054768681526184082e-01,9.054759740829467773e-01,9.054751396179199219e-01,9.054741859436035156e-01,9.054734110832214355e-01,9.054723978042602539e-01,9.054715633392333984e-01,9.054706692695617676e-01,9.054698944091796875e-01,9.054690003395080566e-01,9.054682254791259766e-01,9.054672718048095703e-01,9.054664373397827148e-01,9.054656028747558594e-01,9.054646492004394531e-01,9.054638147354125977e-01,9.054629802703857422e-01,9.054622650146484375e-01,9.054612517356872559e-01,9.054607152938842773e-01,9.054614305496215820e-01,9.054843187332153320e-01,9.055073261260986328e-01,9.053024053573608398e-01,9.046820402145385742e-01,9.035506844520568848e-01,9.017897844314575195e-01,8.992098569869995117e-01,8.951156139373779297e-01,8.888969421386718750e-01,8.804696202278137207e-01,8.711271286010742188e-01,8.582143187522888184e-01,8.297008275985717773e-01,8.087017536163330078e-01,8.010940551757812500e-01,7.750744819641113281e-01,7.224308252334594727e-01,6.165251135826110840e-01
5.888006091117858887e-01,6.143099069595336914e-01,6.569833755493164062e-01,6.577979922294616699e-01,6.813371181488037109e-01,7.054968476295471191e-01,7.417846918106079102e-01,7.632988691329956055e-01,7.836182117462158203e-01,8.021871447563171387e-01,8.218462467193603516e-01,8.366862535476684570e-01,8.431338071823120117e-01,8.459432125091552734e-01,8.434807062149047852e-01,8.263001441955566406e-01,7.997601032257080078e-01,7.694716453552246094e-01,6.850721240043640137e-01,6.523272991180419922e-01,6.264223456382751465e-01,6.411151289939880371e-01,6.392785310745239258e-01,6.908580660820007324e-01,7.566573619842529297e-01,7.994050383567810059e-01,8.394007682800292969e-01,8.689917922019958496e-01,8.807717561721801758e-01,8.954634070396423340e-01,9.017466306686401367e-01,9.033747911453247070e-01,9.046632051467895508e-01,9.046337604522705078e-01,9.046107530593872070e-01,9.046283960342407227e-01,9.046306014060974121e-01,9.046280384063720703e-01,9.046275019645690918e-01,9.046260118484497070e-01,9.046251773834228516e-01,9.046244621276855469e-01,9.046232700347900391e-01,9.046224355697631836e-01,9.046216011047363281e-01,9.046208262443542480e-01,9.046197533607482910e-01,9.046188592910766602e-01,9.046180248260498047e-01,9.046169519424438477e-01,9.046159982681274414e-01,9.046152234077453613e-01,9.046141505241394043e-01,9.046133160591125488e-01,9.046125411987304688e-01,9.046115875244140625e-01,9.046106338500976562e-01,9.046097993850708008e-01,9.046089053153991699e-01,9.046081304550170898e-01,9.046074151992797852e-01,9.046080708503723145e-01,9.046280980110168457e-01,9.046612381935119629e-01,9.044570326805114746e-01,9.038795232772827148e-01,9.027752280235290527e-01,9.010083675384521484e-01,8.984287977218627930e-01,8.943633437156677246e-01,8.880743980407714844e-01,8.796508312225341797e-01,8.703318834304809570e-01,8.574504852294921875e-01,8.288432359695434570e-01,8.078501224517822266e-01,8.004562854766845703e-01,7.742156982421875000e-01,7.216169238090515137e-01,6.159970760345458984e-01
5.891568660736083984e-01,6.141791343688964844e-01,6.566522717475891113e-01,6.571499109268188477e-01,6.804442405700683594e-01,7.042903900146484375e-01,7.404140233993530273e-01,7.615089416503906250e-01,7.820038199424743652e-01,8.006041049957275391e-01,8.193256855010986328e-01,8.335652947425842285e-01,8.402812480926513672e-01,8.443871736526489258e-01,8.426989316940307617e-01,8.321148157119750977e-01,8.151208162307739258e-01,7.672003507614135742e-01,6.975885033607482910e-01,6.597647666931152344e-01,6.377010941505432129e-01,6.454815864562988281e-01,6.613535881042480469e-01,7.029272913932800293e-01,7.674078941345214844e-01,8.093205690383911133e-01,8.430945873260498047e-01,8.720154762268066406e-01,8.844742774963378906e-01,8.955216407775878906e-01,9.015793800354003906e-01,9.028014540672302246e-01,9.037349820137023926e-01,9.037007093429565430e-01,9.037124514579772949e-01,9.037177562713623047e-01,9.037138223648071289e-01,9.037107825279235840e-01,9.037104845046997070e-01,9.037101268768310547e-01,9.037089347839355469e-01,9.037079811096191406e-01,9.037070274353027344e-01,9.037059545516967773e-01,9.037047624588012695e-01,9.037038087844848633e-01,9.037027359008789062e-01,9.037016630172729492e-01,9.037004709243774414e-01,9.036996364593505859e-01,9.036985635757446289e-01,9.036974906921386719e-01,9.036964178085327148e-01,9.036953449249267578e-01,9.036942720413208008e-01,9.036931991577148438e-01,9.036922454833984375e-01,9.036910533905029297e-01,9.036899805068969727e-01,9.036889076232910156e-01,9.036882519721984863e-01,9.036881923675537109e-01,9.037041664123535156e-01,9.037336707115173340e-01,9.035478830337524414e-01,9.029996395111083984e-01,9.019622206687927246e-01,9.002498388290405273e-01,8.977004289627075195e-01,8.936433196067810059e-01,8.874101638793945312e-01,8.790737390518188477e-01,8.698130846023559570e-01,8.568388223648071289e-01,8.282505273818969727e-01,8.071033954620361328e-01,7.996411323547363281e-01,7.733851671218872070e-01,7.204589843750000000e-01,6.144754290580749512e-01
5.884077548980712891e-01,6.125009655952453613e-01,6.548560857772827148e-01,6.552603244781494141e-01,6.780961751937866211e-01,7.014899253845214844e-01,7.376055121421813965e-01,7.587761878967285156e-01,7.793061137199401855e-01,7.981080412864685059e-01,8.158496618270874023e-01,8.318773508071899414e-01,8.401038050651550293e-01,8.456226587295532227e-01,8.443666696548461914e-01,8.358207941055297852e-01,8.160710930824279785e-01,7.675760984420776367e-01,7.149730920791625977e-01,6.668860912322998047e-01,6.518583297729492188e-01,6.652384400367736816e-01,6.780597567558288574e-01,7.199080586433410645e-01,7.730284929275512695e-01,8.161786794662475586e-01,8.434404134750366211e-01,8.712816834449768066e-01,8.858500719070434570e-01,8.947721123695373535e-01,8.997234106063842773e-01,9.012243747711181641e-01,9.019933938980102539e-01,9.019393920898437500e-01,9.019305706024169922e-01,9.019198417663574219e-01,9.019119143486022949e-01,9.019072055816650391e-01,9.019008874893188477e-01,9.018948078155517578e-01,9.018887281417846680e-01,9.018827080726623535e-01,9.018765687942504883e-01,9.018705487251281738e-01,9.018644690513610840e-01,9.018583297729492188e-01,9.018523693084716797e-01,9.018462300300598145e-01,9.018402695655822754e-01,9.018342494964599609e-01,9.018282294273376465e-01,9.018221497535705566e-01,9.018161296844482422e-01,9.018100500106811523e-01,9.018039703369140625e-01,9.017978906631469727e-01,9.017920494079589844e-01,9.017859697341918945e-01,9.017799496650695801e-01,9.017738699913024902e-01,9.017680287361145020e-01,9.017627239227294922e-01,9.017764329910278320e-01,9.018014669418334961e-01,9.016278982162475586e-01,9.011583924293518066e-01,9.001984000205993652e-01,8.986009955406188965e-01,8.961449861526489258e-01,8.921545743942260742e-01,8.860824108123779297e-01,8.775879740715026855e-01,8.682938814163208008e-01,8.554416894912719727e-01,8.269680738449096680e-01,8.060648441314697266e-01,7.985050678253173828e-01,7.719320058822631836e-01,7.191761136054992676e-01,6.127020120620727539e-01
5.864666700363159180e-01,6.097778081893920898e-01,6.518768072128295898e-01,6.520048379898071289e-01,6.745818853378295898e-01,6.974241733551025391e-01,7.329900860786437988e-01,7.536197900772094727e-01,7.735049128532409668e-01,7.916304469108581543e-01,8.091510534286499023e-01,8.242739439010620117e-01,8.344346284866333008e-01,8.399646282196044922e-01,8.379331827163696289e-01,8.316919803619384766e-01,8.103317022323608398e-01,7.804621458053588867e-01,7.217801809310913086e-01,6.726464033126831055e-01,6.455735564231872559e-01,6.710184812545776367e-01,6.961252689361572266e-01,7.197675704956054688e-01,7.727186679840087891e-01,8.167467117309570312e-01,8.448565006256103516e-01,8.658084869384765625e-01,8.821077942848205566e-01,8.904354572296142578e-01,8.936302661895751953e-01,8.951690196990966797e-01,8.953582644462585449e-01,8.954671621322631836e-01,8.954330086708068848e-01,8.954213261604309082e-01,8.954123258590698242e-01,8.954031467437744141e-01,8.953941464424133301e-01,8.953850269317626953e-01,8.953759670257568359e-01,8.953669071197509766e-01,8.953576087951660156e-01,8.953486680984497070e-01,8.953397274017333984e-01,8.953306674957275391e-01,8.953214287757873535e-01,8.953123092651367188e-01,8.953033685684204102e-01,8.952941894531250000e-01,8.952852487564086914e-01,8.952761888504028320e-01,8.952671289443969727e-01,8.952580690383911133e-01,8.952490091323852539e-01,8.952400684356689453e-01,8.952308893203735352e-01,8.952218890190124512e-01,8.952129483222961426e-01,8.952038884162902832e-01,8.951946496963500977e-01,8.951857089996337891e-01,8.951945304870605469e-01,8.952117562294006348e-01,8.950765728950500488e-01,8.946272134780883789e-01,8.938176035881042480e-01,8.923506736755371094e-01,8.900269865989685059e-01,8.861815333366394043e-01,8.802874088287353516e-01,8.720752000808715820e-01,8.626462221145629883e-01,8.496495485305786133e-01,8.213617801666259766e-01,8.010444641113281250e-01,7.939193248748779297e-01,7.675410509109497070e-01,7.151758670806884766e-01,6.077105998992919922e-01
5.825380086898803711e-01,6.038826107978820801e-01,6.454446911811828613e-01,6.448010802268981934e-01,6.661977171897888184e-01,6.881842017173767090e-01,7.229013442993164062e-01,7.430803775787353516e-01,7.622385025024414062e-01,7.793374061584472656e-01,7.974458932876586914e-01,8.134077191352844238e-01,8.239142298698425293e-01,8.300992250442504883e-01,8.326950073242187500e-01,8.222235441207885742e-01,8.054099082946777344e-01,7.699428796768188477e-01,7.258552908897399902e-01,6.769994497299194336e-01,6.517304182052612305e-01,6.622103452682495117e-01,6.898354291915893555e-01,7.227659821510314941e-01,7.677578926086425781e-01,8.109914064407348633e-01,8.364272117614746094e-01,8.568757772445678711e-01,8.721815347671508789e-01,8.793119192123413086e-01,8.831824064254760742e-01,8.842707276344299316e-01,8.846262693405151367e-01,8.845551013946533203e-01,8.845230340957641602e-01,8.845028877258300781e-01,8.844827413558959961e-01,8.844625949859619141e-01,8.844424486160278320e-01,8.844221830368041992e-01,8.844021558761596680e-01,8.843820095062255859e-01,8.843615651130676270e-01,8.843417167663574219e-01,8.843213319778442383e-01,8.843014240264892578e-01,8.842811584472656250e-01,8.842610120773315430e-01,8.842409253120422363e-01,8.842207789421081543e-01,8.842006921768188477e-01,8.841804265975952148e-01,8.841602802276611328e-01,8.841402530670166016e-01,8.841201066970825195e-01,8.841001987457275391e-01,8.840800523757934570e-01,8.840597867965698242e-01,8.840397596359252930e-01,8.840197324752807617e-01,8.839994668960571289e-01,8.839793205261230469e-01,8.839900493621826172e-01,8.840355873107910156e-01,8.839085102081298828e-01,8.835588693618774414e-01,8.828760385513305664e-01,8.814086914062500000e-01,8.790565133094787598e-01,8.753662109375000000e-01,8.695344924926757812e-01,8.616504669189453125e-01,8.525989055633544922e-01,8.395755887031555176e-01,8.107941746711730957e-01,7.916845083236694336e-01,7.853910923004150391e-01,7.605820894241333008e-01,7.071970105171203613e-01,6.017402410507202148e-01
5.753743052482604980e-01,5.940445065498352051e-01,6.345351934432983398e-01,6.318076252937316895e-01,6.512073278427124023e-01,6.719576716423034668e-01,7.057645916938781738e-01,7.251045703887939453e-01,7.435176372528076172e-01,7.597934007644653320e-01,7.767450213432312012e-01,7.923007011413574219e-01,8.016586303710937500e-01,8.092205524444580078e-01,8.161801099777221680e-01,8.020499944686889648e-01,7.864478826522827148e-01,7.541776299476623535e-01,7.164769172668457031e-01,6.536824703216552734e-01,6.394922733306884766e-01,6.510275602340698242e-01,6.647537946701049805e-01,7.174419164657592773e-01,7.468020915985107422e-01,7.841325402259826660e-01,8.140143156051635742e-01,8.344069719314575195e-01,8.492956161499023438e-01,8.572732210159301758e-01,8.600941896438598633e-01,8.608314990997314453e-01,8.609651327133178711e-01,8.609731197357177734e-01,8.609204292297363281e-01,8.608840703964233398e-01,8.608471155166625977e-01,8.608101010322570801e-01,8.607733249664306641e-01,8.607364296913146973e-01,8.606994152069091797e-01,8.606626391410827637e-01,8.606256842613220215e-01,8.605887889862060547e-01,8.605519533157348633e-01,8.605151176452636719e-01,8.604784011840820312e-01,8.604413270950317383e-01,8.604044914245605469e-01,8.603675365447998047e-01,8.603309392929077148e-01,8.602939844131469727e-01,8.602571487426757812e-01,8.602201938629150391e-01,8.601834774017333984e-01,8.601467609405517578e-01,8.601098656654357910e-01,8.600732684135437012e-01,8.600362539291381836e-01,8.599995374679565430e-01,8.599624633789062500e-01,8.599247932434082031e-01,8.599298000335693359e-01,8.599631190299987793e-01,8.598124980926513672e-01,8.595453500747680664e-01,8.591430783271789551e-01,8.579592704772949219e-01,8.559056520462036133e-01,8.521416187286376953e-01,8.465198278427124023e-01,8.387260437011718750e-01,8.300073146820068359e-01,8.169964551925659180e-01,7.877392768859863281e-01,7.700101137161254883e-01,7.670631408691406250e-01,7.439079284667968750e-01,6.925634145736694336e-01,5.922763347625732422e-01
5.643823742866516113e-01,5.786243081092834473e-01,6.173479557037353516e-01,6.113599538803100586e-01,6.278082132339477539e-01,6.468158364295959473e-01,6.787392497062683105e-01,6.960949897766113281e-01,7.121217846870422363e-01,7.261800169944763184e-01,7.408567667007446289e-01,7.544123530387878418e-01,7.641404867172241211e-01,7.702000141143798828e-01,7.760949134826660156e-01,7.617473602294921875e-01,7.509114742279052734e-01,7.277108430862426758e-01,6.818646192550659180e-01,6.262125372886657715e-01,6.211115717887878418e-01,6.247824430465698242e-01,6.393868923187255859e-01,6.872644424438476562e-01,7.160041332244873047e-01,7.406311035156250000e-01,7.715729475021362305e-01,7.932001948356628418e-01,8.078133463859558105e-01,8.154513835906982422e-01,8.166966438293457031e-01,8.184555768966674805e-01,8.184124231338500977e-01,8.183709383010864258e-01,8.183173537254333496e-01,8.182582855224609375e-01,8.181996345520019531e-01,8.181408643722534180e-01,8.180820941925048828e-01,8.180234432220458984e-01,8.179646730422973633e-01,8.179057836532592773e-01,8.178471326828002930e-01,8.177886009216308594e-01,8.177298307418823242e-01,8.176710009574890137e-01,8.176125288009643555e-01,8.175535798072814941e-01,8.174948692321777344e-01,8.174364566802978516e-01,8.173777461051940918e-01,8.173191547393798828e-01,8.172605037689208984e-01,8.172018527984619141e-01,8.171432614326477051e-01,8.170846700668334961e-01,8.170261979103088379e-01,8.169673681259155273e-01,8.169089555740356445e-01,8.168503046035766602e-01,8.167918920516967773e-01,8.167322874069213867e-01,8.167246580123901367e-01,8.166969418525695801e-01,8.165029287338256836e-01,8.160964250564575195e-01,8.156398534774780273e-01,8.143287897109985352e-01,8.124605417251586914e-01,8.095132112503051758e-01,8.042914271354675293e-01,7.970329523086547852e-01,7.894272804260253906e-01,7.773914337158203125e-01,7.479202151298522949e-01,7.330009341239929199e-01,7.344261407852172852e-01,7.134277224540710449e-01,6.685369610786437988e-01,5.795649886131286621e-01
5.498378872871398926e-01,5.541213750839233398e-01,5.890474915504455566e-01,5.790408253669738770e-01,5.922512412071228027e-01,6.085616350173950195e-01,6.381773948669433594e-01,6.527681350708007812e-01,6.666393280029296875e-01,6.782455444335937500e-01,6.908760070800781250e-01,7.011603713035583496e-01,7.105530500411987305e-01,7.154757976531982422e-01,7.157990932464599609e-01,7.050673961639404297e-01,6.888211369514465332e-01,6.661401987075805664e-01,6.338766217231750488e-01,5.857100486755371094e-01,5.818523168563842773e-01,5.857667922973632812e-01,6.000165343284606934e-01,6.374818086624145508e-01,6.690596938133239746e-01,6.861741542816162109e-01,7.097213864326477051e-01,7.327676415443420410e-01,7.419006228446960449e-01,7.492892146110534668e-01,7.506573200225830078e-01,7.519542574882507324e-01,7.516131401062011719e-01,7.515876293182373047e-01,7.515006661415100098e-01,7.514183521270751953e-01,7.513363361358642578e-01,7.512540221214294434e-01,7.511719465255737305e-01,7.510898113250732422e-01,7.510076761245727539e-01,7.509254217147827148e-01,7.508432865142822266e-01,7.507613301277160645e-01,7.506792545318603516e-01,7.505971193313598633e-01,7.505151033401489258e-01,7.504330873489379883e-01,7.503508329391479492e-01,7.502688169479370117e-01,7.501869201660156250e-01,7.501047849655151367e-01,7.500228285789489746e-01,7.499408125877380371e-01,7.498589158058166504e-01,7.497768402099609375e-01,7.496950030326843262e-01,7.496128678321838379e-01,7.495310902595520020e-01,7.494491338729858398e-01,7.493663430213928223e-01,7.492806911468505859e-01,7.492561340332031250e-01,7.491782903671264648e-01,7.490243911743164062e-01,7.487430572509765625e-01,7.482286691665649414e-01,7.468406558036804199e-01,7.445762753486633301e-01,7.412114143371582031e-01,7.365171909332275391e-01,7.301613092422485352e-01,7.241668701171875000e-01,7.128987908363342285e-01,6.834594607353210449e-01,6.727263927459716797e-01,6.816249489784240723e-01,6.628561615943908691e-01,6.336013078689575195e-01,5.563763976097106934e-01
5.325893759727478027e-01,5.238342881202697754e-01,5.546828508377075195e-01,5.387915968894958496e-01,5.466880798339843750e-01,5.595423579216003418e-01,5.837687849998474121e-01,5.949462056159973145e-01,6.053933501243591309e-01,6.134312748908996582e-01,6.217435002326965332e-01,6.303841471672058105e-01,6.356093883514404297e-01,6.391946077346801758e-01,6.378852725028991699e-01,6.281839013099670410e-01,6.079685091972351074e-01,5.814201235771179199e-01,5.797356367111206055e-01,5.284905433654785156e-01,5.269732475280761719e-01,5.366351604461669922e-01,5.466080904006958008e-01,5.723686814308166504e-01,6.001228094100952148e-01,6.177522540092468262e-01,6.332259178161621094e-01,6.505672335624694824e-01,6.568842530250549316e-01,6.595070362091064453e-01,6.610637307167053223e-01,6.620280742645263672e-01,6.621189117431640625e-01,6.619522571563720703e-01,6.618564128875732422e-01,6.617689728736877441e-01,6.616816520690917969e-01,6.615943312644958496e-01,6.615070104598999023e-01,6.614197492599487305e-01,6.613325476646423340e-01,6.612453460693359375e-01,6.611579656600952148e-01,6.610707640647888184e-01,6.609835624694824219e-01,6.608963608741760254e-01,6.608092784881591797e-01,6.607220768928527832e-01,6.606349945068359375e-01,6.605478525161743164e-01,6.604607105255126953e-01,6.603737473487854004e-01,6.602865457534790039e-01,6.601997613906860352e-01,6.601126194000244141e-01,6.600253582000732422e-01,6.599384546279907227e-01,6.598514914512634277e-01,6.597645878791809082e-01,6.596776843070983887e-01,6.595899462699890137e-01,6.594978570938110352e-01,6.594323515892028809e-01,6.593719720840454102e-01,6.591608524322509766e-01,6.589510440826416016e-01,6.586307287216186523e-01,6.574728488922119141e-01,6.554752588272094727e-01,6.522941589355468750e-01,6.490750312805175781e-01,6.442458629608154297e-01,6.403786540031433105e-01,6.306872367858886719e-01,6.032133102416992188e-01,5.958411097526550293e-01,6.114481687545776367e-01,5.966960191726684570e-01,5.878877639770507812e-01,5.268140435218811035e-01
5.116035342216491699e-01,4.894263148307800293e-01,5.142452716827392578e-01,4.909975528717041016e-01,4.925818145275115967e-01,5.011634230613708496e-01,5.197666287422180176e-01,5.277182459831237793e-01,5.348426103591918945e-01,5.395590662956237793e-01,5.445093512535095215e-01,5.510735511779785156e-01,5.553439855575561523e-01,5.558327436447143555e-01,5.556954145431518555e-01,5.510392785072326660e-01,5.290288329124450684e-01,5.108360648155212402e-01,4.970344603061676025e-01,4.774211645126342773e-01,4.713438749313354492e-01,4.812655448913574219e-01,4.980711340904235840e-01,5.060388445854187012e-01,5.296011567115783691e-01,5.414102673530578613e-01,5.525286197662353516e-01,5.617014765739440918e-01,5.664523839950561523e-01,5.684932470321655273e-01,5.694912075996398926e-01,5.697259306907653809e-01,5.697728395462036133e-01,5.696439743041992188e-01,5.695536732673645020e-01,5.694669485092163086e-01,5.693802833557128906e-01,5.692936778068542480e-01,5.692071318626403809e-01,5.691204667091369629e-01,5.690337419509887695e-01,5.689472556114196777e-01,5.688607096672058105e-01,5.687741041183471680e-01,5.686876773834228516e-01,5.686011910438537598e-01,5.685147643089294434e-01,5.684283971786499023e-01,5.683420896530151367e-01,5.682554841041564941e-01,5.681691765785217285e-01,5.680828690528869629e-01,5.679966807365417480e-01,5.679103136062622070e-01,5.678240060806274414e-01,5.677376389503479004e-01,5.676513910293579102e-01,5.675652623176574707e-01,5.674790740013122559e-01,5.673930048942565918e-01,5.673061609268188477e-01,5.672137141227722168e-01,5.671284794807434082e-01,5.670881867408752441e-01,5.670565962791442871e-01,5.669801831245422363e-01,5.667408704757690430e-01,5.661987662315368652e-01,5.646876096725463867e-01,5.622565150260925293e-01,5.591945648193359375e-01,5.555800795555114746e-01,5.536373257637023926e-01,5.454605817794799805e-01,5.214000344276428223e-01,5.172908902168273926e-01,5.383151769638061523e-01,5.279899239540100098e-01,5.396230816841125488e-01,4.964781701564788818e-01
4.905989170074462891e-01,4.557336270809173584e-01,4.713683724403381348e-01,4.409512281417846680e-01,4.362870752811431885e-01,4.406442046165466309e-01,4.540674388408660889e-01,4.581482410430908203e-01,4.624696075916290283e-01,4.647239446640014648e-01,4.671064913272857666e-01,4.707458019256591797e-01,4.735032320022583008e-01,4.734595715999603271e-01,4.737794399261474609e-01,4.734914898872375488e-01,4.563437700271606445e-01,4.458284974098205566e-01,4.413559734821319580e-01,4.272405803203582764e-01,4.217527806758880615e-01,4.249586760997772217e-01,4.415642023086547852e-01,4.403816163539886475e-01,4.546229839324951172e-01,4.642048478126525879e-01,4.726251661777496338e-01,4.782977402210235596e-01,4.810858368873596191e-01,4.813481271266937256e-01,4.818926155567169189e-01,4.818281829357147217e-01,4.818246066570281982e-01,4.817661046981811523e-01,4.816944897174835205e-01,4.816217422485351562e-01,4.815488159656524658e-01,4.814763069152832031e-01,4.814035594463348389e-01,4.813308417797088623e-01,4.812582731246948242e-01,4.811855256557464600e-01,4.811129868030548096e-01,4.810405075550079346e-01,4.809677600860595703e-01,4.808955192565917969e-01,4.808228313922882080e-01,4.807504713535308838e-01,4.806779623031616211e-01,4.806054234504699707e-01,4.805331230163574219e-01,4.804607629776000977e-01,4.803884625434875488e-01,4.803160429000854492e-01,4.802438020706176758e-01,4.801714420318603516e-01,4.800992012023925781e-01,4.800269603729248047e-01,4.799545705318450928e-01,4.798823595046997070e-01,4.798100590705871582e-01,4.797341227531433105e-01,4.796513915061950684e-01,4.795864224433898926e-01,4.795733094215393066e-01,4.795807301998138428e-01,4.795034825801849365e-01,4.794141054153442383e-01,4.788432121276855469e-01,4.778165221214294434e-01,4.768943488597869873e-01,4.753318428993225098e-01,4.753016531467437744e-01,4.694529473781585693e-01,4.494553804397583008e-01,4.482150673866271973e-01,4.717612862586975098e-01,4.687570035457611084e-01,4.949596226215362549e-01,4.690800309181213379e-01
4.694203734397888184e-01,4.224328398704528809e-01,4.285658895969390869e-01,3.950888812541961670e-01,3.841251134872436523e-01,3.856905102729797363e-01,3.961055874824523926e-01,3.990439474582672119e-01,4.020794034004211426e-01,4.032380580902099609e-01,4.044190645217895508e-01,4.059501588344573975e-01,4.069559872150421143e-01,4.071119129657745361e-01,4.086509048938751221e-01,4.068254828453063965e-01,3.973336219787597656e-01,3.870742022991180420e-01,3.841646313667297363e-01,3.817816972732543945e-01,3.780193924903869629e-01,3.798369169235229492e-01,3.888820707798004150e-01,3.908567726612091064e-01,3.941929936408996582e-01,4.001318812370300293e-01,4.068613946437835693e-01,4.071240425109863281e-01,4.090923666954040527e-01,4.093905389308929443e-01,4.097927212715148926e-01,4.098294675350189209e-01,4.095233678817749023e-01,4.095433056354522705e-01,4.094866812229156494e-01,4.094288647174835205e-01,4.093713760375976562e-01,4.093138575553894043e-01,4.092563688755035400e-01,4.091988801956176758e-01,4.091412425041198730e-01,4.090836644172668457e-01,4.090262949466705322e-01,4.089688658714294434e-01,4.089114367961883545e-01,4.088539481163024902e-01,4.087965488433837891e-01,4.087391495704650879e-01,4.086818993091583252e-01,4.086246490478515625e-01,4.085672497749328613e-01,4.085099697113037109e-01,4.084527790546417236e-01,4.083954095840454102e-01,4.083383083343505859e-01,4.082809984683990479e-01,4.082239270210266113e-01,4.081665873527526855e-01,4.081095457077026367e-01,4.080523252487182617e-01,4.079959392547607422e-01,4.079385697841644287e-01,4.078838825225830078e-01,4.078339338302612305e-01,4.078033268451690674e-01,4.077843427658081055e-01,4.078044295310974121e-01,4.077105820178985596e-01,4.073294997215270996e-01,4.064951539039611816e-01,4.056540727615356445e-01,4.045684635639190674e-01,4.052203297615051270e-01,4.015244245529174805e-01,3.856573402881622314e-01,3.876678645610809326e-01,4.134877920150756836e-01,4.177069962024688721e-01,4.560110569000244141e-01,4.460519254207611084e-01
4.513999819755554199e-01,3.938325047492980957e-01,3.929972052574157715e-01,3.573076725006103516e-01,3.413745462894439697e-01,3.406656384468078613e-01,3.481121063232421875e-01,3.498328626155853271e-01,3.515322208404541016e-01,3.519437313079833984e-01,3.523586988449096680e-01,3.530955314636230469e-01,3.532196879386901855e-01,3.534062504768371582e-01,3.546779751777648926e-01,3.542181253433227539e-01,3.486441075801849365e-01,3.444477021694183350e-01,3.390718698501586914e-01,3.400221467018127441e-01,3.377101421356201172e-01,3.377320766448974609e-01,3.437953293323516846e-01,3.458323478698730469e-01,3.482868373394012451e-01,3.503632545471191406e-01,3.532597124576568604e-01,3.525308966636657715e-01,3.531252741813659668e-01,3.536536097526550293e-01,3.536408543586730957e-01,3.535020053386688232e-01,3.534266948699951172e-01,3.533898890018463135e-01,3.533478379249572754e-01,3.533070385456085205e-01,3.532659113407135010e-01,3.532249927520751953e-01,3.531837165355682373e-01,3.531428575515747070e-01,3.531018793582916260e-01,3.530609607696533203e-01,3.530197739601135254e-01,3.529787659645080566e-01,3.529378771781921387e-01,3.528970479965209961e-01,3.528559207916259766e-01,3.528151810169219971e-01,3.527741134166717529e-01,3.527333140373229980e-01,3.526923656463623047e-01,3.526514768600463867e-01,3.526107072830200195e-01,3.525699377059936523e-01,3.525291085243225098e-01,3.524883687496185303e-01,3.524475991725921631e-01,3.524068892002105713e-01,3.523659408092498779e-01,3.523250818252563477e-01,3.522846698760986328e-01,3.522442579269409180e-01,3.522011637687683105e-01,3.521724939346313477e-01,3.521340787410736084e-01,3.520787358283996582e-01,3.520830869674682617e-01,3.521274626255035400e-01,3.520770668983459473e-01,3.519994914531707764e-01,3.517397046089172363e-01,3.512840867042541504e-01,3.521200716495513916e-01,3.494907021522521973e-01,3.363034725189208984e-01,3.391721844673156738e-01,3.653236031532287598e-01,3.756864070892333984e-01,4.224450290203094482e-01,4.258199334144592285e-01
4.349708557128906250e-01,3.689492344856262207e-01,3.612806499004364014e-01,3.251714706420898438e-01,3.061361908912658691e-01,3.047627210617065430e-01,3.108686208724975586e-01,3.122540414333343506e-01,3.134169578552246094e-01,3.134266138076782227e-01,3.133847415447235107e-01,3.133483231067657471e-01,3.134635686874389648e-01,3.137082457542419434e-01,3.137529492378234863e-01,3.135147094726562500e-01,3.123820424079895020e-01,3.088073134422302246e-01,3.076211214065551758e-01,3.078482747077941895e-01,3.060169816017150879e-01,3.066147267818450928e-01,3.087973892688751221e-01,3.099519014358520508e-01,3.119773268699645996e-01,3.120715618133544922e-01,3.128187358379364014e-01,3.133757114410400391e-01,3.129790425300598145e-01,3.132086992263793945e-01,3.132140636444091797e-01,3.131369352340698242e-01,3.131079375743865967e-01,3.130564987659454346e-01,3.130266666412353516e-01,3.129969239234924316e-01,3.129670619964599609e-01,3.129372298717498779e-01,3.129075169563293457e-01,3.128776550292968750e-01,3.128477036952972412e-01,3.128178417682647705e-01,3.127882182598114014e-01,3.127584457397460938e-01,3.127287030220031738e-01,3.126992285251617432e-01,3.126692771911621094e-01,3.126395940780639648e-01,3.126098513603210449e-01,3.125801682472229004e-01,3.125503361225128174e-01,3.125207424163818359e-01,3.124910593032836914e-01,3.124614953994750977e-01,3.124316930770874023e-01,3.124021887779235840e-01,3.123725056648254395e-01,3.123428225517272949e-01,3.123131394386291504e-01,3.122835755348205566e-01,3.122542500495910645e-01,3.122248649597167969e-01,3.121953606605529785e-01,3.121634721755981445e-01,3.121332526206970215e-01,3.121033608913421631e-01,3.120628595352172852e-01,3.120115697383880615e-01,3.119867742061614990e-01,3.118698000907897949e-01,3.117341697216033936e-01,3.115159571170806885e-01,3.122587800025939941e-01,3.104314804077148438e-01,2.992395758628845215e-01,3.025976717472076416e-01,3.288294076919555664e-01,3.441973328590393066e-01,3.968323469161987305e-01,4.101054072380065918e-01
4.212149679660797119e-01,3.491330146789550781e-01,3.364122807979583740e-01,2.999978065490722656e-01,2.791747748851776123e-01,2.769988179206848145e-01,2.819514274597167969e-01,2.831172943115234375e-01,2.840031385421752930e-01,2.838937640190124512e-01,2.838359475135803223e-01,2.838276028633117676e-01,2.838257253170013428e-01,2.838534116744995117e-01,2.837880849838256836e-01,2.839366793632507324e-01,2.833439707756042480e-01,2.822383046150207520e-01,2.812541425228118896e-01,2.810368835926055908e-01,2.807976603507995605e-01,2.815876603126525879e-01,2.818466126918792725e-01,2.826011776924133301e-01,2.835112810134887695e-01,2.829617857933044434e-01,2.828538417816162109e-01,2.837599515914916992e-01,2.834981679916381836e-01,2.834636270999908447e-01,2.834166884422302246e-01,2.833524644374847412e-01,2.833597064018249512e-01,2.833249568939208984e-01,2.833032011985778809e-01,2.832816839218139648e-01,2.832600474357604980e-01,2.832385301589965820e-01,2.832168936729431152e-01,2.831950783729553223e-01,2.831735014915466309e-01,2.831521034240722656e-01,2.831304967403411865e-01,2.831087708473205566e-01,2.830872535705566406e-01,2.830658257007598877e-01,2.830440998077392578e-01,2.830224335193634033e-01,2.830010056495666504e-01,2.829794287681579590e-01,2.829579710960388184e-01,2.829363942146301270e-01,2.829149365425109863e-01,2.828931212425231934e-01,2.828716635704040527e-01,2.828502357006072998e-01,2.828288674354553223e-01,2.828074097633361816e-01,2.827857732772827148e-01,2.827641963958740234e-01,2.827428579330444336e-01,2.827215790748596191e-01,2.826998829841613770e-01,2.826791405677795410e-01,2.826575040817260742e-01,2.826324701309204102e-01,2.826092839241027832e-01,2.826001644134521484e-01,2.825909256935119629e-01,2.825898528099060059e-01,2.825708985328674316e-01,2.824621796607971191e-01,2.831027507781982422e-01,2.817922830581665039e-01,2.718679308891296387e-01,2.751435041427612305e-01,3.007466793060302734e-01,3.195685744285583496e-01,3.763027489185333252e-01,3.975815773010253906e-01
4.091776609420776367e-01,3.324940204620361328e-01,3.159821033477783203e-01,2.799528837203979492e-01,2.584264278411865234e-01,2.558356523513793945e-01,2.600298523902893066e-01,2.610228061676025391e-01,2.617960572242736816e-01,2.617141902446746826e-01,2.616679966449737549e-01,2.616282701492309570e-01,2.616329789161682129e-01,2.616283297538757324e-01,2.614996433258056641e-01,2.616249322891235352e-01,2.615947723388671875e-01,2.612559795379638672e-01,2.606127262115478516e-01,2.604978978633880615e-01,2.605543732643127441e-01,2.611307501792907715e-01,2.609426975250244141e-01,2.612604498863220215e-01,2.613576352596282959e-01,2.613643705844879150e-01,2.614482641220092773e-01,2.614438831806182861e-01,2.613560557365417480e-01,2.613779604434967041e-01,2.613586187362670898e-01,2.613163590431213379e-01,2.612943053245544434e-01,2.612836360931396484e-01,2.612672448158264160e-01,2.612507343292236328e-01,2.612343728542327881e-01,2.612177133560180664e-01,2.612014114856719971e-01,2.611848115921020508e-01,2.611685097217559814e-01,2.611520588397979736e-01,2.611357569694519043e-01,2.611192166805267334e-01,2.611027956008911133e-01,2.610863447189331055e-01,2.610698938369750977e-01,2.610535919666290283e-01,2.610370516777038574e-01,2.610207796096801758e-01,2.610043883323669434e-01,2.609880864620208740e-01,2.609714567661285400e-01,2.609551846981048584e-01,2.609388828277587891e-01,2.609224319458007812e-01,2.609059214591979980e-01,2.608897984027862549e-01,2.608733773231506348e-01,2.608569264411926270e-01,2.608406543731689453e-01,2.608244419097900391e-01,2.608079910278320312e-01,2.607913017272949219e-01,2.607748210430145264e-01,2.607579827308654785e-01,2.607408463954925537e-01,2.607253491878509521e-01,2.607102394104003906e-01,2.606949210166931152e-01,2.606794834136962891e-01,2.606009542942047119e-01,2.611193060874938965e-01,2.600734829902648926e-01,2.511757314205169678e-01,2.544538974761962891e-01,2.794652283191680908e-01,3.009998798370361328e-01,3.605879247188568115e-01,3.876351118087768555e-01
3.991115987300872803e-01,3.188939094543457031e-01,2.997297942638397217e-01,2.643904983997344971e-01,2.423074245452880859e-01,2.394197583198547363e-01,2.430802881717681885e-01,2.439708113670349121e-01,2.446623146533966064e-01,2.446009516716003418e-01,2.445667684078216553e-01,2.445473968982696533e-01,2.445461452007293701e-01,2.445252239704132080e-01,2.444537281990051270e-01,2.445207238197326660e-01,2.445585727691650391e-01,2.444621026515960693e-01,2.441276311874389648e-01,2.440031170845031738e-01,2.440718412399291992e-01,2.443197369575500488e-01,2.443151175975799561e-01,2.443843483924865723e-01,2.443061470985412598e-01,2.443989515304565430e-01,2.444291412830352783e-01,2.443124055862426758e-01,2.443138360977172852e-01,2.443082034587860107e-01,2.443132698535919189e-01,2.442908287048339844e-01,2.442712187767028809e-01,2.442601323127746582e-01,2.442471981048583984e-01,2.442342340946197510e-01,2.442215681076049805e-01,2.442084848880767822e-01,2.441956400871276855e-01,2.441825270652770996e-01,2.441698014736175537e-01,2.441570758819580078e-01,2.441442012786865234e-01,2.441311776638031006e-01,2.441183030605316162e-01,2.441057562828063965e-01,2.440927028656005859e-01,2.440796494483947754e-01,2.440670430660247803e-01,2.440540194511413574e-01,2.440413832664489746e-01,2.440284788608551025e-01,2.440156638622283936e-01,2.440027296543121338e-01,2.439899742603302002e-01,2.439772188663482666e-01,2.439643740653991699e-01,2.439514398574829102e-01,2.439388036727905273e-01,2.439258396625518799e-01,2.439130544662475586e-01,2.439002096652984619e-01,2.438873946666717529e-01,2.438745200634002686e-01,2.438615262508392334e-01,2.438483536243438721e-01,2.438352406024932861e-01,2.438218295574188232e-01,2.438088953495025635e-01,2.437959313392639160e-01,2.437829077243804932e-01,2.437188029289245605e-01,2.441434562206268311e-01,2.433079779148101807e-01,2.352288663387298584e-01,2.385404109954833984e-01,2.629376351833343506e-01,2.863714098930358887e-01,3.479838669300079346e-01,3.796842694282531738e-01
3.908102512359619141e-01,3.077801465988159180e-01,2.866294085979461670e-01,2.519696950912475586e-01,2.295340895652770996e-01,2.264071106910705566e-01,2.296731173992156982e-01,2.304631769657135010e-01,2.310848534107208252e-01,2.310308218002319336e-01,2.310034334659576416e-01,2.309904098510742188e-01,2.309852242469787598e-01,2.309651970863342285e-01,2.309268116950988770e-01,2.309459745883941650e-01,2.309665083885192871e-01,2.309467792510986328e-01,2.308341860771179199e-01,2.308295071125030518e-01,2.307941317558288574e-01,2.309072017669677734e-01,2.308574020862579346e-01,2.308523952960968018e-01,2.308339476585388184e-01,2.308424115180969238e-01,2.308576107025146484e-01,2.308359444141387939e-01,2.308239638805389404e-01,2.308103144168853760e-01,2.307929098606109619e-01,2.307858765125274658e-01,2.307759225368499756e-01,2.307645380496978760e-01,2.307541370391845703e-01,2.307438552379608154e-01,2.307334244251251221e-01,2.307231128215789795e-01,2.307126820087432861e-01,2.307022213935852051e-01,2.306920886039733887e-01,2.306817770004272461e-01,2.306714355945587158e-01,2.306609749794006348e-01,2.306506335735321045e-01,2.306404709815979004e-01,2.306301593780517578e-01,2.306196391582489014e-01,2.306095659732818604e-01,2.305991351604461670e-01,2.305886447429656982e-01,2.305784821510314941e-01,2.305680513381958008e-01,2.305578887462615967e-01,2.305472791194915771e-01,2.305371761322021484e-01,2.305268049240112305e-01,2.305165529251098633e-01,2.305063307285308838e-01,2.304960787296295166e-01,2.304854989051818848e-01,2.304752767086029053e-01,2.304649651050567627e-01,2.304547429084777832e-01,2.304444313049316406e-01,2.304340302944183350e-01,2.304238379001617432e-01,2.304136455059051514e-01,2.304031252861022949e-01,2.303929030895233154e-01,2.303822338581085205e-01,2.303289473056793213e-01,2.306847572326660156e-01,2.300083935260772705e-01,2.225933670997619629e-01,2.259165048599243164e-01,2.498116791248321533e-01,2.745950818061828613e-01,3.377299010753631592e-01,3.732000589370727539e-01
3.838114142417907715e-01,2.985789179801940918e-01,2.758311033248901367e-01,2.418462038040161133e-01,2.191914021968841553e-01,2.158588767051696777e-01,2.188146114349365234e-01,2.195159494876861572e-01,2.200822234153747559e-01,2.200350463390350342e-01,2.200117707252502441e-01,2.200032174587249756e-01,2.199946641921997070e-01,2.199835479259490967e-01,2.199743986129760742e-01,2.199772000312805176e-01,2.199756503105163574e-01,2.199727296829223633e-01,2.199378013610839844e-01,2.199244797229766846e-01,2.199089527130126953e-01,2.199155986309051514e-01,2.199044227600097656e-01,2.198992967605590820e-01,2.198979556560516357e-01,2.198930978775024414e-01,2.198801636695861816e-01,2.198638319969177246e-01,2.198588252067565918e-01,2.198506891727447510e-01,2.198416292667388916e-01,2.198333144187927246e-01,2.198245227336883545e-01,2.198160886764526367e-01,2.198075652122497559e-01,2.197990119457244873e-01,2.197906076908111572e-01,2.197821140289306641e-01,2.197735309600830078e-01,2.197650969028472900e-01,2.197568416595458984e-01,2.197482585906982422e-01,2.197398841381072998e-01,2.197312116622924805e-01,2.197230756282806396e-01,2.197144627571105957e-01,2.197059690952301025e-01,2.196975648403167725e-01,2.196889519691467285e-01,2.196805477142333984e-01,2.196719348430633545e-01,2.196634709835052490e-01,2.196551263332366943e-01,2.196466624736785889e-01,2.196381688117980957e-01,2.196297943592071533e-01,2.196212410926818848e-01,2.196128070354461670e-01,2.196044027805328369e-01,2.195959687232971191e-01,2.195875644683837891e-01,2.195789813995361328e-01,2.195706367492675781e-01,2.195620536804199219e-01,2.195537090301513672e-01,2.195452749729156494e-01,2.195368409156799316e-01,2.195284068584442139e-01,2.195200622081756592e-01,2.195116579532623291e-01,2.195022404193878174e-01,2.194575667381286621e-01,2.197626531124114990e-01,2.192137241363525391e-01,2.123444974422454834e-01,2.156735956668853760e-01,2.391574382781982422e-01,2.649272680282592773e-01,3.292294144630432129e-01,3.678078055381774902e-01
3.778381347656250000e-01,2.908449769020080566e-01,2.668079733848571777e-01,2.334596216678619385e-01,2.106595039367675781e-01,2.071498334407806396e-01,2.098535895347595215e-01,2.104772329330444336e-01,2.109947204589843750e-01,2.109529078006744385e-01,2.109327912330627441e-01,2.109255492687225342e-01,2.109183371067047119e-01,2.109108269214630127e-01,2.109035551548004150e-01,2.108966410160064697e-01,2.108929753303527832e-01,2.108838558197021484e-01,2.108764350414276123e-01,2.108679115772247314e-01,2.108656764030456543e-01,2.108562886714935303e-01,2.108470797538757324e-01,2.108392715454101562e-01,2.108357250690460205e-01,2.108277082443237305e-01,2.108196616172790527e-01,2.108107805252075195e-01,2.108048200607299805e-01,2.107976377010345459e-01,2.107913196086883545e-01,2.107841670513153076e-01,2.107771039009094238e-01,2.107701003551483154e-01,2.107629179954528809e-01,2.107557654380798340e-01,2.107487022876739502e-01,2.107416987419128418e-01,2.107346057891845703e-01,2.107276320457458496e-01,2.107204496860504150e-01,2.107134163379669189e-01,2.107063829898834229e-01,2.106993198394775391e-01,2.106922268867492676e-01,2.106850743293762207e-01,2.106781899929046631e-01,2.106713652610778809e-01,2.106642723083496094e-01,2.106569409370422363e-01,2.106499373912811279e-01,2.106429338455200195e-01,2.106359302997589111e-01,2.106288373470306396e-01,2.106216847896575928e-01,2.106146514415740967e-01,2.106074988842010498e-01,2.106006443500518799e-01,2.105935811996459961e-01,2.105866372585296631e-01,2.105795741081237793e-01,2.105723619461059570e-01,2.105653285980224609e-01,2.105583548545837402e-01,2.105512917041778564e-01,2.105443477630615234e-01,2.105371654033660889e-01,2.105300724506378174e-01,2.105232477188110352e-01,2.105160653591156006e-01,2.105085849761962891e-01,2.104696333408355713e-01,2.107359468936920166e-01,2.102887332439422607e-01,2.038733959197998047e-01,2.072030901908874512e-01,2.303384244441986084e-01,2.568513154983520508e-01,3.220621347427368164e-01,3.632454276084899902e-01
3.726809024810791016e-01,2.842518389225006104e-01,2.591624259948730469e-01,2.264001071453094482e-01,2.035078108310699463e-01,1.998430192470550537e-01,2.023403048515319824e-01,2.028955221176147461e-01,2.033715248107910156e-01,2.033342719078063965e-01,2.033169269561767578e-01,2.033107578754425049e-01,2.033047378063201904e-01,2.032985687255859375e-01,2.032926380634307861e-01,2.032865583896636963e-01,2.032813131809234619e-01,2.032748162746429443e-01,2.032693624496459961e-01,2.032630443572998047e-01,2.032583057880401611e-01,2.032519578933715820e-01,2.032452821731567383e-01,2.032389640808105469e-01,2.032334506511688232e-01,2.032273709774017334e-01,2.032213211059570312e-01,2.032147347927093506e-01,2.032091915607452393e-01,2.032029628753662109e-01,2.031973004341125488e-01,2.031908929347991943e-01,2.031852304935455322e-01,2.031791508197784424e-01,2.031733691692352295e-01,2.031672596931457520e-01,2.031611800193786621e-01,2.031553089618682861e-01,2.031493782997131348e-01,2.031432986259460449e-01,2.031376063823699951e-01,2.031312584877014160e-01,2.031255066394805908e-01,2.031194269657135010e-01,2.031136155128479004e-01,2.031075060367584229e-01,2.031016051769256592e-01,2.030956149101257324e-01,2.030898332595825195e-01,2.030838131904602051e-01,2.030774950981140137e-01,2.030717730522155762e-01,2.030658423900604248e-01,2.030600607395172119e-01,2.030539810657501221e-01,2.030479311943054199e-01,2.030420601367950439e-01,2.030362188816070557e-01,2.030303776264190674e-01,2.030241787433624268e-01,2.030182182788848877e-01,2.030122280120849609e-01,2.030063867568969727e-01,2.030003368854522705e-01,2.029944956302642822e-01,2.029885351657867432e-01,2.029826939105987549e-01,2.029766738414764404e-01,2.029705047607421875e-01,2.029644846916198730e-01,2.029581665992736816e-01,2.029243111610412598e-01,2.031598985195159912e-01,2.027955353260040283e-01,1.967617273330688477e-01,2.000896036624908447e-01,2.229236960411071777e-01,2.500059604644775391e-01,3.159348964691162109e-01,3.593334555625915527e-01
3.681842684745788574e-01,2.785663008689880371e-01,2.526068985462188721e-01,2.203802764415740967e-01,1.974319517612457275e-01,1.936308443546295166e-01,1.959562003612518311e-01,1.964510679244995117e-01,1.968917846679687500e-01,1.968584358692169189e-01,1.968427896499633789e-01,1.968376338481903076e-01,1.968325078487396240e-01,1.968275606632232666e-01,1.968223750591278076e-01,1.968172192573547363e-01,1.968122422695159912e-01,1.968068778514862061e-01,1.968018710613250732e-01,1.967968046665191650e-01,1.967915296554565430e-01,1.967864036560058594e-01,1.967813968658447266e-01,1.967761516571044922e-01,1.967709362506866455e-01,1.967659890651702881e-01,1.967607736587524414e-01,1.967557370662689209e-01,1.967507600784301758e-01,1.967454552650451660e-01,1.967405080795288086e-01,1.967350840568542480e-01,1.967301964759826660e-01,1.967250108718872070e-01,1.967198252677917480e-01,1.967148184776306152e-01,1.967097222805023193e-01,1.967045664787292480e-01,1.966997087001800537e-01,1.966946125030517578e-01,1.966894268989562988e-01,1.966840624809265137e-01,1.966790556907653809e-01,1.966741979122161865e-01,1.966690123081207275e-01,1.966637969017028809e-01,1.966587007045745850e-01,1.966535449028015137e-01,1.966484785079956055e-01,1.966433525085449219e-01,1.966383159160614014e-01,1.966334283351898193e-01,1.966280639171600342e-01,1.966229081153869629e-01,1.966177225112915039e-01,1.966128051280975342e-01,1.966078281402587891e-01,1.966027319431304932e-01,1.965976059436798096e-01,1.965925693511962891e-01,1.965872347354888916e-01,1.965821385383605957e-01,1.965771913528442383e-01,1.965720653533935547e-01,1.965670585632324219e-01,1.965620219707489014e-01,1.965567767620086670e-01,1.965516209602355957e-01,1.965466141700744629e-01,1.965417861938476562e-01,1.965356469154357910e-01,1.965061128139495850e-01,1.967167854309082031e-01,1.964204609394073486e-01,1.907115280628204346e-01,1.940361261367797852e-01,2.166063189506530762e-01,2.441320717334747314e-01,3.106366693973541260e-01,3.559411168098449707e-01
3.642294406890869141e-01,2.736135721206665039e-01,2.469272613525390625e-01,2.151886820793151855e-01,1.922099888324737549e-01,1.882883906364440918e-01,1.904682517051696777e-01,1.909101307392120361e-01,1.913204491138458252e-01,1.912901103496551514e-01,1.912761330604553223e-01,1.912716329097747803e-01,1.912671327590942383e-01,1.912629306316375732e-01,1.912583708763122559e-01,1.912539303302764893e-01,1.912496089935302734e-01,1.912449896335601807e-01,1.912407279014587402e-01,1.912363469600677490e-01,1.912318468093872070e-01,1.912274956703186035e-01,1.912230253219604492e-01,1.912184953689575195e-01,1.912140250205993652e-01,1.912096440792083740e-01,1.912052929401397705e-01,1.912008821964263916e-01,1.911962628364562988e-01,1.911920607089996338e-01,1.911875903606414795e-01,1.911831498146057129e-01,1.911785900592803955e-01,1.911742687225341797e-01,1.911697089672088623e-01,1.911655068397521973e-01,1.911610662937164307e-01,1.911567151546478271e-01,1.911521852016448975e-01,1.911476552486419678e-01,1.911434233188629150e-01,1.911388635635375977e-01,1.911346316337585449e-01,1.911301910877227783e-01,1.911256909370422363e-01,1.911214292049407959e-01,1.911168694496154785e-01,1.911126673221588135e-01,1.911082565784454346e-01,1.911039054393768311e-01,1.910993456840515137e-01,1.910948455333709717e-01,1.910906434059143066e-01,1.910860836505889893e-01,1.910816729068756104e-01,1.910773217678070068e-01,1.910729408264160156e-01,1.910683810710906982e-01,1.910639107227325439e-01,1.910596191883087158e-01,1.910552084445953369e-01,1.910509169101715088e-01,1.910465359687805176e-01,1.910420656204223633e-01,1.910375952720642090e-01,1.910332739353179932e-01,1.910287737846374512e-01,1.910245716571807861e-01,1.910200417041778564e-01,1.910155117511749268e-01,1.910105645656585693e-01,1.909842789173126221e-01,1.911745369434356689e-01,1.909347474575042725e-01,1.855055391788482666e-01,1.888256967067718506e-01,2.111616432666778564e-01,2.390382289886474609e-01,3.060086965560913086e-01,3.529710769653320312e-01
3.607227206230163574e-01,2.692646086215972900e-01,2.419610619544982910e-01,2.106679975986480713e-01,1.876759529113769531e-01,1.836448609828948975e-01,1.856974959373474121e-01,1.860924959182739258e-01,1.864760220050811768e-01,1.864486038684844971e-01,1.864359974861145020e-01,1.864320039749145508e-01,1.864280104637145996e-01,1.864242255687713623e-01,1.864202320575714111e-01,1.864164769649505615e-01,1.864125430583953857e-01,1.864087581634521484e-01,1.864050030708312988e-01,1.864010095596313477e-01,1.863974034786224365e-01,1.863932609558105469e-01,1.863895356655120850e-01,1.863855421543121338e-01,1.863816082477569580e-01,1.863779723644256592e-01,1.863740086555480957e-01,1.863701939582824707e-01,1.863662302494049072e-01,1.863624751567840576e-01,1.863584816455841064e-01,1.863546371459960938e-01,1.863509416580200195e-01,1.863467991352081299e-01,1.863432824611663818e-01,1.863391995429992676e-01,1.863354146480560303e-01,1.863315701484680176e-01,1.863279342651367188e-01,1.863237321376800537e-01,1.863199770450592041e-01,1.863162517547607422e-01,1.863123178482055664e-01,1.863083839416503906e-01,1.863045394420623779e-01,1.863007843494415283e-01,1.862968802452087402e-01,1.862930357456207275e-01,1.862892210483551025e-01,1.862854957580566406e-01,1.862816810607910156e-01,1.862778365612030029e-01,1.862738132476806641e-01,1.862699985504150391e-01,1.862661540508270264e-01,1.862622797489166260e-01,1.862584948539733887e-01,1.862544119358062744e-01,1.862507760524749756e-01,1.862469613552093506e-01,1.862430572509765625e-01,1.862392425537109375e-01,1.862354278564453125e-01,1.862315833568572998e-01,1.862277388572692871e-01,1.862239539623260498e-01,1.862200200557708740e-01,1.862162947654724121e-01,1.862123608589172363e-01,1.862084567546844482e-01,1.862036883831024170e-01,1.861804723739624023e-01,1.863544285297393799e-01,1.861622035503387451e-01,1.809772849082946777e-01,1.842916607856750488e-01,2.064207196235656738e-01,2.345716953277587891e-01,3.019202947616577148e-01,3.503384590148925781e-01
3.576379120349884033e-01,2.654608786106109619e-01,2.376334667205810547e-01,2.067425251007080078e-01,1.837376952171325684e-01,1.796109080314636230e-01,1.815587282180786133e-01,1.819119155406951904e-01,1.822724938392639160e-01,1.822473108768463135e-01,1.822352111339569092e-01,1.822319328784942627e-01,1.822284758090972900e-01,1.822249591350555420e-01,1.822215616703033447e-01,1.822182536125183105e-01,1.822147071361541748e-01,1.822113394737243652e-01,1.822079420089721680e-01,1.822046339511871338e-01,1.822012066841125488e-01,1.821978986263275146e-01,1.821944713592529297e-01,1.821911633014678955e-01,1.821879148483276367e-01,1.821844279766082764e-01,1.821808815002441406e-01,1.821775138378143311e-01,1.821741163730621338e-01,1.821707785129547119e-01,1.821673214435577393e-01,1.821639537811279297e-01,1.821605563163757324e-01,1.821570396423339844e-01,1.821537613868713379e-01,1.821504533290863037e-01,1.821467876434326172e-01,1.821435391902923584e-01,1.821402311325073242e-01,1.821367442607879639e-01,1.821333169937133789e-01,1.821300089359283447e-01,1.821264326572418213e-01,1.821232140064239502e-01,1.821196973323822021e-01,1.821162998676300049e-01,1.821130216121673584e-01,1.821095943450927734e-01,1.821064054965972900e-01,1.821028292179107666e-01,1.820994913578033447e-01,1.820962429046630859e-01,1.820928156375885010e-01,1.820893883705139160e-01,1.820859014987945557e-01,1.820825338363647461e-01,1.820792555809020996e-01,1.820757985115051270e-01,1.820723116397857666e-01,1.820689737796783447e-01,1.820656955242156982e-01,1.820621788501739502e-01,1.820588409900665283e-01,1.820554137229919434e-01,1.820521652698516846e-01,1.820486187934875488e-01,1.820452809333801270e-01,1.820420026779174805e-01,1.820383965969085693e-01,1.820351481437683105e-01,1.820311248302459717e-01,1.820100843906402588e-01,1.821687519550323486e-01,1.820170581340789795e-01,1.770416796207427979e-01,1.803444623947143555e-01,2.022839188575744629e-01,2.306704223155975342e-01,2.983125150203704834e-01,3.479947447776794434e-01
3.552463948726654053e-01,2.622946500778198242e-01,2.341435253620147705e-01,2.035861313343048096e-01,1.805852949619293213e-01,1.763876080513000488e-01,1.782724857330322266e-01,1.786178052425384521e-01,1.789581775665283203e-01,1.789337396621704102e-01,1.789230704307556152e-01,1.789199411869049072e-01,1.789170503616333008e-01,1.789140105247497559e-01,1.789109110832214355e-01,1.789079606533050537e-01,1.789047718048095703e-01,1.789015829563140869e-01,1.788987815380096436e-01,1.788955032825469971e-01,1.788927912712097168e-01,1.788897216320037842e-01,1.788867413997650146e-01,1.788836419582366943e-01,1.788806915283203125e-01,1.788776814937591553e-01,1.788746118545532227e-01,1.788715124130249023e-01,1.788686513900756836e-01,1.788654625415802002e-01,1.788624525070190430e-01,1.788595020771026611e-01,1.788565218448638916e-01,1.788535714149475098e-01,1.788504421710968018e-01,1.788473725318908691e-01,1.788444221019744873e-01,1.788414120674133301e-01,1.788383424282073975e-01,1.788353323936462402e-01,1.788325309753417969e-01,1.788291931152343750e-01,1.788263320922851562e-01,1.788233518600463867e-01,1.788202822208404541e-01,1.788173019886016846e-01,1.788142025470733643e-01,1.788112819194793701e-01,1.788082122802734375e-01,1.788051426410675049e-01,1.788020431995391846e-01,1.787991225719451904e-01,1.787960827350616455e-01,1.787930727005004883e-01,1.787900924682617188e-01,1.787869036197662354e-01,1.787839233875274658e-01,1.787811517715454102e-01,1.787779331207275391e-01,1.787748038768768311e-01,1.787721514701843262e-01,1.787689030170440674e-01,1.787658333778381348e-01,1.787628531455993652e-01,1.787599623203277588e-01,1.787570416927337646e-01,1.787539422512054443e-01,1.787508726119995117e-01,1.787477731704711914e-01,1.787449717521667480e-01,1.787411570549011230e-01,1.787223517894744873e-01,1.788702607154846191e-01,1.787468791007995605e-01,1.739453971385955811e-01,1.772533059120178223e-01,1.989203989505767822e-01,2.273630797863006592e-01,2.952058315277099609e-01,3.462715148925781250e-01
3.522586822509765625e-01,2.585266232490539551e-01,2.300041019916534424e-01,1.997269093990325928e-01,1.766584217548370361e-01,1.722875833511352539e-01,1.739270687103271484e-01,1.741957366466522217e-01,1.744956672191619873e-01,1.744753718376159668e-01,1.744657158851623535e-01,1.744630634784698486e-01,1.744604408740997314e-01,1.744577586650848389e-01,1.744551956653594971e-01,1.744523942470550537e-01,1.744499802589416504e-01,1.744473576545715332e-01,1.744445264339447021e-01,1.744418442249298096e-01,1.744391620159149170e-01,1.744366586208343506e-01,1.744340658187866211e-01,1.744313538074493408e-01,1.744287908077239990e-01,1.744260787963867188e-01,1.744233667850494385e-01,1.744207441806793213e-01,1.744181215763092041e-01,1.744154095649719238e-01,1.744127273559570312e-01,1.744101941585540771e-01,1.744075715541839600e-01,1.744049191474914551e-01,1.744022071361541748e-01,1.743994653224945068e-01,1.743969321250915527e-01,1.743943989276885986e-01,1.743916273117065430e-01,1.743890345096588135e-01,1.743862628936767578e-01,1.743837893009185791e-01,1.743810474872589111e-01,1.743784248828887939e-01,1.743757724761962891e-01,1.743730902671813965e-01,1.743704974651336670e-01,1.743679046630859375e-01,1.743651926517486572e-01,1.743625104427337646e-01,1.743598282337188721e-01,1.743573546409606934e-01,1.743545234203338623e-01,1.743519306182861328e-01,1.743494570255279541e-01,1.743466854095458984e-01,1.743441522121429443e-01,1.743414700031280518e-01,1.743389368057250977e-01,1.743360459804534912e-01,1.743335425853729248e-01,1.743307113647460938e-01,1.743282079696655273e-01,1.743254065513610840e-01,1.743229925632476807e-01,1.743203699588775635e-01,1.743178069591522217e-01,1.743150353431701660e-01,1.743125021457672119e-01,1.743097901344299316e-01,1.743065714836120605e-01,1.742886602878570557e-01,1.744315624237060547e-01,1.743100583553314209e-01,1.696811020374298096e-01,1.730763316154479980e-01,1.948021650314331055e-01,2.234551906585693359e-01,2.916903495788574219e-01,3.432709574699401855e-01
