5.891792774200439453e-01,6.140744090080261230e-01,6.573631167411804199e-01,6.578770875930786133e-01,6.817128658294677734e-01,7.058899998664855957e-01,7.434342503547668457e-01,7.640894055366516113e-01,7.732182145118713379e-01,7.723801136016845703e-01,7.719749212265014648e-01,7.583956718444824219e-01,7.353197336196899414e-01,6.986515522003173828e-01,5.972794890403747559e-01,5.315402746200561523e-01,4.912810623645782471e-01,4.604653716087341309e-01,4.269765317440032959e-01,4.062204360961914062e-01,3.962013721466064453e-01,3.980021178722381592e-01,4.164270162582397461e-01,4.502961039543151855e-01,4.892111718654632568e-01,5.397169589996337891e-01,6.046853065490722656e-01,6.707284450531005859e-01,7.594070434570312500e-01,8.178115487098693848e-01,8.500517010688781738e-01,8.763768672943115234e-01,8.900738954544067383e-01,8.978483676910400391e-01,9.043407440185546875e-01,9.050245881080627441e-01,9.056255221366882324e-01,9.056079387664794922e-01,9.055935144424438477e-01,9.055932760238647461e-01,9.055932760238647461e-01,9.055932760238647461e-01,9.055932760238647461e-01,9.055932760238647461e-01,9.055932760238647461e-01,9.055932760238647461e-01,9.055932760238647461e-01,9.055932760238647461e-01,9.055932760238647461e-01,9.055932760238647461e-01,9.055932760238647461e-01,9.055932760238647461e-01,9.055932760238647461e-01,9.055932760238647461e-01,9.055932760238647461e-01,9.055932760238647461e-01,9.055932760238647461e-01,9.055932760238647461e-01,9.055932760238647461e-01,9.055932760238647461e-01,9.055936336517333984e-01,9.055963754653930664e-01,9.056216478347778320e-01,9.056230187416076660e-01,9.053976535797119141e-01,9.047108292579650879e-01,9.036211967468261719e-01,9.019794464111328125e-01,8.994617462158203125e-01,8.957189321517944336e-01,8.896173238754272461e-01,8.807695508003234863e-01,8.713613748550415039e-01,8.590607047080993652e-01,8.305624723434448242e-01,8.090394735336303711e-01,8.007910251617431641e-01,7.751321792602539062e-01,7.216399312019348145e-01,6.156526803970336914e-01
5.886975526809692383e-01,6.143182516098022461e-01,6.567456126213073730e-01,6.576061844825744629e-01,6.812469959259033203e-01,7.055639028549194336e-01,7.431414127349853516e-01,7.628358602523803711e-01,7.719572782516479492e-01,7.733835577964782715e-01,7.723676562309265137e-01,7.589806318283081055e-01,7.385464310646057129e-01,6.955448389053344727e-01,5.959842801094055176e-01,5.335279703140258789e-01,4.928211271762847900e-01,4.581653475761413574e-01,4.288169443607330322e-01,4.057648479938507080e-01,3.933907747268676758e-01,3.998487889766693115e-01,4.178580641746520996e-01,4.456279277801513672e-01,4.838337600231170654e-01,5.406295061111450195e-01,6.056605577468872070e-01,6.743373870849609375e-01,7.550002336502075195e-01,8.177635669708251953e-01,8.485113978385925293e-01,8.754838109016418457e-01,8.891673088073730469e-01,8.974601030349731445e-01,9.039045572280883789e-01,9.048024415969848633e-01,9.053533673286437988e-01,9.053255319595336914e-01,9.053090810775756836e-01,9.053092002868652344e-01,9.053092002868652344e-01,9.053092002868652344e-01,9.053092002868652344e-01,9.053092002868652344e-01,9.053092002868652344e-01,9.053092002868652344e-01,9.053092002868652344e-01,9.053092002868652344e-01,9.053092002868652344e-01,9.053092002868652344e-01,9.053092002868652344e-01,9.053092002868652344e-01,9.053092002868652344e-01,9.053092002868652344e-01,9.053092002868652344e-01,9.053092002868652344e-01,9.053092002868652344e-01,9.053092002868652344e-01,9.053092002868652344e-01,9.053092002868652344e-01,9.053095579147338867e-01,9.053115844726562500e-01,9.053359031677246094e-01,9.053480625152587891e-01,9.051196575164794922e-01,9.044816493988037109e-01,9.033946394920349121e-01,9.016045331954956055e-01,8.991289138793945312e-01,8.952393531799316406e-01,8.887597322463989258e-01,8.801451921463012695e-01,8.711619377136230469e-01,8.581219315528869629e-01,8.292392492294311523e-01,8.083743453025817871e-01,8.007944822311401367e-01,7.746148705482482910e-01,7.219851016998291016e-01,6.160557270050048828e-01
5.887229442596435547e-01,6.143066883087158203e-01,6.569187641143798828e-01,6.577586531639099121e-01,6.813070774078369141e-01,7.055079936981201172e-01,7.430551052093505859e-01,7.623378038406372070e-01,7.717115879058837891e-01,7.731235623359680176e-01,7.718529701232910156e-01,7.599212527275085449e-01,7.399709224700927734e-01,6.941200494766235352e-01,5.982782244682312012e-01,5.345947742462158203e-01,4.907708764076232910e-01,4.583518505096435547e-01,4.293793737888336182e-01,4.051418900489807129e-01,3.950985670089721680e-01,3.982960581779479980e-01,4.240906834602355957e-01,4.493262171745300293e-01,4.894516468048095703e-01,5.518817305564880371e-01,5.987108945846557617e-01,6.762247085571289062e-01,7.566487789154052734e-01,8.200886845588684082e-01,8.493269681930541992e-01,8.759714365005493164e-01,8.902832269668579102e-01,8.977317810058593750e-01,9.040642380714416504e-01,9.048331975936889648e-01,9.053907394409179688e-01,9.053527712821960449e-01,9.053351879119873047e-01,9.053338766098022461e-01,9.053338766098022461e-01,9.053338766098022461e-01,9.053338766098022461e-01,9.053338766098022461e-01,9.053338766098022461e-01,9.053338766098022461e-01,9.053338766098022461e-01,9.053338766098022461e-01,9.053338766098022461e-01,9.053338766098022461e-01,9.053338766098022461e-01,9.053338766098022461e-01,9.053338766098022461e-01,9.053338766098022461e-01,9.053338766098022461e-01,9.053338766098022461e-01,9.053338766098022461e-01,9.053338766098022461e-01,9.053338766098022461e-01,9.053338766098022461e-01,9.053341150283813477e-01,9.053356647491455078e-01,9.053572416305541992e-01,9.053782224655151367e-01,9.051495790481567383e-01,9.045430421829223633e-01,9.034050107002258301e-01,9.016185402870178223e-01,8.991124629974365234e-01,8.950921297073364258e-01,8.886237144470214844e-01,8.803083896636962891e-01,8.709102272987365723e-01,8.577828407287597656e-01,8.293082714080810547e-01,8.084063529968261719e-01,8.006674051284790039e-01,7.746278047561645508e-01,7.219778299331665039e-01,6.160813570022583008e-01
5.887019634246826172e-01,6.142698526382446289e-01,6.568929553031921387e-01,6.577208638191223145e-01,6.812804937362670898e-01,7.055289745330810547e-01,7.429260611534118652e-01,7.624547481536865234e-01,7.720656394958496094e-01,7.729992866516113281e-01,7.714090943336486816e-01,7.605461478233337402e-01,7.395514249801635742e-01,6.943756937980651855e-01,5.992595553398132324e-01,5.346699953079223633e-01,4.938452541828155518e-01,4.592140018939971924e-01,4.270043969154357910e-01,4.068778157234191895e-01,3.951466977596282959e-01,4.058488011360168457e-01,4.212025403976440430e-01,4.439540505409240723e-01,4.971859753131866455e-01,5.462108254432678223e-01,6.078882813453674316e-01,6.672194004058837891e-01,7.587895393371582031e-01,8.205043077468872070e-01,8.455030918121337891e-01,8.744739294052124023e-01,8.895366191864013672e-01,8.973984718322753906e-01,9.037363529205322266e-01,9.047652482986450195e-01,9.053280353546142578e-01,9.053499698638916016e-01,9.053308367729187012e-01,9.053283333778381348e-01,9.053283333778381348e-01,9.053283333778381348e-01,9.053283333778381348e-01,9.053283333778381348e-01,9.053283333778381348e-01,9.053283333778381348e-01,9.053283333778381348e-01,9.053283333778381348e-01,9.053283333778381348e-01,9.053283333778381348e-01,9.053283333778381348e-01,9.053283333778381348e-01,9.053283333778381348e-01,9.053283333778381348e-01,9.053283333778381348e-01,9.053283333778381348e-01,9.053283333778381348e-01,9.053283333778381348e-01,9.053283333778381348e-01,9.053283333778381348e-01,9.053285121917724609e-01,9.053298830986022949e-01,9.053539037704467773e-01,9.053707122802734375e-01,9.051685333251953125e-01,9.045516252517700195e-01,9.033973217010498047e-01,9.016228914260864258e-01,8.990780115127563477e-01,8.949617147445678711e-01,8.886685371398925781e-01,8.801964521408081055e-01,8.707528114318847656e-01,8.578675389289855957e-01,8.293205499649047852e-01,8.082337379455566406e-01,8.006222844123840332e-01,7.746295928955078125e-01,7.220150232315063477e-01,6.160348057746887207e-01
5.886949300765991211e-01,6.142584681510925293e-01,6.568797230720520020e-01,6.577038168907165527e-01,6.812644004821777344e-01,7.055058479309082031e-01,7.429220676422119141e-01,7.624666690826416016e-01,7.718902230262756348e-01,7.731518149375915527e-01,7.715680599212646484e-01,7.623903751373291016e-01,7.408891916275024414e-01,6.933144330978393555e-01,6.009757518768310547e-01,5.367876291275024414e-01,4.933299124240875244e-01,4.602271616458892822e-01,4.283948242664337158e-01,4.100669622421264648e-01,3.978500664234161377e-01,4.026939868927001953e-01,4.211955070495605469e-01,4.571197330951690674e-01,4.934936165809631348e-01,5.452148914337158203e-01,6.149735450744628906e-01,6.891056299209594727e-01,7.583580017089843750e-01,8.174876570701599121e-01,8.534766435623168945e-01,8.776875734329223633e-01,8.914505243301391602e-01,8.969876766204833984e-01,9.034538269042968750e-01,9.048420190811157227e-01,9.053369760513305664e-01,9.053541421890258789e-01,9.053320288658142090e-01,9.053283333778381348e-01,9.053283333778381348e-01,9.053283333778381348e-01,9.053283333778381348e-01,9.053283333778381348e-01,9.053283333778381348e-01,9.053283333778381348e-01,9.053283333778381348e-01,9.053283333778381348e-01,9.053283333778381348e-01,9.053283333778381348e-01,9.053283333778381348e-01,9.053283333778381348e-01,9.053283333778381348e-01,9.053283333778381348e-01,9.053283333778381348e-01,9.053283333778381348e-01,9.053283333778381348e-01,9.053283333778381348e-01,9.053283333778381348e-01,9.053283333778381348e-01,9.053285121917724609e-01,9.053297042846679688e-01,9.053523540496826172e-01,9.053744077682495117e-01,9.051628112792968750e-01,9.045405387878417969e-01,9.033980369567871094e-01,9.016390442848205566e-01,8.990620970726013184e-01,8.949755430221557617e-01,8.886577486991882324e-01,8.801590800285339355e-01,8.708224296569824219e-01,8.578853607177734375e-01,8.292555809020996094e-01,8.082418441772460938e-01,8.006476163864135742e-01,7.746531963348388672e-01,7.220214605331420898e-01,6.160443425178527832e-01
5.886879563331604004e-01,6.142470836639404297e-01,6.568665504455566406e-01,6.576875448226928711e-01,6.812502741813659668e-01,7.055035829544067383e-01,7.428957223892211914e-01,7.623062133789062500e-01,7.722152471542358398e-01,7.735086679458618164e-01,7.740864157676696777e-01,7.642551660537719727e-01,7.429111003875732422e-01,6.946301460266113281e-01,6.016988158226013184e-01,5.349412560462951660e-01,4.964408874511718750e-01,4.649109840393066406e-01,4.296869039535522461e-01,4.024231433868408203e-01,4.027031958103179932e-01,4.122325778007507324e-01,4.242601394653320312e-01,4.614351987838745117e-01,4.889753758907318115e-01,5.661485195159912109e-01,6.161936521530151367e-01,6.842378377914428711e-01,7.593084573745727539e-01,8.183034062385559082e-01,8.505685329437255859e-01,8.762633800506591797e-01,8.911106586456298828e-01,8.982831239700317383e-01,9.034291505813598633e-01,9.053037166595458984e-01,9.053223729133605957e-01,9.053651094436645508e-01,9.053298830986022949e-01,9.053283333778381348e-01,9.053283333778381348e-01,9.053283333778381348e-01,9.053283333778381348e-01,9.053283333778381348e-01,9.053283333778381348e-01,9.053283333778381348e-01,9.053283333778381348e-01,9.053283333778381348e-01,9.053283333778381348e-01,9.053283333778381348e-01,9.053283333778381348e-01,9.053283333778381348e-01,9.053283333778381348e-01,9.053283333778381348e-01,9.053283333778381348e-01,9.053283333778381348e-01,9.053283333778381348e-01,9.053283333778381348e-01,9.053283333778381348e-01,9.053283333778381348e-01,9.053285121917724609e-01,9.053297042846679688e-01,9.053524136543273926e-01,9.053734540939331055e-01,9.051614403724670410e-01,9.045417904853820801e-01,9.034024477005004883e-01,9.016455411911010742e-01,8.990693092346191406e-01,8.949661254882812500e-01,8.886599540710449219e-01,8.801901340484619141e-01,8.708322048187255859e-01,8.578770160675048828e-01,8.292720317840576172e-01,8.082603216171264648e-01,8.006603121757507324e-01,7.746648788452148438e-01,7.220326662063598633e-01,6.160532236099243164e-01
5.886809825897216797e-01,6.142356395721435547e-01,6.568533778190612793e-01,6.576718091964721680e-01,6.812384724617004395e-01,7.054815292358398438e-01,7.428568601608276367e-01,7.623337507247924805e-01,7.725547552108764648e-01,7.748866677284240723e-01,7.771501541137695312e-01,7.694562077522277832e-01,7.462531328201293945e-01,7.010606527328491211e-01,6.049427986145019531e-01,5.443853735923767090e-01,5.161747932434082031e-01,4.677318334579467773e-01,4.302413165569305420e-01,4.120401442050933838e-01,4.046725034713745117e-01,4.002164900302886963e-01,4.307836294174194336e-01,4.584408104419708252e-01,5.075885653495788574e-01,5.484879016876220703e-01,6.108655929565429688e-01,6.937296390533447266e-01,7.593258023262023926e-01,8.202166557312011719e-01,8.539550304412841797e-01,8.754306435585021973e-01,8.898887634277343750e-01,8.974370360374450684e-01,9.027228355407714844e-01,9.051863551139831543e-01,9.053186178207397461e-01,9.053634405136108398e-01,9.053306579589843750e-01,9.053283333778381348e-01,9.053283333778381348e-01,9.053283333778381348e-01,9.053283333778381348e-01,9.053283333778381348e-01,9.053283333778381348e-01,9.053283333778381348e-01,9.053283333778381348e-01,9.053283333778381348e-01,9.053283333778381348e-01,9.053283333778381348e-01,9.053283333778381348e-01,9.053283333778381348e-01,9.053283333778381348e-01,9.053283333778381348e-01,9.053283333778381348e-01,9.053283333778381348e-01,9.053283333778381348e-01,9.053283333778381348e-01,9.053283333778381348e-01,9.053283333778381348e-01,9.053285121917724609e-01,9.053297042846679688e-01,9.053521156311035156e-01,9.053734540939331055e-01,9.051613807678222656e-01,9.045422077178955078e-01,9.034035801887512207e-01,9.016470909118652344e-01,8.990718722343444824e-01,8.949683904647827148e-01,8.886648416519165039e-01,8.801966905593872070e-01,8.708391189575195312e-01,8.578852415084838867e-01,8.292860984802246094e-01,8.082747459411621094e-01,8.006728291511535645e-01,7.746778726577758789e-01,7.220436334609985352e-01,6.160595417022705078e-01
5.886740684509277344e-01,6.142246127128601074e-01,6.568405032157897949e-01,6.576566696166992188e-01,6.812176704406738281e-01,7.054479718208312988e-01,7.426347136497497559e-01,7.629095315933227539e-01,7.729001045227050781e-01,7.778009176254272461e-01,7.822846174240112305e-01,7.724039554595947266e-01,7.584758996963500977e-01,7.051563858985900879e-01,6.111991405487060547e-01,5.700262188911437988e-01,5.271438360214233398e-01,4.825449585914611816e-01,4.306371510028839111e-01,4.254195094108581543e-01,4.184554219245910645e-01,4.169780015945434570e-01,4.450303018093109131e-01,4.604354798793792725e-01,4.942766726016998291e-01,5.594415068626403809e-01,6.297695040702819824e-01,6.995894908905029297e-01,7.663943767547607422e-01,8.226248025894165039e-01,8.551722764968872070e-01,8.774838447570800781e-01,8.896815776824951172e-01,8.993408083915710449e-01,9.033933877944946289e-01,9.050805568695068359e-01,9.051423072814941406e-01,9.053324460983276367e-01,9.053258895874023438e-01,9.053283333778381348e-01,9.053283333778381348e-01,9.053283333778381348e-01,9.053283333778381348e-01,9.053283333778381348e-01,9.053283333778381348e-01,9.053283333778381348e-01,9.053283333778381348e-01,9.053283333778381348e-01,9.053283333778381348e-01,9.053283333778381348e-01,9.053283333778381348e-01,9.053283333778381348e-01,9.053283333778381348e-01,9.053283333778381348e-01,9.053283333778381348e-01,9.053283333778381348e-01,9.053283333778381348e-01,9.053283333778381348e-01,9.053283333778381348e-01,9.053283333778381348e-01,9.053285121917724609e-01,9.053297042846679688e-01,9.053521156311035156e-01,9.053735136985778809e-01,9.051616191864013672e-01,9.045426845550537109e-01,9.034044742584228516e-01,9.016485214233398438e-01,8.990736007690429688e-01,8.949719667434692383e-01,8.886702060699462891e-01,8.802037239074707031e-01,8.708463907241821289e-01,8.578953146934509277e-01,8.292981386184692383e-01,8.082877397537231445e-01,8.006857633590698242e-01,7.746904492378234863e-01,7.220534086227416992e-01,6.160667538642883301e-01
5.886673331260681152e-01,6.142137050628662109e-01,6.568278670310974121e-01,6.576418876647949219e-01,6.811992526054382324e-01,7.053972482681274414e-01,7.425565123558044434e-01,7.631691694259643555e-01,7.742143869400024414e-01,7.829400300979614258e-01,7.870312929153442383e-01,7.826550602912902832e-01,7.643817663192749023e-01,7.110070586204528809e-01,6.320918798446655273e-01,5.912092328071594238e-01,5.603979229927062988e-01,5.048986673355102539e-01,4.653738439083099365e-01,4.290666282176971436e-01,4.208962619304656982e-01,4.389669895172119141e-01,4.584963917732238770e-01,4.716416895389556885e-01,4.939824044704437256e-01,5.859551429748535156e-01,6.402617096900939941e-01,6.949317455291748047e-01,7.648122310638427734e-01,8.118729591369628906e-01,8.525063991546630859e-01,8.754420280456542969e-01,8.879134654998779297e-01,8.965173363685607910e-01,9.022013545036315918e-01,9.039207100868225098e-01,9.052252173423767090e-01,9.053188562393188477e-01,9.053310155868530273e-01,9.053283333778381348e-01,9.053283333778381348e-01,9.053283333778381348e-01,9.053283333778381348e-01,9.053283333778381348e-01,9.053283333778381348e-01,9.053283333778381348e-01,9.053283333778381348e-01,9.053283333778381348e-01,9.053283333778381348e-01,9.053283333778381348e-01,9.053283333778381348e-01,9.053283333778381348e-01,9.053283333778381348e-01,9.053283333778381348e-01,9.053283333778381348e-01,9.053283333778381348e-01,9.053283333778381348e-01,9.053283333778381348e-01,9.053283333778381348e-01,9.053283333778381348e-01,9.053285121917724609e-01,9.053297042846679688e-01,9.053520560264587402e-01,9.053735136985778809e-01,9.051617383956909180e-01,9.045431613922119141e-01,9.034053087234497070e-01,9.016499519348144531e-01,8.990758061408996582e-01,8.949750661849975586e-01,8.886754512786865234e-01,8.802105188369750977e-01,8.708543777465820312e-01,8.579046726226806641e-01,8.293097019195556641e-01,8.083006143569946289e-01,8.006985187530517578e-01,7.747027277946472168e-01,7.220637202262878418e-01,6.160737276077270508e-01
5.886611938476562500e-01,6.142032742500305176e-01,6.568155288696289062e-01,6.576272845268249512e-01,6.811736226081848145e-01,7.053581476211547852e-01,7.426217794418334961e-01,7.637827396392822266e-01,7.765504121780395508e-01,7.853138446807861328e-01,7.935583591461181641e-01,7.943775653839111328e-01,7.762124538421630859e-01,7.280407547950744629e-01,6.661394834518432617e-01,6.213917732238769531e-01,6.060556173324584961e-01,5.410395860671997070e-01,4.927227497100830078e-01,4.390308260917663574e-01,4.472711384296417236e-01,4.624380767345428467e-01,4.800487756729125977e-01,4.709388315677642822e-01,5.137310028076171875e-01,5.924705862998962402e-01,6.447995901107788086e-01,7.080132365226745605e-01,7.737537026405334473e-01,8.132284879684448242e-01,8.518697023391723633e-01,8.821510076522827148e-01,8.924239277839660645e-01,8.988591432571411133e-01,9.018401503562927246e-01,9.038026332855224609e-01,9.051334857940673828e-01,9.053134918212890625e-01,9.053379297256469727e-01,9.053283333778381348e-01,9.053283333778381348e-01,9.053283333778381348e-01,9.053283333778381348e-01,9.053283333778381348e-01,9.053283333778381348e-01,9.053283333778381348e-01,9.053283333778381348e-01,9.053283333778381348e-01,9.053283333778381348e-01,9.053283333778381348e-01,9.053283333778381348e-01,9.053283333778381348e-01,9.053283333778381348e-01,9.053283333778381348e-01,9.053283333778381348e-01,9.053283333778381348e-01,9.053283333778381348e-01,9.053283333778381348e-01,9.053283333778381348e-01,9.053283333778381348e-01,9.053285121917724609e-01,9.053297042846679688e-01,9.053521156311035156e-01,9.053734540939331055e-01,9.051620960235595703e-01,9.045436978340148926e-01,9.034062623977661133e-01,9.016515016555786133e-01,8.990778923034667969e-01,8.949784040451049805e-01,8.886804580688476562e-01,8.802172541618347168e-01,8.708622455596923828e-01,8.579143881797790527e-01,8.293212652206420898e-01,8.083133697509765625e-01,8.007112741470336914e-01,7.747149467468261719e-01,7.220737338066101074e-01,6.160808801651000977e-01
5.886555910110473633e-01,6.141939163208007812e-01,6.568039655685424805e-01,6.576134562492370605e-01,6.811427474021911621e-01,7.053431272506713867e-01,7.426377534866333008e-01,7.639108896255493164e-01,7.776123285293579102e-01,7.859262824058532715e-01,8.027951717376708984e-01,8.012016415596008301e-01,7.836419343948364258e-01,7.480946779251098633e-01,7.019171714782714844e-01,6.785519719123840332e-01,6.349154114723205566e-01,5.726057887077331543e-01,5.161169171333312988e-01,4.618903398513793945e-01,4.562391638755798340e-01,5.076589584350585938e-01,5.099661946296691895e-01,5.010353326797485352e-01,5.274478197097778320e-01,6.020032763481140137e-01,6.701390743255615234e-01,7.229632139205932617e-01,7.853842973709106445e-01,8.219008445739746094e-01,8.471824526786804199e-01,8.740929365158081055e-01,8.936994075775146484e-01,8.961476087570190430e-01,8.999687433242797852e-01,9.039763808250427246e-01,9.052622914314270020e-01,9.053373336791992188e-01,9.053382873535156250e-01,9.053283333778381348e-01,9.053283333778381348e-01,9.053283333778381348e-01,9.053283333778381348e-01,9.053283333778381348e-01,9.053283333778381348e-01,9.053283333778381348e-01,9.053283333778381348e-01,9.053283333778381348e-01,9.053283333778381348e-01,9.053283333778381348e-01,9.053283333778381348e-01,9.053283333778381348e-01,9.053283333778381348e-01,9.053283333778381348e-01,9.053283333778381348e-01,9.053283333778381348e-01,9.053283333778381348e-01,9.053283333778381348e-01,9.053283333778381348e-01,9.053283333778381348e-01,9.053285121917724609e-01,9.053297042846679688e-01,9.053520560264587402e-01,9.053733348846435547e-01,9.051622152328491211e-01,9.045441150665283203e-01,9.034070968627929688e-01,9.016526937484741211e-01,8.990796804428100586e-01,8.949815630912780762e-01,8.886854648590087891e-01,8.802238702774047852e-01,8.708703517913818359e-01,8.579238057136535645e-01,8.293327093124389648e-01,8.083260059356689453e-01,8.007239699363708496e-01,7.747273445129394531e-01,7.220841050148010254e-01,6.160879731178283691e-01
5.886506438255310059e-01,6.141856312751770020e-01,6.567939519882202148e-01,6.576012372970581055e-01,6.811174154281616211e-01,7.053407430648803711e-01,7.428859472274780273e-01,7.649526000022888184e-01,7.774869203567504883e-01,7.916383147239685059e-01,8.106601238250732422e-01,8.080536127090454102e-01,7.948952317237854004e-01,7.696592807769775391e-01,7.409480810165405273e-01,7.113556861877441406e-01,6.802548766136169434e-01,6.092560291290283203e-01,5.311315655708312988e-01,5.005695819854736328e-01,5.017279386520385742e-01,5.501079559326171875e-01,5.078661441802978516e-01,5.172749757766723633e-01,5.443633198738098145e-01,6.115211844444274902e-01,7.051564455032348633e-01,7.459757328033447266e-01,7.847696542739868164e-01,8.357263803482055664e-01,8.540547490119934082e-01,8.777031898498535156e-01,8.965228796005249023e-01,8.992731571197509766e-01,9.020722508430480957e-01,9.044443368911743164e-01,9.052056074142456055e-01,9.053484797477722168e-01,9.053347110748291016e-01,9.053283333778381348e-01,9.053283333778381348e-01,9.053283333778381348e-01,9.053283333778381348e-01,9.053283333778381348e-01,9.053283333778381348e-01,9.053283333778381348e-01,9.053283333778381348e-01,9.053283333778381348e-01,9.053283333778381348e-01,9.053283333778381348e-01,9.053283333778381348e-01,9.053283333778381348e-01,9.053283333778381348e-01,9.053283333778381348e-01,9.053283333778381348e-01,9.053283333778381348e-01,9.053283333778381348e-01,9.053283333778381348e-01,9.053283333778381348e-01,9.053283333778381348e-01,9.053285121917724609e-01,9.053297042846679688e-01,9.053520560264587402e-01,9.053734540939331055e-01,9.051622152328491211e-01,9.045445919036865234e-01,9.034079909324645996e-01,9.016540050506591797e-01,8.990817070007324219e-01,8.949848413467407227e-01,8.886903524398803711e-01,8.802307248115539551e-01,8.708781599998474121e-01,8.579334020614624023e-01,8.293443918228149414e-01,8.083388805389404297e-01,8.007367253303527832e-01,7.747395634651184082e-01,7.220942378044128418e-01,6.160950064659118652e-01
5.886461138725280762e-01,6.141780614852905273e-01,6.567847728729248047e-01,6.575906276702880859e-01,6.811090111732482910e-01,7.052948474884033203e-01,7.428232431411743164e-01,7.640459537506103516e-01,7.768112421035766602e-01,7.973048686981201172e-01,8.189400434494018555e-01,8.152201771736145020e-01,8.082408905029296875e-01,7.907913327217102051e-01,7.654673457145690918e-01,7.430261373519897461e-01,7.283815145492553711e-01,6.386247277259826660e-01,5.495800375938415527e-01,5.344864726066589355e-01,5.458031892776489258e-01,5.584502220153808594e-01,5.292840600013732910e-01,5.361478328704833984e-01,5.765773057937622070e-01,6.281290054321289062e-01,7.192117571830749512e-01,7.732742428779602051e-01,7.965106368064880371e-01,8.432840108871459961e-01,8.666355609893798828e-01,8.805428743362426758e-01,8.986748456954956055e-01,8.988265395164489746e-01,9.032449722290039062e-01,9.047864675521850586e-01,9.051871299743652344e-01,9.053542613983154297e-01,9.053265452384948730e-01,9.053283333778381348e-01,9.053283333778381348e-01,9.053283333778381348e-01,9.053283333778381348e-01,9.053283333778381348e-01,9.053283333778381348e-01,9.053283333778381348e-01,9.053283333778381348e-01,9.053283333778381348e-01,9.053283333778381348e-01,9.053283333778381348e-01,9.053283333778381348e-01,9.053283333778381348e-01,9.053283333778381348e-01,9.053283333778381348e-01,9.053283333778381348e-01,9.053283333778381348e-01,9.053283333778381348e-01,9.053283333778381348e-01,9.053283333778381348e-01,9.053283333778381348e-01,9.053285121917724609e-01,9.053297042846679688e-01,9.053519964218139648e-01,9.053733348846435547e-01,9.051624536514282227e-01,9.045451879501342773e-01,9.034087657928466797e-01,9.016554355621337891e-01,8.990837931632995605e-01,8.949880599975585938e-01,8.886954784393310547e-01,8.802373409271240234e-01,8.708859682083129883e-01,8.579428195953369141e-01,8.293557167053222656e-01,8.083513379096984863e-01,8.007491827011108398e-01,7.747519016265869141e-01,7.221041917800903320e-01,6.161020994186401367e-01
5.886417031288146973e-01,6.141708493232727051e-01,6.567760705947875977e-01,6.575806736946105957e-01,6.811048388481140137e-01,7.052733898162841797e-01,7.426393032073974609e-01,7.625558376312255859e-01,7.794495224952697754e-01,8.006867170333862305e-01,8.227735757827758789e-01,8.184338808059692383e-01,8.218071460723876953e-01,8.175551891326904297e-01,7.808190584182739258e-01,7.818956971168518066e-01,7.530918121337890625e-01,6.759836077690124512e-01,5.822100639343261719e-01,5.652640461921691895e-01,5.551266074180603027e-01,5.620200037956237793e-01,5.521007776260375977e-01,5.493819117546081543e-01,5.816733837127685547e-01,6.262764334678649902e-01,7.504369020462036133e-01,8.014732599258422852e-01,8.093717694282531738e-01,8.498407602310180664e-01,8.772869110107421875e-01,8.861706256866455078e-01,9.003063440322875977e-01,9.036820530891418457e-01,9.047021865844726562e-01,9.054622054100036621e-01,9.050527811050415039e-01,9.053442478179931641e-01,9.053316712379455566e-01,9.053283333778381348e-01,9.053283333778381348e-01,9.053283333778381348e-01,9.053283333778381348e-01,9.053283333778381348e-01,9.053283333778381348e-01,9.053283333778381348e-01,9.053283333778381348e-01,9.053283333778381348e-01,9.053283333778381348e-01,9.053283333778381348e-01,9.053283333778381348e-01,9.053283333778381348e-01,9.053283333778381348e-01,9.053283333778381348e-01,9.053283333778381348e-01,9.053283333778381348e-01,9.053283333778381348e-01,9.053283333778381348e-01,9.053283333778381348e-01,9.053283333778381348e-01,9.053285121917724609e-01,9.053297042846679688e-01,9.053520560264587402e-01,9.053732752799987793e-01,9.051626920700073242e-01,9.045455455780029297e-01,9.034097194671630859e-01,9.016568660736083984e-01,8.990858197212219238e-01,8.949912786483764648e-01,8.887004852294921875e-01,8.802440166473388672e-01,8.708940148353576660e-01,8.579524755477905273e-01,8.293673396110534668e-01,8.083641529083251953e-01,8.007619380950927734e-01,7.747640609741210938e-01,7.221145629882812500e-01,6.161093115806579590e-01
5.886370539665222168e-01,6.141635775566101074e-01,6.567680239677429199e-01,6.575713157653808594e-01,6.810880303382873535e-01,7.052464485168457031e-01,7.424221038818359375e-01,7.621289491653442383e-01,7.822684049606323242e-01,8.052769303321838379e-01,8.229091167449951172e-01,8.209052681922912598e-01,8.321300148963928223e-01,8.256726264953613281e-01,8.054521083831787109e-01,8.007044196128845215e-01,7.828180193901062012e-01,7.061957716941833496e-01,6.195232272148132324e-01,5.863218903541564941e-01,5.634531974792480469e-01,6.018443703651428223e-01,5.586836338043212891e-01,5.673683285713195801e-01,6.008187532424926758e-01,6.455397009849548340e-01,7.437852621078491211e-01,8.041274547576904297e-01,8.196251392364501953e-01,8.564292192459106445e-01,8.803508281707763672e-01,8.900716900825500488e-01,9.026580452919006348e-01,9.052696228027343750e-01,9.042986631393432617e-01,9.056088328361511230e-01,9.050204753875732422e-01,9.053456783294677734e-01,9.053332805633544922e-01,9.053283333778381348e-01,9.053283333778381348e-01,9.053283333778381348e-01,9.053283333778381348e-01,9.053283333778381348e-01,9.053283333778381348e-01,9.053283333778381348e-01,9.053283333778381348e-01,9.053283333778381348e-01,9.053283333778381348e-01,9.053283333778381348e-01,9.053283333778381348e-01,9.053283333778381348e-01,9.053283333778381348e-01,9.053283333778381348e-01,9.053283333778381348e-01,9.053283333778381348e-01,9.053283333778381348e-01,9.053283333778381348e-01,9.053283333778381348e-01,9.053283333778381348e-01,9.053285121917724609e-01,9.053297042846679688e-01,9.053519964218139648e-01,9.053732752799987793e-01,9.051628112792968750e-01,9.045461416244506836e-01,9.034106731414794922e-01,9.016582369804382324e-01,8.990879654884338379e-01,8.949946165084838867e-01,8.887054920196533203e-01,8.802509307861328125e-01,8.709019422531127930e-01,8.579617738723754883e-01,8.293789625167846680e-01,8.083767890930175781e-01,8.007746934890747070e-01,7.747764587402343750e-01,7.221246957778930664e-01,6.161164641380310059e-01
5.886318683624267578e-01,6.141556501388549805e-01,6.567593812942504883e-01,6.575613021850585938e-01,6.810776591300964355e-01,7.052353024482727051e-01,7.417908906936645508e-01,7.629182338714599609e-01,7.830517292022705078e-01,8.057896494865417480e-01,8.207421302795410156e-01,8.259322643280029297e-01,8.365278840065002441e-01,8.272908926010131836e-01,8.232815265655517578e-01,8.233251571655273438e-01,7.969080805778503418e-01,7.266603708267211914e-01,6.467787623405456543e-01,5.937146544456481934e-01,5.819444060325622559e-01,6.016159057617187500e-01,5.745439529418945312e-01,5.630019307136535645e-01,5.996615886688232422e-01,6.568229198455810547e-01,7.523317337036132812e-01,8.117852807044982910e-01,8.377133607864379883e-01,8.639372587203979492e-01,8.808893561363220215e-01,8.916145563125610352e-01,9.004978537559509277e-01,9.057033658027648926e-01,9.053614139556884766e-01,9.056572914123535156e-01,9.051840305328369141e-01,9.053287506103515625e-01,9.053298830986022949e-01,9.053283333778381348e-01,9.053283333778381348e-01,9.053283333778381348e-01,9.053283333778381348e-01,9.053283333778381348e-01,9.053283333778381348e-01,9.053283333778381348e-01,9.053283333778381348e-01,9.053283333778381348e-01,9.053283333778381348e-01,9.053283333778381348e-01,9.053283333778381348e-01,9.053283333778381348e-01,9.053283333778381348e-01,9.053283333778381348e-01,9.053283333778381348e-01,9.053283333778381348e-01,9.053283333778381348e-01,9.053283333778381348e-01,9.053283333778381348e-01,9.053283333778381348e-01,9.053285121917724609e-01,9.053297042846679688e-01,9.053519964218139648e-01,9.053732752799987793e-01,9.051629900932312012e-01,9.045465588569641113e-01,9.034115076065063477e-01,9.016594886779785156e-01,8.990899324417114258e-01,8.949978351593017578e-01,8.887103796005249023e-01,8.802577257156372070e-01,8.709099292755126953e-01,8.579714894294738770e-01,8.293903470039367676e-01,8.083895444869995117e-01,8.007872700691223145e-01,7.747887372970581055e-01,7.221348881721496582e-01,6.161234974861145020e-01
5.886265039443969727e-01,6.141468882560729980e-01,6.567495465278625488e-01,6.575502157211303711e-01,6.810775995254516602e-01,7.052298188209533691e-01,7.415727972984313965e-01,7.636265158653259277e-01,7.846598625183105469e-01,8.052133917808532715e-01,8.198034763336181641e-01,8.343076705932617188e-01,8.409652709960937500e-01,8.349734544754028320e-01,8.315916061401367188e-01,8.289878368377685547e-01,7.998547554016113281e-01,7.549744844436645508e-01,6.656249761581420898e-01,5.980146527290344238e-01,5.878772735595703125e-01,6.211128830909729004e-01,6.072197556495666504e-01,5.841860175132751465e-01,6.122828125953674316e-01,6.826713681221008301e-01,7.450932264328002930e-01,8.114773035049438477e-01,8.416668176651000977e-01,8.701617717742919922e-01,8.837580084800720215e-01,8.938901424407958984e-01,9.008049368858337402e-01,9.045340418815612793e-01,9.056806564331054688e-01,9.051054120063781738e-01,9.053883552551269531e-01,9.053382873535156250e-01,9.053288102149963379e-01,9.053263664245605469e-01,9.053263664245605469e-01,9.053262472152709961e-01,9.053262472152709961e-01,9.053262472152709961e-01,9.053262472152709961e-01,9.053262472152709961e-01,9.053262472152709961e-01,9.053261280059814453e-01,9.053261280059814453e-01,9.053261280059814453e-01,9.053261280059814453e-01,9.053260684013366699e-01,9.053260684013366699e-01,9.053260684013366699e-01,9.053260684013366699e-01,9.053260684013366699e-01,9.053260684013366699e-01,9.053260684013366699e-01,9.053261280059814453e-01,9.053261280059814453e-01,9.053262472152709961e-01,9.053274393081665039e-01,9.053497314453125000e-01,9.053708314895629883e-01,9.051609039306640625e-01,9.045450091361999512e-01,9.034106135368347168e-01,9.016593098640441895e-01,8.990901708602905273e-01,8.949992060661315918e-01,8.887136578559875488e-01,8.802630901336669922e-01,8.709170818328857422e-01,8.579805493354797363e-01,8.294016122817993164e-01,8.084026575088500977e-01,8.008003234863281250e-01,7.748012542724609375e-01,7.221453189849853516e-01,6.161308288574218750e-01
5.886207222938537598e-01,6.141372323036193848e-01,6.567385196685791016e-01,6.575371026992797852e-01,6.810637712478637695e-01,7.052404880523681641e-01,7.415745854377746582e-01,7.631159424781799316e-01,7.846118211746215820e-01,8.026440143585205078e-01,8.202422857284545898e-01,8.363746404647827148e-01,8.418416976928710938e-01,8.385650515556335449e-01,8.405471444129943848e-01,8.282766342163085938e-01,8.073287010192871094e-01,7.809044718742370605e-01,6.755155920982360840e-01,6.159346699714660645e-01,5.967118144035339355e-01,6.315439343452453613e-01,6.100088953971862793e-01,5.958442091941833496e-01,6.272611618041992188e-01,6.912627220153808594e-01,7.579287290573120117e-01,8.130513429641723633e-01,8.513047695159912109e-01,8.743801116943359375e-01,8.850978016853332520e-01,8.951368331909179688e-01,9.015686511993408203e-01,9.040901064872741699e-01,9.056855440139770508e-01,9.053901433944702148e-01,9.053698778152465820e-01,9.053277969360351562e-01,9.053227901458740234e-01,9.053209424018859863e-01,9.053210020065307617e-01,9.053211212158203125e-01,9.053211212158203125e-01,9.053211212158203125e-01,9.053212404251098633e-01,9.053212404251098633e-01,9.053213596343994141e-01,9.053213596343994141e-01,9.053213596343994141e-01,9.053214192390441895e-01,9.053214192390441895e-01,9.053213596343994141e-01,9.053214192390441895e-01,9.053215980529785156e-01,9.053215980529785156e-01,9.053215980529785156e-01,9.053217172622680664e-01,9.053217172622680664e-01,9.053217768669128418e-01,9.053217768669128418e-01,9.053220152854919434e-01,9.053232073783874512e-01,9.053455591201782227e-01,9.053668975830078125e-01,9.051569104194641113e-01,9.045405387878417969e-01,9.034068584442138672e-01,9.016559720039367676e-01,8.990865945816040039e-01,8.949946165084838867e-01,8.887091279029846191e-01,8.802586793899536133e-01,8.709127902984619141e-01,8.579802513122558594e-01,8.294045925140380859e-01,8.084077835083007812e-01,8.008066415786743164e-01,7.748064994812011719e-01,7.221473455429077148e-01,6.161317825317382812e-01
5.886098146438598633e-01,6.141236424446105957e-01,6.567224264144897461e-01,6.575233936309814453e-01,6.810641884803771973e-01,7.052646279335021973e-01,7.416610121726989746e-01,7.632130384445190430e-01,7.840157747268676758e-01,8.026133775711059570e-01,8.222114443778991699e-01,8.385309576988220215e-01,8.434445858001708984e-01,8.434302806854248047e-01,8.439621925354003906e-01,8.309607505798339844e-01,8.148539662361145020e-01,7.816461324691772461e-01,6.791571974754333496e-01,6.364039778709411621e-01,6.261548995971679688e-01,6.333960294723510742e-01,6.232696175575256348e-01,6.122305393218994141e-01,6.492355465888977051e-01,7.032285332679748535e-01,7.782753705978393555e-01,8.266136646270751953e-01,8.530819416046142578e-01,8.751588463783264160e-01,8.893177509307861328e-01,8.986136913299560547e-01,9.039268493652343750e-01,9.045644998550415039e-01,9.053093194961547852e-01,9.053164720535278320e-01,9.054435491561889648e-01,9.054024219512939453e-01,9.053965806961059570e-01,9.053921699523925781e-01,9.053922891616821289e-01,9.053925871849060059e-01,9.053929448127746582e-01,9.053932428359985352e-01,9.053934216499328613e-01,9.053937196731567383e-01,9.053940773010253906e-01,9.053941965103149414e-01,9.053944945335388184e-01,9.053947329521179199e-01,9.053950309753417969e-01,9.053952097892761230e-01,9.053955078125000000e-01,9.053957462310791016e-01,9.053959250450134277e-01,9.053963422775268555e-01,9.053965806961059570e-01,9.053967595100402832e-01,9.053971171379089355e-01,9.053973555564880371e-01,9.053978919982910156e-01,9.053994417190551758e-01,9.054224491119384766e-01,9.054448604583740234e-01,9.052376747131347656e-01,9.046199321746826172e-01,9.034807682037353516e-01,9.017148017883300781e-01,8.991358280181884766e-01,8.950453996658325195e-01,8.887740373611450195e-01,8.803352713584899902e-01,8.710007071495056152e-01,8.580511808395385742e-01,8.294703960418701172e-01,8.084538578987121582e-01,8.008366823196411133e-01,7.748249769210815430e-01,7.221456170082092285e-01,6.161313056945800781e-01
5.886168479919433594e-01,6.141326427459716797e-01,6.567294001579284668e-01,6.575413942337036133e-01,6.810887455940246582e-01,7.053317427635192871e-01,7.416944503784179688e-01,7.633002996444702148e-01,7.837545275688171387e-01,8.023572564125061035e-01,8.214939832687377930e-01,8.384318351745605469e-01,8.441236019134521484e-01,8.462982773780822754e-01,8.450558185577392578e-01,8.346406221389770508e-01,8.195097446441650391e-01,7.849984169006347656e-01,6.800022125244140625e-01,6.519593000411987305e-01,6.385823488235473633e-01,6.576558351516723633e-01,6.340586543083190918e-01,6.333892345428466797e-01,6.653727293014526367e-01,7.293430566787719727e-01,7.926783561706542969e-01,8.358148336410522461e-01,8.554072380065917969e-01,8.777700662612915039e-01,8.919759988784790039e-01,9.005221128463745117e-01,9.043810367584228516e-01,9.050022363662719727e-01,9.054974317550659180e-01,9.055405259132385254e-01,9.054632186889648438e-01,9.054790735244750977e-01,9.054814577102661133e-01,9.054784774780273438e-01,9.054776430130004883e-01,9.054766893386840820e-01,9.054759144783020020e-01,9.054749011993408203e-01,9.054740667343139648e-01,9.054732322692871094e-01,9.054722785949707031e-01,9.054714441299438477e-01,9.054706096649169922e-01,9.054697751998901367e-01,9.054690003395080566e-01,9.054681062698364258e-01,9.054671525955200195e-01,9.054663181304931641e-01,9.054654240608215332e-01,9.054645299911499023e-01,9.054638147354125977e-01,9.054629802703857422e-01,9.054620265960693359e-01,9.054610729217529297e-01,9.054607152938842773e-01,9.054612517356872559e-01,9.054841995239257812e-01,9.055072069168090820e-01,9.053022861480712891e-01,9.046818017959594727e-01,9.035503864288330078e-01,9.017895460128784180e-01,8.992096185684204102e-01,8.951151371002197266e-01,8.888962268829345703e-01,8.804688453674316406e-01,8.711261749267578125e-01,8.582131862640380859e-01,8.296996951103210449e-01,8.087002038955688477e-01,8.010926842689514160e-01,7.750731110572814941e-01,7.224299907684326172e-01,6.165244579315185547e-01
5.888007879257202148e-01,6.143101453781127930e-01,6.569836735725402832e-01,6.577983498573303223e-01,6.813391447067260742e-01,7.055001258850097656e-01,7.418395280838012695e-01,7.632035017013549805e-01,7.838147282600402832e-01,8.024899363517761230e-01,8.211154341697692871e-01,8.375806808471679688e-01,8.449844717979431152e-01,8.488492965698242188e-01,8.465385437011718750e-01,8.403227329254150391e-01,8.253588080406188965e-01,7.870194911956787109e-01,6.970329880714416504e-01,6.579248905181884766e-01,6.468884348869323730e-01,6.758794784545898438e-01,6.393348574638366699e-01,6.427596211433410645e-01,6.886801719665527344e-01,7.421489357948303223e-01,8.040103316307067871e-01,8.385734558105468750e-01,8.601425886154174805e-01,8.800597190856933594e-01,8.939732909202575684e-01,9.010926485061645508e-01,9.039751291275024414e-01,9.043431878089904785e-01,9.046337604522705078e-01,9.046418666839599609e-01,9.046312570571899414e-01,9.046270847320556641e-01,9.046267271041870117e-01,9.046258926391601562e-01,9.046249985694885254e-01,9.046242237091064453e-01,9.046231508255004883e-01,9.046223163604736328e-01,9.046213626861572266e-01,9.046204686164855957e-01,9.046194553375244141e-01,9.046186804771423340e-01,9.046178460121154785e-01,9.046168327331542969e-01,9.046159982681274414e-01,9.046150445938110352e-01,9.046142101287841797e-01,9.046131372451782227e-01,9.046123027801513672e-01,9.046114683151245117e-01,9.046105742454528809e-01,9.046096205711364746e-01,9.046087265014648438e-01,9.046078324317932129e-01,9.046071767807006836e-01,9.046078920364379883e-01,9.046279191970825195e-01,9.046610593795776367e-01,9.044569730758666992e-01,9.038792252540588379e-01,9.027749300003051758e-01,9.010080099105834961e-01,8.984285593032836914e-01,8.943628668785095215e-01,8.880737423896789551e-01,8.796500563621520996e-01,8.703310489654541016e-01,8.574494123458862305e-01,8.288418650627136230e-01,8.078485131263732910e-01,8.004547357559204102e-01,7.742142677307128906e-01,7.216153144836425781e-01,6.159960627555847168e-01
5.891569852828979492e-01,6.141793131828308105e-01,6.566524505615234375e-01,6.571500897407531738e-01,6.804426908493041992e-01,7.042894959449768066e-01,7.404112219810485840e-01,7.615319490432739258e-01,7.820061445236206055e-01,8.003606200218200684e-01,8.188355565071105957e-01,8.348250389099121094e-01,8.441634774208068848e-01,8.469464778900146484e-01,8.495361208915710449e-01,8.447180986404418945e-01,8.299680352210998535e-01,7.903585433959960938e-01,7.206383943557739258e-01,6.669476032257080078e-01,6.579442024230957031e-01,6.847319602966308594e-01,6.555867195129394531e-01,6.459102630615234375e-01,6.956422924995422363e-01,7.489544749259948730e-01,8.106230497360229492e-01,8.445021510124206543e-01,8.647732734680175781e-01,8.832991123199462891e-01,8.949280977249145508e-01,9.008041620254516602e-01,9.034426808357238770e-01,9.034204483032226562e-01,9.037446975708007812e-01,9.037273526191711426e-01,9.037120938301086426e-01,9.037107229232788086e-01,9.037103652954101562e-01,9.037098884582519531e-01,9.037088751792907715e-01,9.037077426910400391e-01,9.037067890167236328e-01,9.037057161331176758e-01,9.037045240402221680e-01,9.037036895751953125e-01,9.037024974822998047e-01,9.037015438079833984e-01,9.037004709243774414e-01,9.036993980407714844e-01,9.036982655525207520e-01,9.036971926689147949e-01,9.036961793899536133e-01,9.036949872970581055e-01,9.036941528320312500e-01,9.036929607391357422e-01,9.036918878555297852e-01,9.036908745765686035e-01,9.036898612976074219e-01,9.036887884140014648e-01,9.036879539489746094e-01,9.036880731582641602e-01,9.037040472030639648e-01,9.037334322929382324e-01,9.035477638244628906e-01,9.029994606971740723e-01,9.019619822502136230e-01,9.002497196197509766e-01,8.977000713348388672e-01,8.936430215835571289e-01,8.874095082283020020e-01,8.790729045867919922e-01,8.698123693466186523e-01,8.568376898765563965e-01,8.282492160797119141e-01,8.071022033691406250e-01,7.996399402618408203e-01,7.733837366104125977e-01,7.204576730728149414e-01,6.144744157791137695e-01
5.884076952934265137e-01,6.125009655952453613e-01,6.548561453819274902e-01,6.552603840827941895e-01,6.780953407287597656e-01,7.014915943145751953e-01,7.376123666763305664e-01,7.587685585021972656e-01,7.793040275573730469e-01,7.977035045623779297e-01,8.162236213684082031e-01,8.333002328872680664e-01,8.427297472953796387e-01,8.484486341476440430e-01,8.506634235382080078e-01,8.444420099258422852e-01,8.315095901489257812e-01,7.954816818237304688e-01,7.373008728027343750e-01,6.803345680236816406e-01,6.726421117782592773e-01,6.966694593429565430e-01,6.589719653129577637e-01,6.632552146911621094e-01,7.034974098205566406e-01,7.721763849258422852e-01,8.060677647590637207e-01,8.428422808647155762e-01,8.674705028533935547e-01,8.810828328132629395e-01,8.931028246879577637e-01,8.994547128677368164e-01,9.017017483711242676e-01,9.018523693084716797e-01,9.019554853439331055e-01,9.019254446029663086e-01,9.019110202789306641e-01,9.019064307212829590e-01,9.019001722335815430e-01,9.018939137458801270e-01,9.018878936767578125e-01,9.018816947937011719e-01,9.018757343292236328e-01,9.018696546554565430e-01,9.018636941909790039e-01,9.018574953079223633e-01,9.018514752388000488e-01,9.018454551696777344e-01,9.018393754959106445e-01,9.018334150314331055e-01,9.018272161483764648e-01,9.018212556838989258e-01,9.018151164054870605e-01,9.018090963363647461e-01,9.018031358718872070e-01,9.017968773841857910e-01,9.017910361289978027e-01,9.017850160598754883e-01,9.017789363861083984e-01,9.017728567123413086e-01,9.017670154571533203e-01,9.017617702484130859e-01,9.017755985260009766e-01,9.018003940582275391e-01,9.016267657279968262e-01,9.011572599411010742e-01,9.001973867416381836e-01,8.985999226570129395e-01,8.961439728736877441e-01,8.921533823013305664e-01,8.860812783241271973e-01,8.775867223739624023e-01,8.682922124862670898e-01,8.554399013519287109e-01,8.269665241241455078e-01,8.060632944107055664e-01,7.985032796859741211e-01,7.719303369522094727e-01,7.191744446754455566e-01,6.127006411552429199e-01
5.864666104316711426e-01,6.097776889801025391e-01,6.518765687942504883e-01,6.520047783851623535e-01,6.745812892913818359e-01,6.974240541458129883e-01,7.329906225204467773e-01,7.536312341690063477e-01,7.734889984130859375e-01,7.914068698883056641e-01,8.097587227821350098e-01,8.263623714447021484e-01,8.353856801986694336e-01,8.444410562515258789e-01,8.500237464904785156e-01,8.418522477149963379e-01,8.334655761718750000e-01,7.948186397552490234e-01,7.534726858139038086e-01,7.029020190238952637e-01,6.794610023498535156e-01,6.908975839614868164e-01,6.734358072280883789e-01,6.680216193199157715e-01,7.162302136421203613e-01,7.698010802268981934e-01,8.099137544631958008e-01,8.381310701370239258e-01,8.618232607841491699e-01,8.764826059341430664e-01,8.882874846458435059e-01,8.945285081863403320e-01,8.947912454605102539e-01,8.954964876174926758e-01,8.954560756683349609e-01,8.954252600669860840e-01,8.954111337661743164e-01,8.954020142555236816e-01,8.953928947448730469e-01,8.953837156295776367e-01,8.953745365142822266e-01,8.953655958175659180e-01,8.953564167022705078e-01,8.953473567962646484e-01,8.953381776809692383e-01,8.953292965888977051e-01,8.953200578689575195e-01,8.953109979629516602e-01,8.953019976615905762e-01,8.952927589416503906e-01,8.952839374542236328e-01,8.952747583389282227e-01,8.952656388282775879e-01,8.952566385269165039e-01,8.952474594116210938e-01,8.952385187149047852e-01,8.952293992042541504e-01,8.952203989028930664e-01,8.952113986015319824e-01,8.952022194862365723e-01,8.951930999755859375e-01,8.951842188835144043e-01,8.951929807662963867e-01,8.952100872993469238e-01,8.950750231742858887e-01,8.946256041526794434e-01,8.938159346580505371e-01,8.923491239547729492e-01,8.900253772735595703e-01,8.861798048019409180e-01,8.802856802940368652e-01,8.720734119415283203e-01,8.626444339752197266e-01,8.496474027633666992e-01,8.213590383529663086e-01,8.010417819023132324e-01,7.939170598983764648e-01,7.675387263298034668e-01,7.151736021041870117e-01,6.077090501785278320e-01
5.825375318527221680e-01,6.038818359375000000e-01,6.454440951347351074e-01,6.448003053665161133e-01,6.661968827247619629e-01,6.881833672523498535e-01,7.229005098342895508e-01,7.430778145790100098e-01,7.622737884521484375e-01,7.793034315109252930e-01,7.969669103622436523e-01,8.124137520790100098e-01,8.235362172126770020e-01,8.321382999420166016e-01,8.385444879531860352e-01,8.328367471694946289e-01,8.289065361022949219e-01,7.994673252105712891e-01,7.528806924819946289e-01,7.114333510398864746e-01,6.875120997428894043e-01,6.775890588760375977e-01,6.768940091133117676e-01,6.773585081100463867e-01,7.148908972740173340e-01,7.686309218406677246e-01,8.049293756484985352e-01,8.288588523864746094e-01,8.509958386421203613e-01,8.662958145141601562e-01,8.779141902923583984e-01,8.835272789001464844e-01,8.843218088150024414e-01,8.846064805984497070e-01,8.845351934432983398e-01,8.845022916793823242e-01,8.844800591468811035e-01,8.844599723815917969e-01,8.844395875930786133e-01,8.844194412231445312e-01,8.843992948532104492e-01,8.843790292739868164e-01,8.843588232994079590e-01,8.843386173248291016e-01,8.843184709548950195e-01,8.842983245849609375e-01,8.842781782150268555e-01,8.842580318450927734e-01,8.842376470565795898e-01,8.842176198959350586e-01,8.841975927352905273e-01,8.841772675514221191e-01,8.841571807861328125e-01,8.841370344161987305e-01,8.841168284416198730e-01,8.840967416763305664e-01,8.840766549110412598e-01,8.840564489364624023e-01,8.840364217758178711e-01,8.840162754058837891e-01,8.839958906173706055e-01,8.839759230613708496e-01,8.839864134788513184e-01,8.840318918228149414e-01,8.839048147201538086e-01,8.835552930831909180e-01,8.828725218772888184e-01,8.814052343368530273e-01,8.790526390075683594e-01,8.753622770309448242e-01,8.695304989814758301e-01,8.616464138031005859e-01,8.525950908660888672e-01,8.395719528198242188e-01,8.107901811599731445e-01,7.916806340217590332e-01,7.853873968124389648e-01,7.605792880058288574e-01,7.071938514709472656e-01,6.017384529113769531e-01
5.753734111785888672e-01,5.940431356430053711e-01,6.345338821411132812e-01,6.318060159683227539e-01,6.512055397033691406e-01,6.719558835029602051e-01,7.057628035545349121e-01,7.251137495040893555e-01,7.435495853424072266e-01,7.598542571067810059e-01,7.765939235687255859e-01,7.911486625671386719e-01,8.053385019302368164e-01,8.145748376846313477e-01,8.198115825653076172e-01,8.166214227676391602e-01,8.054104447364807129e-01,7.762579917907714844e-01,7.386796474456787109e-01,6.967353820800781250e-01,6.760902404785156250e-01,6.656682491302490234e-01,6.707471609115600586e-01,6.757268905639648438e-01,6.995332241058349609e-01,7.502005696296691895e-01,7.833591699600219727e-01,8.096109628677368164e-01,8.298473954200744629e-01,8.477840423583984375e-01,8.567816019058227539e-01,8.597054481506347656e-01,8.605156540870666504e-01,8.610430359840393066e-01,8.609415292739868164e-01,8.608851432800292969e-01,8.608421683311462402e-01,8.608051538467407227e-01,8.607681989669799805e-01,8.607312440872192383e-01,8.606942892074584961e-01,8.606573343276977539e-01,8.606202602386474609e-01,8.605833053588867188e-01,8.605464696884155273e-01,8.605095744132995605e-01,8.604726195335388184e-01,8.604356050491333008e-01,8.603988289833068848e-01,8.603618741035461426e-01,8.603248596191406250e-01,8.602880239486694336e-01,8.602511286735534668e-01,8.602142333984375000e-01,8.601772785186767578e-01,8.601405620574951172e-01,8.601036071777343750e-01,8.600667715072631836e-01,8.600299358367919922e-01,8.599930405616760254e-01,8.599561452865600586e-01,8.599179983139038086e-01,8.599231243133544922e-01,8.599564433097839355e-01,8.598058819770812988e-01,8.595385551452636719e-01,8.591363430023193359e-01,8.579524755477905273e-01,8.558989763259887695e-01,8.521350622177124023e-01,8.465132713317871094e-01,8.387197256088256836e-01,8.300011157989501953e-01,8.169902563095092773e-01,7.877328991889953613e-01,7.700037956237792969e-01,7.670572400093078613e-01,7.439023256301879883e-01,6.925587654113769531e-01,5.922734737396240234e-01
5.643809437751770020e-01,5.786222219467163086e-01,6.173454523086547852e-01,6.113572120666503906e-01,6.278052926063537598e-01,6.468126773834228516e-01,6.787359714508056641e-01,6.960874795913696289e-01,7.121105194091796875e-01,7.260502576828002930e-01,7.400586605072021484e-01,7.542799115180969238e-01,7.662698626518249512e-01,7.742910385131835938e-01,7.792401313781738281e-01,7.791041135787963867e-01,7.639291286468505859e-01,7.369085550308227539e-01,7.228740453720092773e-01,6.762300729751586914e-01,6.451640725135803223e-01,6.369593143463134766e-01,6.409828662872314453e-01,6.402548551559448242e-01,6.716645956039428711e-01,7.161868810653686523e-01,7.440211176872253418e-01,7.702366113662719727e-01,7.917830944061279297e-01,8.056207895278930664e-01,8.136528134346008301e-01,8.176741600036621094e-01,8.179831504821777344e-01,8.184278607368469238e-01,8.183220028877258301e-01,8.182539939880371094e-01,8.181915283203125000e-01,8.181326389312744141e-01,8.180738687515258789e-01,8.180150985717773438e-01,8.179560899734497070e-01,8.178970813751220703e-01,8.178384304046630859e-01,8.177796602249145508e-01,8.177208900451660156e-01,8.176618814468383789e-01,8.176032304763793945e-01,8.175444602966308594e-01,8.174856901168823242e-01,8.174270391464233398e-01,8.173682093620300293e-01,8.173094987869262695e-01,8.172508478164672852e-01,8.171919584274291992e-01,8.171333074569702148e-01,8.170745372772216797e-01,8.170157670974731445e-01,8.169573545455932617e-01,8.168984055519104004e-01,8.168396949768066406e-01,8.167812228202819824e-01,8.167214393615722656e-01,8.167136907577514648e-01,8.166860938072204590e-01,8.164918422698974609e-01,8.160853385925292969e-01,8.156284093856811523e-01,8.143172264099121094e-01,8.124487400054931641e-01,8.095014095306396484e-01,8.042803406715393066e-01,7.970220446586608887e-01,7.894166111946105957e-01,7.773805856704711914e-01,7.479092478752136230e-01,7.329904437065124512e-01,7.344166636466979980e-01,7.134191393852233887e-01,6.685302853584289551e-01,5.795611739158630371e-01
5.498359203338623047e-01,5.541179776191711426e-01,5.890437364578247070e-01,5.790368318557739258e-01,5.922471880912780762e-01,6.085574030876159668e-01,6.381728649139404297e-01,6.527645587921142578e-01,6.666536331176757812e-01,6.782951354980468750e-01,6.898082494735717773e-01,7.029485702514648438e-01,7.130246162414550781e-01,7.179861664772033691e-01,7.174206376075744629e-01,7.249286770820617676e-01,6.982647180557250977e-01,6.794366240501403809e-01,6.734846234321594238e-01,6.236191987991333008e-01,5.989280939102172852e-01,5.974443554878234863e-01,5.966194272041320801e-01,5.855494737625122070e-01,6.392043828964233398e-01,6.669545769691467285e-01,6.848579645156860352e-01,7.096227407455444336e-01,7.292143106460571289e-01,7.423682212829589844e-01,7.468035817146301270e-01,7.510486841201782227e-01,7.513663172721862793e-01,7.516809105873107910e-01,7.515048980712890625e-01,7.514061927795410156e-01,7.513245344161987305e-01,7.512421011924743652e-01,7.511597871780395508e-01,7.510774135589599609e-01,7.509950995445251465e-01,7.509130239486694336e-01,7.508306503295898438e-01,7.507483959197998047e-01,7.506661415100097656e-01,7.505838871002197266e-01,7.505017518997192383e-01,7.504193782806396484e-01,7.503373622894287109e-01,7.502552270889282227e-01,7.501729726791381836e-01,7.500908374786376953e-01,7.500088214874267578e-01,7.499265074729919434e-01,7.498443722724914551e-01,7.497622966766357422e-01,7.496800422668457031e-01,7.495979070663452148e-01,7.495161294937133789e-01,7.494339942932128906e-01,7.493510246276855469e-01,7.492653131484985352e-01,7.492405176162719727e-01,7.491623163223266602e-01,7.490086555480957031e-01,7.487274408340454102e-01,7.482129335403442383e-01,7.468245625495910645e-01,7.445606589317321777e-01,7.411956787109375000e-01,7.365012764930725098e-01,7.301460504531860352e-01,7.241520285606384277e-01,7.128841280937194824e-01,6.834444999694824219e-01,6.727122068405151367e-01,6.816118955612182617e-01,6.628438234329223633e-01,6.335927844047546387e-01,5.563708543777465820e-01
5.325869321823120117e-01,5.238304138183593750e-01,5.546784400939941406e-01,5.387862920761108398e-01,5.466822981834411621e-01,5.595361590385437012e-01,5.837621092796325684e-01,5.949370861053466797e-01,6.053940653800964355e-01,6.134464740753173828e-01,6.213647127151489258e-01,6.309393644332885742e-01,6.374295949935913086e-01,6.405655741691589355e-01,6.406356096267700195e-01,6.454082727432250977e-01,6.204941868782043457e-01,5.998247861862182617e-01,6.062827110290527344e-01,5.653525590896606445e-01,5.387796759605407715e-01,5.460986495018005371e-01,5.463033914566040039e-01,5.345506072044372559e-01,5.747474431991577148e-01,6.003708243370056152e-01,6.123912334442138672e-01,6.266822814941406250e-01,6.435947418212890625e-01,6.533261537551879883e-01,6.594098210334777832e-01,6.604520678520202637e-01,6.619775891304016113e-01,6.619854569435119629e-01,6.618553400039672852e-01,6.617540717124938965e-01,6.616679430007934570e-01,6.615804433822631836e-01,6.614928841590881348e-01,6.614056229591369629e-01,6.613182425498962402e-01,6.612306237220764160e-01,6.611434221267700195e-01,6.610559821128845215e-01,6.609686613082885742e-01,6.608812212944030762e-01,6.607940793037414551e-01,6.607066988945007324e-01,6.606193184852600098e-01,6.605321168899536133e-01,6.604447960853576660e-01,6.603577136993408203e-01,6.602703928947448730e-01,6.601832509040832520e-01,6.600961089134216309e-01,6.600089073181152344e-01,6.599215865135192871e-01,6.598346829414367676e-01,6.597474813461303711e-01,6.596604585647583008e-01,6.595727205276489258e-01,6.594801545143127441e-01,6.594146490097045898e-01,6.593540906906127930e-01,6.591427326202392578e-01,6.589329242706298828e-01,6.586126089096069336e-01,6.574542522430419922e-01,6.554569005966186523e-01,6.522753834724426270e-01,6.490560770034790039e-01,6.442283391952514648e-01,6.403611898422241211e-01,6.306698918342590332e-01,6.031963825225830078e-01,5.958243608474731445e-01,6.114324927330017090e-01,5.966807603836059570e-01,5.878767967224121094e-01,5.268071293830871582e-01
5.116007328033447266e-01,4.894219934940338135e-01,5.142398476600646973e-01,4.909915030002593994e-01,4.925749301910400391e-01,5.011562108993530273e-01,5.197589397430419922e-01,5.277091264724731445e-01,5.348566770553588867e-01,5.396586060523986816e-01,5.445258617401123047e-01,5.504168272018432617e-01,5.552148818969726562e-01,5.553308725357055664e-01,5.591819286346435547e-01,5.590503215789794922e-01,5.395814180374145508e-01,5.186382532119750977e-01,5.183317661285400391e-01,5.085175633430480957e-01,4.762269258499145508e-01,4.853346347808837891e-01,4.946983754634857178e-01,4.862140715122222900e-01,5.078341960906982422e-01,5.250689387321472168e-01,5.354271531105041504e-01,5.446167588233947754e-01,5.564499497413635254e-01,5.620990395545959473e-01,5.680465698242187500e-01,5.687695741653442383e-01,5.698704123497009277e-01,5.696364045143127441e-01,5.695431232452392578e-01,5.694532394409179688e-01,5.693656802177429199e-01,5.692789554595947266e-01,5.691922903060913086e-01,5.691055059432983398e-01,5.690186023712158203e-01,5.689317584037780762e-01,5.688450932502746582e-01,5.687584280967712402e-01,5.686717629432678223e-01,5.685852169990539551e-01,5.684986114501953125e-01,5.684121251106262207e-01,5.683254599571228027e-01,5.682390332221984863e-01,5.681524276733398438e-01,5.680659413337707520e-01,5.679795742034912109e-01,5.678930878639221191e-01,5.678066015243530273e-01,5.677202343940734863e-01,5.676338076591491699e-01,5.675474405288696289e-01,5.674610733985900879e-01,5.673747658729553223e-01,5.672881007194519043e-01,5.671955943107604980e-01,5.671100616455078125e-01,5.670694708824157715e-01,5.670377612113952637e-01,5.669615268707275391e-01,5.667221546173095703e-01,5.661801695823669434e-01,5.646696090698242188e-01,5.622387528419494629e-01,5.591773390769958496e-01,5.555623769760131836e-01,5.536202788352966309e-01,5.454431772232055664e-01,5.213833451271057129e-01,5.172744393348693848e-01,5.382993817329406738e-01,5.279752612113952637e-01,5.396118164062500000e-01,4.964715838432312012e-01
4.905960261821746826e-01,4.557290077209472656e-01,4.713625609874725342e-01,4.409449398517608643e-01,4.362800717353820801e-01,4.406364560127258301e-01,4.540593326091766357e-01,4.581390321254730225e-01,4.624695777893066406e-01,4.647716581821441650e-01,4.671702682971954346e-01,4.703916311264038086e-01,4.735964238643646240e-01,4.748587608337402344e-01,4.780307412147521973e-01,4.780858159065246582e-01,4.700339436531066895e-01,4.544526934623718262e-01,4.545334577560424805e-01,4.455772936344146729e-01,4.284043610095977783e-01,4.246372282505035400e-01,4.343702197074890137e-01,4.326085448265075684e-01,4.341348409652709961e-01,4.539139270782470703e-01,4.608020782470703125e-01,4.682010114192962646e-01,4.752526879310607910e-01,4.794995486736297607e-01,4.812184572219848633e-01,4.813276827335357666e-01,4.817864298820495605e-01,4.817798435688018799e-01,4.816918373107910156e-01,4.816084206104278564e-01,4.815355241298675537e-01,4.814628064632415771e-01,4.813900291919708252e-01,4.813171923160552979e-01,4.812443256378173828e-01,4.811715185642242432e-01,4.810988903045654297e-01,4.810260832309722900e-01,4.809536933898925781e-01,4.808808863162994385e-01,4.808084070682525635e-01,4.807356297969818115e-01,4.806632101535797119e-01,4.805906116962432861e-01,4.805181026458740234e-01,4.804454445838928223e-01,4.803730249404907227e-01,4.803006649017333984e-01,4.802280962467193604e-01,4.801555871963500977e-01,4.800832569599151611e-01,4.800109565258026123e-01,4.799385070800781250e-01,4.798661768436431885e-01,4.797936975955963135e-01,4.797177016735076904e-01,4.796347618103027344e-01,4.795698523521423340e-01,4.795563817024230957e-01,4.795634448528289795e-01,4.794863760471343994e-01,4.793965220451354980e-01,4.788256287574768066e-01,4.777988195419311523e-01,4.768768846988677979e-01,4.753148257732391357e-01,4.752851128578186035e-01,4.694368243217468262e-01,4.494398832321166992e-01,4.482003748416900635e-01,4.717469215393066406e-01,4.687441587448120117e-01,4.949500858783721924e-01,4.690739810466766357e-01
4.694173336029052734e-01,4.224281907081604004e-01,4.285602271556854248e-01,3.950831294059753418e-01,3.841188251972198486e-01,3.856837153434753418e-01,3.960982561111450195e-01,3.990364074707031250e-01,4.020625650882720947e-01,4.032447338104248047e-01,4.043951034545898438e-01,4.054404497146606445e-01,4.069889783859252930e-01,4.079115688800811768e-01,4.079689085483551025e-01,4.062006473541259766e-01,4.045127630233764648e-01,3.908724188804626465e-01,3.902619183063507080e-01,3.946297466754913330e-01,3.815020918846130371e-01,3.741665780544281006e-01,3.860402703285217285e-01,3.882360160350799561e-01,3.857136666774749756e-01,3.928541839122772217e-01,4.025354385375976562e-01,4.018026292324066162e-01,4.055247306823730469e-01,4.094195365905761719e-01,4.096670746803283691e-01,4.102232456207275391e-01,4.093608260154724121e-01,4.095214009284973145e-01,4.094785451889038086e-01,4.094175100326538086e-01,4.093599617481231689e-01,4.093023538589477539e-01,4.092446863651275635e-01,4.091869294643402100e-01,4.091293811798095703e-01,4.090718328952789307e-01,4.090141355991363525e-01,4.089565873146057129e-01,4.088990688323974609e-01,4.088416993618011475e-01,4.087841510772705078e-01,4.087266027927398682e-01,4.086692333221435547e-01,4.086118936538696289e-01,4.085543751716613770e-01,4.084969758987426758e-01,4.084395766258239746e-01,4.083822965621948242e-01,4.083249568939208984e-01,4.082677364349365234e-01,4.082101583480834961e-01,4.081531763076782227e-01,4.080957174301147461e-01,4.080386161804199219e-01,4.079820513725280762e-01,4.079245328903198242e-01,4.078698456287384033e-01,4.078198671340942383e-01,4.077890515327453613e-01,4.077699780464172363e-01,4.077901244163513184e-01,4.076962769031524658e-01,4.073154330253601074e-01,4.064811170101165771e-01,4.056400060653686523e-01,4.045539498329162598e-01,4.052058160305023193e-01,4.015101492404937744e-01,3.856439888477325439e-01,3.876546621322631836e-01,4.134750068187713623e-01,4.176953136920928955e-01,4.560020267963409424e-01,4.460467100143432617e-01
4.513970911502838135e-01,3.938282132148742676e-01,3.929918706417083740e-01,3.573021888732910156e-01,3.413683176040649414e-01,3.406593799591064453e-01,3.481054306030273438e-01,3.498260974884033203e-01,3.515233993530273438e-01,3.519545197486877441e-01,3.524413108825683594e-01,3.529376983642578125e-01,3.537125587463378906e-01,3.542460501194000244e-01,3.540069460868835449e-01,3.549318015575408936e-01,3.534584045410156250e-01,3.469943404197692871e-01,3.426671028137207031e-01,3.458332419395446777e-01,3.394591808319091797e-01,3.347833156585693359e-01,3.411052227020263672e-01,3.438730835914611816e-01,3.432936370372772217e-01,3.464965820312500000e-01,3.495060205459594727e-01,3.514294028282165527e-01,3.515002131462097168e-01,3.535148203372955322e-01,3.536538481712341309e-01,3.535180687904357910e-01,3.534481823444366455e-01,3.533623218536376953e-01,3.533403277397155762e-01,3.532978594303131104e-01,3.532568812370300293e-01,3.532156050205230713e-01,3.531745076179504395e-01,3.531333208084106445e-01,3.530924320220947266e-01,3.530511856079101562e-01,3.530099391937255859e-01,3.529691100120544434e-01,3.529280722141265869e-01,3.528871536254882812e-01,3.528461158275604248e-01,3.528051078319549561e-01,3.527641594409942627e-01,3.527231812477111816e-01,3.526820540428161621e-01,3.526412248611450195e-01,3.526004552841186523e-01,3.525595664978027344e-01,3.525185585021972656e-01,3.524776399135589600e-01,3.524367213249206543e-01,3.523960411548614502e-01,3.523550927639007568e-01,3.523142039775848389e-01,3.522738218307495117e-01,3.522333502769470215e-01,3.521903455257415771e-01,3.521615266799926758e-01,3.521227836608886719e-01,3.520675897598266602e-01,3.520716130733489990e-01,3.521160483360290527e-01,3.520653247833251953e-01,3.519878387451171875e-01,3.517283797264099121e-01,3.512725830078125000e-01,3.521085977554321289e-01,3.494794368743896484e-01,3.362926542758941650e-01,3.391614556312561035e-01,3.653131127357482910e-01,3.756771385669708252e-01,4.224376678466796875e-01,4.258154034614562988e-01
4.349681138992309570e-01,3.689451813697814941e-01,3.612756729125976562e-01,3.251666426658630371e-01,3.061311244964599609e-01,3.047574162483215332e-01,3.108630776405334473e-01,3.122484683990478516e-01,3.134073913097381592e-01,3.134238719940185547e-01,3.133984506130218506e-01,3.133128285408020020e-01,3.136436939239501953e-01,3.134275078773498535e-01,3.128886520862579346e-01,3.138235211372375488e-01,3.134275078773498535e-01,3.099860548973083496e-01,3.096812367439270020e-01,3.093129396438598633e-01,3.080915808677673340e-01,3.057563900947570801e-01,3.071071505546569824e-01,3.081445097923278809e-01,3.097158074378967285e-01,3.095363676548004150e-01,3.103517293930053711e-01,3.122301697731018066e-01,3.125716447830200195e-01,3.126937747001647949e-01,3.133889436721801758e-01,3.131949305534362793e-01,3.130937218666076660e-01,3.130553066730499268e-01,3.130178451538085938e-01,3.129893541336059570e-01,3.129596114158630371e-01,3.129296898841857910e-01,3.128997981548309326e-01,3.128699958324432373e-01,3.128402233123779297e-01,3.128102421760559082e-01,3.127805590629577637e-01,3.127506375312805176e-01,3.127210140228271484e-01,3.126911222934722900e-01,3.126612901687622070e-01,3.126314282417297363e-01,3.126018643379211426e-01,3.125720620155334473e-01,3.125423491001129150e-01,3.125126361846923828e-01,3.124828338623046875e-01,3.124530911445617676e-01,3.124234080314636230e-01,3.123936951160430908e-01,3.123641312122344971e-01,3.123344182968139648e-01,3.123046755790710449e-01,3.122749924659729004e-01,3.122456669807434082e-01,3.122159540653228760e-01,3.121868371963500977e-01,3.121550083160400391e-01,3.121244907379150391e-01,3.120944499969482422e-01,3.120540976524353027e-01,3.120024800300598145e-01,3.119778931140899658e-01,3.118609488010406494e-01,3.117251396179199219e-01,3.115067481994628906e-01,3.122494518756866455e-01,3.104222416877746582e-01,2.992308139801025391e-01,3.025891184806823730e-01,3.288207054138183594e-01,3.441895246505737305e-01,3.968259990215301514e-01,4.101017117500305176e-01
4.212124347686767578e-01,3.491295278072357178e-01,3.364079892635345459e-01,2.999936044216156006e-01,2.791702747344970703e-01,2.769943773746490479e-01,2.819464206695556641e-01,2.831125259399414062e-01,2.839955985546112061e-01,2.838889956474304199e-01,2.838478684425354004e-01,2.838342785835266113e-01,2.838041782379150391e-01,2.837548255920410156e-01,2.838758230209350586e-01,2.839035689830780029e-01,2.838393747806549072e-01,2.834261357784271240e-01,2.816808819770812988e-01,2.814027369022369385e-01,2.827059030532836914e-01,2.802821397781372070e-01,2.806870639324188232e-01,2.814011573791503906e-01,2.824831008911132812e-01,2.829495668411254883e-01,2.820620834827423096e-01,2.836905121803283691e-01,2.835212647914886475e-01,2.830812633037567139e-01,2.833900451660156250e-01,2.833929955959320068e-01,2.833986282348632812e-01,2.833339571952819824e-01,2.832984030246734619e-01,2.832757234573364258e-01,2.832541167736053467e-01,2.832323312759399414e-01,2.832106351852416992e-01,2.831890881061553955e-01,2.831675112247467041e-01,2.831459045410156250e-01,2.831242084503173828e-01,2.831026911735534668e-01,2.830809652805328369e-01,2.830592691898345947e-01,2.830375432968139648e-01,2.830160558223724365e-01,2.829944193363189697e-01,2.829731106758117676e-01,2.829512953758239746e-01,2.829296886920928955e-01,2.829082310199737549e-01,2.828865945339202881e-01,2.828651070594787598e-01,2.828435897827148438e-01,2.828219532966613770e-01,2.828003764152526855e-01,2.827789187431335449e-01,2.827574014663696289e-01,2.827360630035400391e-01,2.827146649360656738e-01,2.826928496360778809e-01,2.826721966266632080e-01,2.826503217220306396e-01,2.826255559921264648e-01,2.826021611690521240e-01,2.825929522514343262e-01,2.825837135314941406e-01,2.825827002525329590e-01,2.825637459754943848e-01,2.824547290802001953e-01,2.830953001976013184e-01,2.817848622798919678e-01,2.718609571456909180e-01,2.751364111900329590e-01,3.007395267486572266e-01,3.195622265338897705e-01,3.762975633144378662e-01,3.975784778594970703e-01
4.091754257678985596e-01,3.324908018112182617e-01,3.159781098365783691e-01,2.799493074417114258e-01,2.584227621555328369e-01,2.558315694332122803e-01,2.600257992744445801e-01,2.610186040401458740e-01,2.617917060852050781e-01,2.617086172103881836e-01,2.616689205169677734e-01,2.616342902183532715e-01,2.616198658943176270e-01,2.616230845451354980e-01,2.615762948989868164e-01,2.615313529968261719e-01,2.617698311805725098e-01,2.614003717899322510e-01,2.608054876327514648e-01,2.606895864009857178e-01,2.610100209712982178e-01,2.608438432216644287e-01,2.602205276489257812e-01,2.606462538242340088e-01,2.607971131801605225e-01,2.613409757614135742e-01,2.613838911056518555e-01,2.612391412258148193e-01,2.615217566490173340e-01,2.613866329193115234e-01,2.613409757614135742e-01,2.613325119018554688e-01,2.612767815589904785e-01,2.612870335578918457e-01,2.612643837928771973e-01,2.612458765506744385e-01,2.612291574478149414e-01,2.612129449844360352e-01,2.611963152885437012e-01,2.611799240112304688e-01,2.611634135246276855e-01,2.611469626426696777e-01,2.611304521560668945e-01,2.611141800880432129e-01,2.610974311828613281e-01,2.610812187194824219e-01,2.610645890235900879e-01,2.610481977462768555e-01,2.610318064689636230e-01,2.610153555870056152e-01,2.609989643096923828e-01,2.609824538230895996e-01,2.609662413597106934e-01,2.609494328498840332e-01,2.609332501888275146e-01,2.609167098999023438e-01,2.609004378318786621e-01,2.608840465545654297e-01,2.608676254749298096e-01,2.608512043952941895e-01,2.608346641063690186e-01,2.608183026313781738e-01,2.608023583889007568e-01,2.607855498790740967e-01,2.607691586017608643e-01,2.607524096965789795e-01,2.607349157333374023e-01,2.607194185256958008e-01,2.607044577598571777e-01,2.606889307498931885e-01,2.606733441352844238e-01,2.605950236320495605e-01,2.611133754253387451e-01,2.600674927234649658e-01,2.511699497699737549e-01,2.544481158256530762e-01,2.794593274593353271e-01,3.009947538375854492e-01,3.605834841728210449e-01,3.876324594020843506e-01
3.991094231605529785e-01,3.188909590244293213e-01,2.997261881828308105e-01,2.643870711326599121e-01,2.423037886619567871e-01,2.394163310527801514e-01,2.430767714977264404e-01,2.439671456813812256e-01,2.446584403514862061e-01,2.445952594280242920e-01,2.445647716522216797e-01,2.445458173751831055e-01,2.445269823074340820e-01,2.445272207260131836e-01,2.445173561573028564e-01,2.443891167640686035e-01,2.445695698261260986e-01,2.445226013660430908e-01,2.442277371883392334e-01,2.440047860145568848e-01,2.443823814392089844e-01,2.438857257366180420e-01,2.441538274288177490e-01,2.441712617874145508e-01,2.441772818565368652e-01,2.444460391998291016e-01,2.444983124732971191e-01,2.442101538181304932e-01,2.442996501922607422e-01,2.443176209926605225e-01,2.443213462829589844e-01,2.443018555641174316e-01,2.442764639854431152e-01,2.442512214183807373e-01,2.442437708377838135e-01,2.442300915718078613e-01,2.442172169685363770e-01,2.442041635513305664e-01,2.441911995410919189e-01,2.441784441471099854e-01,2.441656589508056641e-01,2.441526353359222412e-01,2.441397011280059814e-01,2.441268861293792725e-01,2.441141903400421143e-01,2.441010773181915283e-01,2.440882623195648193e-01,2.440754473209381104e-01,2.440624535083770752e-01,2.440495491027832031e-01,2.440367341041564941e-01,2.440238893032073975e-01,2.440111637115478516e-01,2.439981102943420410e-01,2.439854145050048828e-01,2.439723014831542969e-01,2.439596951007843018e-01,2.439467310905456543e-01,2.439339458942413330e-01,2.439209520816802979e-01,2.439081370830535889e-01,2.438954114913940430e-01,2.438825964927673340e-01,2.438697516918182373e-01,2.438565492630004883e-01,2.438434660434722900e-01,2.438303828239440918e-01,2.438171207904815674e-01,2.438040673732757568e-01,2.437910139560699463e-01,2.437780499458312988e-01,2.437140941619873047e-01,2.441383898258209229e-01,2.433029115200042725e-01,2.352239787578582764e-01,2.385356128215789795e-01,2.629330158233642578e-01,2.863669991493225098e-01,3.479798436164855957e-01,3.796818256378173828e-01
3.908081650733947754e-01,3.077773451805114746e-01,2.866265773773193359e-01,2.519669532775878906e-01,2.295313179492950439e-01,2.264041304588317871e-01,2.296699881553649902e-01,2.304598391056060791e-01,2.310814559459686279e-01,2.310268878936767578e-01,2.310008406639099121e-01,2.309887111186981201e-01,2.309766411781311035e-01,2.309753298759460449e-01,2.309477627277374268e-01,2.309067249298095703e-01,2.309575080871582031e-01,2.309399247169494629e-01,2.308727502822875977e-01,2.308752834796905518e-01,2.307879924774169922e-01,2.308874726295471191e-01,2.308229506015777588e-01,2.307959794998168945e-01,2.308120429515838623e-01,2.308273017406463623e-01,2.308249175548553467e-01,2.308244407176971436e-01,2.308439612388610840e-01,2.308238446712493896e-01,2.307835817337036133e-01,2.307886779308319092e-01,2.307747006416320801e-01,2.307603657245635986e-01,2.307501733303070068e-01,2.307400107383728027e-01,2.307295203208923340e-01,2.307193279266357422e-01,2.307091355323791504e-01,2.306987643241882324e-01,2.306883335113525391e-01,2.306780815124511719e-01,2.306675612926483154e-01,2.306572198867797852e-01,2.306469082832336426e-01,2.306365966796875000e-01,2.306261658668518066e-01,2.306158542633056641e-01,2.306054830551147461e-01,2.305950820446014404e-01,2.305848896503448486e-01,2.305744588375091553e-01,2.305640578269958496e-01,2.305537164211273193e-01,2.305434048175811768e-01,2.305331528186798096e-01,2.305226624011993408e-01,2.305125594139099121e-01,2.305022180080413818e-01,2.304918467998504639e-01,2.304812669754028320e-01,2.304711043834686279e-01,2.304608225822448730e-01,2.304506897926330566e-01,2.304401993751525879e-01,2.304299771785736084e-01,2.304195761680603027e-01,2.304091453552246094e-01,2.303988933563232422e-01,2.303887009620666504e-01,2.303781211376190186e-01,2.303246259689331055e-01,2.306802570819854736e-01,2.300042212009429932e-01,2.225891947746276855e-01,2.259123921394348145e-01,2.498076260089874268e-01,2.745910584926605225e-01,3.377265334129333496e-01,3.731980025768280029e-01
3.838094770908355713e-01,2.985766232013702393e-01,2.758281528949737549e-01,2.418439388275146484e-01,2.191886901855468750e-01,2.158562242984771729e-01,2.188116610050201416e-01,2.195131480693817139e-01,2.200793623924255371e-01,2.200317084789276123e-01,2.200089991092681885e-01,2.200003266334533691e-01,2.199915647506713867e-01,2.199836075305938721e-01,2.199729681015014648e-01,2.199613749980926514e-01,2.199721932411193848e-01,2.199647128582000732e-01,2.199540436267852783e-01,2.199131250381469727e-01,2.199298441410064697e-01,2.198901474475860596e-01,2.199031114578247070e-01,2.198842167854309082e-01,2.198997139930725098e-01,2.198839485645294189e-01,2.198696434497833252e-01,2.198673784732818604e-01,2.198624014854431152e-01,2.198480069637298584e-01,2.198384404182434082e-01,2.198276817798614502e-01,2.198208570480346680e-01,2.198133170604705811e-01,2.198043763637542725e-01,2.197958827018737793e-01,2.197873890399932861e-01,2.197788357734680176e-01,2.197705209255218506e-01,2.197620272636413574e-01,2.197535634040832520e-01,2.197450101375579834e-01,2.197366952896118164e-01,2.197280526161193848e-01,2.197195589542388916e-01,2.197110950946807861e-01,2.197025120258331299e-01,2.196940481662750244e-01,2.196856141090393066e-01,2.196771502494812012e-01,2.196684181690216064e-01,2.196600139141082764e-01,2.196515500545501709e-01,2.196432352066040039e-01,2.196348309516906738e-01,2.196263074874877930e-01,2.196179628372192383e-01,2.196093499660491943e-01,2.196010649204254150e-01,2.195926308631896973e-01,2.195838093757629395e-01,2.195756435394287109e-01,2.195668518543243408e-01,2.195585668087005615e-01,2.195499837398529053e-01,2.195415496826171875e-01,2.195332348346710205e-01,2.195246815681457520e-01,2.195161581039428711e-01,2.195077836513519287e-01,2.194986045360565186e-01,2.194537222385406494e-01,2.197589278221130371e-01,2.192097902297973633e-01,2.123411297798156738e-01,2.156698405742645264e-01,2.391537129878997803e-01,2.649239897727966309e-01,3.292264342308044434e-01,3.678058981895446777e-01
3.778363764286041260e-01,2.908428907394409180e-01,2.668057680130004883e-01,2.334573864936828613e-01,2.106572389602661133e-01,2.071473002433776855e-01,2.098510265350341797e-01,2.104747295379638672e-01,2.109920680522918701e-01,2.109502851963043213e-01,2.109304666519165039e-01,2.109232246875762939e-01,2.109160423278808594e-01,2.109087109565734863e-01,2.109011411666870117e-01,2.108939886093139648e-01,2.108868062496185303e-01,2.108830213546752930e-01,2.108740210533142090e-01,2.108635306358337402e-01,2.108615338802337646e-01,2.108556330204010010e-01,2.108436822891235352e-01,2.108386456966400146e-01,2.108340263366699219e-01,2.108264863491058350e-01,2.108165621757507324e-01,2.108098864555358887e-01,2.108030319213867188e-01,2.107947766780853271e-01,2.107887864112854004e-01,2.107807397842407227e-01,2.107734382152557373e-01,2.107671797275543213e-01,2.107600867748260498e-01,2.107528448104858398e-01,2.107457518577575684e-01,2.107388973236083984e-01,2.107317745685577393e-01,2.107246518135070801e-01,2.107174396514892578e-01,2.107104659080505371e-01,2.107033133506774902e-01,2.106964290142059326e-01,2.106893062591552734e-01,2.106823027133941650e-01,2.106752395629882812e-01,2.106680572032928467e-01,2.106611132621765137e-01,2.106537818908691406e-01,2.106468379497528076e-01,2.106398940086364746e-01,2.106327116489410400e-01,2.106255888938903809e-01,2.106188237667083740e-01,2.106118202209472656e-01,2.106044888496398926e-01,2.105973660945892334e-01,2.105903923511505127e-01,2.105833292007446289e-01,2.105763852596282959e-01,2.105691730976104736e-01,2.105622291564941406e-01,2.105553150177001953e-01,2.105479538440704346e-01,2.105410099029541016e-01,2.105339169502258301e-01,2.105270624160766602e-01,2.105198800563812256e-01,2.105129361152648926e-01,2.105052471160888672e-01,2.104664146900177002e-01,2.107328474521636963e-01,2.102856636047363281e-01,2.038703262805938721e-01,2.071999609470367432e-01,2.303352653980255127e-01,2.568480670452117920e-01,3.220593333244323730e-01,3.632437884807586670e-01
3.726792931556701660e-01,2.842499613761901855e-01,2.591601908206939697e-01,2.263980507850646973e-01,2.035058736801147461e-01,1.998408436775207520e-01,2.023381590843200684e-01,2.028931379318237305e-01,2.033693790435791016e-01,2.033320963382720947e-01,2.033144831657409668e-01,2.033084928989410400e-01,2.033025324344635010e-01,2.032963633537292480e-01,2.032903432846069336e-01,2.032842338085174561e-01,2.032783031463623047e-01,2.032727897167205811e-01,2.032665610313415527e-01,2.032608985900878906e-01,2.032550871372222900e-01,2.032497823238372803e-01,2.032434046268463135e-01,2.032368481159210205e-01,2.032305002212524414e-01,2.032251060009002686e-01,2.032187581062316895e-01,2.032127380371093750e-01,2.032063603401184082e-01,2.032005786895751953e-01,2.031944394111633301e-01,2.031887471675872803e-01,2.031826972961425781e-01,2.031767368316650391e-01,2.031708359718322754e-01,2.031645476818084717e-01,2.031587660312652588e-01,2.031526863574981689e-01,2.031469941139221191e-01,2.031409144401550293e-01,2.031349241733551025e-01,2.031288743019104004e-01,2.031227648258209229e-01,2.031167149543762207e-01,2.031109035015106201e-01,2.031047344207763672e-01,2.030989825725555420e-01,2.030929327011108398e-01,2.030870318412780762e-01,2.030810713768005371e-01,2.030748724937438965e-01,2.030690908432006836e-01,2.030628919601440430e-01,2.030570507049560547e-01,2.030513882637023926e-01,2.030452191829681396e-01,2.030393183231353760e-01,2.030331790447235107e-01,2.030273675918579102e-01,2.030214667320251465e-01,2.030153572559356689e-01,2.030094563961029053e-01,2.030035555362701416e-01,2.029974162578582764e-01,2.029915750026702881e-01,2.029857933521270752e-01,2.029798030853271484e-01,2.029736936092376709e-01,2.029679119586944580e-01,2.029616832733154297e-01,2.029551267623901367e-01,2.029213905334472656e-01,2.031567990779876709e-01,2.027925848960876465e-01,1.967590153217315674e-01,2.000868320465087891e-01,2.229206562042236328e-01,2.500032782554626465e-01,3.159328103065490723e-01,3.593321740627288818e-01
3.681828975677490234e-01,2.785643935203552246e-01,2.526050209999084473e-01,2.203781604766845703e-01,1.974301338195800781e-01,1.936289370059967041e-01,1.959539949893951416e-01,1.964490413665771484e-01,1.968896389007568359e-01,1.968563795089721680e-01,1.968406736850738525e-01,1.968356966972351074e-01,1.968304216861724854e-01,1.968253254890441895e-01,1.968203485012054443e-01,1.968150138854980469e-01,1.968100070953369141e-01,1.968048810958862305e-01,1.967997550964355469e-01,1.967943906784057617e-01,1.967892646789550781e-01,1.967844069004058838e-01,1.967789828777313232e-01,1.967739760875701904e-01,1.967689692974090576e-01,1.967637836933135986e-01,1.967585980892181396e-01,1.967534124851226807e-01,1.967483758926391602e-01,1.967431604862213135e-01,1.967380940914154053e-01,1.967327892780303955e-01,1.967279016971588135e-01,1.967227756977081299e-01,1.967175900936126709e-01,1.967126131057739258e-01,1.967075169086456299e-01,1.967023611068725586e-01,1.966971158981323242e-01,1.966919898986816406e-01,1.966870129108428955e-01,1.966818273067474365e-01,1.966768205165863037e-01,1.966717243194580078e-01,1.966665089130401611e-01,1.966614723205566406e-01,1.966561973094940186e-01,1.966510713100433350e-01,1.966458857059478760e-01,1.966409683227539062e-01,1.966359019279479980e-01,1.966306269168853760e-01,1.966257095336914062e-01,1.966204643249511719e-01,1.966153383255004883e-01,1.966103911399841309e-01,1.966050863265991211e-01,1.966001093387603760e-01,1.965948641300201416e-01,1.965898871421813965e-01,1.965848207473754883e-01,1.965797543525695801e-01,1.965745091438293457e-01,1.965693235397338867e-01,1.965643763542175293e-01,1.965593397617340088e-01,1.965541839599609375e-01,1.965491473674774170e-01,1.965440511703491211e-01,1.965390145778656006e-01,1.965329647064208984e-01,1.965033113956451416e-01,1.967141032218933105e-01,1.964176893234252930e-01,1.907092332839965820e-01,1.940337121486663818e-01,2.166036367416381836e-01,2.441296279430389404e-01,3.106344938278198242e-01,3.559398651123046875e-01
3.642280697822570801e-01,2.736118137836456299e-01,2.469252943992614746e-01,2.151868045330047607e-01,1.922081708908081055e-01,1.882865726947784424e-01,1.904663145542144775e-01,1.909081637859344482e-01,1.913182139396667480e-01,1.912881731986999512e-01,1.912740767002105713e-01,1.912697553634643555e-01,1.912652254104614258e-01,1.912609040737152100e-01,1.912563145160675049e-01,1.912520229816436768e-01,1.912474632263183594e-01,1.912430822849273682e-01,1.912387311458587646e-01,1.912342607975006104e-01,1.912297904491424561e-01,1.912251710891723633e-01,1.912208199501037598e-01,1.912163794040679932e-01,1.912119984626770020e-01,1.912077963352203369e-01,1.912031173706054688e-01,1.911989450454711914e-01,1.911944746971130371e-01,1.911900341510772705e-01,1.911853253841400146e-01,1.911812424659729004e-01,1.911765635013580322e-01,1.911722123622894287e-01,1.911678016185760498e-01,1.911633014678955078e-01,1.911590099334716797e-01,1.911544501781463623e-01,1.911501288414001465e-01,1.911457777023315430e-01,1.911413371562957764e-01,1.911369264125823975e-01,1.911325156688690186e-01,1.911279559135437012e-01,1.911235153675079346e-01,1.911192536354064941e-01,1.911146938800811768e-01,1.911103129386901855e-01,1.911061108112335205e-01,1.911015212535858154e-01,1.910971999168395996e-01,1.910926103591918945e-01,1.910882890224456787e-01,1.910837888717651367e-01,1.910794675350189209e-01,1.910749673843383789e-01,1.910705864429473877e-01,1.910660862922668457e-01,1.910615861415863037e-01,1.910572648048400879e-01,1.910529434680938721e-01,1.910485327243804932e-01,1.910440921783447266e-01,1.910396516323089600e-01,1.910353600978851318e-01,1.910307109355926514e-01,1.910263001918792725e-01,1.910218596458435059e-01,1.910175681114196777e-01,1.910131275653839111e-01,1.910080909729003906e-01,1.909818351268768311e-01,1.911721825599670410e-01,1.909322440624237061e-01,1.855032444000244141e-01,1.888231635093688965e-01,2.111591994762420654e-01,2.390358150005340576e-01,3.060065507888793945e-01,3.529696464538574219e-01
3.607214093208312988e-01,2.692630887031555176e-01,2.419593930244445801e-01,2.106661498546600342e-01,1.876743137836456299e-01,1.836433708667755127e-01,1.856957972049713135e-01,1.860907375812530518e-01,1.864741146564483643e-01,1.864468753337860107e-01,1.864340603351593018e-01,1.864301264286041260e-01,1.864263415336608887e-01,1.864223778247833252e-01,1.864187121391296387e-01,1.864146888256072998e-01,1.864108741283416748e-01,1.864070296287536621e-01,1.864030063152313232e-01,1.863992512226104736e-01,1.863953173160552979e-01,1.863914132118225098e-01,1.863877177238464355e-01,1.863837242126464844e-01,1.863798499107360840e-01,1.863759458065032959e-01,1.863720715045928955e-01,1.863681972026824951e-01,1.863643527030944824e-01,1.863605380058288574e-01,1.863566935062408447e-01,1.863528192043304443e-01,1.863488852977752686e-01,1.863451898097991943e-01,1.863411962985992432e-01,1.863373219966888428e-01,1.863334476947784424e-01,1.863296329975128174e-01,1.863258183002471924e-01,1.863218843936920166e-01,1.863181293010711670e-01,1.863141059875488281e-01,1.863102316856384277e-01,1.863064169883728027e-01,1.863024830818176270e-01,1.862986981868743896e-01,1.862948536872863770e-01,1.862911283969879150e-01,1.862870454788208008e-01,1.862833499908447266e-01,1.862795352935791016e-01,1.862755715847015381e-01,1.862718462944030762e-01,1.862678229808807373e-01,1.862641274929046631e-01,1.862601637840270996e-01,1.862562298774719238e-01,1.862524449825286865e-01,1.862487196922302246e-01,1.862448155879974365e-01,1.862410008907318115e-01,1.862369477748870850e-01,1.862332522869110107e-01,1.862293183803558350e-01,1.862256228923797607e-01,1.862218379974365234e-01,1.862177252769470215e-01,1.862140595912933350e-01,1.862101852893829346e-01,1.862061321735382080e-01,1.862013936042785645e-01,1.861785352230072021e-01,1.863521635532379150e-01,1.861599087715148926e-01,1.809751391410827637e-01,1.842896640300750732e-01,2.064183950424194336e-01,2.345695793628692627e-01,3.019184172153472900e-01,3.503373265266418457e-01
3.576368093490600586e-01,2.654595375061035156e-01,2.376321256160736084e-01,2.067409455776214600e-01,1.837362945079803467e-01,1.796092689037322998e-01,1.815571784973144531e-01,1.819104552268981934e-01,1.822707355022430420e-01,1.822457313537597656e-01,1.822337210178375244e-01,1.822302639484405518e-01,1.822266578674316406e-01,1.822233796119689941e-01,1.822200417518615723e-01,1.822165846824645996e-01,1.822130978107452393e-01,1.822097599506378174e-01,1.822063922882080078e-01,1.822029650211334229e-01,1.821995675563812256e-01,1.821961402893066406e-01,1.821927130222320557e-01,1.821893453598022461e-01,1.821861565113067627e-01,1.821825802326202393e-01,1.821790933609008789e-01,1.821757256984710693e-01,1.821723282337188721e-01,1.821691393852233887e-01,1.821654438972473145e-01,1.821622550487518311e-01,1.821587085723876953e-01,1.821552813053131104e-01,1.821518540382385254e-01,1.821486055850982666e-01,1.821449697017669678e-01,1.821416914463043213e-01,1.821381747722625732e-01,1.821348369121551514e-01,1.821314692497253418e-01,1.821282505989074707e-01,1.821248531341552734e-01,1.821212172508239746e-01,1.821178495883941650e-01,1.821144223213195801e-01,1.821111142635345459e-01,1.821074783802032471e-01,1.821045577526092529e-01,1.821010112762451172e-01,1.820974946022033691e-01,1.820941567420959473e-01,1.820909380912780762e-01,1.820874214172363281e-01,1.820840239524841309e-01,1.820805668830871582e-01,1.820771992206573486e-01,1.820740103721618652e-01,1.820704936981201172e-01,1.820669770240783691e-01,1.820636987686157227e-01,1.820603311061859131e-01,1.820568442344665527e-01,1.820534765720367432e-01,1.820501983165740967e-01,1.820467710494995117e-01,1.820433437824249268e-01,1.820398271083831787e-01,1.820365488529205322e-01,1.820331811904907227e-01,1.820289492607116699e-01,1.820079386234283447e-01,1.821668148040771484e-01,1.820150613784790039e-01,1.770398914813995361e-01,1.803424954414367676e-01,2.022818922996520996e-01,2.306683063507080078e-01,2.983108162879943848e-01,3.479939699172973633e-01
3.552451133728027344e-01,2.622931897640228271e-01,2.341421544551849365e-01,2.035847306251525879e-01,1.805838942527770996e-01,1.763859987258911133e-01,1.782712042331695557e-01,1.786162555217742920e-01,1.789566278457641602e-01,1.789322495460510254e-01,1.789215505123138428e-01,1.789185106754302979e-01,1.789152920246124268e-01,1.789123117923736572e-01,1.789093911647796631e-01,1.789063513278961182e-01,1.789031922817230225e-01,1.789001226425170898e-01,1.788973808288574219e-01,1.788942813873291016e-01,1.788910925388336182e-01,1.788881719112396240e-01,1.788849830627441406e-01,1.788821518421173096e-01,1.788790524005889893e-01,1.788761317729949951e-01,1.788731217384338379e-01,1.788698732852935791e-01,1.788668036460876465e-01,1.788637638092041016e-01,1.788608729839324951e-01,1.788578331470489502e-01,1.788547337055206299e-01,1.788516640663146973e-01,1.788486838340759277e-01,1.788457036018371582e-01,1.788426339626312256e-01,1.788395047187805176e-01,1.788366138935089111e-01,1.788337230682373047e-01,1.788307428359985352e-01,1.788275539875030518e-01,1.788246631622314453e-01,1.788214147090911865e-01,1.788183450698852539e-01,1.788154542446136475e-01,1.788125038146972656e-01,1.788094937801361084e-01,1.788064539432525635e-01,1.788033843040466309e-01,1.788004040718078613e-01,1.787973046302795410e-01,1.787941455841064453e-01,1.787912845611572266e-01,1.787883043289184570e-01,1.787853538990020752e-01,1.787822842597961426e-01,1.787791550159454346e-01,1.787762641906738281e-01,1.787731647491455078e-01,1.787701547145843506e-01,1.787669360637664795e-01,1.787640452384948730e-01,1.787610650062561035e-01,1.787581145763397217e-01,1.787548959255218506e-01,1.787520051002502441e-01,1.787490248680114746e-01,1.787458956241607666e-01,1.787428557872772217e-01,1.787393689155578613e-01,1.787203848361968994e-01,1.788683831691741943e-01,1.787449419498443604e-01,1.739438176155090332e-01,1.772517263889312744e-01,1.989185512065887451e-01,2.273612618446350098e-01,2.952041625976562500e-01,3.462705016136169434e-01
3.522575497627258301e-01,2.585253119468688965e-01,2.300026714801788330e-01,1.997256278991699219e-01,1.766571104526519775e-01,1.722863018512725830e-01,1.739258468151092529e-01,1.741943955421447754e-01,1.744941771030426025e-01,1.744739115238189697e-01,1.744644641876220703e-01,1.744617223739624023e-01,1.744592487812042236e-01,1.744564473628997803e-01,1.744537651538848877e-01,1.744510233402252197e-01,1.744484901428222656e-01,1.744456887245178223e-01,1.744430363178253174e-01,1.744405925273895264e-01,1.744377613067626953e-01,1.744352877140045166e-01,1.744324862957000732e-01,1.744300723075866699e-01,1.744273900985717773e-01,1.744246482849121094e-01,1.744219660758972168e-01,1.744191646575927734e-01,1.744165420532226562e-01,1.744140386581420898e-01,1.744112074375152588e-01,1.744087040424346924e-01,1.744058728218078613e-01,1.744033396244049072e-01,1.744007468223571777e-01,1.743978857994079590e-01,1.743954122066497803e-01,1.743927001953125000e-01,1.743901371955871582e-01,1.743875145912170410e-01,1.743848621845245361e-01,1.743822097778320312e-01,1.743795275688171387e-01,1.743768453598022461e-01,1.743741631507873535e-01,1.743715405464172363e-01,1.743688881397247314e-01,1.743662655353546143e-01,1.743637025356292725e-01,1.743608713150024414e-01,1.743582487106323242e-01,1.743556857109069824e-01,1.743529736995697021e-01,1.743503808975219727e-01,1.743478775024414062e-01,1.743451356887817383e-01,1.743425428867340088e-01,1.743399798870086670e-01,1.743372082710266113e-01,1.743343472480773926e-01,1.743316054344177246e-01,1.743291616439819336e-01,1.743264496326446533e-01,1.743239164352416992e-01,1.743212938308715820e-01,1.743185222148895264e-01,1.743160784244537354e-01,1.743134260177612305e-01,1.743105351924896240e-01,1.743080914020538330e-01,1.743049025535583496e-01,1.742870211601257324e-01,1.744297742843627930e-01,1.743081510066986084e-01,1.696796119213104248e-01,1.730746030807495117e-01,1.948002576828002930e-01,2.234535217285156250e-01,2.916887104511260986e-01,3.432699441909790039e-01
