5.886812210083007812e-01,6.142358779907226562e-01,6.568537354469299316e-01,6.576721668243408203e-01,6.812345981597900391e-01,7.054659128189086914e-01,7.424919605255126953e-01,7.633661627769470215e-01,7.750046253204345703e-01,7.804528474807739258e-01,7.827058434486389160e-01,7.766933441162109375e-01,7.569896578788757324e-01,7.130224108695983887e-01,6.232365369796752930e-01,5.652672052383422852e-01,5.181756019592285156e-01,4.733728170394897461e-01,4.282607436180114746e-01,4.074685871601104736e-01,3.949092626571655273e-01,3.913285732269287109e-01,4.198899567127227783e-01,4.422190487384796143e-01,4.841756224632263184e-01,5.279705524444580078e-01,6.029677987098693848e-01,6.694600582122802734e-01,7.451095581054687500e-01,8.044462203979492188e-01,8.443666696548461914e-01,8.693434596061706543e-01,8.865451812744140625e-01,8.959200382232666016e-01,9.011803865432739258e-01,9.041004180908203125e-01,9.050917625427246094e-01,9.053010344505310059e-01,9.053306579589843750e-01,9.053283333778381348e-01,9.053283333778381348e-01,9.053283333778381348e-01,9.053283333778381348e-01,9.053283333778381348e-01,9.053283333778381348e-01,9.053283333778381348e-01,9.053283333778381348e-01,9.053283333778381348e-01,9.053283333778381348e-01,9.053283333778381348e-01,9.053283333778381348e-01,9.053283333778381348e-01,9.053283333778381348e-01,9.053283333778381348e-01,9.053283333778381348e-01,9.053283333778381348e-01,9.053283333778381348e-01,9.053283333778381348e-01,9.053283333778381348e-01,9.053283333778381348e-01,9.053285121917724609e-01,9.053297042846679688e-01,9.053521156311035156e-01,9.053734540939331055e-01,9.051614999771118164e-01,9.045422673225402832e-01,9.034036993980407715e-01,9.016472101211547852e-01,8.990720510482788086e-01,8.949686288833618164e-01,8.886650800704956055e-01,8.801970481872558594e-01,8.708394765853881836e-01,8.578856587409973145e-01,8.292865753173828125e-01,8.082753419876098633e-01,8.006733655929565430e-01,7.746783494949340820e-01,7.220439910888671875e-01,6.160598397254943848e-01
5.886743068695068359e-01,6.142249107360839844e-01,6.568408608436584473e-01,6.576570272445678711e-01,6.812163591384887695e-01,7.054145336151123047e-01,7.423926591873168945e-01,7.634707689285278320e-01,7.754927873611450195e-01,7.835024595260620117e-01,7.867416143417358398e-01,7.830886840820312500e-01,7.663799524307250977e-01,7.199184298515319824e-01,6.361852288246154785e-01,5.919959545135498047e-01,5.419418811798095703e-01,4.833739101886749268e-01,4.456711113452911377e-01,4.277311861515045166e-01,4.127545356750488281e-01,4.155904650688171387e-01,4.363282322883605957e-01,4.470962584018707275e-01,4.802813827991485596e-01,5.404195785522460938e-01,6.212762594223022461e-01,6.776611208915710449e-01,7.428421378135681152e-01,8.059258460998535156e-01,8.453234434127807617e-01,8.694154024124145508e-01,8.860251307487487793e-01,8.967099189758300781e-01,9.021514058113098145e-01,9.040341377258300781e-01,9.050455093383789062e-01,9.052585363388061523e-01,9.053258895874023438e-01,9.053283333778381348e-01,9.053283333778381348e-01,9.053283333778381348e-01,9.053283333778381348e-01,9.053283333778381348e-01,9.053283333778381348e-01,9.053283333778381348e-01,9.053283333778381348e-01,9.053283333778381348e-01,9.053283333778381348e-01,9.053283333778381348e-01,9.053283333778381348e-01,9.053283333778381348e-01,9.053283333778381348e-01,9.053283333778381348e-01,9.053283333778381348e-01,9.053283333778381348e-01,9.053283333778381348e-01,9.053283333778381348e-01,9.053283333778381348e-01,9.053283333778381348e-01,9.053285121917724609e-01,9.053297042846679688e-01,9.053521156311035156e-01,9.053735136985778809e-01,9.051617383956909180e-01,9.045428037643432617e-01,9.034045338630676270e-01,9.016486406326293945e-01,8.990738391876220703e-01,8.949720859527587891e-01,8.886704444885253906e-01,8.802038431167602539e-01,8.708467483520507812e-01,8.578956127166748047e-01,8.292984962463378906e-01,8.082882165908813477e-01,8.006862998008728027e-01,7.746907472610473633e-01,7.220538258552551270e-01,6.160669326782226562e-01
5.886676311492919922e-01,6.142141819000244141e-01,6.568281054496765137e-01,6.576423645019531250e-01,6.811901330947875977e-01,7.053746581077575684e-01,7.424533963203430176e-01,7.641696929931640625e-01,7.780613899230957031e-01,7.887332439422607422e-01,7.949212789535522461e-01,7.945316433906555176e-01,7.738919258117675781e-01,7.332621216773986816e-01,6.632336974143981934e-01,6.196306347846984863e-01,5.823757648468017578e-01,5.347204804420471191e-01,4.820442795753479004e-01,4.287166893482208252e-01,4.282255470752716064e-01,4.387525320053100586e-01,4.494638442993164062e-01,4.513453245162963867e-01,4.934554696083068848e-01,5.743601918220520020e-01,6.235046386718750000e-01,6.804376244544982910e-01,7.466869354248046875e-01,8.006960153579711914e-01,8.406090736389160156e-01,8.713408112525939941e-01,8.858110904693603516e-01,8.939279317855834961e-01,9.001159667968750000e-01,9.031143188476562500e-01,9.050465822219848633e-01,9.052934646606445312e-01,9.053310751914978027e-01,9.053283333778381348e-01,9.053283333778381348e-01,9.053283333778381348e-01,9.053283333778381348e-01,9.053283333778381348e-01,9.053283333778381348e-01,9.053283333778381348e-01,9.053283333778381348e-01,9.053283333778381348e-01,9.053283333778381348e-01,9.053283333778381348e-01,9.053283333778381348e-01,9.053283333778381348e-01,9.053283333778381348e-01,9.053283333778381348e-01,9.053283333778381348e-01,9.053283333778381348e-01,9.053283333778381348e-01,9.053283333778381348e-01,9.053283333778381348e-01,9.053283333778381348e-01,9.053285121917724609e-01,9.053297042846679688e-01,9.053519964218139648e-01,9.053735136985778809e-01,9.051617383956909180e-01,9.045432209968566895e-01,9.034053683280944824e-01,9.016500115394592285e-01,8.990758657455444336e-01,8.949751257896423340e-01,8.886756300926208496e-01,8.802107572555541992e-01,8.708546161651611328e-01,8.579050302505493164e-01,8.293102979660034180e-01,8.083010315895080566e-01,8.006989359855651855e-01,7.747030854225158691e-01,7.220638990402221680e-01,6.160740852355957031e-01
5.886614322662353516e-01,6.142036914825439453e-01,6.568158864974975586e-01,6.576278209686279297e-01,6.811584234237670898e-01,7.053591012954711914e-01,7.423579096794128418e-01,7.641407251358032227e-01,7.794530391693115234e-01,7.876736521720886230e-01,8.013547062873840332e-01,8.069478869438171387e-01,7.888796329498291016e-01,7.542691826820373535e-01,6.999019384384155273e-01,6.610490679740905762e-01,6.300121545791625977e-01,5.719291567802429199e-01,5.209144353866577148e-01,4.558269977569580078e-01,4.494202136993408203e-01,4.754723906517028809e-01,4.760237038135528564e-01,4.772772789001464844e-01,5.094582438468933105e-01,5.624151825904846191e-01,6.368904709815979004e-01,6.963819861412048340e-01,7.581544518470764160e-01,7.995008230209350586e-01,8.418967723846435547e-01,8.736028075218200684e-01,8.881669044494628906e-01,8.959957361221313477e-01,9.007692337036132812e-01,9.030908942222595215e-01,9.048784971237182617e-01,9.052053689956665039e-01,9.053380489349365234e-01,9.053283333778381348e-01,9.053283333778381348e-01,9.053283333778381348e-01,9.053283333778381348e-01,9.053283333778381348e-01,9.053283333778381348e-01,9.053283333778381348e-01,9.053283333778381348e-01,9.053283333778381348e-01,9.053283333778381348e-01,9.053283333778381348e-01,9.053283333778381348e-01,9.053283333778381348e-01,9.053283333778381348e-01,9.053283333778381348e-01,9.053283333778381348e-01,9.053283333778381348e-01,9.053283333778381348e-01,9.053283333778381348e-01,9.053283333778381348e-01,9.053283333778381348e-01,9.053285121917724609e-01,9.053297042846679688e-01,9.053521156311035156e-01,9.053733944892883301e-01,9.051620364189147949e-01,9.045436978340148926e-01,9.034062027931213379e-01,9.016515016555786133e-01,8.990778923034667969e-01,8.949785232543945312e-01,8.886805772781372070e-01,8.802173137664794922e-01,8.708624839782714844e-01,8.579145669937133789e-01,8.293216824531555176e-01,8.083136677742004395e-01,8.007117509841918945e-01,7.747153639793395996e-01,7.220741510391235352e-01,6.160810589790344238e-01
5.886558890342712402e-01,6.141942739486694336e-01,6.568045616149902344e-01,6.576139926910400391e-01,6.811318397521972656e-01,7.053559422492980957e-01,7.425538301467895508e-01,7.651718854904174805e-01,7.792604565620422363e-01,7.924934625625610352e-01,8.065834045410156250e-01,8.085783720016479492e-01,7.965362668037414551e-01,7.748734951019287109e-01,7.476795911788940430e-01,7.123839855194091797e-01,6.719574928283691406e-01,6.146242618560791016e-01,5.317308306694030762e-01,4.984437227249145508e-01,4.763263761997222900e-01,5.055342316627502441e-01,5.000985264778137207e-01,5.010746717453002930e-01,5.308632254600524902e-01,5.848793387413024902e-01,6.627051830291748047e-01,7.070087194442749023e-01,7.622572183609008789e-01,8.142237663269042969e-01,8.357218503952026367e-01,8.702050447463989258e-01,8.905239105224609375e-01,8.935360312461853027e-01,8.989898562431335449e-01,9.027699232101440430e-01,9.050841331481933594e-01,9.051967859268188477e-01,9.053383469581604004e-01,9.053283333778381348e-01,9.053283333778381348e-01,9.053283333778381348e-01,9.053283333778381348e-01,9.053283333778381348e-01,9.053283333778381348e-01,9.053283333778381348e-01,9.053283333778381348e-01,9.053283333778381348e-01,9.053283333778381348e-01,9.053283333778381348e-01,9.053283333778381348e-01,9.053283333778381348e-01,9.053283333778381348e-01,9.053283333778381348e-01,9.053283333778381348e-01,9.053283333778381348e-01,9.053283333778381348e-01,9.053283333778381348e-01,9.053283333778381348e-01,9.053283333778381348e-01,9.053285121917724609e-01,9.053297042846679688e-01,9.053520560264587402e-01,9.053733348846435547e-01,9.051622152328491211e-01,9.045441150665283203e-01,9.034070968627929688e-01,9.016528129577636719e-01,8.990797400474548340e-01,8.949816226959228516e-01,8.886855840682983398e-01,8.802241683006286621e-01,8.708705902099609375e-01,8.579241037368774414e-01,8.293330073356628418e-01,8.083263635635375977e-01,8.007242679595947266e-01,7.747277021408081055e-01,7.220844626426696777e-01,6.160880327224731445e-01
5.886510014533996582e-01,6.141860485076904297e-01,6.567943096160888672e-01,6.576018333435058594e-01,6.811216473579406738e-01,7.053076028823852539e-01,7.425385713577270508e-01,7.645430564880371094e-01,7.783857583999633789e-01,7.974596619606018066e-01,8.177824020385742188e-01,8.194292783737182617e-01,8.109850287437438965e-01,7.912472486495971680e-01,7.715156078338623047e-01,7.459233999252319336e-01,7.118955254554748535e-01,6.488379240036010742e-01,5.620462298393249512e-01,5.358788967132568359e-01,5.258941650390625000e-01,5.381984710693359375e-01,5.244419574737548828e-01,5.329577922821044922e-01,5.347011089324951172e-01,5.921194553375244141e-01,6.972405314445495605e-01,7.286054491996765137e-01,7.682773470878601074e-01,8.219534754753112793e-01,8.457668423652648926e-01,8.689788579940795898e-01,8.910748958587646484e-01,8.963059186935424805e-01,9.009935259819030762e-01,9.034178256988525391e-01,9.049481749534606934e-01,9.053027033805847168e-01,9.053347706794738770e-01,9.053283333778381348e-01,9.053283333778381348e-01,9.053283333778381348e-01,9.053283333778381348e-01,9.053283333778381348e-01,9.053283333778381348e-01,9.053283333778381348e-01,9.053283333778381348e-01,9.053283333778381348e-01,9.053283333778381348e-01,9.053283333778381348e-01,9.053283333778381348e-01,9.053283333778381348e-01,9.053283333778381348e-01,9.053283333778381348e-01,9.053283333778381348e-01,9.053283333778381348e-01,9.053283333778381348e-01,9.053283333778381348e-01,9.053283333778381348e-01,9.053283333778381348e-01,9.053285121917724609e-01,9.053297042846679688e-01,9.053521156311035156e-01,9.053733348846435547e-01,9.051623344421386719e-01,9.045445919036865234e-01,9.034079909324645996e-01,9.016540646553039551e-01,8.990818262100219727e-01,8.949849605560302734e-01,8.886905312538146973e-01,8.802308440208435059e-01,8.708784580230712891e-01,8.579335808753967285e-01,8.293445110321044922e-01,8.083389997482299805e-01,8.007369041442871094e-01,7.747398018836975098e-01,7.220942974090576172e-01,6.160951852798461914e-01
5.886464118957519531e-01,6.141784191131591797e-01,6.567852497100830078e-01,6.575911045074462891e-01,6.811161637306213379e-01,7.052841186523437500e-01,7.423983812332153320e-01,7.630779743194580078e-01,7.800763845443725586e-01,7.994064092636108398e-01,8.204943537712097168e-01,8.223159313201904297e-01,8.232147693634033203e-01,8.133907318115234375e-01,7.839052677154541016e-01,7.790261507034301758e-01,7.557789683341979980e-01,6.841859817504882812e-01,6.041589379310607910e-01,5.631951093673706055e-01,5.438457131385803223e-01,5.447839498519897461e-01,5.446665883064270020e-01,5.550497770309448242e-01,5.694358348846435547e-01,6.213802099227905273e-01,7.111074924468994141e-01,7.529394030570983887e-01,7.833877801895141602e-01,8.277062773704528809e-01,8.580853939056396484e-01,8.736615777015686035e-01,8.920826911926269531e-01,8.968682289123535156e-01,9.024589061737060547e-01,9.041396379470825195e-01,9.050115942955017090e-01,9.053026437759399414e-01,9.053265452384948730e-01,9.053283333778381348e-01,9.053283333778381348e-01,9.053283333778381348e-01,9.053283333778381348e-01,9.053283333778381348e-01,9.053283333778381348e-01,9.053283333778381348e-01,9.053283333778381348e-01,9.053283333778381348e-01,9.053283333778381348e-01,9.053283333778381348e-01,9.053283333778381348e-01,9.053283333778381348e-01,9.053283333778381348e-01,9.053283333778381348e-01,9.053283333778381348e-01,9.053283333778381348e-01,9.053283333778381348e-01,9.053283333778381348e-01,9.053283333778381348e-01,9.053283333778381348e-01,9.053285121917724609e-01,9.053297042846679688e-01,9.053519964218139648e-01,9.053733348846435547e-01,9.051624536514282227e-01,9.045451283454895020e-01,9.034087657928466797e-01,9.016554355621337891e-01,8.990838527679443359e-01,8.949881196022033691e-01,8.886955976486206055e-01,8.802374601364135742e-01,8.708862066268920898e-01,8.579431772232055664e-01,8.293559551239013672e-01,8.083515167236328125e-01,8.007494807243347168e-01,7.747520804405212402e-01,7.221043705940246582e-01,6.161021590232849121e-01
5.886420011520385742e-01,6.141713857650756836e-01,6.567764282226562500e-01,6.575810909271240234e-01,6.810988187789916992e-01,7.052568197250366211e-01,7.423130273818969727e-01,7.623441219329833984e-01,7.828153371810913086e-01,8.053456544876098633e-01,8.239123821258544922e-01,8.259245753288269043e-01,8.342550992965698242e-01,8.271652460098266602e-01,8.071417808532714844e-01,7.993472814559936523e-01,7.739275693893432617e-01,7.216575741767883301e-01,6.364899873733520508e-01,5.856553912162780762e-01,5.672098398208618164e-01,5.671769976615905762e-01,5.695933103561401367e-01,5.647571682929992676e-01,5.845260620117187500e-01,6.270520687103271484e-01,7.186154127120971680e-01,7.765679359436035156e-01,7.991306781768798828e-01,8.397098779678344727e-01,8.665834665298461914e-01,8.799632787704467773e-01,8.936859369277954102e-01,9.005289077758789062e-01,9.034711718559265137e-01,9.047827720642089844e-01,9.050875306129455566e-01,9.053130745887756348e-01,9.053317308425903320e-01,9.053283333778381348e-01,9.053283333778381348e-01,9.053283333778381348e-01,9.053283333778381348e-01,9.053283333778381348e-01,9.053283333778381348e-01,9.053283333778381348e-01,9.053283333778381348e-01,9.053283333778381348e-01,9.053283333778381348e-01,9.053283333778381348e-01,9.053283333778381348e-01,9.053283333778381348e-01,9.053283333778381348e-01,9.053283333778381348e-01,9.053283333778381348e-01,9.053283333778381348e-01,9.053283333778381348e-01,9.053283333778381348e-01,9.053283333778381348e-01,9.053283333778381348e-01,9.053285121917724609e-01,9.053297042846679688e-01,9.053520560264587402e-01,9.053733348846435547e-01,9.051625728607177734e-01,9.045455455780029297e-01,9.034097194671630859e-01,9.016568660736083984e-01,8.990858197212219238e-01,8.949913382530212402e-01,8.887004852294921875e-01,8.802440166473388672e-01,8.708941340446472168e-01,8.579525947570800781e-01,8.293675184249877930e-01,8.083643317222595215e-01,8.007622957229614258e-01,7.747642397880554199e-01,7.221146225929260254e-01,6.161093711853027344e-01
5.886373519897460938e-01,6.141638755798339844e-01,6.567685008049011230e-01,6.575719714164733887e-01,6.810882091522216797e-01,7.052447795867919922e-01,7.417436838150024414e-01,7.628540992736816406e-01,7.829719185829162598e-01,8.054478168487548828e-01,8.220087289810180664e-01,8.266502618789672852e-01,8.361142873764038086e-01,8.296837806701660156e-01,8.252499103546142578e-01,8.198170661926269531e-01,8.071047067642211914e-01,7.460884451866149902e-01,6.704025268554687500e-01,5.956544876098632812e-01,5.844108462333679199e-01,5.881226658821105957e-01,6.029951572418212891e-01,5.875868201255798340e-01,6.053359508514404297e-01,6.496917009353637695e-01,7.207286357879638672e-01,7.868976593017578125e-01,8.122108578681945801e-01,8.452610373497009277e-01,8.706566095352172852e-01,8.837060928344726562e-01,8.966323137283325195e-01,9.031825065612792969e-01,9.039485454559326172e-01,9.051281213760375977e-01,9.049878716468811035e-01,9.053252935409545898e-01,9.053333997726440430e-01,9.053283333778381348e-01,9.053283333778381348e-01,9.053283333778381348e-01,9.053283333778381348e-01,9.053283333778381348e-01,9.053283333778381348e-01,9.053283333778381348e-01,9.053283333778381348e-01,9.053283333778381348e-01,9.053283333778381348e-01,9.053283333778381348e-01,9.053283333778381348e-01,9.053283333778381348e-01,9.053283333778381348e-01,9.053283333778381348e-01,9.053283333778381348e-01,9.053283333778381348e-01,9.053283333778381348e-01,9.053283333778381348e-01,9.053283333778381348e-01,9.053283333778381348e-01,9.053285121917724609e-01,9.053297042846679688e-01,9.053519964218139648e-01,9.053732752799987793e-01,9.051628112792968750e-01,9.045461416244506836e-01,9.034106731414794922e-01,9.016582369804382324e-01,8.990879654884338379e-01,8.949946165084838867e-01,8.887054920196533203e-01,8.802510499954223633e-01,8.709020614624023438e-01,8.579620718955993652e-01,8.293791413307189941e-01,8.083769679069519043e-01,8.007746934890747070e-01,7.747765183448791504e-01,7.221248149871826172e-01,6.161164045333862305e-01
5.886321663856506348e-01,6.141560673713684082e-01,6.567598581314086914e-01,6.575616598129272461e-01,6.810894012451171875e-01,7.052402496337890625e-01,7.415666580200195312e-01,7.636339664459228516e-01,7.846766114234924316e-01,8.053722381591796875e-01,8.212774991989135742e-01,8.357061743736267090e-01,8.424141407012939453e-01,8.374919891357421875e-01,8.320096135139465332e-01,8.257957696914672852e-01,8.080656528472900391e-01,7.671582698822021484e-01,6.936869621276855469e-01,6.090767383575439453e-01,6.025142073631286621e-01,6.083489060401916504e-01,6.150102615356445312e-01,6.111565828323364258e-01,6.148286461830139160e-01,6.589927673339843750e-01,7.275066375732421875e-01,7.931244373321533203e-01,8.294246196746826172e-01,8.528192043304443359e-01,8.733142614364624023e-01,8.866147994995117188e-01,8.956496715545654297e-01,9.025198221206665039e-01,9.044637680053710938e-01,9.051774740219116211e-01,9.051923751831054688e-01,9.052771329879760742e-01,9.053299427032470703e-01,9.053283333778381348e-01,9.053283333778381348e-01,9.053283333778381348e-01,9.053283333778381348e-01,9.053283333778381348e-01,9.053283333778381348e-01,9.053283333778381348e-01,9.053283333778381348e-01,9.053283333778381348e-01,9.053283333778381348e-01,9.053283333778381348e-01,9.053283333778381348e-01,9.053283333778381348e-01,9.053283333778381348e-01,9.053283333778381348e-01,9.053283333778381348e-01,9.053283333778381348e-01,9.053283333778381348e-01,9.053283333778381348e-01,9.053283333778381348e-01,9.053283333778381348e-01,9.053285121917724609e-01,9.053297042846679688e-01,9.053519964218139648e-01,9.053732752799987793e-01,9.051630496978759766e-01,9.045465588569641113e-01,9.034115076065063477e-01,9.016594886779785156e-01,8.990899324417114258e-01,8.949978351593017578e-01,8.887104988098144531e-01,8.802577257156372070e-01,8.709101080894470215e-01,8.579715490341186523e-01,8.293904662132263184e-01,8.083897829055786133e-01,8.007874488830566406e-01,7.747889757156372070e-01,7.221348881721496582e-01,6.161235570907592773e-01
5.886267423629760742e-01,6.141472458839416504e-01,6.567500233650207520e-01,6.575506925582885742e-01,6.810793876647949219e-01,7.052562236785888672e-01,7.415673136711120605e-01,7.630864381790161133e-01,7.845430374145507812e-01,8.027080893516540527e-01,8.198622465133666992e-01,8.360328674316406250e-01,8.429207801818847656e-01,8.420259952545166016e-01,8.407808542251586914e-01,8.313821554183959961e-01,8.123689889907836914e-01,7.935529351234436035e-01,7.065967321395874023e-01,6.178097724914550781e-01,6.170017123222351074e-01,6.018561720848083496e-01,6.469745039939880371e-01,6.239432096481323242e-01,6.338609457015991211e-01,6.842746734619140625e-01,7.352832555770874023e-01,7.952432632446289062e-01,8.293136358261108398e-01,8.568713665008544922e-01,8.744275569915771484e-01,8.880806565284729004e-01,8.968832492828369141e-01,9.019103050231933594e-01,9.045376777648925781e-01,9.047596454620361328e-01,9.052819013595581055e-01,9.053394794464111328e-01,9.053287506103515625e-01,9.053263664245605469e-01,9.053263664245605469e-01,9.053263664245605469e-01,9.053262472152709961e-01,9.053262472152709961e-01,9.053262472152709961e-01,9.053262472152709961e-01,9.053262472152709961e-01,9.053262472152709961e-01,9.053261280059814453e-01,9.053261280059814453e-01,9.053261280059814453e-01,9.053261280059814453e-01,9.053260684013366699e-01,9.053260684013366699e-01,9.053260684013366699e-01,9.053261280059814453e-01,9.053260684013366699e-01,9.053261280059814453e-01,9.053261280059814453e-01,9.053261280059814453e-01,9.053262472152709961e-01,9.053274393081665039e-01,9.053497314453125000e-01,9.053709506988525391e-01,9.051609039306640625e-01,9.045450091361999512e-01,9.034107327461242676e-01,9.016592502593994141e-01,8.990901708602905273e-01,8.949992656707763672e-01,8.887137174606323242e-01,8.802630901336669922e-01,8.709170818328857422e-01,8.579806089401245117e-01,8.294017314910888672e-01,8.084025382995605469e-01,8.008003234863281250e-01,7.748013138771057129e-01,7.221453189849853516e-01,6.161308288574218750e-01
5.886210203170776367e-01,6.141378879547119141e-01,6.567390561103820801e-01,6.575375795364379883e-01,6.810781359672546387e-01,7.052796483039855957e-01,7.416762113571166992e-01,7.631906867027282715e-01,7.840617895126342773e-01,8.026355504989624023e-01,8.221602439880371094e-01,8.383194208145141602e-01,8.447169065475463867e-01,8.453983664512634277e-01,8.444613218307495117e-01,8.323969841003417969e-01,8.215299844741821289e-01,7.970851659774780273e-01,7.172162532806396484e-01,6.399794816970825195e-01,6.298522949218750000e-01,6.304051280021667480e-01,6.538999080657958984e-01,6.456543207168579102e-01,6.505434513092041016e-01,6.882097721099853516e-01,7.464247941970825195e-01,7.958111763000488281e-01,8.382559418678283691e-01,8.566190600395202637e-01,8.764909505844116211e-01,8.887034654617309570e-01,8.971737623214721680e-01,9.006241559982299805e-01,9.040622711181640625e-01,9.051179885864257812e-01,9.052141904830932617e-01,9.053452014923095703e-01,9.053229093551635742e-01,9.053209424018859863e-01,9.053210020065307617e-01,9.053211212158203125e-01,9.053211212158203125e-01,9.053211212158203125e-01,9.053212404251098633e-01,9.053212404251098633e-01,9.053213596343994141e-01,9.053213596343994141e-01,9.053213596343994141e-01,9.053214192390441895e-01,9.053214192390441895e-01,9.053214192390441895e-01,9.053214788436889648e-01,9.053215980529785156e-01,9.053215980529785156e-01,9.053217172622680664e-01,9.053217172622680664e-01,9.053217172622680664e-01,9.053217768669128418e-01,9.053217768669128418e-01,9.053220748901367188e-01,9.053232073783874512e-01,9.053455591201782227e-01,9.053668975830078125e-01,9.051569700241088867e-01,9.045405387878417969e-01,9.034068584442138672e-01,9.016559720039367676e-01,8.990865945816040039e-01,8.949946165084838867e-01,8.887091279029846191e-01,8.802586793899536133e-01,8.709127902984619141e-01,8.579801917076110840e-01,8.294045329093933105e-01,8.084078431129455566e-01,8.008066415786743164e-01,7.748063802719116211e-01,7.221474051475524902e-01,6.161317825317382812e-01
5.886101126670837402e-01,6.141241192817687988e-01,6.567230224609375000e-01,6.575238704681396484e-01,6.810600161552429199e-01,7.052693367004394531e-01,7.415794134140014648e-01,7.631405591964721680e-01,7.835823297500610352e-01,8.021705150604248047e-01,8.210666179656982422e-01,8.381166458129882812e-01,8.446301817893981934e-01,8.471993207931518555e-01,8.452994227409362793e-01,8.355138301849365234e-01,8.273451328277587891e-01,8.058587312698364258e-01,7.157666087150573730e-01,6.624562144279479980e-01,6.352816224098205566e-01,6.470416784286499023e-01,6.699818372726440430e-01,6.546793580055236816e-01,6.608364582061767578e-01,6.960197687149047852e-01,7.614386081695556641e-01,8.008141517639160156e-01,8.338786363601684570e-01,8.573431968688964844e-01,8.769483566284179688e-01,8.890352249145507812e-01,8.977276086807250977e-01,9.012662172317504883e-01,9.036476612091064453e-01,9.050527811050415039e-01,9.053893089294433594e-01,9.054059982299804688e-01,9.053965806961059570e-01,9.053921699523925781e-01,9.053922891616821289e-01,9.053925871849060059e-01,9.053928852081298828e-01,9.053932428359985352e-01,9.053934216499328613e-01,9.053937196731567383e-01,9.053940176963806152e-01,9.053941965103149414e-01,9.053944945335388184e-01,9.053947329521179199e-01,9.053949713706970215e-01,9.053952693939208984e-01,9.053955078125000000e-01,9.053956866264343262e-01,9.053959846496582031e-01,9.053963422775268555e-01,9.053964614868164062e-01,9.053968191146850586e-01,9.053970575332641602e-01,9.053972959518432617e-01,9.053978919982910156e-01,9.053995013236999512e-01,9.054224491119384766e-01,9.054448604583740234e-01,9.052376747131347656e-01,9.046199321746826172e-01,9.034807682037353516e-01,9.017148017883300781e-01,8.991357088088989258e-01,8.950453996658325195e-01,8.887740373611450195e-01,8.803352117538452148e-01,8.710008263587951660e-01,8.580511808395385742e-01,8.294703364372253418e-01,8.084540367126464844e-01,8.008365631103515625e-01,7.748249769210815430e-01,7.221456766128540039e-01,6.161313652992248535e-01
5.886170268058776855e-01,6.141330599784851074e-01,6.567298173904418945e-01,6.575419902801513672e-01,6.810908913612365723e-01,7.053377628326416016e-01,7.417545318603515625e-01,7.631932497024536133e-01,7.839521169662475586e-01,8.027523756027221680e-01,8.212172985076904297e-01,8.380547761917114258e-01,8.466902375221252441e-01,8.495372533798217773e-01,8.461360931396484375e-01,8.380302786827087402e-01,8.276274204254150391e-01,8.010767102241516113e-01,7.178520560264587402e-01,6.786401867866516113e-01,6.644100546836853027e-01,6.551822423934936523e-01,6.854704022407531738e-01,6.707153320312500000e-01,6.733357310295104980e-01,7.117674350738525391e-01,7.688583135604858398e-01,8.123328089714050293e-01,8.321020603179931641e-01,8.589214086532592773e-01,8.780425786972045898e-01,8.894582986831665039e-01,8.985344171524047852e-01,9.017655253410339355e-01,9.036743640899658203e-01,9.051789045333862305e-01,9.053376913070678711e-01,9.054847955703735352e-01,9.054814577102661133e-01,9.054784774780273438e-01,9.054775238037109375e-01,9.054766893386840820e-01,9.054758548736572266e-01,9.054749608039855957e-01,9.054740667343139648e-01,9.054732322692871094e-01,9.054722785949707031e-01,9.054715633392333984e-01,9.054707288742065430e-01,9.054697751998901367e-01,9.054690599441528320e-01,9.054681062698364258e-01,9.054671525955200195e-01,9.054663181304931641e-01,9.054654240608215332e-01,9.054645299911499023e-01,9.054638147354125977e-01,9.054628610610961914e-01,9.054620265960693359e-01,9.054611325263977051e-01,9.054607152938842773e-01,9.054612517356872559e-01,9.054841995239257812e-01,9.055073857307434082e-01,9.053022861480712891e-01,9.046818017959594727e-01,9.035504460334777832e-01,9.017895460128784180e-01,8.992096185684204102e-01,8.951150774955749512e-01,8.888962268829345703e-01,8.804689645767211914e-01,8.711262345314025879e-01,8.582131862640380859e-01,8.296996355056762695e-01,8.087001442909240723e-01,8.010926842689514160e-01,7.750730514526367188e-01,7.224298715591430664e-01,6.165245175361633301e-01
5.888011455535888672e-01,6.143105626106262207e-01,6.569842100143432617e-01,6.577990651130676270e-01,6.813377141952514648e-01,7.055003643035888672e-01,7.418351769447326660e-01,7.632273435592651367e-01,7.838644981384277344e-01,8.023499846458435059e-01,8.208547234535217285e-01,8.375788927078247070e-01,8.455817699432373047e-01,8.510980606079101562e-01,8.462839126586914062e-01,8.424404859542846680e-01,8.314058780670166016e-01,7.979547977447509766e-01,7.331903576850891113e-01,6.841273307800292969e-01,6.678360700607299805e-01,6.745357513427734375e-01,6.919568181037902832e-01,6.714248657226562500e-01,6.844909191131591797e-01,7.282466888427734375e-01,7.770301103591918945e-01,8.053110837936401367e-01,8.326774239540100098e-01,8.606933355331420898e-01,8.763297796249389648e-01,8.883841037750244141e-01,8.980356454849243164e-01,9.012476205825805664e-01,9.027031660079956055e-01,9.044046401977539062e-01,9.045039415359497070e-01,9.046205282211303711e-01,9.046267271041870117e-01,9.046257734298706055e-01,9.046249389648437500e-01,9.046241044998168945e-01,9.046231508255004883e-01,9.046223163604736328e-01,9.046212434768676758e-01,9.046205282211303711e-01,9.046194553375244141e-01,9.046186804771423340e-01,9.046177864074707031e-01,9.046167731285095215e-01,9.046158790588378906e-01,9.046149253845214844e-01,9.046140909194946289e-01,9.046132564544677734e-01,9.046123027801513672e-01,9.046114087104797363e-01,9.046105146408081055e-01,9.046096205711364746e-01,9.046087265014648438e-01,9.046078324317932129e-01,9.046071767807006836e-01,9.046078920364379883e-01,9.046278595924377441e-01,9.046610593795776367e-01,9.044569730758666992e-01,9.038792252540588379e-01,9.027748703956604004e-01,9.010080099105834961e-01,8.984286189079284668e-01,8.943628072738647461e-01,8.880739212036132812e-01,8.796501159667968750e-01,8.703310489654541016e-01,8.574494123458862305e-01,8.288418650627136230e-01,8.078485727310180664e-01,8.004547357559204102e-01,7.742141485214233398e-01,7.216154336929321289e-01,6.159960031509399414e-01
5.891573429107666016e-01,6.141797304153442383e-01,6.566529870033264160e-01,6.571506857872009277e-01,6.804424524307250977e-01,7.042922377586364746e-01,7.404183745384216309e-01,7.615253925323486328e-01,7.820173501968383789e-01,8.004148006439208984e-01,8.186265826225280762e-01,8.352494239807128906e-01,8.451506495475769043e-01,8.480920195579528809e-01,8.494462966918945312e-01,8.447124958038330078e-01,8.330876231193542480e-01,8.009346723556518555e-01,7.433004379272460938e-01,6.848753690719604492e-01,6.690319776535034180e-01,6.880603432655334473e-01,6.952558755874633789e-01,6.747372746467590332e-01,6.875655651092529297e-01,7.311495542526245117e-01,7.871723175048828125e-01,8.104695081710815430e-01,8.320536613464355469e-01,8.603049516677856445e-01,8.787781000137329102e-01,8.891956806182861328e-01,8.976407647132873535e-01,9.003695249557495117e-01,9.018571972846984863e-01,9.033970832824707031e-01,9.035810232162475586e-01,9.037109613418579102e-01,9.037104845046997070e-01,9.037098884582519531e-01,9.037088155746459961e-01,9.037077426910400391e-01,9.037067294120788574e-01,9.037057161331176758e-01,9.037045240402221680e-01,9.037036895751953125e-01,9.037024378776550293e-01,9.037014245986938477e-01,9.037003517150878906e-01,9.036992788314819336e-01,9.036982059478759766e-01,9.036972522735595703e-01,9.036961793899536133e-01,9.036949872970581055e-01,9.036940336227416992e-01,9.036929607391357422e-01,9.036918282508850098e-01,9.036908149719238281e-01,9.036897420883178711e-01,9.036887288093566895e-01,9.036878347396850586e-01,9.036878943443298340e-01,9.037038683891296387e-01,9.037333130836486816e-01,9.035476446151733398e-01,9.029994606971740723e-01,9.019619226455688477e-01,9.002496004104614258e-01,8.976999521255493164e-01,8.936430215835571289e-01,8.874094486236572266e-01,8.790729045867919922e-01,8.698121905326843262e-01,8.568375110626220703e-01,8.282489776611328125e-01,8.071019649505615234e-01,7.996397018432617188e-01,7.733835577964782715e-01,7.204577326774597168e-01,6.144744753837585449e-01
5.884079337120056152e-01,6.125015020370483398e-01,6.548566222190856934e-01,6.552608609199523926e-01,6.780955791473388672e-01,7.014924287796020508e-01,7.376136183738708496e-01,7.587714195251464844e-01,7.793036699295043945e-01,7.977033853530883789e-01,8.160952925682067871e-01,8.332371711730957031e-01,8.435161113739013672e-01,8.491032123565673828e-01,8.517395257949829102e-01,8.443213701248168945e-01,8.346514701843261719e-01,8.049910068511962891e-01,7.555468678474426270e-01,6.879872679710388184e-01,6.771932840347290039e-01,6.918766498565673828e-01,6.954483985900878906e-01,6.852392554283142090e-01,6.834299564361572266e-01,7.502088546752929688e-01,7.819999456405639648e-01,8.104611635208129883e-01,8.323224782943725586e-01,8.594893217086791992e-01,8.761730194091796875e-01,8.879871964454650879e-01,8.953872323036193848e-01,8.984521627426147461e-01,9.000910520553588867e-01,9.016113281250000000e-01,9.017753601074218750e-01,9.019081592559814453e-01,9.019001722335815430e-01,9.018937349319458008e-01,9.018877744674682617e-01,9.018815755844116211e-01,9.018756151199340820e-01,9.018694162368774414e-01,9.018634557723999023e-01,9.018573760986328125e-01,9.018514156341552734e-01,9.018453359603881836e-01,9.018391370773315430e-01,9.018331766128540039e-01,9.018270969390869141e-01,9.018211364746093750e-01,9.018150568008422852e-01,9.018088579177856445e-01,9.018030166625976562e-01,9.017968177795410156e-01,9.017908573150634766e-01,9.017847776412963867e-01,9.017787575721740723e-01,9.017728567123413086e-01,9.017667770385742188e-01,9.017615914344787598e-01,9.017754197120666504e-01,9.018002748489379883e-01,9.016265869140625000e-01,9.011572599411010742e-01,9.001972675323486328e-01,8.985997438430786133e-01,8.961438536643981934e-01,8.921532034873962402e-01,8.860810995101928711e-01,8.775866031646728516e-01,8.682920932769775391e-01,8.554397821426391602e-01,8.269662261009216309e-01,8.060631752014160156e-01,7.985029220581054688e-01,7.719299793243408203e-01,7.191742062568664551e-01,6.127004027366638184e-01
5.864669084548950195e-01,6.097779870033264160e-01,6.518769860267639160e-01,6.520051360130310059e-01,6.745817661285400391e-01,6.974245309829711914e-01,7.329909801483154297e-01,7.536310553550720215e-01,7.734912633895874023e-01,7.914131879806518555e-01,8.095514774322509766e-01,8.262256979942321777e-01,8.361985683441162109e-01,8.449461460113525391e-01,8.502519726753234863e-01,8.393148779869079590e-01,8.331194519996643066e-01,7.997964620590209961e-01,7.664709091186523438e-01,6.956990361213684082e-01,6.741293072700500488e-01,6.923031210899353027e-01,6.802081465721130371e-01,6.898630857467651367e-01,6.986197829246520996e-01,7.433657646179199219e-01,7.759807705879211426e-01,8.078104257583618164e-01,8.318743109703063965e-01,8.525475263595581055e-01,8.733407855033874512e-01,8.830963373184204102e-01,8.886141180992126465e-01,8.916840553283691406e-01,8.934490680694580078e-01,8.950344920158386230e-01,8.952734470367431641e-01,8.953946828842163086e-01,8.953893184661865234e-01,8.953835964202880859e-01,8.953744769096374512e-01,8.953653573989868164e-01,8.953562974929809570e-01,8.953471183776855469e-01,8.953381180763244629e-01,8.953289985656738281e-01,8.953198790550231934e-01,8.953108787536621094e-01,8.953016996383666992e-01,8.952926397323608398e-01,8.952836394309997559e-01,8.952745795249938965e-01,8.952654600143432617e-01,8.952563405036926270e-01,8.952472805976867676e-01,8.952382206916809082e-01,8.952292203903198242e-01,8.952202796936035156e-01,8.952112197875976562e-01,8.952021002769470215e-01,8.951928615570068359e-01,8.951839208602905273e-01,8.951927423477172852e-01,8.952098488807678223e-01,8.950747251510620117e-01,8.946254253387451172e-01,8.938156962394714355e-01,8.923490643501281738e-01,8.900252580642700195e-01,8.861795663833618164e-01,8.802855610847473145e-01,8.720732331275939941e-01,8.626440763473510742e-01,8.496471643447875977e-01,8.213586807250976562e-01,8.010414838790893555e-01,7.939167618751525879e-01,7.675384879112243652e-01,7.151734828948974609e-01,6.077088117599487305e-01
5.825377106666564941e-01,6.038821339607238770e-01,6.454443335533142090e-01,6.448007822036743164e-01,6.661972403526306152e-01,6.881834864616394043e-01,7.229008078575134277e-01,7.430777549743652344e-01,7.622742652893066406e-01,7.793045043945312500e-01,7.967463731765747070e-01,8.126578330993652344e-01,8.244392871856689453e-01,8.338600397109985352e-01,8.376951217651367188e-01,8.313584327697753906e-01,8.276265859603881836e-01,8.047705292701721191e-01,7.567181587219238281e-01,7.000718116760253906e-01,6.844008564949035645e-01,6.600691080093383789e-01,6.750732064247131348e-01,6.853568553924560547e-01,6.971170306205749512e-01,7.369616627693176270e-01,7.677948474884033203e-01,7.980021834373474121e-01,8.235998153686523438e-01,8.427900075912475586e-01,8.621320128440856934e-01,8.709304928779602051e-01,8.775436878204345703e-01,8.803398609161376953e-01,8.824372291564941406e-01,8.841177225112915039e-01,8.843457698822021484e-01,8.844686746597290039e-01,8.844419717788696289e-01,8.844189643859863281e-01,8.843989372253417969e-01,8.843786120414733887e-01,8.843582868576049805e-01,8.843382596969604492e-01,8.843179941177368164e-01,8.842979669570922852e-01,8.842775821685791016e-01,8.842574954032897949e-01,8.842373490333557129e-01,8.842171430587768555e-01,8.841969966888427734e-01,8.841767311096191406e-01,8.841567039489746094e-01,8.841364383697509766e-01,8.841164112091064453e-01,8.840962648391723633e-01,8.840760588645935059e-01,8.840559720993041992e-01,8.840358257293701172e-01,8.840157985687255859e-01,8.839954137802124023e-01,8.839752674102783203e-01,8.839860558509826660e-01,8.840312957763671875e-01,8.839043378829956055e-01,8.835548162460327148e-01,8.828719854354858398e-01,8.814046978950500488e-01,8.790522813796997070e-01,8.753619194030761719e-01,8.695302009582519531e-01,8.616462349891662598e-01,8.525948524475097656e-01,8.395715951919555664e-01,8.107899427413940430e-01,7.916805744171142578e-01,7.853872776031494141e-01,7.605791091918945312e-01,7.071937918663024902e-01,6.017382740974426270e-01
5.753734707832336426e-01,5.940433740615844727e-01,6.345342993736267090e-01,6.318063735961914062e-01,6.512057781219482422e-01,6.719561219215393066e-01,7.057629823684692383e-01,7.251140475273132324e-01,7.435497045516967773e-01,7.598540186882019043e-01,7.763782739639282227e-01,7.914735078811645508e-01,8.059638738632202148e-01,8.155034780502319336e-01,8.185533285140991211e-01,8.129513859748840332e-01,8.044445514678955078e-01,7.796943187713623047e-01,7.329749464988708496e-01,6.867346763610839844e-01,6.698417663574218750e-01,6.499900817871093750e-01,6.605619192123413086e-01,6.670891046524047852e-01,6.688218116760253906e-01,7.246696352958679199e-01,7.495446205139160156e-01,7.709004878997802734e-01,7.987391948699951172e-01,8.155817985534667969e-01,8.370507955551147461e-01,8.457963466644287109e-01,8.529858589172363281e-01,8.566309213638305664e-01,8.586691617965698242e-01,8.605076074600219727e-01,8.607374429702758789e-01,8.608319759368896484e-01,8.607674837112426758e-01,8.607304096221923828e-01,8.606934547424316406e-01,8.606565594673156738e-01,8.606195449829101562e-01,8.605827093124389648e-01,8.605458736419677734e-01,8.605087995529174805e-01,8.604719638824462891e-01,8.604350090026855469e-01,8.603981733322143555e-01,8.603609800338745117e-01,8.603241443634033203e-01,8.602873086929321289e-01,8.602503538131713867e-01,8.602135181427001953e-01,8.601766228675842285e-01,8.601397275924682617e-01,8.601030111312866211e-01,8.600659370422363281e-01,8.600292205810546875e-01,8.599922657012939453e-01,8.599552512168884277e-01,8.599172830581665039e-01,8.599222898483276367e-01,8.599555492401123047e-01,8.598051071166992188e-01,8.595378398895263672e-01,8.591355085372924805e-01,8.579517602920532227e-01,8.558983802795410156e-01,8.521344661712646484e-01,8.465126752853393555e-01,8.387192487716674805e-01,8.300005197525024414e-01,8.169895410537719727e-01,7.877322435379028320e-01,7.700032591819763184e-01,7.670568823814392090e-01,7.439020276069641113e-01,6.925584077835083008e-01,5.922735929489135742e-01
5.643808841705322266e-01,5.786222219467163086e-01,6.173455715179443359e-01,6.113572120666503906e-01,6.278051733970642090e-01,6.468126773834228516e-01,6.787357330322265625e-01,6.960873603820800781e-01,7.121103405952453613e-01,7.260497212409973145e-01,7.399410009384155273e-01,7.544976472854614258e-01,7.668886184692382812e-01,7.751909494400024414e-01,7.783009409904479980e-01,7.757863402366638184e-01,7.655289769172668457e-01,7.437870502471923828e-01,7.032654285430908203e-01,6.735448837280273438e-01,6.341832280158996582e-01,6.194317340850830078e-01,6.328914761543273926e-01,6.306006908416748047e-01,6.368237137794494629e-01,6.879236102104187012e-01,7.113638520240783691e-01,7.289982438087463379e-01,7.512689232826232910e-01,7.706528902053833008e-01,7.920606136322021484e-01,8.030049800872802734e-01,8.083764314651489258e-01,8.136115074157714844e-01,8.158315420150756836e-01,8.178198337554931641e-01,8.180439472198486328e-01,8.181307911872863770e-01,8.180691003799438477e-01,8.180140256881713867e-01,8.179551362991333008e-01,8.178962469100952148e-01,8.178374767303466797e-01,8.177786469459533691e-01,8.177199363708496094e-01,8.176610469818115234e-01,8.176023960113525391e-01,8.175435066223144531e-01,8.174848556518554688e-01,8.174259662628173828e-01,8.173671960830688477e-01,8.173084855079650879e-01,8.172497749328613281e-01,8.171911239624023438e-01,8.171322941780090332e-01,8.170735836029052734e-01,8.170148134231567383e-01,8.169562816619873047e-01,8.168975114822387695e-01,8.168387413024902344e-01,8.167803287506103516e-01,8.167203664779663086e-01,8.167127370834350586e-01,8.166850805282592773e-01,8.164908289909362793e-01,8.160842657089233398e-01,8.156277537345886230e-01,8.143162727355957031e-01,8.124479055404663086e-01,8.095006942749023438e-01,8.042796850204467773e-01,7.970213890075683594e-01,7.894158363342285156e-01,7.773796916007995605e-01,7.479085922241210938e-01,7.329898476600646973e-01,7.344160079956054688e-01,7.134187221527099609e-01,6.685299277305603027e-01,5.795609354972839355e-01
5.498358607292175293e-01,5.541176199913024902e-01,5.890436172485351562e-01,5.790366530418395996e-01,5.922468900680541992e-01,6.085571050643920898e-01,6.381725072860717773e-01,6.527638435363769531e-01,6.666529178619384766e-01,6.782943606376647949e-01,6.897381544113159180e-01,7.029424905776977539e-01,7.129257917404174805e-01,7.185359597206115723e-01,7.166318297386169434e-01,7.221388220787048340e-01,6.993380188941955566e-01,6.826094985008239746e-01,6.504822969436645508e-01,6.263076066970825195e-01,5.927701592445373535e-01,5.670936703681945801e-01,5.984256863594055176e-01,5.801470875740051270e-01,5.985229015350341797e-01,6.370673179626464844e-01,6.612803339958190918e-01,6.692436933517456055e-01,6.880072355270385742e-01,7.088319063186645508e-01,7.235598564147949219e-01,7.344322204589843750e-01,7.421491146087646484e-01,7.469422221183776855e-01,7.491365671157836914e-01,7.510098218917846680e-01,7.511656284332275391e-01,7.512406110763549805e-01,7.511438131332397461e-01,7.510763406753540039e-01,7.509939074516296387e-01,7.509117126464843750e-01,7.508296370506286621e-01,7.507472038269042969e-01,7.506650090217590332e-01,7.505826950073242188e-01,7.505006790161132812e-01,7.504184246063232422e-01,7.503362894058227539e-01,7.502540349960327148e-01,7.501721382141113281e-01,7.500896453857421875e-01,7.500075101852416992e-01,7.499253749847412109e-01,7.498433589935302734e-01,7.497611641883850098e-01,7.496789693832397461e-01,7.495970726013183594e-01,7.495148181915283203e-01,7.494328618049621582e-01,7.493500113487243652e-01,7.492642998695373535e-01,7.492395639419555664e-01,7.491614818572998047e-01,7.490075230598449707e-01,7.487263083457946777e-01,7.482119202613830566e-01,7.468235492706298828e-01,7.445595860481262207e-01,7.411948442459106445e-01,7.365003228187561035e-01,7.301450371742248535e-01,7.241511344909667969e-01,7.128831744194030762e-01,6.834436058998107910e-01,6.727113723754882812e-01,6.816109418869018555e-01,6.628432273864746094e-01,6.335922479629516602e-01,5.563706159591674805e-01
5.325866937637329102e-01,5.238300561904907227e-01,5.546779036521911621e-01,5.387858152389526367e-01,5.466818213462829590e-01,5.595356822013854980e-01,5.837614536285400391e-01,5.949363708496093750e-01,6.053932905197143555e-01,6.134455800056457520e-01,6.213346719741821289e-01,6.308780908584594727e-01,6.372033357620239258e-01,6.417471170425415039e-01,6.395717859268188477e-01,6.445281505584716797e-01,6.229514479637145996e-01,5.995603799819946289e-01,5.852177143096923828e-01,5.660656690597534180e-01,5.276425480842590332e-01,5.182030797004699707e-01,5.457657575607299805e-01,5.274640917778015137e-01,5.390648841857910156e-01,5.736328363418579102e-01,5.897541046142578125e-01,5.942655801773071289e-01,6.134546995162963867e-01,6.289225220680236816e-01,6.407409310340881348e-01,6.457787156105041504e-01,6.521800160408020020e-01,6.574352383613586426e-01,6.595109701156616211e-01,6.609898209571838379e-01,6.612338423728942871e-01,6.615079641342163086e-01,6.614907979965209961e-01,6.614046096801757812e-01,6.613169908523559570e-01,6.612294912338256836e-01,6.611421108245849609e-01,6.610547304153442383e-01,6.609674692153930664e-01,6.608800888061523438e-01,6.607929468154907227e-01,6.607053875923156738e-01,6.606181859970092773e-01,6.605309844017028809e-01,6.604435443878173828e-01,6.603565216064453125e-01,6.602692008018493652e-01,6.601821184158325195e-01,6.600949764251708984e-01,6.600077748298645020e-01,6.599205136299133301e-01,6.598334908485412598e-01,6.597464680671691895e-01,6.596593856811523438e-01,6.595715880393981934e-01,6.594790220260620117e-01,6.594135761260986328e-01,6.593530178070068359e-01,6.591416597366333008e-01,6.589318513870239258e-01,6.586114764213562012e-01,6.574532985687255859e-01,6.554561257362365723e-01,6.522744894027709961e-01,6.490552425384521484e-01,6.442273855209350586e-01,6.403603553771972656e-01,6.306689977645874023e-01,6.031955480575561523e-01,5.958237051963806152e-01,6.114317178726196289e-01,5.966803431510925293e-01,5.878763794898986816e-01,5.268068909645080566e-01
5.116003155708312988e-01,4.894214570522308350e-01,5.142393708229064941e-01,4.909908175468444824e-01,4.925741255283355713e-01,5.011553764343261719e-01,5.197580456733703613e-01,5.277082324028015137e-01,5.348555445671081543e-01,5.396576523780822754e-01,5.444889068603515625e-01,5.503368377685546875e-01,5.550504326820373535e-01,5.558523535728454590e-01,5.581799149513244629e-01,5.570267438888549805e-01,5.410082340240478516e-01,5.183714032173156738e-01,5.027906894683837891e-01,5.096774697303771973e-01,4.680677056312561035e-01,4.797541499137878418e-01,4.785951077938079834e-01,4.787591099739074707e-01,4.783053398132324219e-01,5.003822445869445801e-01,5.189706087112426758e-01,5.232092142105102539e-01,5.343139171600341797e-01,5.453188419342041016e-01,5.521036386489868164e-01,5.571660995483398438e-01,5.616384744644165039e-01,5.657201409339904785e-01,5.676460862159729004e-01,5.690099000930786133e-01,5.690077543258666992e-01,5.692595839500427246e-01,5.691637992858886719e-01,5.691043138504028320e-01,5.690174698829650879e-01,5.689308047294616699e-01,5.688441991806030273e-01,5.687575340270996094e-01,5.686706900596618652e-01,5.685842037200927734e-01,5.684974789619445801e-01,5.684110522270202637e-01,5.683245658874511719e-01,5.682379603385925293e-01,5.681514143943786621e-01,5.680649280548095703e-01,5.679785013198852539e-01,5.678920745849609375e-01,5.678056478500366211e-01,5.677192807197570801e-01,5.676329135894775391e-01,5.675466060638427734e-01,5.674602389335632324e-01,5.673739314079284668e-01,5.672873258590698242e-01,5.671945214271545410e-01,5.671091675758361816e-01,5.670686364173889160e-01,5.670369863510131836e-01,5.669605731964111328e-01,5.667214393615722656e-01,5.661793351173400879e-01,5.646688342094421387e-01,5.622380375862121582e-01,5.591766238212585449e-01,5.555615425109863281e-01,5.536194443702697754e-01,5.454423427581787109e-01,5.213828682899475098e-01,5.172738432884216309e-01,5.382987856864929199e-01,5.279750823974609375e-01,5.396116375923156738e-01,4.964716434478759766e-01
4.905956685543060303e-01,4.557283520698547363e-01,4.713619053363800049e-01,4.409443140029907227e-01,4.362794160842895508e-01,4.406356513500213623e-01,4.540582597255706787e-01,4.581380784511566162e-01,4.624686539173126221e-01,4.647705852985382080e-01,4.671645760536193848e-01,4.703331291675567627e-01,4.735229015350341797e-01,4.755118191242218018e-01,4.778306782245635986e-01,4.780324995517730713e-01,4.704377353191375732e-01,4.526901543140411377e-01,4.471441507339477539e-01,4.419772028923034668e-01,4.252072572708129883e-01,4.132037162780761719e-01,4.230004549026489258e-01,4.246013760566711426e-01,4.242260754108428955e-01,4.359163045883178711e-01,4.497649669647216797e-01,4.520874917507171631e-01,4.573713839054107666e-01,4.659091234207153320e-01,4.713750183582305908e-01,4.730664193630218506e-01,4.756068587303161621e-01,4.788168668746948242e-01,4.803686141967773438e-01,4.808375537395477295e-01,4.812290370464324951e-01,4.814164340496063232e-01,4.814048409461975098e-01,4.813161194324493408e-01,4.812435209751129150e-01,4.811706840991973877e-01,4.810979068279266357e-01,4.810252785682678223e-01,4.809526205062866211e-01,4.808799326419830322e-01,4.808073043823242188e-01,4.807347357273101807e-01,4.806621074676513672e-01,4.805895984172821045e-01,4.805172085762023926e-01,4.804445505142211914e-01,4.803721010684967041e-01,4.802998006343841553e-01,4.802272915840148926e-01,4.801548421382904053e-01,4.800824522972106934e-01,4.800101518630981445e-01,4.799377322196960449e-01,4.798654913902282715e-01,4.797928929328918457e-01,4.797168374061584473e-01,4.796341061592102051e-01,4.795691967010498047e-01,4.795556664466857910e-01,4.795628786087036133e-01,4.794855117797851562e-01,4.793956577777862549e-01,4.788247644901275635e-01,4.777979850769042969e-01,4.768758118152618408e-01,4.753140807151794434e-01,4.752842187881469727e-01,4.694362580776214600e-01,4.494393169879913330e-01,4.481997787952423096e-01,4.717467129230499268e-01,4.687440693378448486e-01,4.949503540992736816e-01,4.690742492675781250e-01
4.694169759750366211e-01,4.224275946617126465e-01,4.285596013069152832e-01,3.950826525688171387e-01,3.841181397438049316e-01,3.856830596923828125e-01,3.960974812507629395e-01,3.990356922149658203e-01,4.020617008209228516e-01,4.032436609268188477e-01,4.043929874897003174e-01,4.054405987262725830e-01,4.069614410400390625e-01,4.080037474632263184e-01,4.076216816902160645e-01,4.058192074298858643e-01,4.036901295185089111e-01,3.894469738006591797e-01,3.874572515487670898e-01,3.918359577655792236e-01,3.791034221649169922e-01,3.762964010238647461e-01,3.752341270446777344e-01,3.830333650112152100e-01,3.758511543273925781e-01,3.809374272823333740e-01,3.910594284534454346e-01,3.936386704444885254e-01,3.983735442161560059e-01,4.000993072986602783e-01,4.040708839893341064e-01,4.042752087116241455e-01,4.062938690185546875e-01,4.069573581218719482e-01,4.085965752601623535e-01,4.090883135795593262e-01,4.092133641242980957e-01,4.092262685298919678e-01,4.092361629009246826e-01,4.091860353946685791e-01,4.091284871101379395e-01,4.090708494186401367e-01,4.090133309364318848e-01,4.089557528495788574e-01,4.088981747627258301e-01,4.088408350944519043e-01,4.087831974029541016e-01,4.087258577346801758e-01,4.086683392524719238e-01,4.086108207702636719e-01,4.085533618927001953e-01,4.084962010383605957e-01,4.084388017654418945e-01,4.083813428878784180e-01,4.083241224288940430e-01,4.082668125629425049e-01,4.082094728946685791e-01,4.081523120403289795e-01,4.080950021743774414e-01,4.080377817153930664e-01,4.079812467098236084e-01,4.079236686229705811e-01,4.078690707683563232e-01,4.078190922737121582e-01,4.077882766723632812e-01,4.077691733837127686e-01,4.077894389629364014e-01,4.076954722404479980e-01,4.073145985603332520e-01,4.064804613590240479e-01,4.056394398212432861e-01,4.045534431934356689e-01,4.052052497863769531e-01,4.015094935894012451e-01,3.856433033943176270e-01,3.876541852951049805e-01,4.134746193885803223e-01,4.176951646804809570e-01,4.560021460056304932e-01,4.460470378398895264e-01
4.513967037200927734e-01,3.938277363777160645e-01,3.929913640022277832e-01,3.573015332221984863e-01,3.413677513599395752e-01,3.406587243080139160e-01,3.481045365333557129e-01,3.498255014419555664e-01,3.515228629112243652e-01,3.519536256790161133e-01,3.524404168128967285e-01,3.529475331306457520e-01,3.536680936813354492e-01,3.543623089790344238e-01,3.541293144226074219e-01,3.551340103149414062e-01,3.533648252487182617e-01,3.478274941444396973e-01,3.415823578834533691e-01,3.436468243598937988e-01,3.371336460113525391e-01,3.355976939201354980e-01,3.328949511051177979e-01,3.414691090583801270e-01,3.385074734687805176e-01,3.399793505668640137e-01,3.459796309471130371e-01,3.457965254783630371e-01,3.474209606647491455e-01,3.480385839939117432e-01,3.507199287414550781e-01,3.508095741271972656e-01,3.523281514644622803e-01,3.525319695472717285e-01,3.531369864940643311e-01,3.532025218009948730e-01,3.531660437583923340e-01,3.531711697578430176e-01,3.531494140625000000e-01,3.531327247619628906e-01,3.530915379524230957e-01,3.530506491661071777e-01,3.530095219612121582e-01,3.529684245586395264e-01,3.529273867607116699e-01,3.528862893581390381e-01,3.528453707695007324e-01,3.528046011924743652e-01,3.527635335922241211e-01,3.527224659919738770e-01,3.526814579963684082e-01,3.526405692100524902e-01,3.525996208190917969e-01,3.525586724281311035e-01,3.525179922580718994e-01,3.524771332740783691e-01,3.524362444877624512e-01,3.523954749107360840e-01,3.523547053337097168e-01,3.523136377334594727e-01,3.522731065750122070e-01,3.522326648235321045e-01,3.521897196769714355e-01,3.521608710289001465e-01,3.521222472190856934e-01,3.520669937133789062e-01,3.520709574222564697e-01,3.521154522895812988e-01,3.520647883415222168e-01,3.519872426986694336e-01,3.517277240753173828e-01,3.512718379497528076e-01,3.521080017089843750e-01,3.494788408279418945e-01,3.362921476364135742e-01,3.391609787940979004e-01,3.653128147125244141e-01,3.756769597530364990e-01,4.224376976490020752e-01,4.258155822753906250e-01
4.349678754806518555e-01,3.689448237419128418e-01,3.612750768661499023e-01,3.251661956310272217e-01,3.061305284500122070e-01,3.047568798065185547e-01,3.108623027801513672e-01,3.122477531433105469e-01,3.134067654609680176e-01,3.134232163429260254e-01,3.133977055549621582e-01,3.133109509944915771e-01,3.136197626590728760e-01,3.133386969566345215e-01,3.130109310150146484e-01,3.135741055011749268e-01,3.129986524581909180e-01,3.103778362274169922e-01,3.090407550334930420e-01,3.069875836372375488e-01,3.095824718475341797e-01,3.063759207725524902e-01,3.050692081451416016e-01,3.067275881767272949e-01,3.060383796691894531e-01,3.043586015701293945e-01,3.083502054214477539e-01,3.084791302680969238e-01,3.100985884666442871e-01,3.106876611709594727e-01,3.119242489337921143e-01,3.119600117206573486e-01,3.123195767402648926e-01,3.122971057891845703e-01,3.127346634864807129e-01,3.129198551177978516e-01,3.128844499588012695e-01,3.129713535308837891e-01,3.128732740879058838e-01,3.128696084022521973e-01,3.128397464752197266e-01,3.128099441528320312e-01,3.127799332141876221e-01,3.127502501010894775e-01,3.127204775810241699e-01,3.126906156539916992e-01,3.126607537269592285e-01,3.126308917999267578e-01,3.126013875007629395e-01,3.125715255737304688e-01,3.125417232513427734e-01,3.125119805335998535e-01,3.124821782112121582e-01,3.124525547027587891e-01,3.124227523803710938e-01,3.123931884765625000e-01,3.123635053634643555e-01,3.123337626457214355e-01,3.123041093349456787e-01,3.122743964195251465e-01,3.122451305389404297e-01,3.122153878211975098e-01,3.121861815452575684e-01,3.121544718742370605e-01,3.121240139007568359e-01,3.120940327644348145e-01,3.120536208152770996e-01,3.120020031929016113e-01,3.119772374629974365e-01,3.118604719638824463e-01,3.117246031761169434e-01,3.115064501762390137e-01,3.122491836547851562e-01,3.104217052459716797e-01,2.992305159568786621e-01,3.025886416435241699e-01,3.288202881813049316e-01,3.441893458366394043e-01,3.968260884284973145e-01,4.101018309593200684e-01
4.212121963500976562e-01,3.491293191909790039e-01,3.364076614379882812e-01,2.999932765960693359e-01,2.791697978973388672e-01,2.769937515258789062e-01,2.819460928440093994e-01,2.831119298934936523e-01,2.839951515197753906e-01,2.838883697986602783e-01,2.838474512100219727e-01,2.838405370712280273e-01,2.837939858436584473e-01,2.837896347045898438e-01,2.838637828826904297e-01,2.840074896812438965e-01,2.839505672454833984e-01,2.837109565734863281e-01,2.813163995742797852e-01,2.816660404205322266e-01,2.817785739898681641e-01,2.804503440856933594e-01,2.797685861587524414e-01,2.805827856063842773e-01,2.811324000358581543e-01,2.819172739982604980e-01,2.812696099281311035e-01,2.818512618541717529e-01,2.819902896881103516e-01,2.822214663028717041e-01,2.818666696548461914e-01,2.827880978584289551e-01,2.831030786037445068e-01,2.831273376941680908e-01,2.832876145839691162e-01,2.833510041236877441e-01,2.832453250885009766e-01,2.832151055335998535e-01,2.832148075103759766e-01,2.831885814666748047e-01,2.831670045852661133e-01,2.831455469131469727e-01,2.831238210201263428e-01,2.831022143363952637e-01,2.830805182456970215e-01,2.830587625503540039e-01,2.830373346805572510e-01,2.830156683921813965e-01,2.829940021038055420e-01,2.829724550247192383e-01,2.829510569572448730e-01,2.829292416572570801e-01,2.829076647758483887e-01,2.828862071037292480e-01,2.828645706176757812e-01,2.828432321548461914e-01,2.828215956687927246e-01,2.828000187873840332e-01,2.827785611152648926e-01,2.827569842338562012e-01,2.827354371547698975e-01,2.827142477035522461e-01,2.826923727989196777e-01,2.826716899871826172e-01,2.826502025127410889e-01,2.826249003410339355e-01,2.826017141342163086e-01,2.825924158096313477e-01,2.825831770896911621e-01,2.825823426246643066e-01,2.825632393360137939e-01,2.824546098709106445e-01,2.830949723720550537e-01,2.817846536636352539e-01,2.718607783317565918e-01,2.751361727714538574e-01,3.007391095161437988e-01,3.195618987083435059e-01,3.762972950935363770e-01,3.975785374641418457e-01
4.091751277446746826e-01,3.324904441833496094e-01,3.159779906272888184e-01,2.799488902091979980e-01,2.584222853183746338e-01,2.558312416076660156e-01,2.600255012512207031e-01,2.610181272029876709e-01,2.617910206317901611e-01,2.617082297801971436e-01,2.616685628890991211e-01,2.616358697414398193e-01,2.616156935691833496e-01,2.616033554077148438e-01,2.616227269172668457e-01,2.614662945270538330e-01,2.615504264831542969e-01,2.615113258361816406e-01,2.608819901943206787e-01,2.603205740451812744e-01,2.611668109893798828e-01,2.607536911964416504e-01,2.601993381977081299e-01,2.606277465820312500e-01,2.602329254150390625e-01,2.605629265308380127e-01,2.606913447380065918e-01,2.604298889636993408e-01,2.614236772060394287e-01,2.612947225570678711e-01,2.611564993858337402e-01,2.611024975776672363e-01,2.610353827476501465e-01,2.611061334609985352e-01,2.612544000148773193e-01,2.611579895019531250e-01,2.612766027450561523e-01,2.612303495407104492e-01,2.612056434154510498e-01,2.611793279647827148e-01,2.611631155014038086e-01,2.611466646194458008e-01,2.611300349235534668e-01,2.611137628555297852e-01,2.610971927642822266e-01,2.610808610916137695e-01,2.610642611980438232e-01,2.610479593276977539e-01,2.610313296318054199e-01,2.610149681568145752e-01,2.609985470771789551e-01,2.609819173812866211e-01,2.609656155109405518e-01,2.609492242336273193e-01,2.609328627586364746e-01,2.609162628650665283e-01,2.609000504016876221e-01,2.608837485313415527e-01,2.608673572540283203e-01,2.608507871627807617e-01,2.608343958854675293e-01,2.608180046081542969e-01,2.608018219470977783e-01,2.607851028442382812e-01,2.607686221599578857e-01,2.607518732547760010e-01,2.607344985008239746e-01,2.607192993164062500e-01,2.607039213180541992e-01,2.606884539127349854e-01,2.606729567050933838e-01,2.605946660041809082e-01,2.611132264137268066e-01,2.600671648979187012e-01,2.511698007583618164e-01,2.544479370117187500e-01,2.794590592384338379e-01,3.009945154190063477e-01,3.605833649635314941e-01,3.876323699951171875e-01
3.991091549396514893e-01,3.188905715942382812e-01,2.997260689735412598e-01,2.643868625164031982e-01,2.423035204410552979e-01,2.394161224365234375e-01,2.430764436721801758e-01,2.439666986465454102e-01,2.446582317352294922e-01,2.445948421955108643e-01,2.445642352104187012e-01,2.445459961891174316e-01,2.445257902145385742e-01,2.445309758186340332e-01,2.445137500762939453e-01,2.443754374980926514e-01,2.445829212665557861e-01,2.445784509181976318e-01,2.442542612552642822e-01,2.440721988677978516e-01,2.442165613174438477e-01,2.439783215522766113e-01,2.442169487476348877e-01,2.438834011554718018e-01,2.441765069961547852e-01,2.443065643310546875e-01,2.441095411777496338e-01,2.441789805889129639e-01,2.441303431987762451e-01,2.440773546695709229e-01,2.442700266838073730e-01,2.441866099834442139e-01,2.442898452281951904e-01,2.442958354949951172e-01,2.443298995494842529e-01,2.442253530025482178e-01,2.442002594470977783e-01,2.441909611225128174e-01,2.441933453083038330e-01,2.441780865192413330e-01,2.441652417182922363e-01,2.441523373126983643e-01,2.441393435001373291e-01,2.441265285015106201e-01,2.441137731075286865e-01,2.441008388996124268e-01,2.440879344940185547e-01,2.440750002861022949e-01,2.440620660781860352e-01,2.440493404865264893e-01,2.440363764762878418e-01,2.440233826637268066e-01,2.440106868743896484e-01,2.439977228641510010e-01,2.439849376678466797e-01,2.439720332622528076e-01,2.439592480659484863e-01,2.439463436603546143e-01,2.439336180686950684e-01,2.439207434654235840e-01,2.439078092575073242e-01,2.438949644565582275e-01,2.438822984695434570e-01,2.438694834709167480e-01,2.438564300537109375e-01,2.438430786132812500e-01,2.438302040100097656e-01,2.438167035579681396e-01,2.438037097454071045e-01,2.437907457351684570e-01,2.437777221202850342e-01,2.437135279178619385e-01,2.441381216049194336e-01,2.433026731014251709e-01,2.352238595485687256e-01,2.385354638099670410e-01,2.629327178001403809e-01,2.863667905330657959e-01,3.479798138141632080e-01,3.796819448471069336e-01
3.908081352710723877e-01,3.077772259712219238e-01,2.866264581680297852e-01,2.519667148590087891e-01,2.295310795307159424e-01,2.264038920402526855e-01,2.296696305274963379e-01,2.304596006870269775e-01,2.310810685157775879e-01,2.310264408588409424e-01,2.310003936290740967e-01,2.309891581535339355e-01,2.309760451316833496e-01,2.309737801551818848e-01,2.309500277042388916e-01,2.309052348136901855e-01,2.309499382972717285e-01,2.309544384479522705e-01,2.308739721775054932e-01,2.308216691017150879e-01,2.307987213134765625e-01,2.309540510177612305e-01,2.307162582874298096e-01,2.308538258075714111e-01,2.307594120502471924e-01,2.307277321815490723e-01,2.307506203651428223e-01,2.306847870349884033e-01,2.307027280330657959e-01,2.308226525783538818e-01,2.307557761669158936e-01,2.308078706264495850e-01,2.307873368263244629e-01,2.307186424732208252e-01,2.307358384132385254e-01,2.307418882846832275e-01,2.307426333427429199e-01,2.307243347167968750e-01,2.307038605213165283e-01,2.306983768939971924e-01,2.306880056858062744e-01,2.306778728961944580e-01,2.306672632694244385e-01,2.306569814682006836e-01,2.306466102600097656e-01,2.306362986564636230e-01,2.306258976459503174e-01,2.306154966354370117e-01,2.306052148342132568e-01,2.305948138236999512e-01,2.305843234062194824e-01,2.305741906166076660e-01,2.305639386177062988e-01,2.305534482002258301e-01,2.305432260036468506e-01,2.305327057838439941e-01,2.305225431919097900e-01,2.305122017860412598e-01,2.305018901824951172e-01,2.304915189743041992e-01,2.304811179637908936e-01,2.304711043834686279e-01,2.304604649543762207e-01,2.304503321647644043e-01,2.304400801658630371e-01,2.304296791553497314e-01,2.304194867610931396e-01,2.304088771343231201e-01,2.303988039493560791e-01,2.303884029388427734e-01,2.303777933120727539e-01,2.303242981433868408e-01,2.306801080703735352e-01,2.300039231777191162e-01,2.225890159606933594e-01,2.259122729301452637e-01,2.498073875904083252e-01,2.745909690856933594e-01,3.377264440059661865e-01,3.731981217861175537e-01
3.838093876838684082e-01,2.985764741897583008e-01,2.758280038833618164e-01,2.418436706066131592e-01,2.191885113716125488e-01,2.158559262752532959e-01,2.188114523887634277e-01,2.195127606391906738e-01,2.200791239738464355e-01,2.200314402580261230e-01,2.200085818767547607e-01,2.200001180171966553e-01,2.199912071228027344e-01,2.199832499027252197e-01,2.199718952178955078e-01,2.199604511260986328e-01,2.199716866016387939e-01,2.199634313583374023e-01,2.199587821960449219e-01,2.199137508869171143e-01,2.199459969997406006e-01,2.198860943317413330e-01,2.199087440967559814e-01,2.198548913002014160e-01,2.199034094810485840e-01,2.198832929134368896e-01,2.198716104030609131e-01,2.198193967342376709e-01,2.198230326175689697e-01,2.198257744312286377e-01,2.198357880115509033e-01,2.198095023632049561e-01,2.198121249675750732e-01,2.198203206062316895e-01,2.198159098625183105e-01,2.197987139225006104e-01,2.197892665863037109e-01,2.197784483432769775e-01,2.197714745998382568e-01,2.197616696357727051e-01,2.197532057762145996e-01,2.197445929050445557e-01,2.197361588478088379e-01,2.197279036045074463e-01,2.197192907333374023e-01,2.197107374668121338e-01,2.197022438049316406e-01,2.196936011314392090e-01,2.196852862834930420e-01,2.196767032146453857e-01,2.196682393550872803e-01,2.196598351001739502e-01,2.196514904499053955e-01,2.196428477764129639e-01,2.196345329284667969e-01,2.196260392665863037e-01,2.196176946163177490e-01,2.196090519428253174e-01,2.196007668972015381e-01,2.195921242237091064e-01,2.195836007595062256e-01,2.195752263069152832e-01,2.195666730403900146e-01,2.195582985877990723e-01,2.195498645305633545e-01,2.195414602756500244e-01,2.195330262184143066e-01,2.195246219635009766e-01,2.195160388946533203e-01,2.195076048374176025e-01,2.194984257221221924e-01,2.194534540176391602e-01,2.197587192058563232e-01,2.192096412181854248e-01,2.123407125473022461e-01,2.156696915626525879e-01,2.391536831855773926e-01,2.649239897727966309e-01,3.292263150215148926e-01,3.678057789802551270e-01
3.778362870216369629e-01,2.908428907394409180e-01,2.668055295944213867e-01,2.334571778774261475e-01,2.106570005416870117e-01,2.071470618247985840e-01,2.098508775234222412e-01,2.104744613170623779e-01,2.109918892383575439e-01,2.109499275684356689e-01,2.109301984310150146e-01,2.109230458736419678e-01,2.109155952930450439e-01,2.109084129333496094e-01,2.109010815620422363e-01,2.108938097953796387e-01,2.108862102031707764e-01,2.108832001686096191e-01,2.108729779720306396e-01,2.108627557754516602e-01,2.108628153800964355e-01,2.108548283576965332e-01,2.108416855335235596e-01,2.108402848243713379e-01,2.108382880687713623e-01,2.108333706855773926e-01,2.108106911182403564e-01,2.107956111431121826e-01,2.108016610145568848e-01,2.107941508293151855e-01,2.107873857021331787e-01,2.107813954353332520e-01,2.107749581336975098e-01,2.107667326927185059e-01,2.107610702514648438e-01,2.107525169849395752e-01,2.107460796833038330e-01,2.107386589050292969e-01,2.107314169406890869e-01,2.107245922088623047e-01,2.107173800468444824e-01,2.107103466987609863e-01,2.107031941413879395e-01,2.106962502002716064e-01,2.106890082359313965e-01,2.106819450855255127e-01,2.106750607490539551e-01,2.106680572032928467e-01,2.106608748435974121e-01,2.106536924839019775e-01,2.106466591358184814e-01,2.106395959854125977e-01,2.106325924396514893e-01,2.106254994869232178e-01,2.106186747550964355e-01,2.106115520000457764e-01,2.106043100357055664e-01,2.105972468852996826e-01,2.105902135372161865e-01,2.105830609798431396e-01,2.105762362480163574e-01,2.105689942836761475e-01,2.105620503425598145e-01,2.105550467967987061e-01,2.105477154254913330e-01,2.105408906936645508e-01,2.105337977409362793e-01,2.105269134044647217e-01,2.105197012424468994e-01,2.105127573013305664e-01,2.105050086975097656e-01,2.104661166667938232e-01,2.107326388359069824e-01,2.102854549884796143e-01,2.038699686527252197e-01,2.071997523307800293e-01,2.303350567817687988e-01,2.568479180335998535e-01,3.220592141151428223e-01,3.632436394691467285e-01
3.726792335510253906e-01,2.842498421669006348e-01,2.591601014137268066e-01,2.263979911804199219e-01,2.035057246685028076e-01,1.998406648635864258e-01,2.023378014564514160e-01,2.028928697109222412e-01,2.033691108226776123e-01,2.033318281173706055e-01,2.033141851425170898e-01,2.033084034919738770e-01,2.033022940158843994e-01,2.032962143421173096e-01,2.032900154590606689e-01,2.032839655876159668e-01,2.032780051231384277e-01,2.032723426818847656e-01,2.032660841941833496e-01,2.032605707645416260e-01,2.032543122768402100e-01,2.032508850097656250e-01,2.032423913478851318e-01,2.032371461391448975e-01,2.032313346862792969e-01,2.032255828380584717e-01,2.032183110713958740e-01,2.032127976417541504e-01,2.032064497470855713e-01,2.032010257244110107e-01,2.031937539577484131e-01,2.031888365745544434e-01,2.031819820404052734e-01,2.031765580177307129e-01,2.031704485416412354e-01,2.031643986701965332e-01,2.031584978103637695e-01,2.031525075435638428e-01,2.031466960906982422e-01,2.031406462192535400e-01,2.031345963478088379e-01,2.031285464763641357e-01,2.031225860118865967e-01,2.031166255474090576e-01,2.031107246875762939e-01,2.031044065952301025e-01,2.030988037586212158e-01,2.030928134918212891e-01,2.030870020389556885e-01,2.030808329582214355e-01,2.030747234821319580e-01,2.030689120292663574e-01,2.030628919601440430e-01,2.030569612979888916e-01,2.030510604381561279e-01,2.030449509620666504e-01,2.030392289161682129e-01,2.030330300331115723e-01,2.030271887779235840e-01,2.030211389064788818e-01,2.030151784420013428e-01,2.030092775821685791e-01,2.030033767223358154e-01,2.029971480369567871e-01,2.029913365840911865e-01,2.029855251312255859e-01,2.029797434806823730e-01,2.029735445976257324e-01,2.029678821563720703e-01,2.029615044593811035e-01,2.029550075531005859e-01,2.029211521148681641e-01,2.031567394733428955e-01,2.027924358844757080e-01,1.967586278915405273e-01,2.000867426395416260e-01,2.229207754135131836e-01,2.500030994415283203e-01,3.159325122833251953e-01,3.593320846557617188e-01
3.681827187538146973e-01,2.785640358924865723e-01,2.526047229766845703e-01,2.203781306743621826e-01,1.974301636219024658e-01,1.936284899711608887e-01,1.959537863731384277e-01,1.964487731456756592e-01,1.968895196914672852e-01,1.968562304973602295e-01,1.968405544757843018e-01,1.968354880809783936e-01,1.968301534652709961e-01,1.968252360820770264e-01,1.968201696872711182e-01,1.968149244785308838e-01,1.968098282814025879e-01,1.968047022819519043e-01,1.967996358871459961e-01,1.967942714691162109e-01,1.967890262603759766e-01,1.967841386795043945e-01,1.967787742614746094e-01,1.967739164829254150e-01,1.967687308788299561e-01,1.967634856700897217e-01,1.967584490776062012e-01,1.967533528804779053e-01,1.967482864856719971e-01,1.967430412769317627e-01,1.967380046844482422e-01,1.967328190803527832e-01,1.967276632785797119e-01,1.967226564884185791e-01,1.967173814773559570e-01,1.967122554779052734e-01,1.967073380947113037e-01,1.967020928859710693e-01,1.966970562934875488e-01,1.966918408870697021e-01,1.966867744922637939e-01,1.966816186904907227e-01,1.966766417026519775e-01,1.966714859008789062e-01,1.966661810874938965e-01,1.966613829135894775e-01,1.966560184955596924e-01,1.966509819030761719e-01,1.966458857059478760e-01,1.966407895088195801e-01,1.966357231140136719e-01,1.966303586959838867e-01,1.966255605220794678e-01,1.966201663017272949e-01,1.966151297092437744e-01,1.966101825237274170e-01,1.966050267219543457e-01,1.965998113155364990e-01,1.965948939323425293e-01,1.965897977352142334e-01,1.965845823287963867e-01,1.965794861316680908e-01,1.965743005275726318e-01,1.965691745281219482e-01,1.965642869472503662e-01,1.965590715408325195e-01,1.965540051460266113e-01,1.965489685535430908e-01,1.965440511703491211e-01,1.965389251708984375e-01,1.965328454971313477e-01,1.965031921863555908e-01,1.967139244079589844e-01,1.964174807071685791e-01,1.907092034816741943e-01,1.940336227416992188e-01,2.166035473346710205e-01,2.441295087337493896e-01,3.106343746185302734e-01,3.559398651123046875e-01
3.642280101776123047e-01,2.736118435859680176e-01,2.469251751899719238e-01,2.151865959167480469e-01,1.922080218791961670e-01,1.882864534854888916e-01,1.904662251472473145e-01,1.909080445766448975e-01,1.913180053234100342e-01,1.912879347801208496e-01,1.912739872932434082e-01,1.912695169448852539e-01,1.912651956081390381e-01,1.912606656551361084e-01,1.912560760974884033e-01,1.912517845630645752e-01,1.912473142147064209e-01,1.912429332733154297e-01,1.912384033203125000e-01,1.912340223789215088e-01,1.912297010421752930e-01,1.912250816822052002e-01,1.912207603454589844e-01,1.912163496017456055e-01,1.912119090557098389e-01,1.912074089050292969e-01,1.912029981613159180e-01,1.911986768245697021e-01,1.911942958831787109e-01,1.911898553371429443e-01,1.911851763725280762e-01,1.911810338497161865e-01,1.911763846874237061e-01,1.911720633506774902e-01,1.911677122116088867e-01,1.911632716655731201e-01,1.911589503288269043e-01,1.911544203758239746e-01,1.911498606204986572e-01,1.911456286907196045e-01,1.911410987377166748e-01,1.911368966102600098e-01,1.911323666572570801e-01,1.911277472972869873e-01,1.911234259605407715e-01,1.911190152168273926e-01,1.911145448684692383e-01,1.911100745201110840e-01,1.911058723926544189e-01,1.911013424396514893e-01,1.910970211029052734e-01,1.910923719406127930e-01,1.910880506038665771e-01,1.910835206508636475e-01,1.910792291164398193e-01,1.910747289657592773e-01,1.910704076290130615e-01,1.910659372806549072e-01,1.910615861415863037e-01,1.910571753978729248e-01,1.910527348518371582e-01,1.910483241081237793e-01,1.910439431667327881e-01,1.910394430160522461e-01,1.910351812839508057e-01,1.910305619239807129e-01,1.910262405872344971e-01,1.910218894481658936e-01,1.910172998905181885e-01,1.910130083560943604e-01,1.910078227519989014e-01,1.909816563129425049e-01,1.911720037460327148e-01,1.909321546554565430e-01,1.855032742023468018e-01,1.888230741024017334e-01,2.111592590808868408e-01,2.390356957912445068e-01,3.060064613819122314e-01,3.529696464538574219e-01
3.607213795185089111e-01,2.692630887031555176e-01,2.419592738151550293e-01,2.106661796569824219e-01,1.876741647720336914e-01,1.836432516574859619e-01,1.856957972049713135e-01,1.860905289649963379e-01,1.864740252494812012e-01,1.864466369152069092e-01,1.864338219165802002e-01,1.864300072193145752e-01,1.864261627197265625e-01,1.864221394062042236e-01,1.864184737205505371e-01,1.864145100116729736e-01,1.864106953144073486e-01,1.864068508148193359e-01,1.864029467105865479e-01,1.863991022109985352e-01,1.863952577114105225e-01,1.863912940025329590e-01,1.863874793052673340e-01,1.863835453987121582e-01,1.863797008991241455e-01,1.863758862018585205e-01,1.863720118999481201e-01,1.863680481910705566e-01,1.863642334938049316e-01,1.863604784011840820e-01,1.863565444946289062e-01,1.863527894020080566e-01,1.863488852977752686e-01,1.863448917865753174e-01,1.863410472869873047e-01,1.863373219966888428e-01,1.863333880901336670e-01,1.863295137882232666e-01,1.863257586956024170e-01,1.863215863704681396e-01,1.863180696964263916e-01,1.863139271736145020e-01,1.863101124763488770e-01,1.863062381744384766e-01,1.863024234771728516e-01,1.862985193729400635e-01,1.862946152687072754e-01,1.862909793853759766e-01,1.862870454788208008e-01,1.862831413745880127e-01,1.862793564796447754e-01,1.862753927707672119e-01,1.862716376781463623e-01,1.862677037715911865e-01,1.862639784812927246e-01,1.862600147724151611e-01,1.862561404705047607e-01,1.862523853778839111e-01,1.862486302852630615e-01,1.862446665763854980e-01,1.862407028675079346e-01,1.862368881702423096e-01,1.862331032752990723e-01,1.862291097640991211e-01,1.862255036830902100e-01,1.862214505672454834e-01,1.862176358699798584e-01,1.862138807773590088e-01,1.862099468708038330e-01,1.862058937549591064e-01,1.862013339996337891e-01,1.861783564090728760e-01,1.863520443439483643e-01,1.861597299575805664e-01,1.809749305248260498e-01,1.842894256114959717e-01,2.064182460308074951e-01,2.345693409442901611e-01,3.019183576107025146e-01,3.503373265266418457e-01
3.576366305351257324e-01,2.654593884944915771e-01,2.376319468021392822e-01,2.067408561706542969e-01,1.837361156940460205e-01,1.796092689037322998e-01,1.815569102764129639e-01,1.819102764129638672e-01,1.822707653045654297e-01,1.822455525398254395e-01,1.822336614131927490e-01,1.822301447391510010e-01,1.822266280651092529e-01,1.822232902050018311e-01,1.822199523448944092e-01,1.822163164615631104e-01,1.822129786014556885e-01,1.822095215320587158e-01,1.822061836719512939e-01,1.822027862071990967e-01,1.821994185447692871e-01,1.821961402893066406e-01,1.821926236152648926e-01,1.821892857551574707e-01,1.821860074996948242e-01,1.821824312210083008e-01,1.821789145469665527e-01,1.821756958961486816e-01,1.821721494197845459e-01,1.821689009666442871e-01,1.821654140949249268e-01,1.821621358394622803e-01,1.821586489677429199e-01,1.821552217006683350e-01,1.821517944335937500e-01,1.821483373641967773e-01,1.821448206901550293e-01,1.821416020393371582e-01,1.821381151676177979e-01,1.821348369121551514e-01,1.821313202381134033e-01,1.821281015872955322e-01,1.821246743202209473e-01,1.821211576461791992e-01,1.821177005767822266e-01,1.821144819259643555e-01,1.821110844612121582e-01,1.821074783802032471e-01,1.821044087409973145e-01,1.821008622646331787e-01,1.820975244045257568e-01,1.820943057537078857e-01,1.820908188819885254e-01,1.820873916149139404e-01,1.820839047431945801e-01,1.820805072784423828e-01,1.820771992206573486e-01,1.820736825466156006e-01,1.820703744888305664e-01,1.820667684078216553e-01,1.820634901523590088e-01,1.820602118968963623e-01,1.820567250251770020e-01,1.820532977581024170e-01,1.820499897003173828e-01,1.820465624332427979e-01,1.820432543754577637e-01,1.820397377014160156e-01,1.820364594459533691e-01,1.820331215858459473e-01,1.820290386676788330e-01,1.820077598094940186e-01,1.821665465831756592e-01,1.820147931575775146e-01,1.770399212837219238e-01,1.803425550460815430e-01,2.022817432880401611e-01,2.306683063507080078e-01,2.983108162879943848e-01,3.479937911033630371e-01
3.552450537681579590e-01,2.622931003570556641e-01,2.341419458389282227e-01,2.035847604274749756e-01,1.805838346481323242e-01,1.763859689235687256e-01,1.782708466053009033e-01,1.786160171031951904e-01,1.789564788341522217e-01,1.789320707321166992e-01,1.789214909076690674e-01,1.789182722568511963e-01,1.789153218269348145e-01,1.789122521877288818e-01,1.789092421531677246e-01,1.789062619209289551e-01,1.789031028747558594e-01,1.788999438285827637e-01,1.788971424102783203e-01,1.788941025733947754e-01,1.788909733295440674e-01,1.788880825042724609e-01,1.788848340511322021e-01,1.788818836212158203e-01,1.788789331912994385e-01,1.788759231567382812e-01,1.788730323314666748e-01,1.788697838783264160e-01,1.788669526576995850e-01,1.788636445999145508e-01,1.788607537746429443e-01,1.788577735424041748e-01,1.788548231124877930e-01,1.788516640663146973e-01,1.788484752178192139e-01,1.788455545902252197e-01,1.788425445556640625e-01,1.788395345211029053e-01,1.788366138935089111e-01,1.788334846496582031e-01,1.788305640220642090e-01,1.788274645805358887e-01,1.788246035575866699e-01,1.788213253021240234e-01,1.788183450698852539e-01,1.788154244422912598e-01,1.788123548030853271e-01,1.788093149662017822e-01,1.788061857223510742e-01,1.788031756877899170e-01,1.788002252578735352e-01,1.787971854209899902e-01,1.787940859794616699e-01,1.787911355495452881e-01,1.787882745265960693e-01,1.787853240966796875e-01,1.787821352481842041e-01,1.787790358066558838e-01,1.787761747837066650e-01,1.787731051445007324e-01,1.787700653076171875e-01,1.787669360637664795e-01,1.787638962268829346e-01,1.787610650062561035e-01,1.787580251693725586e-01,1.787549257278442383e-01,1.787519454956054688e-01,1.787488758563995361e-01,1.787458062171936035e-01,1.787427067756652832e-01,1.787391602993011475e-01,1.787201464176177979e-01,1.788682937622070312e-01,1.787449717521667480e-01,1.739434301853179932e-01,1.772517263889312744e-01,1.989183723926544189e-01,2.273611128330230713e-01,2.952041625976562500e-01,3.462703227996826172e-01
3.522574305534362793e-01,2.585251927375793457e-01,2.300026118755340576e-01,1.997254490852355957e-01,1.766570210456848145e-01,1.722861528396606445e-01,1.739256978034973145e-01,1.741942167282104492e-01,1.744939982891082764e-01,1.744738519191741943e-01,1.744643151760101318e-01,1.744616031646728516e-01,1.744591295719146729e-01,1.744563281536102295e-01,1.744536757469177246e-01,1.744510233402252197e-01,1.744483411312103271e-01,1.744456589221954346e-01,1.744428277015686035e-01,1.744403541088104248e-01,1.744376122951507568e-01,1.744351685047149658e-01,1.744325160980224609e-01,1.744298636913299561e-01,1.744271814823150635e-01,1.744245290756225586e-01,1.744218468666076660e-01,1.744191348552703857e-01,1.744163930416107178e-01,1.744139492511749268e-01,1.744111776351928711e-01,1.744084954261779785e-01,1.744058430194854736e-01,1.744032204151153564e-01,1.744006276130676270e-01,1.743977665901184082e-01,1.743952631950378418e-01,1.743927001953125000e-01,1.743900477886199951e-01,1.743874847888946533e-01,1.743847727775573730e-01,1.743820905685424805e-01,1.743792593479156494e-01,1.743766963481903076e-01,1.743740737438201904e-01,1.743713617324829102e-01,1.743686795234680176e-01,1.743662357330322266e-01,1.743635833263397217e-01,1.743607819080352783e-01,1.743580996990203857e-01,1.743555665016174316e-01,1.743528842926025391e-01,1.743502616882324219e-01,1.743476092815399170e-01,1.743450462818145752e-01,1.743425428867340088e-01,1.743399500846862793e-01,1.743371486663818359e-01,1.743343472480773926e-01,1.743316054344177246e-01,1.743291318416595459e-01,1.743264496326446533e-01,1.743238568305969238e-01,1.743212640285491943e-01,1.743184328079223633e-01,1.743158102035522461e-01,1.743132174015045166e-01,1.743103861808776855e-01,1.743080317974090576e-01,1.743046641349792480e-01,1.742869019508361816e-01,1.744296848773956299e-01,1.743083000183105469e-01,1.696795523166656494e-01,1.730745434761047363e-01,1.948002576828002930e-01,2.234535813331604004e-01,2.916886210441589355e-01,3.432700037956237793e-01
3.534514904022216797e-01,2.556044459342956543e-01,2.290324270725250244e-01,1.991971731185913086e-01,1.747826039791107178e-01,1.703464686870574951e-01,1.715827882289886475e-01,1.718481779098510742e-01,1.721435785293579102e-01,1.721236407756805420e-01,1.721154451370239258e-01,1.721129715442657471e-01,1.721106767654418945e-01,1.721083223819732666e-01,1.721058487892150879e-01,1.721035540103912354e-01,1.721012890338897705e-01,1.720987558364868164e-01,1.720962822437286377e-01,1.720941364765167236e-01,1.720917522907257080e-01,1.720891892910003662e-01,1.720869839191436768e-01,1.720846593379974365e-01,1.720822751522064209e-01,1.720800995826721191e-01,1.720775067806243896e-01,1.720750927925109863e-01,1.720727980136871338e-01,1.720702946186065674e-01,1.720679104328155518e-01,1.720656156539916992e-01,1.720632612705230713e-01,1.720609366893768311e-01,1.720585823059082031e-01,1.720561683177947998e-01,1.720538437366485596e-01,1.720514297485351562e-01,1.720489859580993652e-01,1.720466911792755127e-01,1.720442473888397217e-01,1.720421910285949707e-01,1.720396578311920166e-01,1.720372140407562256e-01,1.720348596572875977e-01,1.720323860645294189e-01,1.720300316810607910e-01,1.720277369022369385e-01,1.720254719257354736e-01,1.720229685306549072e-01,1.720207333564758301e-01,1.720183789730072021e-01,1.720159053802490234e-01,1.720135211944580078e-01,1.720112264156341553e-01,1.720089316368103027e-01,1.720065772533416748e-01,1.720041930675506592e-01,1.720017492771148682e-01,1.719992756843566895e-01,1.719970703125000000e-01,1.719948947429656982e-01,1.719925999641418457e-01,1.719900667667388916e-01,1.719875931739807129e-01,1.719853878021240234e-01,1.719830334186553955e-01,1.719805598258972168e-01,1.719780564308166504e-01,1.719757914543151855e-01,1.719737052917480469e-01,1.719534695148468018e-01,1.720584034919738770e-01,1.720511019229888916e-01,1.679013371467590332e-01,1.713122427463531494e-01,1.922451257705688477e-01,2.205622494220733643e-01,2.916398048400878906e-01,3.415895998477935791e-01
3.557892441749572754e-01,2.536357045173645020e-01,2.169751524925231934e-01,1.914362609386444092e-01,1.698940694332122803e-01,1.649748980998992920e-01,1.661598086357116699e-01,1.664630770683288574e-01,1.667143106460571289e-01,1.666942536830902100e-01,1.666870713233947754e-01,1.666849553585052490e-01,1.666830182075500488e-01,1.666809320449829102e-01,1.666788160800933838e-01,1.666768789291381836e-01,1.666750311851501465e-01,1.666728556156158447e-01,1.666707694530487061e-01,1.666689217090606689e-01,1.666666865348815918e-01,1.666646599769592285e-01,1.666626334190368652e-01,1.666606962680816650e-01,1.666586101055145264e-01,1.666564047336578369e-01,1.666545569896697998e-01,1.666524708271026611e-01,1.666505932807922363e-01,1.666483283042907715e-01,1.666462123394012451e-01,1.666442751884460449e-01,1.666420996189117432e-01,1.666400730609893799e-01,1.666381061077117920e-01,1.666361391544342041e-01,1.666339635848999023e-01,1.666320264339447021e-01,1.666298210620880127e-01,1.666278541088104248e-01,1.666258275508880615e-01,1.666238605976104736e-01,1.666216850280761719e-01,1.666198074817657471e-01,1.666178107261657715e-01,1.666157245635986328e-01,1.666137576103210449e-01,1.666114926338195801e-01,1.666095256805419922e-01,1.666074991226196289e-01,1.666055917739868164e-01,1.666035056114196777e-01,1.666014790534973145e-01,1.665994524955749512e-01,1.665974259376525879e-01,1.665952503681182861e-01,1.665932238101959229e-01,1.665914058685302734e-01,1.665892899036407471e-01,1.665874123573303223e-01,1.665851771831512451e-01,1.665830314159393311e-01,1.665810942649841309e-01,1.665790975093841553e-01,1.665770113468170166e-01,1.665748953819274902e-01,1.665729582309722900e-01,1.665710806846618652e-01,1.665689051151275635e-01,1.665669679641723633e-01,1.665665507316589355e-01,1.665425598621368408e-01,1.666100919246673584e-01,1.667923331260681152e-01,1.623804867267608643e-01,1.654345989227294922e-01,1.886160373687744141e-01,2.108092308044433594e-01,2.860364317893981934e-01,3.337816596031188965e-01
3.380681276321411133e-01,2.402375340461730957e-01,2.027119100093841553e-01,1.804861426353454590e-01,1.658498942852020264e-01,1.592113971710205078e-01,1.592738628387451172e-01,1.594821512699127197e-01,1.597132980823516846e-01,1.596962809562683105e-01,1.596911549568176270e-01,1.596894264221191406e-01,1.596876084804534912e-01,1.596862375736236572e-01,1.596844792366027832e-01,1.596828401088714600e-01,1.596810817718505859e-01,1.596794724464416504e-01,1.596779227256774902e-01,1.596763730049133301e-01,1.596745848655700684e-01,1.596730053424835205e-01,1.596713960170745850e-01,1.596697866916656494e-01,1.596678793430328369e-01,1.596662402153015137e-01,1.596646010875701904e-01,1.596631407737731934e-01,1.596615314483642578e-01,1.596598327159881592e-01,1.596583724021911621e-01,1.596564650535583496e-01,1.596548557281494141e-01,1.596531867980957031e-01,1.596514284610748291e-01,1.596499681472778320e-01,1.596480011940002441e-01,1.596465408802032471e-01,1.596449911594390869e-01,1.596432626247406006e-01,1.596417129039764404e-01,1.596399247646331787e-01,1.596384048461914062e-01,1.596366465091705322e-01,1.596350073814392090e-01,1.596333980560302734e-01,1.596318781375885010e-01,1.596301794052124023e-01,1.596284806728363037e-01,1.596268415451049805e-01,1.596252322196960449e-01,1.596235632896423340e-01,1.596219837665557861e-01,1.596203148365020752e-01,1.596186459064483643e-01,1.596170961856842041e-01,1.596152782440185547e-01,1.596136391162872314e-01,1.596121490001678467e-01,1.596105396747589111e-01,1.596087515354156494e-01,1.596071124076843262e-01,1.596055924892425537e-01,1.596038937568664551e-01,1.596021056175231934e-01,1.596006751060485840e-01,1.595990061759948730e-01,1.595974266529083252e-01,1.595957577228546143e-01,1.595941781997680664e-01,1.595925390720367432e-01,1.595644950866699219e-01,1.596035659313201904e-01,1.598353385925292969e-01,1.557648181915283203e-01,1.533350348472595215e-01,1.688700616359710693e-01,2.049820423126220703e-01,2.839685082435607910e-01,3.553453385829925537e-01
3.297485113143920898e-01,2.279984354972839355e-01,1.979691684246063232e-01,1.790175735950469971e-01,1.636386811733245850e-01,1.572905182838439941e-01,1.598433852195739746e-01,1.601178050041198730e-01,1.602983474731445312e-01,1.602827310562133789e-01,1.602786481380462646e-01,1.602773070335388184e-01,1.602761447429656982e-01,1.602745056152343750e-01,1.602729558944702148e-01,1.602715849876403809e-01,1.602703034877777100e-01,1.602688729763031006e-01,1.602675020694732666e-01,1.602659225463867188e-01,1.602644026279449463e-01,1.602630019187927246e-01,1.602616310119628906e-01,1.602601408958435059e-01,1.602586805820465088e-01,1.602571606636047363e-01,1.602558791637420654e-01,1.602543890476226807e-01,1.602529287338256836e-01,1.602516472339630127e-01,1.602501571178436279e-01,1.602487862110137939e-01,1.602472662925720215e-01,1.602457761764526367e-01,1.602443754673004150e-01,1.602429747581481934e-01,1.602416038513183594e-01,1.602402627468109131e-01,1.602388024330139160e-01,1.602372229099273682e-01,1.602359414100646973e-01,1.602345705032348633e-01,1.602331101894378662e-01,1.602316200733184814e-01,1.602303087711334229e-01,1.602287888526916504e-01,1.602271795272827148e-01,1.602259278297424316e-01,1.602244675159454346e-01,1.602230668067932129e-01,1.602214872837066650e-01,1.602202355861663818e-01,1.602187454700469971e-01,1.602172851562500000e-01,1.602157354354858398e-01,1.602144539356231689e-01,1.602129936218261719e-01,1.602115631103515625e-01,1.602101922035217285e-01,1.602087020874023438e-01,1.602074503898620605e-01,1.602059304714202881e-01,1.602045595645904541e-01,1.602029502391815186e-01,1.602015793323516846e-01,1.602002978324890137e-01,1.601987779140472412e-01,1.601974070072174072e-01,1.601958572864532471e-01,1.601944863796234131e-01,1.601957082748413086e-01,1.601740121841430664e-01,1.602481603622436523e-01,1.604145467281341553e-01,1.554419994354248047e-01,1.561038792133331299e-01,1.747390925884246826e-01,1.962413787841796875e-01,3.100820481777191162e-01,3.704554736614227295e-01
3.673299849033355713e-01,2.730015814304351807e-01,2.366615533828735352e-01,1.968860626220703125e-01,1.776396632194519043e-01,1.728607416152954102e-01,1.740672290325164795e-01,1.743152141571044922e-01,1.744396686553955078e-01,1.744302809238433838e-01,1.744278371334075928e-01,1.744270026683807373e-01,1.744260489940643311e-01,1.744251251220703125e-01,1.744239926338195801e-01,1.744230091571807861e-01,1.744219660758972168e-01,1.744210124015808105e-01,1.744199693202972412e-01,1.744190454483032227e-01,1.744180917739868164e-01,1.744169890880584717e-01,1.744160056114196777e-01,1.744151115417480469e-01,1.744140386581420898e-01,1.744130849838256836e-01,1.744120419025421143e-01,1.744111776351928711e-01,1.744100451469421387e-01,1.744091808795928955e-01,1.744081974029541016e-01,1.744071841239929199e-01,1.744059920310974121e-01,1.744050681591033936e-01,1.744042336940765381e-01,1.744030117988586426e-01,1.744022071361541748e-01,1.744011938571929932e-01,1.744002103805541992e-01,1.743991672992706299e-01,1.743983030319213867e-01,1.743972301483154297e-01,1.743962466716766357e-01,1.743952631950378418e-01,1.743942499160766602e-01,1.743931770324707031e-01,1.743923723697662354e-01,1.743913888931274414e-01,1.743901669979095459e-01,1.743892729282379150e-01,1.743882894515991211e-01,1.743872165679931641e-01,1.743862926959991455e-01,1.743853688240051270e-01,1.743842661380767822e-01,1.743833124637603760e-01,1.743825674057006836e-01,1.743814349174499512e-01,1.743803918361663818e-01,1.743795573711395264e-01,1.743786633014678955e-01,1.743775010108947754e-01,1.743763685226440430e-01,1.743753254413604736e-01,1.743745207786560059e-01,1.743733882904052734e-01,1.743726134300231934e-01,1.743715107440948486e-01,1.743705868721008301e-01,1.743695735931396484e-01,1.743684113025665283e-01,1.743547022342681885e-01,1.744389235973358154e-01,1.744461059570312500e-01,1.704315245151519775e-01,1.741121113300323486e-01,1.803806126117706299e-01,1.959725916385650635e-01,2.897701859474182129e-01,3.657964169979095459e-01
3.785714507102966309e-01,3.069036602973937988e-01,2.609404623508453369e-01,2.302911281585693359e-01,2.096590101718902588e-01,2.076258361339569092e-01,2.071301639080047607e-01,2.072287797927856445e-01,2.073737978935241699e-01,2.073735594749450684e-01,2.073746323585510254e-01,2.073738873004913330e-01,2.073732614517211914e-01,2.073728442192077637e-01,2.073720991611480713e-01,2.073714435100555420e-01,2.073708176612854004e-01,2.073700726032257080e-01,2.073695063591003418e-01,2.073690295219421387e-01,2.073683142662048340e-01,2.073676586151123047e-01,2.073669731616973877e-01,2.073663473129272461e-01,2.073656320571899414e-01,2.073649764060974121e-01,2.073644399642944336e-01,2.073637247085571289e-01,2.073633372783660889e-01,2.073625326156616211e-01,2.073618769645690918e-01,2.073611915111541748e-01,2.073605060577392578e-01,2.073599696159362793e-01,2.073594033718109131e-01,2.073586881160736084e-01,2.073579728603363037e-01,2.073574662208557129e-01,2.073568701744079590e-01,2.073561847209930420e-01,2.073555290699005127e-01,2.073548138141632080e-01,2.073543667793273926e-01,2.073537409305572510e-01,2.073530852794647217e-01,2.073525488376617432e-01,2.073517739772796631e-01,2.073510885238647461e-01,2.073503732681274414e-01,2.073498964309692383e-01,2.073492407798767090e-01,2.073485553264617920e-01,2.073478698730468750e-01,2.073472440242767334e-01,2.073466181755065918e-01,2.073460519313812256e-01,2.073455452919006348e-01,2.073447406291961670e-01,2.073442041873931885e-01,2.073434889316558838e-01,2.073428928852081299e-01,2.073422670364379883e-01,2.073416113853454590e-01,2.073411345481872559e-01,2.073404490947723389e-01,2.073397338390350342e-01,2.073391377925872803e-01,2.073383033275604248e-01,2.073377966880798340e-01,2.073372006416320801e-01,2.073360085487365723e-01,2.073109447956085205e-01,2.072975039482116699e-01,2.073973715305328369e-01,2.048479616641998291e-01,2.087790071964263916e-01,2.079809010028839111e-01,2.248888015747070312e-01,2.848501801490783691e-01,3.590070009231567383e-01
