5.886880755424499512e-01,6.142472028732299805e-01,6.568667292594909668e-01,6.576872467994689941e-01,6.812380552291870117e-01,7.054743170738220215e-01,7.418444752693176270e-01,7.639263868331909180e-01,7.841359376907348633e-01,7.938666939735412598e-01,7.997961044311523438e-01,8.018771409988403320e-01,7.949151992797851562e-01,7.730932235717773438e-01,7.287210226058959961e-01,6.358695030212402344e-01,5.761186480522155762e-01,5.396307706832885742e-01,4.640409946441650391e-01,4.207241833209991455e-01,3.821239471435546875e-01,3.714400231838226318e-01,3.604442179203033447e-01,3.675677776336669922e-01,3.896439671516418457e-01,4.133939743041992188e-01,4.780168533325195312e-01,5.362082123756408691e-01,6.031070947647094727e-01,7.044609785079956055e-01,7.732535600662231445e-01,8.268199563026428223e-01,8.592129945755004883e-01,8.798958659172058105e-01,8.924694657325744629e-01,8.995236158370971680e-01,9.032889604568481445e-01,9.050207138061523438e-01,9.052404165267944336e-01,9.053343534469604492e-01,9.053283333778381348e-01,9.053283333778381348e-01,9.053283333778381348e-01,9.053283333778381348e-01,9.053283333778381348e-01,9.053283333778381348e-01,9.053283333778381348e-01,9.053283333778381348e-01,9.053283333778381348e-01,9.053283333778381348e-01,9.053283333778381348e-01,9.053283333778381348e-01,9.053283333778381348e-01,9.053283333778381348e-01,9.053283333778381348e-01,9.053283333778381348e-01,9.053283333778381348e-01,9.053283333778381348e-01,9.053283333778381348e-01,9.053283333778381348e-01,9.053285121917724609e-01,9.053297042846679688e-01,9.053524732589721680e-01,9.053734540939331055e-01,9.051614999771118164e-01,9.045417904853820801e-01,9.034025073051452637e-01,9.016456604003906250e-01,8.990695476531982422e-01,8.949663639068603516e-01,8.886604905128479004e-01,8.801907896995544434e-01,8.708330988883972168e-01,8.578780889511108398e-01,8.292734026908874512e-01,8.082616329193115234e-01,8.006614446640014648e-01,7.746660113334655762e-01,7.220335602760314941e-01,6.160538196563720703e-01
5.886811017990112305e-01,6.142359972000122070e-01,6.568537950515747070e-01,6.576721072196960449e-01,6.812211275100708008e-01,7.054461836814880371e-01,7.418050169944763184e-01,7.639716863632202148e-01,7.846286296844482422e-01,7.948020100593566895e-01,8.032335042953491211e-01,8.079921603202819824e-01,8.013401627540588379e-01,7.846110463142395020e-01,7.376112341880798340e-01,6.569118499755859375e-01,5.932111740112304688e-01,5.506436228752136230e-01,4.826545417308807373e-01,4.257303178310394287e-01,3.949161171913146973e-01,3.785652816295623779e-01,3.620090186595916748e-01,3.718551993370056152e-01,3.909552693367004395e-01,4.145376384258270264e-01,4.650504589080810547e-01,5.250702500343322754e-01,6.017634868621826172e-01,6.903045177459716797e-01,7.682032585144042969e-01,8.112272024154663086e-01,8.549306988716125488e-01,8.784348964691162109e-01,8.908988237380981445e-01,8.970237970352172852e-01,9.027824401855468750e-01,9.049043059349060059e-01,9.052881002426147461e-01,9.053463935852050781e-01,9.053283333778381348e-01,9.053283333778381348e-01,9.053283333778381348e-01,9.053283333778381348e-01,9.053283333778381348e-01,9.053283333778381348e-01,9.053283333778381348e-01,9.053283333778381348e-01,9.053283333778381348e-01,9.053283333778381348e-01,9.053283333778381348e-01,9.053283333778381348e-01,9.053283333778381348e-01,9.053283333778381348e-01,9.053283333778381348e-01,9.053283333778381348e-01,9.053283333778381348e-01,9.053283333778381348e-01,9.053283333778381348e-01,9.053283333778381348e-01,9.053285121917724609e-01,9.053297042846679688e-01,9.053521156311035156e-01,9.053735136985778809e-01,9.051614999771118164e-01,9.045422077178955078e-01,9.034036397933959961e-01,9.016473293304443359e-01,8.990720510482788086e-01,8.949687480926513672e-01,8.886654376983642578e-01,8.801972866058349609e-01,8.708397746086120605e-01,8.578861951828002930e-01,8.292871713638305664e-01,8.082758784294128418e-01,8.006740212440490723e-01,7.746790051460266113e-01,7.220444083213806152e-01,6.160601973533630371e-01
5.886743068695068359e-01,6.142250299453735352e-01,6.568408608436584473e-01,6.576570272445678711e-01,6.812047362327575684e-01,7.054120302200317383e-01,7.417669296264648438e-01,7.638789415359497070e-01,7.844354510307312012e-01,7.967578172683715820e-01,8.067443966865539551e-01,8.132947683334350586e-01,8.106093406677246094e-01,7.929841279983520508e-01,7.482591271400451660e-01,6.809480190277099609e-01,6.209999918937683105e-01,5.819559097290039062e-01,5.071401000022888184e-01,4.618374109268188477e-01,4.127285182476043701e-01,3.828068971633911133e-01,3.741054534912109375e-01,3.878895640373229980e-01,3.962356150150299072e-01,4.232510924339294434e-01,4.703559577465057373e-01,5.202335715293884277e-01,5.918467044830322266e-01,6.823740601539611816e-01,7.593696117401123047e-01,8.150017261505126953e-01,8.518600463867187500e-01,8.753998875617980957e-01,8.908994793891906738e-01,8.970384597778320312e-01,9.032311439514160156e-01,9.047603607177734375e-01,9.052267670631408691e-01,9.053312540054321289e-01,9.053283333778381348e-01,9.053283333778381348e-01,9.053283333778381348e-01,9.053283333778381348e-01,9.053283333778381348e-01,9.053283333778381348e-01,9.053283333778381348e-01,9.053283333778381348e-01,9.053283333778381348e-01,9.053283333778381348e-01,9.053283333778381348e-01,9.053283333778381348e-01,9.053283333778381348e-01,9.053283333778381348e-01,9.053283333778381348e-01,9.053283333778381348e-01,9.053283333778381348e-01,9.053283333778381348e-01,9.053283333778381348e-01,9.053283333778381348e-01,9.053285121917724609e-01,9.053297042846679688e-01,9.053521156311035156e-01,9.053735136985778809e-01,9.051617383956909180e-01,9.045426845550537109e-01,9.034045934677124023e-01,9.016487598419189453e-01,8.990738987922668457e-01,8.949722051620483398e-01,8.886708021163940430e-01,8.802043199539184570e-01,8.708469867706298828e-01,8.578959703445434570e-01,8.292990326881408691e-01,8.082888126373291016e-01,8.006868362426757812e-01,7.746912240982055664e-01,7.220542430877685547e-01,6.160672307014465332e-01
5.886676907539367676e-01,6.142141222953796387e-01,6.568282842636108398e-01,6.576424837112426758e-01,6.811882257461547852e-01,7.053844928741455078e-01,7.417444586753845215e-01,7.641090750694274902e-01,7.859728336334228516e-01,7.991845607757568359e-01,8.111532926559448242e-01,8.200602531433105469e-01,8.177031278610229492e-01,8.049247264862060547e-01,7.667675018310546875e-01,7.167255878448486328e-01,6.623245477676391602e-01,6.337975859642028809e-01,5.474759340286254883e-01,4.946373403072357178e-01,4.332511126995086670e-01,4.018037915229797363e-01,4.002687036991119385e-01,4.033701121807098389e-01,4.118639230728149414e-01,4.214660525321960449e-01,4.721126556396484375e-01,5.326954126358032227e-01,5.950120091438293457e-01,6.819853186607360840e-01,7.458462715148925781e-01,8.113080859184265137e-01,8.502461910247802734e-01,8.693506717681884766e-01,8.880915045738220215e-01,8.975344896316528320e-01,9.024015665054321289e-01,9.050287008285522461e-01,9.051972031593322754e-01,9.053279161453247070e-01,9.053283333778381348e-01,9.053283333778381348e-01,9.053283333778381348e-01,9.053283333778381348e-01,9.053283333778381348e-01,9.053283333778381348e-01,9.053283333778381348e-01,9.053283333778381348e-01,9.053283333778381348e-01,9.053283333778381348e-01,9.053283333778381348e-01,9.053283333778381348e-01,9.053283333778381348e-01,9.053283333778381348e-01,9.053283333778381348e-01,9.053283333778381348e-01,9.053283333778381348e-01,9.053283333778381348e-01,9.053283333778381348e-01,9.053283333778381348e-01,9.053285121917724609e-01,9.053297042846679688e-01,9.053521156311035156e-01,9.053735136985778809e-01,9.051617383956909180e-01,9.045432806015014648e-01,9.034054875373840332e-01,9.016500711441040039e-01,8.990759849548339844e-01,8.949753046035766602e-01,8.886758685111999512e-01,8.802110552787780762e-01,8.708550930023193359e-01,8.579055070877075195e-01,8.293105959892272949e-01,8.083015084266662598e-01,8.006994724273681641e-01,7.747036218643188477e-01,7.220641970634460449e-01,6.160742640495300293e-01
5.886614918708801270e-01,6.142038106918334961e-01,6.568159461021423340e-01,6.576278209686279297e-01,6.811723709106445312e-01,7.053729891777038574e-01,7.417044639587402344e-01,7.641052007675170898e-01,7.855544090270996094e-01,7.982230782508850098e-01,8.127925395965576172e-01,8.297063112258911133e-01,8.265421986579895020e-01,8.179292678833007812e-01,7.890632152557373047e-01,7.535910606384277344e-01,7.222024202346801758e-01,6.708161830902099609e-01,5.869359374046325684e-01,5.243516564369201660e-01,4.656446576118469238e-01,4.336604773998260498e-01,4.273607134819030762e-01,4.377776384353637695e-01,4.317387640476226807e-01,4.398679733276367188e-01,4.767775535583496094e-01,5.350035429000854492e-01,6.205450892448425293e-01,6.683908700942993164e-01,7.528018951416015625e-01,8.112220764160156250e-01,8.503651618957519531e-01,8.724663853645324707e-01,8.913123607635498047e-01,8.985441327095031738e-01,9.017757177352905273e-01,9.046840071678161621e-01,9.051945209503173828e-01,9.053428173065185547e-01,9.053283333778381348e-01,9.053283333778381348e-01,9.053283333778381348e-01,9.053283333778381348e-01,9.053283333778381348e-01,9.053283333778381348e-01,9.053283333778381348e-01,9.053283333778381348e-01,9.053283333778381348e-01,9.053283333778381348e-01,9.053283333778381348e-01,9.053283333778381348e-01,9.053283333778381348e-01,9.053283333778381348e-01,9.053283333778381348e-01,9.053283333778381348e-01,9.053283333778381348e-01,9.053283333778381348e-01,9.053283333778381348e-01,9.053283333778381348e-01,9.053285121917724609e-01,9.053297042846679688e-01,9.053521156311035156e-01,9.053734540939331055e-01,9.051619768142700195e-01,9.045437574386596680e-01,9.034062027931213379e-01,9.016516208648681641e-01,8.990780115127563477e-01,8.949786424636840820e-01,8.886808156967163086e-01,8.802176713943481445e-01,8.708629012107849121e-01,8.579149246215820312e-01,8.293220996856689453e-01,8.083140254020690918e-01,8.007121086120605469e-01,7.747156620025634766e-01,7.220744490623474121e-01,6.160812377929687500e-01
5.886559486389160156e-01,6.141945123672485352e-01,6.568046212196350098e-01,6.576141119003295898e-01,6.811571121215820312e-01,7.053655982017517090e-01,7.416840791702270508e-01,7.639397382736206055e-01,7.845469713211059570e-01,7.991563081741333008e-01,8.142955303192138672e-01,8.317878246307373047e-01,8.318496942520141602e-01,8.286465406417846680e-01,8.172354698181152344e-01,7.864528298377990723e-01,7.438356876373291016e-01,7.066813111305236816e-01,6.203209757804870605e-01,5.690311789512634277e-01,5.026354193687438965e-01,4.773513078689575195e-01,4.540857970714569092e-01,4.700202345848083496e-01,4.607962965965270996e-01,4.701302945613861084e-01,5.031039118766784668e-01,5.393038392066955566e-01,6.176896095275878906e-01,6.931422948837280273e-01,7.623355388641357422e-01,8.132497668266296387e-01,8.495644927024841309e-01,8.762617111206054688e-01,8.902348279953002930e-01,8.965713381767272949e-01,9.027523994445800781e-01,9.046465158462524414e-01,9.051924347877502441e-01,9.053365588188171387e-01,9.053283333778381348e-01,9.053283333778381348e-01,9.053283333778381348e-01,9.053283333778381348e-01,9.053283333778381348e-01,9.053283333778381348e-01,9.053283333778381348e-01,9.053283333778381348e-01,9.053283333778381348e-01,9.053283333778381348e-01,9.053283333778381348e-01,9.053283333778381348e-01,9.053283333778381348e-01,9.053283333778381348e-01,9.053283333778381348e-01,9.053283333778381348e-01,9.053283333778381348e-01,9.053283333778381348e-01,9.053283333778381348e-01,9.053283333778381348e-01,9.053285121917724609e-01,9.053297042846679688e-01,9.053520560264587402e-01,9.053733348846435547e-01,9.051622152328491211e-01,9.045441150665283203e-01,9.034070968627929688e-01,9.016529321670532227e-01,8.990799784660339355e-01,8.949817419052124023e-01,8.886857032775878906e-01,8.802244663238525391e-01,8.708708286285400391e-01,8.579244613647460938e-01,8.293333053588867188e-01,8.083268404006958008e-01,8.007246255874633789e-01,7.747277617454528809e-01,7.220845222473144531e-01,6.160882115364074707e-01
5.886510014533996582e-01,6.141861677169799805e-01,6.567944288253784180e-01,6.576018333435058594e-01,6.811428070068359375e-01,7.053437232971191406e-01,7.416328191757202148e-01,7.637907862663269043e-01,7.839562892913818359e-01,8.004933595657348633e-01,8.204392194747924805e-01,8.370113372802734375e-01,8.382109403610229492e-01,8.373638987541198730e-01,8.251365423202514648e-01,8.071639537811279297e-01,7.687809467315673828e-01,7.486125230789184570e-01,6.655490398406982422e-01,5.925061106681823730e-01,5.380131602287292480e-01,5.129969120025634766e-01,4.980011880397796631e-01,4.835838079452514648e-01,4.929019510746002197e-01,4.898612499237060547e-01,5.309172868728637695e-01,5.716375112533569336e-01,6.454038619995117188e-01,7.125948071479797363e-01,7.696249485015869141e-01,8.112779855728149414e-01,8.517709970474243164e-01,8.776245117187500000e-01,8.912895917892456055e-01,8.969148993492126465e-01,9.021298885345458984e-01,9.048724174499511719e-01,9.052288532257080078e-01,9.053440093994140625e-01,9.053283333778381348e-01,9.053283333778381348e-01,9.053283333778381348e-01,9.053283333778381348e-01,9.053283333778381348e-01,9.053283333778381348e-01,9.053283333778381348e-01,9.053283333778381348e-01,9.053283333778381348e-01,9.053283333778381348e-01,9.053283333778381348e-01,9.053283333778381348e-01,9.053283333778381348e-01,9.053283333778381348e-01,9.053283333778381348e-01,9.053283333778381348e-01,9.053283333778381348e-01,9.053283333778381348e-01,9.053283333778381348e-01,9.053283333778381348e-01,9.053285121917724609e-01,9.053297042846679688e-01,9.053520560264587402e-01,9.053733944892883301e-01,9.051623344421386719e-01,9.045447111129760742e-01,9.034080505371093750e-01,9.016541242599487305e-01,8.990818262100219727e-01,8.949849605560302734e-01,8.886907100677490234e-01,8.802312016487121582e-01,8.708786964416503906e-01,8.579338788986206055e-01,8.293448686599731445e-01,8.083392381668090820e-01,8.007371425628662109e-01,7.747400403022766113e-01,7.220945358276367188e-01,6.160952448844909668e-01
5.886464715003967285e-01,6.141785979270935059e-01,6.567854285240173340e-01,6.575912833213806152e-01,6.811305284500122070e-01,7.053301334381103516e-01,7.416168451309204102e-01,7.631552219390869141e-01,7.838708758354187012e-01,8.013933300971984863e-01,8.220269680023193359e-01,8.395663499832153320e-01,8.419710993766784668e-01,8.403958082199096680e-01,8.357115387916564941e-01,8.251500725746154785e-01,7.997164726257324219e-01,7.641153931617736816e-01,7.057665586471557617e-01,6.128934025764465332e-01,5.560786724090576172e-01,5.327369570732116699e-01,5.234140753746032715e-01,5.274465680122375488e-01,5.209413766860961914e-01,5.233968496322631836e-01,5.511447191238403320e-01,5.962219238281250000e-01,6.838128566741943359e-01,7.075055837631225586e-01,7.841737270355224609e-01,8.222411870956420898e-01,8.538533449172973633e-01,8.774541020393371582e-01,8.915903568267822266e-01,8.996604681015014648e-01,9.026463627815246582e-01,9.047898054122924805e-01,9.052288532257080078e-01,9.053363800048828125e-01,9.053283333778381348e-01,9.053283333778381348e-01,9.053283333778381348e-01,9.053283333778381348e-01,9.053283333778381348e-01,9.053283333778381348e-01,9.053283333778381348e-01,9.053283333778381348e-01,9.053283333778381348e-01,9.053283333778381348e-01,9.053283333778381348e-01,9.053283333778381348e-01,9.053283333778381348e-01,9.053283333778381348e-01,9.053283333778381348e-01,9.053283333778381348e-01,9.053283333778381348e-01,9.053283333778381348e-01,9.053283333778381348e-01,9.053283333778381348e-01,9.053285121917724609e-01,9.053297042846679688e-01,9.053519964218139648e-01,9.053733348846435547e-01,9.051624536514282227e-01,9.045451283454895020e-01,9.034087657928466797e-01,9.016554355621337891e-01,8.990838527679443359e-01,8.949882984161376953e-01,8.886955380439758301e-01,8.802376389503479004e-01,8.708864450454711914e-01,8.579434752464294434e-01,8.293561935424804688e-01,8.083518743515014648e-01,8.007496595382690430e-01,7.747521400451660156e-01,7.221044898033142090e-01,6.161023974418640137e-01
5.886421203613281250e-01,6.141713857650756836e-01,6.567766070365905762e-01,6.575812101364135742e-01,6.811195611953735352e-01,7.053316235542297363e-01,7.416079640388488770e-01,7.628994584083557129e-01,7.842741012573242188e-01,8.037595152854919434e-01,8.235934972763061523e-01,8.404166698455810547e-01,8.472777605056762695e-01,8.496992588043212891e-01,8.439357280731201172e-01,8.286126852035522461e-01,8.110414743423461914e-01,7.893064618110656738e-01,7.276048660278320312e-01,6.552362442016601562e-01,5.884106159210205078e-01,5.495706796646118164e-01,5.309829711914062500e-01,5.685230493545532227e-01,5.567074418067932129e-01,5.520125031471252441e-01,5.725246667861938477e-01,6.108853816986083984e-01,6.908699274063110352e-01,7.428959608078002930e-01,7.885380983352661133e-01,8.342129588127136230e-01,8.551292419433593750e-01,8.799840807914733887e-01,8.914873003959655762e-01,9.000719785690307617e-01,9.034214019775390625e-01,9.048713445663452148e-01,9.052351713180541992e-01,9.053270816802978516e-01,9.053283333778381348e-01,9.053283333778381348e-01,9.053283333778381348e-01,9.053283333778381348e-01,9.053283333778381348e-01,9.053283333778381348e-01,9.053283333778381348e-01,9.053283333778381348e-01,9.053283333778381348e-01,9.053283333778381348e-01,9.053283333778381348e-01,9.053283333778381348e-01,9.053283333778381348e-01,9.053283333778381348e-01,9.053283333778381348e-01,9.053283333778381348e-01,9.053283333778381348e-01,9.053283333778381348e-01,9.053283333778381348e-01,9.053283333778381348e-01,9.053285121917724609e-01,9.053297042846679688e-01,9.053520560264587402e-01,9.053732752799987793e-01,9.051625728607177734e-01,9.045456647872924805e-01,9.034098386764526367e-01,9.016569256782531738e-01,8.990858793258666992e-01,8.949915170669555664e-01,8.887005448341369629e-01,8.802441954612731934e-01,8.708943128585815430e-01,8.579528331756591797e-01,8.293676376342773438e-01,8.083645105361938477e-01,8.007622361183166504e-01,7.747644186019897461e-01,7.221146225929260254e-01,6.161094903945922852e-01
5.886374115943908691e-01,6.141639947891235352e-01,6.567686200141906738e-01,6.575720906257629395e-01,6.811090707778930664e-01,7.053214311599731445e-01,7.416292428970336914e-01,7.629400491714477539e-01,7.838482260704040527e-01,8.033339977264404297e-01,8.222143650054931641e-01,8.377547264099121094e-01,8.480817079544067383e-01,8.529633879661560059e-01,8.502115011215209961e-01,8.411314487457275391e-01,8.317221403121948242e-01,8.001416921615600586e-01,7.611230611801147461e-01,6.840516328811645508e-01,6.249288320541381836e-01,5.694832205772399902e-01,5.813913345336914062e-01,5.873760581016540527e-01,5.911302566528320312e-01,5.789264440536499023e-01,5.935331583023071289e-01,6.384503245353698730e-01,7.088890671730041504e-01,7.466577291488647461e-01,7.996166944503784180e-01,8.387076854705810547e-01,8.592321872711181641e-01,8.818199634552001953e-01,8.966052532196044922e-01,9.010086655616760254e-01,9.031430482864379883e-01,9.048101902008056641e-01,9.052298069000244141e-01,9.053392410278320312e-01,9.053283333778381348e-01,9.053283333778381348e-01,9.053283333778381348e-01,9.053283333778381348e-01,9.053283333778381348e-01,9.053283333778381348e-01,9.053283333778381348e-01,9.053283333778381348e-01,9.053283333778381348e-01,9.053283333778381348e-01,9.053283333778381348e-01,9.053283333778381348e-01,9.053283333778381348e-01,9.053283333778381348e-01,9.053283333778381348e-01,9.053283333778381348e-01,9.053283333778381348e-01,9.053283333778381348e-01,9.053283333778381348e-01,9.053283333778381348e-01,9.053285121917724609e-01,9.053297042846679688e-01,9.053519964218139648e-01,9.053733348846435547e-01,9.051627516746520996e-01,9.045461416244506836e-01,9.034106135368347168e-01,9.016582965850830078e-01,8.990879654884338379e-01,8.949946165084838867e-01,8.887054920196533203e-01,8.802512288093566895e-01,8.709021806716918945e-01,8.579621315002441406e-01,8.293792009353637695e-01,8.083770871162414551e-01,8.007749319076538086e-01,7.747766971588134766e-01,7.221248149871826172e-01,6.161164641380310059e-01
5.886322259902954102e-01,6.141561865806579590e-01,6.567599773406982422e-01,6.575619578361511230e-01,6.810987591743469238e-01,7.053260803222656250e-01,7.416720986366271973e-01,7.630908489227294922e-01,7.840116024017333984e-01,8.028898239135742188e-01,8.218606710433959961e-01,8.384031057357788086e-01,8.499263525009155273e-01,8.554845452308654785e-01,8.528739213943481445e-01,8.444143533706665039e-01,8.401165008544921875e-01,8.174154758453369141e-01,7.800494432449340820e-01,7.005234956741333008e-01,6.353569030761718750e-01,5.945386886596679688e-01,6.010699868202209473e-01,6.373844742774963379e-01,6.057376861572265625e-01,6.015464067459106445e-01,6.125416755676269531e-01,6.471668481826782227e-01,7.156485319137573242e-01,7.619925737380981445e-01,8.078856468200683594e-01,8.418296575546264648e-01,8.626066446304321289e-01,8.807108402252197266e-01,8.953968286514282227e-01,9.008562564849853516e-01,9.038020372390747070e-01,9.047361016273498535e-01,9.052156805992126465e-01,9.053338766098022461e-01,9.053283333778381348e-01,9.053283333778381348e-01,9.053283333778381348e-01,9.053283333778381348e-01,9.053283333778381348e-01,9.053283333778381348e-01,9.053283333778381348e-01,9.053283333778381348e-01,9.053283333778381348e-01,9.053283333778381348e-01,9.053283333778381348e-01,9.053283333778381348e-01,9.053283333778381348e-01,9.053283333778381348e-01,9.053283333778381348e-01,9.053283333778381348e-01,9.053283333778381348e-01,9.053283333778381348e-01,9.053283333778381348e-01,9.053283333778381348e-01,9.053285121917724609e-01,9.053297042846679688e-01,9.053519964218139648e-01,9.053732752799987793e-01,9.051629304885864258e-01,9.045465588569641113e-01,9.034115076065063477e-01,9.016594886779785156e-01,8.990899324417114258e-01,8.949978351593017578e-01,8.887105584144592285e-01,8.802577853202819824e-01,8.709101676940917969e-01,8.579715490341186523e-01,8.293906450271606445e-01,8.083897233009338379e-01,8.007875680923461914e-01,7.747888565063476562e-01,7.221348881721496582e-01,6.161234974861145020e-01
5.886268019676208496e-01,6.141473650932312012e-01,6.567500233650207520e-01,6.575508713722229004e-01,6.810873746871948242e-01,7.053098678588867188e-01,7.416642904281616211e-01,7.629994153976440430e-01,7.838798761367797852e-01,8.023104667663574219e-01,8.202535510063171387e-01,8.369840383529663086e-01,8.507420420646667480e-01,8.574023246765136719e-01,8.571749925613403320e-01,8.482139110565185547e-01,8.430652618408203125e-01,8.232865333557128906e-01,7.900889515876770020e-01,7.227708101272583008e-01,6.505831480026245117e-01,6.163895726203918457e-01,6.322991251945495605e-01,6.555882692337036133e-01,6.389734745025634766e-01,6.210650205612182617e-01,6.182179450988769531e-01,6.617171764373779297e-01,7.103265523910522461e-01,7.742718458175659180e-01,8.053166866302490234e-01,8.411976695060729980e-01,8.659859895706176758e-01,8.816364407539367676e-01,8.941177129745483398e-01,9.005648493766784668e-01,9.034305214881896973e-01,9.049649238586425781e-01,9.052258729934692383e-01,9.053298830986022949e-01,9.053263664245605469e-01,9.053263664245605469e-01,9.053263664245605469e-01,9.053262472152709961e-01,9.053262472152709961e-01,9.053262472152709961e-01,9.053262472152709961e-01,9.053261280059814453e-01,9.053261280059814453e-01,9.053261280059814453e-01,9.053261280059814453e-01,9.053260684013366699e-01,9.053260684013366699e-01,9.053260684013366699e-01,9.053260684013366699e-01,9.053260684013366699e-01,9.053261280059814453e-01,9.053260684013366699e-01,9.053261280059814453e-01,9.053260684013366699e-01,9.053262472152709961e-01,9.053274393081665039e-01,9.053497314453125000e-01,9.053709506988525391e-01,9.051609039306640625e-01,9.045450091361999512e-01,9.034107327461242676e-01,9.016592502593994141e-01,8.990901708602905273e-01,8.949992656707763672e-01,8.887137174606323242e-01,8.802631497383117676e-01,8.709172010421752930e-01,8.579805493354797363e-01,8.294016718864440918e-01,8.084027171134948730e-01,8.008004426956176758e-01,7.748012542724609375e-01,7.221454381942749023e-01,6.161308884620666504e-01
5.886210203170776367e-01,6.141377091407775879e-01,6.567391157150268555e-01,6.575376987457275391e-01,6.810719370841979980e-01,7.052953243255615234e-01,7.416564822196960449e-01,7.630512714385986328e-01,7.837860584259033203e-01,8.023289442062377930e-01,8.204182386398315430e-01,8.376835584640502930e-01,8.499996662139892578e-01,8.595811128616333008e-01,8.562251925468444824e-01,8.488700389862060547e-01,8.429968357086181641e-01,8.279140591621398926e-01,8.097862005233764648e-01,7.264090776443481445e-01,6.735463142395019531e-01,6.349337100982666016e-01,6.564348936080932617e-01,6.677753329277038574e-01,6.775217056274414062e-01,6.365875601768493652e-01,6.298069357872009277e-01,6.517829895019531250e-01,7.157160043716430664e-01,7.695109844207763672e-01,8.042382597923278809e-01,8.358123302459716797e-01,8.648459911346435547e-01,8.767914772033691406e-01,8.917171955108642578e-01,9.010709524154663086e-01,9.030046463012695312e-01,9.050629734992980957e-01,9.052137136459350586e-01,9.053252935409545898e-01,9.053210616111755371e-01,9.053211212158203125e-01,9.053211212158203125e-01,9.053211212158203125e-01,9.053212404251098633e-01,9.053212404251098633e-01,9.053212404251098633e-01,9.053212404251098633e-01,9.053213596343994141e-01,9.053213596343994141e-01,9.053214192390441895e-01,9.053214192390441895e-01,9.053214192390441895e-01,9.053215384483337402e-01,9.053215384483337402e-01,9.053217172622680664e-01,9.053217172622680664e-01,9.053217172622680664e-01,9.053217768669128418e-01,9.053217768669128418e-01,9.053220748901367188e-01,9.053231477737426758e-01,9.053455591201782227e-01,9.053668975830078125e-01,9.051569104194641113e-01,9.045404195785522461e-01,9.034068584442138672e-01,9.016559123992919922e-01,8.990864753723144531e-01,8.949944972991943359e-01,8.887091279029846191e-01,8.802586793899536133e-01,8.709127902984619141e-01,8.579802513122558594e-01,8.294045329093933105e-01,8.084077835083007812e-01,8.008065223693847656e-01,7.748063802719116211e-01,7.221474051475524902e-01,6.161317229270935059e-01
5.886100530624389648e-01,6.141240000724792480e-01,6.567230224609375000e-01,6.575239896774291992e-01,6.810585260391235352e-01,7.052782773971557617e-01,7.416412830352783203e-01,7.630382180213928223e-01,7.838171124458312988e-01,8.023979663848876953e-01,8.199810981750488281e-01,8.368815183639526367e-01,8.518019914627075195e-01,8.576706647872924805e-01,8.562853336334228516e-01,8.541065454483032227e-01,8.447542190551757812e-01,8.284011483192443848e-01,8.115448355674743652e-01,7.247487902641296387e-01,6.747041940689086914e-01,6.723461151123046875e-01,6.721961498260498047e-01,6.800834536552429199e-01,6.821908354759216309e-01,6.455372571945190430e-01,6.408278346061706543e-01,6.616492867469787598e-01,7.052497267723083496e-01,7.699313163757324219e-01,8.026126027107238770e-01,8.320945501327514648e-01,8.610781431198120117e-01,8.769781589508056641e-01,8.913258314132690430e-01,9.006983637809753418e-01,9.033578038215637207e-01,9.051643013954162598e-01,9.052821397781372070e-01,9.053945541381835938e-01,9.053922295570373535e-01,9.053925871849060059e-01,9.053928256034851074e-01,9.053931236267089844e-01,9.053934812545776367e-01,9.053937196731567383e-01,9.053939580917358398e-01,9.053941965103149414e-01,9.053945541381835938e-01,9.053947329521179199e-01,9.053950309753417969e-01,9.053952097892761230e-01,9.053955078125000000e-01,9.053956866264343262e-01,9.053959846496582031e-01,9.053963422775268555e-01,9.053964614868164062e-01,9.053966403007507324e-01,9.053970575332641602e-01,9.053972959518432617e-01,9.053977727890014648e-01,9.053994417190551758e-01,9.054224491119384766e-01,9.054447412490844727e-01,9.052376151084899902e-01,9.046199321746826172e-01,9.034808278083801270e-01,9.017146825790405273e-01,8.991357088088989258e-01,8.950453996658325195e-01,8.887740373611450195e-01,8.803350925445556641e-01,8.710006475448608398e-01,8.580510616302490234e-01,8.294702768325805664e-01,8.084538578987121582e-01,8.008365035057067871e-01,7.748248577117919922e-01,7.221456766128540039e-01,6.161313056945800781e-01
5.886169672012329102e-01,6.141330003738403320e-01,6.567297577857971191e-01,6.575420498847961426e-01,6.810876727104187012e-01,7.053402662277221680e-01,7.417573332786560059e-01,7.632101774215698242e-01,7.839943766593933105e-01,8.026386499404907227e-01,8.203971982002258301e-01,8.378497362136840820e-01,8.528705835342407227e-01,8.572045564651489258e-01,8.550409078598022461e-01,8.517183065414428711e-01,8.422464132308959961e-01,8.358107805252075195e-01,8.111299872398376465e-01,7.347289323806762695e-01,6.921581029891967773e-01,6.830409169197082520e-01,6.936936378479003906e-01,6.981450319290161133e-01,6.988614797592163086e-01,6.713163852691650391e-01,6.491441726684570312e-01,6.787150502204895020e-01,6.949276924133300781e-01,7.661832571029663086e-01,8.013412952423095703e-01,8.313950300216674805e-01,8.622303009033203125e-01,8.775572776794433594e-01,8.915550112724304199e-01,9.004939794540405273e-01,9.031327962875366211e-01,9.052578210830688477e-01,9.053740501403808594e-01,9.054828882217407227e-01,9.054777026176452637e-01,9.054767489433288574e-01,9.054758548736572266e-01,9.054750204086303711e-01,9.054741859436035156e-01,9.054733514785766602e-01,9.054723978042602539e-01,9.054714441299438477e-01,9.054706096649169922e-01,9.054698944091796875e-01,9.054690003395080566e-01,9.054682254791259766e-01,9.054672718048095703e-01,9.054663181304931641e-01,9.054654836654663086e-01,9.054646492004394531e-01,9.054638147354125977e-01,9.054630398750305176e-01,9.054621458053588867e-01,9.054611921310424805e-01,9.054607152938842773e-01,9.054613113403320312e-01,9.054841995239257812e-01,9.055073261260986328e-01,9.053024053573608398e-01,9.046820402145385742e-01,9.035504460334777832e-01,9.017895460128784180e-01,8.992097973823547363e-01,8.951152563095092773e-01,8.888962268829345703e-01,8.804688453674316406e-01,8.711261749267578125e-01,8.582131862640380859e-01,8.296994566917419434e-01,8.087002038955688477e-01,8.010927438735961914e-01,7.750730514526367188e-01,7.224296927452087402e-01,6.165243387222290039e-01
5.888010263442993164e-01,6.143105030059814453e-01,6.569842100143432617e-01,6.577988862991333008e-01,6.813362836837768555e-01,7.055031061172485352e-01,7.418431639671325684e-01,7.632214426994323730e-01,7.838736772537231445e-01,8.024013042449951172e-01,8.201957941055297852e-01,8.378494977951049805e-01,8.507872223854064941e-01,8.579186797142028809e-01,8.583753108978271484e-01,8.539636135101318359e-01,8.448227643966674805e-01,8.310511112213134766e-01,8.161041736602783203e-01,7.404037714004516602e-01,7.054671049118041992e-01,6.872102022171020508e-01,7.168807387351989746e-01,7.072039842605590820e-01,7.048944234848022461e-01,6.756921410560607910e-01,6.577110290527343750e-01,6.732239723205566406e-01,7.037973403930664062e-01,7.661625146865844727e-01,7.995383143424987793e-01,8.298045396804809570e-01,8.619757890701293945e-01,8.769857883453369141e-01,8.903461098670959473e-01,9.001864194869995117e-01,9.023237228393554688e-01,9.043627977371215820e-01,9.045222997665405273e-01,9.046285152435302734e-01,9.046252965927124023e-01,9.046243429183959961e-01,9.046233296394348145e-01,9.046224355697631836e-01,9.046216011047363281e-01,9.046207070350646973e-01,9.046195745468139648e-01,9.046187400817871094e-01,9.046179056167602539e-01,9.046169519424438477e-01,9.046161770820617676e-01,9.046151638031005859e-01,9.046141505241394043e-01,9.046133756637573242e-01,9.046124219894409180e-01,9.046115875244140625e-01,9.046105146408081055e-01,9.046097993850708008e-01,9.046088457107543945e-01,9.046080112457275391e-01,9.046074151992797852e-01,9.046080708503723145e-01,9.046280384063720703e-01,9.046611785888671875e-01,9.044569730758666992e-01,9.038794040679931641e-01,9.027750492095947266e-01,9.010081887245178223e-01,8.984286785125732422e-01,8.943629264831542969e-01,8.880737423896789551e-01,8.796501159667968750e-01,8.703309297561645508e-01,8.574492931365966797e-01,8.288417458534240723e-01,8.078485727310180664e-01,8.004547357559204102e-01,7.742142677307128906e-01,7.216154336929321289e-01,6.159961819648742676e-01
5.891572237014770508e-01,6.141796112060546875e-01,6.566528677940368652e-01,6.571506261825561523e-01,6.804420351982116699e-01,7.042924165725708008e-01,7.404194474220275879e-01,7.615267634391784668e-01,7.820361852645874023e-01,8.004336357116699219e-01,8.180913925170898438e-01,8.354460000991821289e-01,8.482067584991455078e-01,8.535718917846679688e-01,8.555332422256469727e-01,8.520628213882446289e-01,8.494917154312133789e-01,8.439429998397827148e-01,8.145931959152221680e-01,7.468095421791076660e-01,7.115730047225952148e-01,7.067139148712158203e-01,7.127156257629394531e-01,7.344655990600585938e-01,7.209278345108032227e-01,6.922103762626647949e-01,6.775946617126464844e-01,6.830067038536071777e-01,6.976602077484130859e-01,7.601920962333679199e-01,8.008100986480712891e-01,8.301065564155578613e-01,8.603805303573608398e-01,8.772217035293579102e-01,8.894567489624023438e-01,8.989762067794799805e-01,9.013559222221374512e-01,9.034415483474731445e-01,9.035984277725219727e-01,9.037097692489624023e-01,9.037088751792907715e-01,9.037079811096191406e-01,9.037068486213684082e-01,9.037059545516967773e-01,9.037047624588012695e-01,9.037038087844848633e-01,9.037027359008789062e-01,9.037015438079833984e-01,9.037005901336669922e-01,9.036996364593505859e-01,9.036985039710998535e-01,9.036973714828491211e-01,9.036962985992431641e-01,9.036952257156372070e-01,9.036942124366760254e-01,9.036931991577148438e-01,9.036921262741088867e-01,9.036910533905029297e-01,9.036898612976074219e-01,9.036889672279357910e-01,9.036881923675537109e-01,9.036881923675537109e-01,9.037041664123535156e-01,9.037335515022277832e-01,9.035477638244628906e-01,9.029997587203979492e-01,9.019621610641479492e-01,9.002497792243957520e-01,8.977001905441284180e-01,8.936430215835571289e-01,8.874096274375915527e-01,8.790731430053710938e-01,8.698123693466186523e-01,8.568376302719116211e-01,8.282490968704223633e-01,8.071019649505615234e-01,7.996397614479064941e-01,7.733836174011230469e-01,7.204576730728149414e-01,6.144745349884033203e-01
5.884079337120056152e-01,6.125013828277587891e-01,6.548565626144409180e-01,6.552608609199523926e-01,6.780958175659179688e-01,7.014923095703125000e-01,7.376138567924499512e-01,7.587704062461853027e-01,7.793245911598205566e-01,7.977113723754882812e-01,8.157118558883666992e-01,8.320403099060058594e-01,8.467100858688354492e-01,8.535612821578979492e-01,8.552918434143066406e-01,8.532695770263671875e-01,8.496550321578979492e-01,8.406782150268554688e-01,8.081705570220947266e-01,7.496671676635742188e-01,7.233573794364929199e-01,7.189532518386840820e-01,7.378519773483276367e-01,7.498846650123596191e-01,7.287181615829467773e-01,7.137393951416015625e-01,6.797015666961669922e-01,6.879662275314331055e-01,7.044067382812500000e-01,7.583798170089721680e-01,7.953883409500122070e-01,8.271824121475219727e-01,8.564667701721191406e-01,8.737841248512268066e-01,8.876756429672241211e-01,8.969719409942626953e-01,8.994656801223754883e-01,9.015375375747680664e-01,9.017826318740844727e-01,9.018943309783935547e-01,9.018888473510742188e-01,9.018822908401489258e-01,9.018763303756713867e-01,9.018702507019042969e-01,9.018641710281372070e-01,9.018580317497253418e-01,9.018521308898925781e-01,9.018460512161254883e-01,9.018399715423583984e-01,9.018339514732360840e-01,9.018279314041137695e-01,9.018219113349914551e-01,9.018156528472900391e-01,9.018098115921020508e-01,9.018037915229797363e-01,9.017976522445678711e-01,9.017918109893798828e-01,9.017856121063232422e-01,9.017797708511352539e-01,9.017735719680786133e-01,9.017677307128906250e-01,9.017624855041503906e-01,9.017761945724487305e-01,9.018012285232543945e-01,9.016274809837341309e-01,9.011580944061279297e-01,9.001979827880859375e-01,8.986006379127502441e-01,8.961445093154907227e-01,8.921540975570678711e-01,8.860818147659301758e-01,8.775871992111206055e-01,8.682927489280700684e-01,8.554402589797973633e-01,8.269665241241455078e-01,8.060632944107055664e-01,7.985034584999084473e-01,7.719303369522094727e-01,7.191748023033142090e-01,6.127011179924011230e-01
5.864668488502502441e-01,6.097780466079711914e-01,6.518769264221191406e-01,6.520051956176757812e-01,6.745818257331848145e-01,6.974248886108398438e-01,7.329912185668945312e-01,7.536309957504272461e-01,7.734951972961425781e-01,7.914535999298095703e-01,8.089408874511718750e-01,8.253364562988281250e-01,8.391516208648681641e-01,8.472012281417846680e-01,8.509666919708251953e-01,8.445274829864501953e-01,8.436059951782226562e-01,8.319694995880126953e-01,8.111807107925415039e-01,7.494465112686157227e-01,7.190784811973571777e-01,7.203791141510009766e-01,7.378051280975341797e-01,7.589235305786132812e-01,7.391477823257446289e-01,7.153624892234802246e-01,6.811324357986450195e-01,6.846538186073303223e-01,7.068042159080505371e-01,7.479324340820312500e-01,7.918717265129089355e-01,8.202440142631530762e-01,8.494791984558105469e-01,8.659824728965759277e-01,8.805924654006958008e-01,8.900078535079956055e-01,8.929556608200073242e-01,8.950074315071105957e-01,8.952746391296386719e-01,8.953863978385925293e-01,8.953757286071777344e-01,8.953663706779479980e-01,8.953572511672973633e-01,8.953481912612915039e-01,8.953392505645751953e-01,8.953300714492797852e-01,8.953210115432739258e-01,8.953119516372680664e-01,8.953028321266174316e-01,8.952938914299011230e-01,8.952846527099609375e-01,8.952758312225341797e-01,8.952667117118835449e-01,8.952575922012329102e-01,8.952485322952270508e-01,8.952394723892211914e-01,8.952305316925048828e-01,8.952213525772094727e-01,8.952124118804931641e-01,8.952033519744873047e-01,8.951940536499023438e-01,8.951852917671203613e-01,8.951941728591918945e-01,8.952112793922424316e-01,8.950760364532470703e-01,8.946266174316406250e-01,8.938168287277221680e-01,8.923500776290893555e-01,8.900263309478759766e-01,8.861807584762573242e-01,8.802864551544189453e-01,8.720741868019104004e-01,8.626450300216674805e-01,8.496481776237487793e-01,8.213598728179931641e-01,8.010425567626953125e-01,7.939176559448242188e-01,7.675392627716064453e-01,7.151742577552795410e-01,6.077095866203308105e-01
5.825378894805908203e-01,6.038823127746582031e-01,6.454446315765380859e-01,6.448010802268981934e-01,6.661975979804992676e-01,6.881839632987976074e-01,7.229012250900268555e-01,7.430781722068786621e-01,7.622816562652587891e-01,7.793143391609191895e-01,7.960586547851562500e-01,8.130422234535217285e-01,8.273826241493225098e-01,8.371557593345642090e-01,8.393472433090209961e-01,8.389874696731567383e-01,8.353097438812255859e-01,8.236528635025024414e-01,7.891824841499328613e-01,7.493220567703247070e-01,7.159806489944458008e-01,7.148407697677612305e-01,7.301642298698425293e-01,7.530250549316406250e-01,7.284723520278930664e-01,7.099910378456115723e-01,6.790929436683654785e-01,6.783045530319213867e-01,7.000941038131713867e-01,7.397190332412719727e-01,7.794191241264343262e-01,8.053657412528991699e-01,8.336612582206726074e-01,8.529741764068603516e-01,8.692765235900878906e-01,8.785941600799560547e-01,8.817962408065795898e-01,8.840857744216918945e-01,8.843834400177001953e-01,8.844203948974609375e-01,8.844013214111328125e-01,8.843809366226196289e-01,8.843606710433959961e-01,8.843406438827514648e-01,8.843202590942382812e-01,8.843002319335937500e-01,8.842800259590148926e-01,8.842599987983703613e-01,8.842397928237915039e-01,8.842197656631469727e-01,8.841996192932128906e-01,8.841794133186340332e-01,8.841593861579895020e-01,8.841392993927001953e-01,8.841191530227661133e-01,8.840990066528320312e-01,8.840789794921875000e-01,8.840588927268981934e-01,8.840386867523193359e-01,8.840185403823852539e-01,8.839982748031616211e-01,8.839783668518066406e-01,8.839890956878662109e-01,8.840345144271850586e-01,8.839073181152343750e-01,8.835576772689819336e-01,8.828749656677246094e-01,8.814076781272888184e-01,8.790552020072937012e-01,8.753647208213806152e-01,8.695330619812011719e-01,8.616485595703125000e-01,8.525969982147216797e-01,8.395737409591674805e-01,8.107919096946716309e-01,7.916823029518127441e-01,7.853887081146240234e-01,7.605802416801452637e-01,7.071953415870666504e-01,6.017391681671142578e-01
5.753738284111022949e-01,5.940437912940979004e-01,6.345346570014953613e-01,6.318068504333496094e-01,6.512065529823303223e-01,6.719567179679870605e-01,7.057636380195617676e-01,7.251147627830505371e-01,7.435528039932250977e-01,7.598834037780761719e-01,7.756316661834716797e-01,7.919111251831054688e-01,8.072868585586547852e-01,8.147199749946594238e-01,8.171859979629516602e-01,8.194277286529541016e-01,8.087790608406066895e-01,7.960672378540039062e-01,7.686058282852172852e-01,7.268096208572387695e-01,7.044837474822998047e-01,6.988075375556945801e-01,7.139632701873779297e-01,7.245675325393676758e-01,7.045612335205078125e-01,7.014346122741699219e-01,6.655536890029907227e-01,6.555185317993164062e-01,6.744422912597656250e-01,7.153449058532714844e-01,7.491024136543273926e-01,7.744427323341369629e-01,8.067864179611206055e-01,8.280593156814575195e-01,8.444121479988098145e-01,8.552231788635253906e-01,8.584442138671875000e-01,8.607144951820373535e-01,8.607054948806762695e-01,8.607398271560668945e-01,8.606972694396972656e-01,8.606604933738708496e-01,8.606236577033996582e-01,8.605867028236389160e-01,8.605499267578125000e-01,8.605128526687622070e-01,8.604761362075805664e-01,8.604393005371093750e-01,8.604022860527038574e-01,8.603653907775878906e-01,8.603287339210510254e-01,8.602918386459350586e-01,8.602550029754638672e-01,8.602180480957031250e-01,8.601812124252319336e-01,8.601442575454711914e-01,8.601074218750000000e-01,8.600710034370422363e-01,8.600341081619262695e-01,8.599972724914550781e-01,8.599601984024047852e-01,8.599222898483276367e-01,8.599274158477783203e-01,8.599609136581420898e-01,8.598101139068603516e-01,8.595430254936218262e-01,8.591408133506774902e-01,8.579570055007934570e-01,8.559035658836364746e-01,8.521391153335571289e-01,8.465170860290527344e-01,8.387234210968017578e-01,8.300045728683471680e-01,8.169933557510375977e-01,7.877361178398132324e-01,7.700067758560180664e-01,7.670602202415466309e-01,7.439048886299133301e-01,6.925607919692993164e-01,5.922744870185852051e-01
5.643813610076904297e-01,5.786228775978088379e-01,6.173462271690368652e-01,6.113581061363220215e-01,6.278061866760253906e-01,6.468136906623840332e-01,6.787371039390563965e-01,6.960888504981994629e-01,7.121298909187316895e-01,7.261180877685546875e-01,7.398270964622497559e-01,7.545747756958007812e-01,7.680882215499877930e-01,7.744743824005126953e-01,7.786209583282470703e-01,7.836009263992309570e-01,7.699150443077087402e-01,7.572734355926513672e-01,7.240580320358276367e-01,6.927229762077331543e-01,6.662713289260864258e-01,6.726458668708801270e-01,6.866458654403686523e-01,6.852439641952514648e-01,6.704472303390502930e-01,6.564480066299438477e-01,6.347444057464599609e-01,6.208490133285522461e-01,6.391046047210693359e-01,6.699186563491821289e-01,7.029172182083129883e-01,7.314158678054809570e-01,7.600033879280090332e-01,7.829322814941406250e-01,8.008348941802978516e-01,8.117978572845458984e-01,8.156050443649291992e-01,8.178085088729858398e-01,8.180444240570068359e-01,8.180208206176757812e-01,8.179615736007690430e-01,8.179023265838623047e-01,8.178433179855346680e-01,8.177847266197204590e-01,8.177260756492614746e-01,8.176672458648681641e-01,8.176085948944091797e-01,8.175497651100158691e-01,8.174911737442016602e-01,8.174326419830322266e-01,8.173739910125732422e-01,8.173153400421142578e-01,8.172565698623657227e-01,8.171979188919067383e-01,8.171392679214477539e-01,8.170807361602783203e-01,8.170220255851745605e-01,8.169634342193603516e-01,8.169050216674804688e-01,8.168461918830871582e-01,8.167878389358520508e-01,8.167279958724975586e-01,8.167204260826110840e-01,8.166930079460144043e-01,8.164987564086914062e-01,8.160923123359680176e-01,8.156355619430541992e-01,8.143244981765747070e-01,8.124561309814453125e-01,8.095086812973022461e-01,8.042869567871093750e-01,7.970283627510070801e-01,7.894225120544433594e-01,7.773865461349487305e-01,7.479152083396911621e-01,7.329958677291870117e-01,7.344216108322143555e-01,7.134234309196472168e-01,6.685334444046020508e-01,5.795630216598510742e-01
5.498363971710205078e-01,5.541189312934875488e-01,5.890447497367858887e-01,5.790380239486694336e-01,5.922483205795288086e-01,6.085585951805114746e-01,6.381742954254150391e-01,6.527663469314575195e-01,6.666596531867980957e-01,6.783822774887084961e-01,6.897011995315551758e-01,7.024658322334289551e-01,7.118316888809204102e-01,7.161982655525207520e-01,7.173618078231811523e-01,7.228826880455017090e-01,7.047183513641357422e-01,6.957525610923767090e-01,6.703922748565673828e-01,6.384928226470947266e-01,6.168582439422607422e-01,6.204605102539062500e-01,6.358758807182312012e-01,6.251443624496459961e-01,6.243193149566650391e-01,6.060882806777954102e-01,5.903867483139038086e-01,5.780794620513916016e-01,5.892668366432189941e-01,6.170318126678466797e-01,6.407455205917358398e-01,6.680505275726318359e-01,6.997617483139038086e-01,7.189682722091674805e-01,7.351116538047790527e-01,7.462317943572998047e-01,7.494392395019531250e-01,7.510872483253479004e-01,7.509930729866027832e-01,7.510670423507690430e-01,7.509988546371459961e-01,7.509193420410156250e-01,7.508372664451599121e-01,7.507551908493041992e-01,7.506730556488037109e-01,7.505909800529479980e-01,7.505087852478027344e-01,7.504268884658813477e-01,7.503447532653808594e-01,7.502627372741699219e-01,7.501805424690246582e-01,7.500984668731689453e-01,7.500165104866027832e-01,7.499343752861022949e-01,7.498524188995361328e-01,7.497705221176147461e-01,7.496883869171142578e-01,7.496064901351928711e-01,7.495244145393371582e-01,7.494425177574157715e-01,7.493597269058227539e-01,7.492740154266357422e-01,7.492494583129882812e-01,7.491713762283325195e-01,7.490177154541015625e-01,7.487362623214721680e-01,7.482221126556396484e-01,7.468336820602416992e-01,7.445695996284484863e-01,7.412046194076538086e-01,7.365101575851440430e-01,7.301544547080993652e-01,7.241602540016174316e-01,7.128919363021850586e-01,6.834525465965270996e-01,6.727195978164672852e-01,6.816185712814331055e-01,6.628500223159790039e-01,6.335970163345336914e-01,5.563735961914062500e-01
5.325875282287597656e-01,5.238313078880310059e-01,5.546795725822448730e-01,5.387876033782958984e-01,5.466837882995605469e-01,5.595378875732421875e-01,5.837640762329101562e-01,5.949387550354003906e-01,6.054051518440246582e-01,6.135082244873046875e-01,6.214320063591003418e-01,6.307933330535888672e-01,6.365053057670593262e-01,6.409051418304443359e-01,6.416513919830322266e-01,6.425869464874267578e-01,6.265227794647216797e-01,6.092485189437866211e-01,5.910053849220275879e-01,5.736876726150512695e-01,5.559379458427429199e-01,5.588097572326660156e-01,5.747655034065246582e-01,5.602077245712280273e-01,5.585588216781616211e-01,5.428761839866638184e-01,5.289601683616638184e-01,5.203592181205749512e-01,5.286929011344909668e-01,5.514107346534729004e-01,5.715634226799011230e-01,5.934346318244934082e-01,6.172882318496704102e-01,6.377404332160949707e-01,6.482115387916564941e-01,6.556761860847473145e-01,6.585037708282470703e-01,6.613405942916870117e-01,6.614120006561279297e-01,6.614048480987548828e-01,6.613281369209289551e-01,6.612375974655151367e-01,6.611503362655639648e-01,6.610631942749023438e-01,6.609758734703063965e-01,6.608887910842895508e-01,6.608014702796936035e-01,6.607143282890319824e-01,6.606270074844360352e-01,6.605399847030639648e-01,6.604527831077575684e-01,6.603658795356750488e-01,6.602787375450134277e-01,6.601915955543518066e-01,6.601045727729797363e-01,6.600175499916076660e-01,6.599304676055908203e-01,6.598434448242187500e-01,6.597564816474914551e-01,6.596693992614746094e-01,6.595816612243652344e-01,6.594895124435424805e-01,6.594240069389343262e-01,6.593635082244873047e-01,6.591523885726928711e-01,6.589426398277282715e-01,6.586223840713500977e-01,6.574641466140747070e-01,6.554666757583618164e-01,6.522853970527648926e-01,6.490662097930908203e-01,6.442372798919677734e-01,6.403700113296508789e-01,6.306787133216857910e-01,6.032048463821411133e-01,5.958326458930969238e-01,6.114404201507568359e-01,5.966882705688476562e-01,5.878821611404418945e-01,5.268107056617736816e-01
5.116012096405029297e-01,4.894228875637054443e-01,5.142410993576049805e-01,4.909927248954772949e-01,4.925764203071594238e-01,5.011578202247619629e-01,5.197607874870300293e-01,5.277110934257507324e-01,5.348491668701171875e-01,5.396683812141418457e-01,5.444251894950866699e-01,5.502570867538452148e-01,5.544103384017944336e-01,5.553908944129943848e-01,5.567319393157958984e-01,5.565750002861022949e-01,5.422929525375366211e-01,5.254622697830200195e-01,5.079622268676757812e-01,5.146236419677734375e-01,4.942193925380706787e-01,5.030493736267089844e-01,5.048687458038330078e-01,4.974140524864196777e-01,4.916735887527465820e-01,4.712931215763092041e-01,4.710438847541809082e-01,4.673427641391754150e-01,4.697050750255584717e-01,4.843901991844177246e-01,5.069389343261718750e-01,5.194367766380310059e-01,5.344055891036987305e-01,5.504001379013061523e-01,5.576698184013366699e-01,5.646743178367614746e-01,5.665665864944458008e-01,5.692610144615173340e-01,5.690076947212219238e-01,5.691238641738891602e-01,5.690315961837768555e-01,5.689386725425720215e-01,5.688520669937133789e-01,5.687654614448547363e-01,5.686789155006408691e-01,5.685925483703613281e-01,5.685059428215026855e-01,5.684194564819335938e-01,5.683329105377197266e-01,5.682467222213745117e-01,5.681601762771606445e-01,5.680738687515258789e-01,5.679875612258911133e-01,5.679011344909667969e-01,5.678148865699768066e-01,5.677285790443420410e-01,5.676422715187072754e-01,5.675559639930725098e-01,5.674697756767272949e-01,5.673835277557373047e-01,5.672969222068786621e-01,5.672044157981872559e-01,5.671190619468688965e-01,5.670787096023559570e-01,5.670471191406250000e-01,5.669709444046020508e-01,5.667315125465393066e-01,5.661894083023071289e-01,5.646782517433166504e-01,5.622473955154418945e-01,5.591855049133300781e-01,5.555706620216369629e-01,5.536282658576965332e-01,5.454514026641845703e-01,5.213914513587951660e-01,5.172823667526245117e-01,5.383067727088928223e-01,5.279818773269653320e-01,5.396170020103454590e-01,4.964745640754699707e-01
4.905964732170104980e-01,4.557299017906188965e-01,4.713636636734008789e-01,4.409462809562683105e-01,4.362816512584686279e-01,4.406383931636810303e-01,4.540614485740661621e-01,4.581412076950073242e-01,4.624684751033782959e-01,4.647822082042694092e-01,4.672220945358276367e-01,4.703479409217834473e-01,4.733831584453582764e-01,4.754832684993743896e-01,4.765251874923706055e-01,4.765828549861907959e-01,4.688484966754913330e-01,4.536181092262268066e-01,4.448760151863098145e-01,4.445937275886535645e-01,4.363546669483184814e-01,4.373984336853027344e-01,4.413518905639648438e-01,4.391437172889709473e-01,4.297757744789123535e-01,4.173088669776916504e-01,4.243406057357788086e-01,4.110387265682220459e-01,4.093499481678009033e-01,4.214959740638732910e-01,4.408720731735229492e-01,4.461159110069274902e-01,4.569363892078399658e-01,4.674161374568939209e-01,4.738468527793884277e-01,4.759308993816375732e-01,4.797795712947845459e-01,4.810229539871215820e-01,4.815396964550018311e-01,4.813221395015716553e-01,4.812495112419128418e-01,4.811774492263793945e-01,4.811046719551086426e-01,4.810320138931274414e-01,4.809594154357910156e-01,4.808869957923889160e-01,4.808143973350524902e-01,4.807420372962951660e-01,4.806694388389587402e-01,4.805970788002014160e-01,4.805245101451873779e-01,4.804522991180419922e-01,4.803798496723175049e-01,4.803073108196258545e-01,4.802350699901580811e-01,4.801627695560455322e-01,4.800904095172882080e-01,4.800181090831756592e-01,4.799457788467407227e-01,4.798736572265625000e-01,4.798010587692260742e-01,4.797252118587493896e-01,4.796423614025115967e-01,4.795776307582855225e-01,4.795643091201782227e-01,4.795715212821960449e-01,4.794945120811462402e-01,4.794048070907592773e-01,4.788340032100677490e-01,4.778073132038116455e-01,4.768853187561035156e-01,4.753228724002838135e-01,4.752926826477050781e-01,4.694442152976989746e-01,4.494468867778778076e-01,4.482068419456481934e-01,4.717531800270080566e-01,4.687495827674865723e-01,4.949539303779602051e-01,4.690763652324676514e-01
4.694178700447082520e-01,4.224291741847991943e-01,4.285613894462585449e-01,3.950842916965484619e-01,3.841201066970825195e-01,3.856850862503051758e-01,3.960998058319091797e-01,3.990380465984344482e-01,4.020598232746124268e-01,4.032486975193023682e-01,4.043948054313659668e-01,4.055936038494110107e-01,4.067532718181610107e-01,4.077419042587280273e-01,4.075549840927124023e-01,4.061492979526519775e-01,4.026383757591247559e-01,3.912380933761596680e-01,3.862214982509613037e-01,3.922694325447082520e-01,3.885058760643005371e-01,3.877645432949066162e-01,3.866834640502929688e-01,3.900923132896423340e-01,3.750883042812347412e-01,3.681519925594329834e-01,3.712916970252990723e-01,3.669212758541107178e-01,3.682737350463867188e-01,3.734237849712371826e-01,3.845295608043670654e-01,3.862223029136657715e-01,3.949698805809020996e-01,3.983520269393920898e-01,4.048888683319091797e-01,4.064186215400695801e-01,4.083870351314544678e-01,4.087665081024169922e-01,4.092337489128112793e-01,4.092040061950683594e-01,4.091330468654632568e-01,4.090763330459594727e-01,4.090191721916198730e-01,4.089615941047668457e-01,4.089039862155914307e-01,4.088466167449951172e-01,4.087890386581420898e-01,4.087317585945129395e-01,4.086744189262390137e-01,4.086170196533203125e-01,4.085598289966583252e-01,4.085025191307067871e-01,4.084451496601104736e-01,4.083877801895141602e-01,4.083306491374969482e-01,4.082732796669006348e-01,4.082160890102386475e-01,4.081587493419647217e-01,4.081016480922698975e-01,4.080445170402526855e-01,4.079882204532623291e-01,4.079304933547973633e-01,4.078760147094726562e-01,4.078261256217956543e-01,4.077953696250915527e-01,4.077762961387634277e-01,4.077965319156646729e-01,4.077028036117553711e-01,4.073216021060943604e-01,4.064871966838836670e-01,4.056461453437805176e-01,4.045603871345520020e-01,4.052121937274932861e-01,4.015164375305175781e-01,3.856498301029205322e-01,3.876605629920959473e-01,4.134803414344787598e-01,4.177002906799316406e-01,4.560055136680603027e-01,4.460486769676208496e-01
4.513975977897644043e-01,3.938290178775787354e-01,3.929928541183471680e-01,3.573032617568969727e-01,3.413695693016052246e-01,3.406607210636138916e-01,3.481068313121795654e-01,3.498276174068450928e-01,3.515227437019348145e-01,3.519574999809265137e-01,3.524488806724548340e-01,3.529822826385498047e-01,3.535332381725311279e-01,3.541194200515747070e-01,3.541081547737121582e-01,3.546759784221649170e-01,3.525537848472595215e-01,3.466624319553375244e-01,3.403944075107574463e-01,3.430700004100799561e-01,3.419082462787628174e-01,3.430153131484985352e-01,3.425716757774353027e-01,3.454841375350952148e-01,3.371596932411193848e-01,3.301782310009002686e-01,3.343809247016906738e-01,3.293205201625823975e-01,3.314563632011413574e-01,3.310778141021728516e-01,3.385756909847259521e-01,3.413988649845123291e-01,3.475180268287658691e-01,3.507492840290069580e-01,3.521691262722015381e-01,3.529626727104187012e-01,3.530488312244415283e-01,3.531060814857482910e-01,3.530365824699401855e-01,3.531258702278137207e-01,3.530967831611633301e-01,3.530546128749847412e-01,3.530135750770568848e-01,3.529726266860961914e-01,3.529317080974578857e-01,3.528906106948852539e-01,3.528495728969573975e-01,3.528088331222534180e-01,3.527676761150360107e-01,3.527269363403320312e-01,3.526861369609832764e-01,3.526450693607330322e-01,3.526042401790618896e-01,3.525633513927459717e-01,3.525224626064300537e-01,3.524819016456604004e-01,3.524408936500549316e-01,3.524001538753509521e-01,3.523592948913574219e-01,3.523185253143310547e-01,3.522778749465942383e-01,3.522373735904693604e-01,3.521946072578430176e-01,3.521659374237060547e-01,3.521272540092468262e-01,3.520721495151519775e-01,3.520762920379638672e-01,3.521209359169006348e-01,3.520703315734863281e-01,3.519926071166992188e-01,3.517332673072814941e-01,3.512773215770721436e-01,3.521133065223693848e-01,3.494841456413269043e-01,3.362972736358642578e-01,3.391660451889038086e-01,3.653174638748168945e-01,3.756807446479797363e-01,4.224404096603393555e-01,4.258167743682861328e-01
4.349685907363891602e-01,3.689458966255187988e-01,3.612764477729797363e-01,3.251675367355346680e-01,3.061321377754211426e-01,3.047583401203155518e-01,3.108640313148498535e-01,3.122496604919433594e-01,3.134082555770874023e-01,3.134253025054931641e-01,3.134006559848785400e-01,3.133461177349090576e-01,3.135759830474853516e-01,3.134637475013732910e-01,3.131524920463562012e-01,3.136928677558898926e-01,3.130709826946258545e-01,3.101390004158020020e-01,3.088102340698242188e-01,3.074916303157806396e-01,3.089388012886047363e-01,3.093969821929931641e-01,3.097050189971923828e-01,3.094286918640136719e-01,3.050926923751831055e-01,3.001598119735717773e-01,3.006903529167175293e-01,2.991534471511840820e-01,3.011907935142517090e-01,3.031168878078460693e-01,3.068437278270721436e-01,3.072227835655212402e-01,3.101394176483154297e-01,3.108598589897155762e-01,3.122249245643615723e-01,3.131551742553710938e-01,3.129541873931884766e-01,3.131970167160034180e-01,3.127678632736206055e-01,3.128635883331298828e-01,3.128414750099182129e-01,3.128128647804260254e-01,3.127828836441040039e-01,3.127532005310058594e-01,3.127233982086181641e-01,3.126938939094543457e-01,3.126640319824218750e-01,3.126341700553894043e-01,3.126044869422912598e-01,3.125748634338378906e-01,3.125451803207397461e-01,3.125153779983520508e-01,3.124856650829315186e-01,3.124560117721557617e-01,3.124263882637023926e-01,3.123968243598937988e-01,3.123669028282165527e-01,3.123372793197631836e-01,3.123075962066650391e-01,3.122780323028564453e-01,3.122486472129821777e-01,3.122191131114959717e-01,3.121896982192993164e-01,3.121581375598907471e-01,3.121277689933776855e-01,3.120979070663452148e-01,3.120574653148651123e-01,3.120061159133911133e-01,3.119812309741973877e-01,3.118644356727600098e-01,3.117285370826721191e-01,3.115102946758270264e-01,3.122531175613403320e-01,3.104256689548492432e-01,2.992342710494995117e-01,3.025922775268554688e-01,3.288241326808929443e-01,3.441925644874572754e-01,3.968282043933868408e-01,4.101027846336364746e-01
4.212127029895782471e-01,3.491301536560058594e-01,3.364086747169494629e-01,2.999942898750305176e-01,2.791710495948791504e-01,2.769950628280639648e-01,2.819473743438720703e-01,2.831134200096130371e-01,2.839966416358947754e-01,2.838900089263916016e-01,2.838489413261413574e-01,2.838479876518249512e-01,2.837924957275390625e-01,2.837975025177001953e-01,2.838795781135559082e-01,2.838752269744873047e-01,2.835670113563537598e-01,2.835420370101928711e-01,2.815162837505340576e-01,2.811033129692077637e-01,2.817736864089965820e-01,2.820749580860137939e-01,2.823565602302551270e-01,2.829092144966125488e-01,2.805585861206054688e-01,2.797257006168365479e-01,2.776784598827362061e-01,2.774696946144104004e-01,2.788929641246795654e-01,2.767078578472137451e-01,2.775733470916748047e-01,2.794933319091796875e-01,2.813042998313903809e-01,2.823460698127746582e-01,2.827092409133911133e-01,2.835669517517089844e-01,2.832876145839691162e-01,2.830843925476074219e-01,2.832318544387817383e-01,2.831800580024719238e-01,2.831710278987884521e-01,2.831477224826812744e-01,2.831259071826934814e-01,2.831045091152191162e-01,2.830828428268432617e-01,2.830612361431121826e-01,2.830395698547363281e-01,2.830181121826171875e-01,2.829964756965637207e-01,2.829748988151550293e-01,2.829533815383911133e-01,2.829318642616271973e-01,2.829102873802185059e-01,2.828886508941650391e-01,2.828672528266906738e-01,2.828455269336700439e-01,2.828240990638732910e-01,2.828024029731750488e-01,2.827811241149902344e-01,2.827596068382263184e-01,2.827381491661071777e-01,2.827168703079223633e-01,2.826951146125793457e-01,2.826745510101318359e-01,2.826527357101440430e-01,2.826277315616607666e-01,2.826046049594879150e-01,2.825953364372253418e-01,2.825861275196075439e-01,2.825854420661926270e-01,2.825662493705749512e-01,2.824575901031494141e-01,2.830979526042938232e-01,2.817873656749725342e-01,2.718635201454162598e-01,2.751390337944030762e-01,3.007421791553497314e-01,3.195645213127136230e-01,3.762992620468139648e-01,3.975794613361358643e-01
4.091756939888000488e-01,3.324910998344421387e-01,3.159788250923156738e-01,2.799497246742248535e-01,2.584232687950134277e-01,2.558322250843048096e-01,2.600265741348266602e-01,2.610191702842712402e-01,2.617924511432647705e-01,2.617092728614807129e-01,2.616697549819946289e-01,2.616417407989501953e-01,2.616159915924072266e-01,2.616286873817443848e-01,2.615934014320373535e-01,2.614988088607788086e-01,2.615809142589569092e-01,2.615697383880615234e-01,2.608129084110260010e-01,2.601779699325561523e-01,2.606259286403656006e-01,2.611560821533203125e-01,2.614225149154663086e-01,2.614027261734008789e-01,2.608779668807983398e-01,2.591983377933502197e-01,2.582153379917144775e-01,2.583119273185729980e-01,2.588972449302673340e-01,2.597730159759521484e-01,2.602251768112182617e-01,2.600060999393463135e-01,2.601871192455291748e-01,2.605243325233459473e-01,2.609677314758300781e-01,2.608193755149841309e-01,2.614849209785461426e-01,2.612678408622741699e-01,2.612273097038269043e-01,2.611816227436065674e-01,2.611634135246276855e-01,2.611483335494995117e-01,2.611318826675415039e-01,2.611156105995178223e-01,2.610989212989807129e-01,2.610827088356018066e-01,2.610661983489990234e-01,2.610496878623962402e-01,2.610332369804382324e-01,2.610167562961578369e-01,2.610005140304565430e-01,2.609841227531433105e-01,2.609678506851196289e-01,2.609512805938720703e-01,2.609349489212036133e-01,2.609185278415679932e-01,2.609019875526428223e-01,2.608856558799743652e-01,2.608694434165954590e-01,2.608531117439270020e-01,2.608365714550018311e-01,2.608203291893005371e-01,2.608041167259216309e-01,2.607874274253845215e-01,2.607708871364593506e-01,2.607540488243103027e-01,2.607368528842926025e-01,2.607213258743286133e-01,2.607062458992004395e-01,2.606908977031707764e-01,2.606753110885620117e-01,2.605971693992614746e-01,2.611154317855834961e-01,2.600695788860321045e-01,2.511718869209289551e-01,2.544501125812530518e-01,2.794613242149353027e-01,3.009964823722839355e-01,3.605849146842956543e-01,3.876333832740783691e-01
3.991096913814544678e-01,3.188912272453308105e-01,2.997267842292785645e-01,2.643874883651733398e-01,2.423044145107269287e-01,2.394169270992279053e-01,2.430773079395294189e-01,2.439678013324737549e-01,2.446589171886444092e-01,2.445958852767944336e-01,2.445651292800903320e-01,2.445492744445800781e-01,2.445285320281982422e-01,2.445290386676788330e-01,2.444841265678405762e-01,2.443898618221282959e-01,2.445464432239532471e-01,2.446258664131164551e-01,2.443087399005889893e-01,2.440285086631774902e-01,2.441503703594207764e-01,2.441651225090026855e-01,2.443619370460510254e-01,2.444791495800018311e-01,2.443812787532806396e-01,2.439842522144317627e-01,2.432419955730438232e-01,2.434844970703125000e-01,2.432542443275451660e-01,2.431761026382446289e-01,2.441535294055938721e-01,2.437984943389892578e-01,2.442174255847930908e-01,2.443877458572387695e-01,2.443610727787017822e-01,2.442090809345245361e-01,2.441045939922332764e-01,2.442021667957305908e-01,2.442278563976287842e-01,2.441877722740173340e-01,2.441675961017608643e-01,2.441537380218505859e-01,2.441407442092895508e-01,2.441279590129852295e-01,2.441150844097137451e-01,2.441021800041198730e-01,2.440894544124603271e-01,2.440765202045440674e-01,2.440636456012725830e-01,2.440507411956787109e-01,2.440380752086639404e-01,2.440251708030700684e-01,2.440123260021209717e-01,2.439994215965270996e-01,2.439866662025451660e-01,2.439738512039184570e-01,2.439607977867126465e-01,2.439480721950531006e-01,2.439352273941040039e-01,2.439221739768981934e-01,2.439096570014953613e-01,2.438967525959014893e-01,2.438840270042419434e-01,2.438712120056152344e-01,2.438582479953765869e-01,2.438450753688812256e-01,2.438320219516754150e-01,2.438186109066009521e-01,2.438055574893951416e-01,2.437922358512878418e-01,2.437793612480163574e-01,2.437154650688171387e-01,2.441399395465850830e-01,2.433045506477355957e-01,2.352254986763000488e-01,2.385373711585998535e-01,2.629344165325164795e-01,2.863682806491851807e-01,3.479811549186706543e-01,3.796826303005218506e-01
3.908084034919738770e-01,3.077777028083801270e-01,2.866271734237670898e-01,2.519674897193908691e-01,2.295316755771636963e-01,2.264043092727661133e-01,2.296703755855560303e-01,2.304602563381195068e-01,2.310820221900939941e-01,2.310273945331573486e-01,2.310012578964233398e-01,2.309904396533966064e-01,2.309761345386505127e-01,2.309693992137908936e-01,2.309444248676300049e-01,2.309226989746093750e-01,2.309576869010925293e-01,2.309692203998565674e-01,2.308908104896545410e-01,2.308145761489868164e-01,2.307628691196441650e-01,2.308826744556427002e-01,2.308259606361389160e-01,2.308732867240905762e-01,2.308664023876190186e-01,2.306338846683502197e-01,2.304368019104003906e-01,2.302150726318359375e-01,2.302393615245819092e-01,2.306884527206420898e-01,2.306744456291198730e-01,2.307190001010894775e-01,2.308892607688903809e-01,2.306474149227142334e-01,2.306392788887023926e-01,2.308371961116790771e-01,2.307512164115905762e-01,2.307324111461639404e-01,2.306887507438659668e-01,2.307033538818359375e-01,2.306901812553405762e-01,2.306788563728332520e-01,2.306685149669647217e-01,2.306581735610961914e-01,2.306477725505828857e-01,2.306375503540039062e-01,2.306271493434906006e-01,2.306167483329772949e-01,2.306064069271087646e-01,2.305961251258850098e-01,2.305857539176940918e-01,2.305755913257598877e-01,2.305651009082794189e-01,2.305549383163452148e-01,2.305444180965423584e-01,2.305339872837066650e-01,2.305239439010620117e-01,2.305133640766143799e-01,2.305032908916473389e-01,2.304928302764892578e-01,2.304825484752655029e-01,2.304723262786865234e-01,2.304620146751403809e-01,2.304517030715942383e-01,2.304416000843048096e-01,2.304312586784362793e-01,2.304209172725677490e-01,2.304106056690216064e-01,2.304001450538635254e-01,2.303897738456726074e-01,2.303794324398040771e-01,2.303259372711181641e-01,2.306815683841705322e-01,2.300055623054504395e-01,2.225903868675231934e-01,2.259137928485870361e-01,2.498088479042053223e-01,2.745921015739440918e-01,3.377276062965393066e-01,3.731986880302429199e-01
3.838097155094146729e-01,2.985771000385284424e-01,2.758284807205200195e-01,2.418442070484161377e-01,2.191891372203826904e-01,2.158566713333129883e-01,2.188119292259216309e-01,2.195134758949279785e-01,2.200796902179718018e-01,2.200320959091186523e-01,2.200094759464263916e-01,2.200007438659667969e-01,2.199918031692504883e-01,2.199838161468505859e-01,2.199732661247253418e-01,2.199633419513702393e-01,2.199688553810119629e-01,2.199658453464508057e-01,2.199572622776031494e-01,2.199114263057708740e-01,2.199316024780273438e-01,2.199011743068695068e-01,2.198481559753417969e-01,2.198990285396575928e-01,2.199715673923492432e-01,2.198658287525177002e-01,2.197651267051696777e-01,2.197917103767395020e-01,2.196962237358093262e-01,2.197355628013610840e-01,2.198527157306671143e-01,2.197507023811340332e-01,2.198334336280822754e-01,2.198427915573120117e-01,2.198057770729064941e-01,2.198106646537780762e-01,2.197892665863037109e-01,2.197897732257843018e-01,2.197798192501068115e-01,2.197583019733428955e-01,2.197539210319519043e-01,2.197456061840057373e-01,2.197371721267700195e-01,2.197289168834686279e-01,2.197203338146209717e-01,2.197118401527404785e-01,2.197033464908599854e-01,2.196948528289794922e-01,2.196863889694213867e-01,2.196778357028961182e-01,2.196696400642395020e-01,2.196610271930694580e-01,2.196524739265441895e-01,2.196441888809204102e-01,2.196356356143951416e-01,2.196271717548370361e-01,2.196186780929565430e-01,2.196102440357208252e-01,2.196016609668731689e-01,2.195932567119598389e-01,2.195849418640136719e-01,2.195764482021331787e-01,2.195678353309631348e-01,2.195594608783721924e-01,2.195511162281036377e-01,2.195428311824798584e-01,2.195342779159545898e-01,2.195258438587188721e-01,2.195174396038055420e-01,2.195089459419250488e-01,2.194999456405639648e-01,2.194548249244689941e-01,2.197598814964294434e-01,2.192110419273376465e-01,2.123419940471649170e-01,2.156710326671600342e-01,2.391549348831176758e-01,2.649251222610473633e-01,3.292272686958312988e-01,3.678064942359924316e-01
3.778365552425384521e-01,2.908431291580200195e-01,2.668060362339019775e-01,2.334578037261962891e-01,2.106575667858123779e-01,2.071476578712463379e-01,2.098513543605804443e-01,2.104749083518981934e-01,2.109925448894500732e-01,2.109506130218505859e-01,2.109307646751403809e-01,2.109237909317016602e-01,2.109163999557495117e-01,2.109090387821197510e-01,2.109015583992004395e-01,2.108945846557617188e-01,2.108875513076782227e-01,2.108846008777618408e-01,2.108753621578216553e-01,2.108653783798217773e-01,2.108613252639770508e-01,2.108517885208129883e-01,2.108433544635772705e-01,2.108559608459472656e-01,2.108378112316131592e-01,2.108439803123474121e-01,2.108195424079895020e-01,2.107749283313751221e-01,2.107894420623779297e-01,2.107761502265930176e-01,2.107558846473693848e-01,2.107781767845153809e-01,2.107749879360198975e-01,2.107688188552856445e-01,2.107613980770111084e-01,2.107577025890350342e-01,2.107470333576202393e-01,2.107396721839904785e-01,2.107331454753875732e-01,2.107255756855010986e-01,2.107178568840026855e-01,2.107110917568206787e-01,2.107038497924804688e-01,2.106970846652984619e-01,2.106900513172149658e-01,2.106828391551971436e-01,2.106759250164031982e-01,2.106689214706420898e-01,2.106617391109466553e-01,2.106545865535736084e-01,2.106475234031677246e-01,2.106405794620513916e-01,2.106336057186126709e-01,2.106264829635620117e-01,2.106193602085113525e-01,2.106124460697174072e-01,2.106053531169891357e-01,2.105982899665832520e-01,2.105911970138549805e-01,2.105842530727386475e-01,2.105769813060760498e-01,2.105699479579925537e-01,2.105630636215209961e-01,2.105560898780822754e-01,2.105489075183868408e-01,2.105418741703033447e-01,2.105350494384765625e-01,2.105278670787811279e-01,2.105207741260528564e-01,2.105138301849365234e-01,2.105063796043395996e-01,2.104673385620117188e-01,2.107335329055786133e-01,2.102866172790527344e-01,2.038709521293640137e-01,2.072009146213531494e-01,2.303362786769866943e-01,2.568489909172058105e-01,3.220600485801696777e-01,3.632441759109497070e-01
3.726794719696044922e-01,2.842501699924468994e-01,2.591606378555297852e-01,2.263982892036437988e-01,2.035061419010162354e-01,1.998411417007446289e-01,2.023383677005767822e-01,2.028934955596923828e-01,2.033696770668029785e-01,2.033323645591735840e-01,2.033147811889648438e-01,2.033088505268096924e-01,2.033029794692993164e-01,2.032968699932098389e-01,2.032906115055084229e-01,2.032846212387084961e-01,2.032785415649414062e-01,2.032733559608459473e-01,2.032670378684997559e-01,2.032609283924102783e-01,2.032551169395446777e-01,2.032497823238372803e-01,2.032414972782135010e-01,2.032357156276702881e-01,2.032344341278076172e-01,2.032278776168823242e-01,2.032156586647033691e-01,2.032204866409301758e-01,2.032034397125244141e-01,2.032029032707214355e-01,2.031951248645782471e-01,2.031904160976409912e-01,2.031855881214141846e-01,2.031798064708709717e-01,2.031711041927337646e-01,2.031660974025726318e-01,2.031575441360473633e-01,2.031530141830444336e-01,2.031463086605072021e-01,2.031415998935699463e-01,2.031353116035461426e-01,2.031294107437133789e-01,2.031232118606567383e-01,2.031174004077911377e-01,2.031115591526031494e-01,2.031054198741912842e-01,2.030994296073913574e-01,2.030936181545257568e-01,2.030876576900482178e-01,2.030816078186035156e-01,2.030755579471588135e-01,2.030697166919708252e-01,2.030637264251708984e-01,2.030578553676605225e-01,2.030519843101501465e-01,2.030459046363830566e-01,2.030401825904846191e-01,2.030339539051055908e-01,2.030280530452728271e-01,2.030221521854400635e-01,2.030159533023834229e-01,2.030102312564849854e-01,2.030042111873626709e-01,2.029981613159179688e-01,2.029923200607299805e-01,2.029862701892852783e-01,2.029803991317749023e-01,2.029745280742645264e-01,2.029685378074645996e-01,2.029624581336975098e-01,2.029556930065155029e-01,2.029221653938293457e-01,2.031576931476593018e-01,2.027930915355682373e-01,1.967596113681793213e-01,2.000874280929565430e-01,2.229215800762176514e-01,2.500040531158447266e-01,3.159334659576416016e-01,3.593325018882751465e-01
3.681829273700714111e-01,2.785644531250000000e-01,2.526052296161651611e-01,2.203785777091979980e-01,1.974304318428039551e-01,1.936290562152862549e-01,1.959542036056518555e-01,1.964491903781890869e-01,1.968898773193359375e-01,1.968566179275512695e-01,1.968411207199096680e-01,1.968360841274261475e-01,1.968307793140411377e-01,1.968255043029785156e-01,1.968206465244293213e-01,1.968152821063995361e-01,1.968101859092712402e-01,1.968052387237548828e-01,1.968001425266265869e-01,1.967947185039520264e-01,1.967893838882446289e-01,1.967844069004058838e-01,1.967792809009552002e-01,1.967740654945373535e-01,1.967699229717254639e-01,1.967642903327941895e-01,1.967585682868957520e-01,1.967552304267883301e-01,1.967503428459167480e-01,1.967440843582153320e-01,1.967381238937377930e-01,1.967337727546691895e-01,1.967292129993438721e-01,1.967232823371887207e-01,1.967180669307708740e-01,1.967126131057739258e-01,1.967075765132904053e-01,1.967029869556427002e-01,1.966976225376129150e-01,1.966925561428070068e-01,1.966873407363891602e-01,1.966822445392608643e-01,1.966772079467773438e-01,1.966720819473266602e-01,1.966670453548431396e-01,1.966618001461029053e-01,1.966566145420074463e-01,1.966517567634582520e-01,1.966465711593627930e-01,1.966415643692016602e-01,1.966363191604614258e-01,1.966313123703002930e-01,1.966262459754943848e-01,1.966210901737213135e-01,1.966158747673034668e-01,1.966109573841094971e-01,1.966056823730468750e-01,1.966007351875305176e-01,1.965955495834350586e-01,1.965905129909515381e-01,1.965855062007904053e-01,1.965803205966949463e-01,1.965753436088562012e-01,1.965700685977935791e-01,1.965649127960205078e-01,1.965599656105041504e-01,1.965548098087310791e-01,1.965498030185699463e-01,1.965448558330535889e-01,1.965396404266357422e-01,1.965335905551910400e-01,1.965041458606719971e-01,1.967148482799530029e-01,1.964185237884521484e-01,1.907097697257995605e-01,1.940342187881469727e-01,2.166043221950531006e-01,2.441304028034210205e-01,3.106349706649780273e-01,3.559401929378509521e-01
3.642282485961914062e-01,2.736120223999023438e-01,2.469256520271301270e-01,2.151870727539062500e-01,1.922083497047424316e-01,1.882867217063903809e-01,1.904665231704711914e-01,1.909085810184478760e-01,1.913183927536010742e-01,1.912882924079895020e-01,1.912742853164672852e-01,1.912697553634643555e-01,1.912656724452972412e-01,1.912611722946166992e-01,1.912568211555480957e-01,1.912523508071899414e-01,1.912477910518646240e-01,1.912433803081512451e-01,1.912389695644378662e-01,1.912345290184020996e-01,1.912301480770111084e-01,1.912255287170410156e-01,1.912210285663604736e-01,1.912168562412261963e-01,1.912122666835784912e-01,1.912079751491546631e-01,1.912035942077636719e-01,1.911991834640502930e-01,1.911948323249816895e-01,1.911902129650115967e-01,1.911857426166534424e-01,1.911816000938415527e-01,1.911769509315490723e-01,1.911725401878356934e-01,1.911680698394775391e-01,1.911637187004089355e-01,1.911594569683074951e-01,1.911548972129821777e-01,1.911505758762359619e-01,1.911461353302001953e-01,1.911417841911315918e-01,1.911371350288391113e-01,1.911329329013824463e-01,1.911283731460571289e-01,1.911241412162780762e-01,1.911196410655975342e-01,1.911151707172393799e-01,1.911108195781707764e-01,1.911065876483917236e-01,1.911020576953887939e-01,1.910977065563201904e-01,1.910930275917053223e-01,1.910887658596038818e-01,1.910840570926666260e-01,1.910800635814666748e-01,1.910755336284637451e-01,1.910709738731384277e-01,1.910666823387145996e-01,1.910621821880340576e-01,1.910578608512878418e-01,1.910534799098968506e-01,1.910490691661834717e-01,1.910446584224700928e-01,1.910401880741119385e-01,1.910358965396881104e-01,1.910312771797180176e-01,1.910269260406494141e-01,1.910226345062255859e-01,1.910180747509002686e-01,1.910137236118316650e-01,1.910087168216705322e-01,1.909824609756469727e-01,1.911727488040924072e-01,1.909328699111938477e-01,1.855039894580841064e-01,1.888237595558166504e-01,2.111599147319793701e-01,2.390365302562713623e-01,3.060071170330047607e-01,3.529701828956604004e-01
3.607216179370880127e-01,2.692630290985107422e-01,2.419596910476684570e-01,2.106665372848510742e-01,1.876744627952575684e-01,1.836436986923217773e-01,1.856960058212280273e-01,1.860909461975097656e-01,1.864743232727050781e-01,1.864470243453979492e-01,1.864343583583831787e-01,1.864303052425384521e-01,1.864265799522399902e-01,1.864226758480072021e-01,1.864188909530639648e-01,1.864148080348968506e-01,1.864111721515655518e-01,1.864073574542999268e-01,1.864034533500671387e-01,1.863995790481567383e-01,1.863956451416015625e-01,1.863917410373687744e-01,1.863880753517150879e-01,1.863839328289031982e-01,1.863801479339599609e-01,1.863761842250823975e-01,1.863725185394287109e-01,1.863683462142944336e-01,1.863646209239959717e-01,1.863609552383422852e-01,1.863570511341094971e-01,1.863532066345214844e-01,1.863492131233215332e-01,1.863453388214111328e-01,1.863414943218231201e-01,1.863377094268798828e-01,1.863338351249694824e-01,1.863300204277038574e-01,1.863261759281158447e-01,1.863223016262054443e-01,1.863184571266174316e-01,1.863144338130950928e-01,1.863105893135070801e-01,1.863068640232086182e-01,1.863030195236206055e-01,1.862991452217102051e-01,1.862952709197998047e-01,1.862914860248565674e-01,1.862875223159790039e-01,1.862839460372924805e-01,1.862800717353820801e-01,1.862760484218597412e-01,1.862723529338836670e-01,1.862684190273284912e-01,1.862644851207733154e-01,1.862605512142181396e-01,1.862566769123077393e-01,1.862530410289764404e-01,1.862491965293884277e-01,1.862452626228332520e-01,1.862413287162780762e-01,1.862373948097229004e-01,1.862337589263916016e-01,1.862299740314483643e-01,1.862261295318603516e-01,1.862222850322723389e-01,1.862183213233947754e-01,1.862145066261291504e-01,1.862106621265411377e-01,1.862066388130187988e-01,1.862020492553710938e-01,1.861789822578430176e-01,1.863527595996856689e-01,1.861602663993835449e-01,1.809757053852081299e-01,1.842901110649108887e-01,2.064189016819000244e-01,2.345700562000274658e-01,3.019188046455383301e-01,3.503375947475433350e-01
3.576368689537048340e-01,2.654596865177154541e-01,2.376323044300079346e-01,2.067411541938781738e-01,1.837363541126251221e-01,1.796094775199890137e-01,1.815572977066040039e-01,1.819106340408325195e-01,1.822709143161773682e-01,1.822458505630493164e-01,1.822338998317718506e-01,1.822304129600524902e-01,1.822269558906555176e-01,1.822236478328704834e-01,1.822202801704406738e-01,1.822168231010437012e-01,1.822132468223571777e-01,1.822100877761840820e-01,1.822066009044647217e-01,1.822031736373901367e-01,1.821997761726379395e-01,1.821964681148529053e-01,1.821930110454559326e-01,1.821894645690917969e-01,1.821864247322082520e-01,1.821827590465545654e-01,1.821794509887695312e-01,1.821761429309844971e-01,1.821727156639099121e-01,1.821693181991577148e-01,1.821657121181488037e-01,1.821624040603637695e-01,1.821588873863220215e-01,1.821556091308593750e-01,1.821523308753967285e-01,1.821489632129669189e-01,1.821452379226684570e-01,1.821419894695281982e-01,1.821385622024536133e-01,1.821353137493133545e-01,1.821319162845611572e-01,1.821284890174865723e-01,1.821250021457672119e-01,1.821215748786926270e-01,1.821182370185852051e-01,1.821148693561553955e-01,1.821114420890808105e-01,1.821080446243286133e-01,1.821047961711883545e-01,1.821013987064361572e-01,1.820980906486511230e-01,1.820946335792541504e-01,1.820912659168243408e-01,1.820878684520721436e-01,1.820844411849975586e-01,1.820808947086334229e-01,1.820777058601379395e-01,1.820741891860961914e-01,1.820707917213439941e-01,1.820673942565917969e-01,1.820641160011291504e-01,1.820606887340545654e-01,1.820572018623352051e-01,1.820538640022277832e-01,1.820505559444427490e-01,1.820470690727233887e-01,1.820437610149383545e-01,1.820403635501861572e-01,1.820369958877563477e-01,1.820336282253265381e-01,1.820294857025146484e-01,1.820084750652313232e-01,1.821674406528472900e-01,1.820156276226043701e-01,1.770401298999786377e-01,1.803428828716278076e-01,2.022825181484222412e-01,2.306689321994781494e-01,2.983111739158630371e-01,3.479940891265869141e-01
3.552452325820922852e-01,2.622933983802795410e-01,2.341421842575073242e-01,2.035850584506988525e-01,1.805841326713562012e-01,1.763861775398254395e-01,1.782711148262023926e-01,1.786164045333862305e-01,1.789568066596984863e-01,1.789324283599853516e-01,1.789217591285705566e-01,1.789186000823974609e-01,1.789154708385467529e-01,1.789124906063079834e-01,1.789095401763916016e-01,1.789065897464752197e-01,1.789034903049468994e-01,1.789003908634185791e-01,1.788975000381469727e-01,1.788943409919738770e-01,1.788913607597351074e-01,1.788882315158843994e-01,1.788851320743560791e-01,1.788823604583740234e-01,1.788793504238128662e-01,1.788762211799621582e-01,1.788733899593353271e-01,1.788701713085174561e-01,1.788671612739562988e-01,1.788641214370727539e-01,1.788609623908996582e-01,1.788581609725952148e-01,1.788550913333892822e-01,1.788521111011505127e-01,1.788490414619445801e-01,1.788459122180938721e-01,1.788429021835327148e-01,1.788398623466491699e-01,1.788370609283447266e-01,1.788339018821716309e-01,1.788310706615447998e-01,1.788278222084045410e-01,1.788249015808105469e-01,1.788217723369598389e-01,1.788187026977539062e-01,1.788156926631927490e-01,1.788128316402435303e-01,1.788097918033599854e-01,1.788068711757659912e-01,1.788038015365600586e-01,1.788006722927093506e-01,1.787976324558258057e-01,1.787945628166198730e-01,1.787917017936706543e-01,1.787887811660766602e-01,1.787857711315155029e-01,1.787825524806976318e-01,1.787796914577484131e-01,1.787765622138977051e-01,1.787734627723693848e-01,1.787705123424530029e-01,1.787674725055694580e-01,1.787644624710083008e-01,1.787616908550262451e-01,1.787583231925964355e-01,1.787554919719696045e-01,1.787523329257965088e-01,1.787493824958801270e-01,1.787464022636413574e-01,1.787434220314025879e-01,1.787396073341369629e-01,1.787207722663879395e-01,1.788686215877532959e-01,1.787452399730682373e-01,1.739439666271209717e-01,1.772520542144775391e-01,1.989189088344573975e-01,2.273616492748260498e-01,2.952046990394592285e-01,3.462706208229064941e-01
3.522576093673706055e-01,2.585253715515136719e-01,2.300027012825012207e-01,1.997257769107818604e-01,1.766573190689086914e-01,1.722863912582397461e-01,1.739259362220764160e-01,1.741945445537567139e-01,1.744942963123321533e-01,1.744742095470428467e-01,1.744645535945892334e-01,1.744617819786071777e-01,1.744593679904937744e-01,1.744566261768341064e-01,1.744538843631744385e-01,1.744512319564819336e-01,1.744486391544342041e-01,1.744461059570312500e-01,1.744432747364044189e-01,1.744408607482910156e-01,1.744379103183746338e-01,1.744354069232940674e-01,1.744326949119567871e-01,1.744301617145538330e-01,1.744275987148284912e-01,1.744248569011688232e-01,1.744221448898315430e-01,1.744194626808166504e-01,1.744168102741241455e-01,1.744142770767211914e-01,1.744116246700286865e-01,1.744088828563690186e-01,1.744061708450317383e-01,1.744034886360168457e-01,1.744009852409362793e-01,1.743982434272766113e-01,1.743957102298736572e-01,1.743930578231811523e-01,1.743904948234558105e-01,1.743878722190856934e-01,1.743853092193603516e-01,1.743825078010559082e-01,1.743797957897186279e-01,1.743772029876708984e-01,1.743744313716888428e-01,1.743717193603515625e-01,1.743691861629486084e-01,1.743665337562561035e-01,1.743639707565307617e-01,1.743611097335815430e-01,1.743585765361785889e-01,1.743560135364532471e-01,1.743532419204711914e-01,1.743505299091339111e-01,1.743481159210205078e-01,1.743453741073608398e-01,1.743429005146026611e-01,1.743401885032653809e-01,1.743375658988952637e-01,1.743348538875579834e-01,1.743320822715759277e-01,1.743294894695281982e-01,1.743269562721252441e-01,1.743243038654327393e-01,1.743216514587402344e-01,1.743189692497253418e-01,1.743164360523223877e-01,1.743137836456298828e-01,1.743108928203582764e-01,1.743084192276000977e-01,1.743051707744598389e-01,1.742873489856719971e-01,1.744302511215209961e-01,1.743086576461791992e-01,1.696801185607910156e-01,1.730751395225524902e-01,1.948007643222808838e-01,2.234539389610290527e-01,2.916890382766723633e-01,3.432703018188476562e-01
3.534515798091888428e-01,2.556045651435852051e-01,2.290328145027160645e-01,1.991974413394927979e-01,1.747828423976898193e-01,1.703465878963470459e-01,1.715830266475677490e-01,1.718485057353973389e-01,1.721439361572265625e-01,1.721238195896148682e-01,1.721155345439910889e-01,1.721131503582000732e-01,1.721110939979553223e-01,1.721086800098419189e-01,1.721060872077941895e-01,1.721037924289703369e-01,1.721014678478240967e-01,1.720988750457763672e-01,1.720966398715972900e-01,1.720943450927734375e-01,1.720919311046600342e-01,1.720896363258361816e-01,1.720872521400451660e-01,1.720848679542541504e-01,1.720825731754302979e-01,1.720802485942840576e-01,1.720777153968811035e-01,1.720753312110900879e-01,1.720730662345886230e-01,1.720706522464752197e-01,1.720683276653289795e-01,1.720659732818603516e-01,1.720635592937469482e-01,1.720612049102783203e-01,1.720588505268096924e-01,1.720565557479858398e-01,1.720542907714843750e-01,1.720518469810485840e-01,1.720493435859680176e-01,1.720471084117889404e-01,1.720447242259979248e-01,1.720424294471740723e-01,1.720399558544158936e-01,1.720376610755920410e-01,1.720351278781890869e-01,1.720328629016876221e-01,1.720303893089294434e-01,1.720283031463623047e-01,1.720257103443145752e-01,1.720232367515563965e-01,1.720210015773773193e-01,1.720186471939086914e-01,1.720163524150848389e-01,1.720139384269714355e-01,1.720115244388580322e-01,1.720091700553894043e-01,1.720067858695983887e-01,1.720044612884521484e-01,1.720021665096282959e-01,1.719997525215148926e-01,1.719973981380462646e-01,1.719951331615447998e-01,1.719927787780761719e-01,1.719904839992523193e-01,1.719881892204284668e-01,1.719855964183807373e-01,1.719833016395568848e-01,1.719808280467987061e-01,1.719786226749420166e-01,1.719763278961181641e-01,1.719739735126495361e-01,1.719538867473602295e-01,1.720589101314544678e-01,1.720515787601470947e-01,1.679019033908843994e-01,1.713127195835113525e-01,1.922455430030822754e-01,2.205625176429748535e-01,2.916400730609893799e-01,3.415899872779846191e-01
3.557892441749572754e-01,2.536358237266540527e-01,2.169751822948455811e-01,1.914364397525787354e-01,1.698941588401794434e-01,1.649750173091888428e-01,1.661601662635803223e-01,1.664632260799407959e-01,1.667143404483795166e-01,1.666945219039916992e-01,1.666873395442962646e-01,1.666851639747619629e-01,1.666831672191619873e-01,1.666811406612396240e-01,1.666791737079620361e-01,1.666771173477172852e-01,1.666751503944396973e-01,1.666730940341949463e-01,1.666709184646606445e-01,1.666691303253173828e-01,1.666668951511383057e-01,1.666647791862487793e-01,1.666629314422607422e-01,1.666609048843383789e-01,1.666588783264160156e-01,1.666569113731384277e-01,1.666547358036041260e-01,1.666527092456817627e-01,1.666507720947265625e-01,1.666486263275146484e-01,1.666466593742370605e-01,1.666443943977355957e-01,1.666424870491027832e-01,1.666404902935028076e-01,1.666384041309356689e-01,1.666364669799804688e-01,1.666343808174133301e-01,1.666323542594909668e-01,1.666301190853118896e-01,1.666281819343566895e-01,1.666262149810791016e-01,1.666240394115447998e-01,1.666218936443328857e-01,1.666199564933776855e-01,1.666181981563568115e-01,1.666160523891448975e-01,1.666140258312225342e-01,1.666118800640106201e-01,1.666099131107330322e-01,1.666078865528106689e-01,1.666060090065002441e-01,1.666038334369659424e-01,1.666017770767211914e-01,1.665997207164764404e-01,1.665976941585540771e-01,1.665955483913421631e-01,1.665934920310974121e-01,1.665916144847869873e-01,1.665896773338317871e-01,1.665875017642974854e-01,1.665855050086975098e-01,1.665834486484527588e-01,1.665815114974975586e-01,1.665795147418975830e-01,1.665775179862976074e-01,1.665753424167633057e-01,1.665733754634857178e-01,1.665713191032409668e-01,1.665694415569305420e-01,1.665672659873962402e-01,1.665668785572052002e-01,1.665428876876831055e-01,1.666104197502136230e-01,1.667927205562591553e-01,1.623808443546295166e-01,1.654347777366638184e-01,1.886164844036102295e-01,2.108096480369567871e-01,2.860367596149444580e-01,3.337817490100860596e-01
3.380682170391082764e-01,2.402375340461730957e-01,2.027121186256408691e-01,1.804863512516021729e-01,1.658500134944915771e-01,1.592115759849548340e-01,1.592740714550018311e-01,1.594823002815246582e-01,1.597133278846740723e-01,1.596963107585906982e-01,1.596913635730743408e-01,1.596896350383758545e-01,1.596877872943878174e-01,1.596862673759460449e-01,1.596846282482147217e-01,1.596829295158386230e-01,1.596813201904296875e-01,1.596795916557312012e-01,1.596780419349670410e-01,1.596764922142028809e-01,1.596748530864715576e-01,1.596730351448059082e-01,1.596714854240417480e-01,1.596699655055999756e-01,1.596683263778686523e-01,1.596666872501373291e-01,1.596647799015045166e-01,1.596633493900299072e-01,1.596617996692657471e-01,1.596601009368896484e-01,1.596585214138031006e-01,1.596567332744598389e-01,1.596551239490509033e-01,1.596534848213195801e-01,1.596516966819763184e-01,1.596501171588897705e-01,1.596484482288360596e-01,1.596468091011047363e-01,1.596452295780181885e-01,1.596435606479644775e-01,1.596420705318450928e-01,1.596401631832122803e-01,1.596388518810272217e-01,1.596368551254272461e-01,1.596353352069854736e-01,1.596336066722869873e-01,1.596320867538452148e-01,1.596304774284362793e-01,1.596287786960601807e-01,1.596271395683288574e-01,1.596255004405975342e-01,1.596238315105438232e-01,1.596221923828125000e-01,1.596205532550811768e-01,1.596189439296722412e-01,1.596172153949737549e-01,1.596156656742095947e-01,1.596139967441558838e-01,1.596123874187469482e-01,1.596108078956604004e-01,1.596090197563171387e-01,1.596074998378753662e-01,1.596059203147888184e-01,1.596042215824127197e-01,1.596025228500366211e-01,1.596011519432067871e-01,1.595993638038635254e-01,1.595977246761322021e-01,1.595961153507232666e-01,1.595943868160247803e-01,1.595928370952606201e-01,1.595647335052490234e-01,1.596039831638336182e-01,1.598356962203979492e-01,1.557652056217193604e-01,1.533352732658386230e-01,1.688702702522277832e-01,2.049824893474578857e-01,2.839689254760742188e-01,3.553454279899597168e-01
3.297485411167144775e-01,2.279985845088958740e-01,1.979693770408630371e-01,1.790176928043365479e-01,1.636388897895812988e-01,1.572906970977783203e-01,1.598435938358306885e-01,1.601180136203765869e-01,1.602984964847564697e-01,1.602828502655029297e-01,1.602789461612701416e-01,1.602774858474731445e-01,1.602761745452880859e-01,1.602748334407806396e-01,1.602731943130493164e-01,1.602717936038970947e-01,1.602703928947448730e-01,1.602689325809478760e-01,1.602676510810852051e-01,1.602660417556762695e-01,1.602647006511688232e-01,1.602632999420166016e-01,1.602618396282196045e-01,1.602604091167449951e-01,1.602588295936584473e-01,1.602574586868286133e-01,1.602559387683868408e-01,1.602545976638793945e-01,1.602531373500823975e-01,1.602518558502197266e-01,1.602503061294555664e-01,1.602488756179809570e-01,1.602475643157958984e-01,1.602461636066436768e-01,1.602446138858795166e-01,1.602433025836944580e-01,1.602417230606079102e-01,1.602404415607452393e-01,1.602389514446258545e-01,1.602375209331512451e-01,1.602359712123870850e-01,1.602348387241363525e-01,1.602333486080169678e-01,1.602319777011871338e-01,1.602305471897125244e-01,1.602288782596588135e-01,1.602275669574737549e-01,1.602261960506439209e-01,1.602247655391693115e-01,1.602233350276947021e-01,1.602218449115753174e-01,1.602203547954559326e-01,1.602190136909484863e-01,1.602176129817962646e-01,1.602160334587097168e-01,1.602147221565246582e-01,1.602132618427276611e-01,1.602118015289306641e-01,1.602104008197784424e-01,1.602090299129486084e-01,1.602076590061187744e-01,1.602062284946441650e-01,1.602046191692352295e-01,1.602031886577606201e-01,1.602019667625427246e-01,1.602004170417785645e-01,1.601989269256591797e-01,1.601976156234741211e-01,1.601962447166442871e-01,1.601946651935577393e-01,1.601960062980651855e-01,1.601741611957550049e-01,1.602482795715332031e-01,1.604149043560028076e-01,1.554421484470367432e-01,1.561040580272674561e-01,1.747394800186157227e-01,1.962415575981140137e-01,3.100823462009429932e-01,3.704556226730346680e-01
3.673300743103027344e-01,2.730016708374023438e-01,2.366617619991302490e-01,1.968861222267150879e-01,1.776397228240966797e-01,1.728608906269073486e-01,1.740674078464508057e-01,1.743152439594268799e-01,1.744396984577178955e-01,1.744304299354553223e-01,1.744279265403747559e-01,1.744270622730255127e-01,1.744260787963867188e-01,1.744250953197479248e-01,1.744240820407867432e-01,1.744232177734375000e-01,1.744221448898315430e-01,1.744210422039031982e-01,1.744201183319091797e-01,1.744191944599151611e-01,1.744182705879211426e-01,1.744171082973480225e-01,1.744161248207092285e-01,1.744153499603271484e-01,1.744141578674316406e-01,1.744133830070495605e-01,1.744121611118316650e-01,1.744112968444824219e-01,1.744103133678436279e-01,1.744093298912048340e-01,1.744083464145660400e-01,1.744073629379272461e-01,1.744063496589660645e-01,1.744051873683929443e-01,1.744044423103332520e-01,1.744033098220825195e-01,1.744024157524108887e-01,1.744011640548706055e-01,1.744002103805541992e-01,1.743993163108825684e-01,1.743984520435333252e-01,1.743973791599273682e-01,1.743964254856109619e-01,1.743955314159393311e-01,1.743943989276885986e-01,1.743933260440826416e-01,1.743925809860229492e-01,1.743915677070617676e-01,1.743904948234558105e-01,1.743895411491394043e-01,1.743884086608886719e-01,1.743874251842498779e-01,1.743865013122558594e-01,1.743855178356170654e-01,1.743845045566558838e-01,1.743836402893066406e-01,1.743826866149902344e-01,1.743816733360290527e-01,1.743806302547454834e-01,1.743796467781066895e-01,1.743787527084350586e-01,1.743776500225067139e-01,1.743765771389007568e-01,1.743756532669067383e-01,1.743746399879455566e-01,1.743735969066619873e-01,1.743728220462799072e-01,1.743718385696411133e-01,1.743707656860351562e-01,1.743698120117187500e-01,1.743686795234680176e-01,1.743548214435577393e-01,1.744391620159149170e-01,1.744461357593536377e-01,1.704317331314086914e-01,1.741122603416442871e-01,1.803806722164154053e-01,1.959726810455322266e-01,2.897704243659973145e-01,3.657964169979095459e-01
