5.915923714637756348e-01,6.111676096916198730e-01,6.348245739936828613e-01,6.225017309188842773e-01,6.499358415603637695e-01,6.736191511154174805e-01,7.128316164016723633e-01,7.344565391540527344e-01,7.553371787071228027e-01,7.764313220977783203e-01,7.921581268310546875e-01,7.995960116386413574e-01,7.975419759750366211e-01,7.950675487518310547e-01,7.876258492469787598e-01,7.615101337432861328e-01,7.132551074028015137e-01,6.097580790519714355e-01,5.246688723564147949e-01,4.757845103740692139e-01,4.320001006126403809e-01,3.942558765411376953e-01,3.622070252895355225e-01,3.458532094955444336e-01,3.445245027542114258e-01,3.622449934482574463e-01,3.924080729484558105e-01,4.252194166183471680e-01,4.654094874858856201e-01,5.257470011711120605e-01,6.007393598556518555e-01,6.983658075332641602e-01,7.602317333221435547e-01,8.033301830291748047e-01,8.376535177230834961e-01,8.577169179916381836e-01,8.698133230209350586e-01,8.777589201927185059e-01,8.807719945907592773e-01,8.816123008728027344e-01,8.817671537399291992e-01,8.817465305328369141e-01,8.817465305328369141e-01,8.817465305328369141e-01,8.817465305328369141e-01,8.817465305328369141e-01,8.817465305328369141e-01,8.817465305328369141e-01,8.817465305328369141e-01,8.817465305328369141e-01,8.817465305328369141e-01,8.817465305328369141e-01,8.817465305328369141e-01,8.817465305328369141e-01,8.817465305328369141e-01,8.817465305328369141e-01,8.817465305328369141e-01,8.817465305328369141e-01,8.817465305328369141e-01,8.817465305328369141e-01,8.817470073699951172e-01,8.817480802536010742e-01,8.817404508590698242e-01,8.816744089126586914e-01,8.815388679504394531e-01,8.809620141983032227e-01,8.796998262405395508e-01,8.776177763938903809e-01,8.748981356620788574e-01,8.710980415344238281e-01,8.653817176818847656e-01,8.571843504905700684e-01,8.473745584487915039e-01,8.313034772872924805e-01,8.018575906753540039e-01,7.748308777809143066e-01,7.663221359252929688e-01,7.447310686111450195e-01,6.771132946014404297e-01,5.832107067108154297e-01
5.759853124618530273e-01,5.908499360084533691e-01,6.342806816101074219e-01,6.279373168945312500e-01,6.463556885719299316e-01,6.689889430999755859e-01,7.075908184051513672e-01,7.303972840309143066e-01,7.531033754348754883e-01,7.742403149604797363e-01,7.940440177917480469e-01,8.017452955245971680e-01,8.044881820678710938e-01,7.994346022605895996e-01,7.870485782623291016e-01,7.603718042373657227e-01,7.081292271614074707e-01,5.885050892829895020e-01,4.917548894882202148e-01,4.344562590122222900e-01,3.981864750385284424e-01,3.596362471580505371e-01,3.317922651767730713e-01,3.196223974227905273e-01,3.179467618465423584e-01,3.357456326484680176e-01,3.639684319496154785e-01,4.024398922920227051e-01,4.472650587558746338e-01,5.138114690780639648e-01,6.026841402053833008e-01,6.951476335525512695e-01,7.727714180946350098e-01,8.136743307113647461e-01,8.446492552757263184e-01,8.634566068649291992e-01,8.744665384292602539e-01,8.817490339279174805e-01,8.844704031944274902e-01,8.853121995925903320e-01,8.854206800460815430e-01,8.854033946990966797e-01,8.854033946990966797e-01,8.854033946990966797e-01,8.854033946990966797e-01,8.854033946990966797e-01,8.854033946990966797e-01,8.854033946990966797e-01,8.854033946990966797e-01,8.854033946990966797e-01,8.854033946990966797e-01,8.854033946990966797e-01,8.854033946990966797e-01,8.854033946990966797e-01,8.854033946990966797e-01,8.854033946990966797e-01,8.854033946990966797e-01,8.854033946990966797e-01,8.854033946990966797e-01,8.854033946990966797e-01,8.854037523269653320e-01,8.854061365127563477e-01,8.854007720947265625e-01,8.853733539581298828e-01,8.852573633193969727e-01,8.845686316490173340e-01,8.830138444900512695e-01,8.810083866119384766e-01,8.780159950256347656e-01,8.743041753768920898e-01,8.680225610733032227e-01,8.589202165603637695e-01,8.470517396926879883e-01,8.327407836914062500e-01,7.983224391937255859e-01,7.725973725318908691e-01,7.662469148635864258e-01,7.430692315101623535e-01,6.942271590232849121e-01,5.934384465217590332e-01
5.856026411056518555e-01,6.094930768013000488e-01,6.510250568389892578e-01,6.518357992172241211e-01,6.743161678314208984e-01,6.973876357078552246e-01,7.324011325836181641e-01,7.537629604339599609e-01,7.752764225006103516e-01,7.945867776870727539e-01,8.131768703460693359e-01,8.213542699813842773e-01,8.225325942039489746e-01,8.180075883865356445e-01,8.028113842010498047e-01,7.809057235717773438e-01,7.313476800918579102e-01,6.186890602111816406e-01,5.345222949981689453e-01,4.676663577556610107e-01,4.210577309131622314e-01,3.845533132553100586e-01,3.529902398586273193e-01,3.399449884891510010e-01,3.392451107501983643e-01,3.591130375862121582e-01,3.928180038928985596e-01,4.300760924816131592e-01,4.764447212219238281e-01,5.504691600799560547e-01,6.363108158111572266e-01,7.231234908103942871e-01,7.883608341217041016e-01,8.301320075988769531e-01,8.610082864761352539e-01,8.770763278007507324e-01,8.883160352706909180e-01,8.946323990821838379e-01,8.968315124511718750e-01,8.974106311798095703e-01,8.974968791007995605e-01,8.974796533584594727e-01,8.974796533584594727e-01,8.974796533584594727e-01,8.974796533584594727e-01,8.974796533584594727e-01,8.974796533584594727e-01,8.974796533584594727e-01,8.974796533584594727e-01,8.974796533584594727e-01,8.974796533584594727e-01,8.974796533584594727e-01,8.974796533584594727e-01,8.974796533584594727e-01,8.974796533584594727e-01,8.974796533584594727e-01,8.974796533584594727e-01,8.974796533584594727e-01,8.974796533584594727e-01,8.974796533584594727e-01,8.974802494049072266e-01,8.974832296371459961e-01,8.974843025207519531e-01,8.975172042846679688e-01,8.973149061203002930e-01,8.965862989425659180e-01,8.951684236526489258e-01,8.932806253433227539e-01,8.911216259002685547e-01,8.871864080429077148e-01,8.810496926307678223e-01,8.720308542251586914e-01,8.623290061950683594e-01,8.480491042137145996e-01,8.182770013809204102e-01,7.959854006767272949e-01,7.858507633209228516e-01,7.581062316894531250e-01,7.064212560653686523e-01,6.076662540435791016e-01
5.862108469009399414e-01,6.089280247688293457e-01,6.536304950714111328e-01,6.547107696533203125e-01,6.780262589454650879e-01,7.018778324127197266e-01,7.383918762207031250e-01,7.597270011901855469e-01,7.806692123413085938e-01,8.004024028778076172e-01,8.188873529434204102e-01,8.283745646476745605e-01,8.325984477996826172e-01,8.281583786010742188e-01,8.188363313674926758e-01,7.917294502258300781e-01,7.415915727615356445e-01,6.416260004043579102e-01,5.407826900482177734e-01,4.742362797260284424e-01,4.253885447978973389e-01,3.921087086200714111e-01,3.565209209918975830e-01,3.421533703804016113e-01,3.427612781524658203e-01,3.608621656894683838e-01,3.958143591880798340e-01,4.325877130031585693e-01,4.801750183105468750e-01,5.561007857322692871e-01,6.460855007171630859e-01,7.402684688568115234e-01,8.028817176818847656e-01,8.389854431152343750e-01,8.694393634796142578e-01,8.858939409255981445e-01,8.951566219329833984e-01,9.013346433639526367e-01,9.026569128036499023e-01,9.031916260719299316e-01,9.031644463539123535e-01,9.031499028205871582e-01,9.031499028205871582e-01,9.031499028205871582e-01,9.031499028205871582e-01,9.031499028205871582e-01,9.031499028205871582e-01,9.031499028205871582e-01,9.031499028205871582e-01,9.031499028205871582e-01,9.031499028205871582e-01,9.031499028205871582e-01,9.031499028205871582e-01,9.031499028205871582e-01,9.031499028205871582e-01,9.031499028205871582e-01,9.031499028205871582e-01,9.031499028205871582e-01,9.031499028205871582e-01,9.031499028205871582e-01,9.031505584716796875e-01,9.031525850296020508e-01,9.031727313995361328e-01,9.031926393508911133e-01,9.029688835144042969e-01,9.022173881530761719e-01,9.009394049644470215e-01,8.995095491409301758e-01,8.970087766647338867e-01,8.931937217712402344e-01,8.870416879653930664e-01,8.788647055625915527e-01,8.685715198516845703e-01,8.554652929306030273e-01,8.276733160018920898e-01,8.058676719665527344e-01,7.978019714355468750e-01,7.732259035110473633e-01,7.197753190994262695e-01,6.134902834892272949e-01
5.891803503036499023e-01,6.140761375427246094e-01,6.573650240898132324e-01,6.578884124755859375e-01,6.817535161972045898e-01,7.058665156364440918e-01,7.423840165138244629e-01,7.637465000152587891e-01,7.843734025955200195e-01,8.036356568336486816e-01,8.221058845520019531e-01,8.327929973602294922e-01,8.363063931465148926e-01,8.352466821670532227e-01,8.234205245971679688e-01,7.967375516891479492e-01,7.499874830245971680e-01,6.584085226058959961e-01,5.489538908004760742e-01,4.791986942291259766e-01,4.370568394660949707e-01,3.997052311897277832e-01,3.594145178794860840e-01,3.436701893806457520e-01,3.443567156791687012e-01,3.672052919864654541e-01,4.028306603431701660e-01,4.356999099254608154e-01,4.932882487773895264e-01,5.723195075988769531e-01,6.687155365943908691e-01,7.471866607666015625e-01,8.132287263870239258e-01,8.464993238449096680e-01,8.739633560180664062e-01,8.899048566818237305e-01,8.998030424118041992e-01,9.049148559570312500e-01,9.053801298141479492e-01,9.056459665298461914e-01,9.056011438369750977e-01,9.055932760238647461e-01,9.055932760238647461e-01,9.055932760238647461e-01,9.055932760238647461e-01,9.055932760238647461e-01,9.055932760238647461e-01,9.055932760238647461e-01,9.055932760238647461e-01,9.055932760238647461e-01,9.055932760238647461e-01,9.055932760238647461e-01,9.055932760238647461e-01,9.055932760238647461e-01,9.055932760238647461e-01,9.055932760238647461e-01,9.055932760238647461e-01,9.055932760238647461e-01,9.055932760238647461e-01,9.055932760238647461e-01,9.055936336517333984e-01,9.055963754653930664e-01,9.056217670440673828e-01,9.056230783462524414e-01,9.053977131843566895e-01,9.047108888626098633e-01,9.036213159561157227e-01,9.019794464111328125e-01,8.994618654251098633e-01,8.957190513610839844e-01,8.896172046661376953e-01,8.807696104049682617e-01,8.713614344596862793e-01,8.590608835220336914e-01,8.305627107620239258e-01,8.090395927429199219e-01,8.007911443710327148e-01,7.751322388648986816e-01,7.216399908065795898e-01,6.156526803970336914e-01
5.886986255645751953e-01,6.143198609352111816e-01,6.567476391792297363e-01,6.576060056686401367e-01,6.812533140182495117e-01,7.055268287658691406e-01,7.418476939201354980e-01,7.632485628128051758e-01,7.840188145637512207e-01,8.034464120864868164e-01,8.225148916244506836e-01,8.329011797904968262e-01,8.381932377815246582e-01,8.380628824234008789e-01,8.239990472793579102e-01,8.011144995689392090e-01,7.590654492378234863e-01,6.724569201469421387e-01,5.702726840972900391e-01,4.950142800807952881e-01,4.431937038898468018e-01,3.970201611518859863e-01,3.662617206573486328e-01,3.461258709430694580e-01,3.469122946262359619e-01,3.657521605491638184e-01,3.998162150382995605e-01,4.283059239387512207e-01,5.041053295135498047e-01,5.883606672286987305e-01,6.683134436607360840e-01,7.583352327346801758e-01,8.187353014945983887e-01,8.511942028999328613e-01,8.745876550674438477e-01,8.926880359649658203e-01,9.008567333221435547e-01,9.043617248535156250e-01,9.050512313842773438e-01,9.053272008895874023e-01,9.053239226341247559e-01,9.053092002868652344e-01,9.053092002868652344e-01,9.053092002868652344e-01,9.053092002868652344e-01,9.053092002868652344e-01,9.053092002868652344e-01,9.053092002868652344e-01,9.053092002868652344e-01,9.053092002868652344e-01,9.053092002868652344e-01,9.053092002868652344e-01,9.053092002868652344e-01,9.053092002868652344e-01,9.053092002868652344e-01,9.053092002868652344e-01,9.053092002868652344e-01,9.053092002868652344e-01,9.053092002868652344e-01,9.053092002868652344e-01,9.053095579147338867e-01,9.053115844726562500e-01,9.053359031677246094e-01,9.053480625152587891e-01,9.051196575164794922e-01,9.044816493988037109e-01,9.033946990966796875e-01,9.016046524047851562e-01,8.991289138793945312e-01,8.952393531799316406e-01,8.887597322463989258e-01,8.801454305648803711e-01,8.711621165275573730e-01,8.581221103668212891e-01,8.292394876480102539e-01,8.083744645118713379e-01,8.007946014404296875e-01,7.746151089668273926e-01,7.219853401184082031e-01,6.160556674003601074e-01
5.887240171432495117e-01,6.143085360527038574e-01,6.569208502769470215e-01,6.577600240707397461e-01,6.813055276870727539e-01,7.055336833000183105e-01,7.419124841690063477e-01,7.632890939712524414e-01,7.840535640716552734e-01,8.035935759544372559e-01,8.222619295120239258e-01,8.322466611862182617e-01,8.409148454666137695e-01,8.419514894485473633e-01,8.276823759078979492e-01,8.104878664016723633e-01,7.661333084106445312e-01,6.973872184753417969e-01,5.817764997482299805e-01,5.067422986030578613e-01,4.485966563224792480e-01,4.030820131301879883e-01,3.713502287864685059e-01,3.499543070793151855e-01,3.488256931304931641e-01,3.700820207595825195e-01,3.969190716743469238e-01,4.317644536495208740e-01,5.098173618316650391e-01,5.882278084754943848e-01,6.700602173805236816e-01,7.656208276748657227e-01,8.260673284530639648e-01,8.559060692787170410e-01,8.780578374862670898e-01,8.935908079147338867e-01,9.013099670410156250e-01,9.047772288322448730e-01,9.049165248870849609e-01,9.053268432617187500e-01,9.053422212600708008e-01,9.053338766098022461e-01,9.053338766098022461e-01,9.053338766098022461e-01,9.053338766098022461e-01,9.053338766098022461e-01,9.053338766098022461e-01,9.053338766098022461e-01,9.053338766098022461e-01,9.053338766098022461e-01,9.053338766098022461e-01,9.053338766098022461e-01,9.053338766098022461e-01,9.053338766098022461e-01,9.053338766098022461e-01,9.053338766098022461e-01,9.053338766098022461e-01,9.053338766098022461e-01,9.053338766098022461e-01,9.053338766098022461e-01,9.053341150283813477e-01,9.053356647491455078e-01,9.053572416305541992e-01,9.053782224655151367e-01,9.051495790481567383e-01,9.045431613922119141e-01,9.034050703048706055e-01,9.016185998916625977e-01,8.991125822067260742e-01,8.950922489166259766e-01,8.886239528656005859e-01,8.803084492683410645e-01,8.709104061126708984e-01,8.577831983566284180e-01,8.293084502220153809e-01,8.084066510200500488e-01,8.006676435470581055e-01,7.746281623840332031e-01,7.219781279563903809e-01,6.160814762115478516e-01
5.887029170989990234e-01,6.142715215682983398e-01,6.568949818611145020e-01,6.577202081680297852e-01,6.812747716903686523e-01,7.055038213729858398e-01,7.418681383132934570e-01,7.632670402526855469e-01,7.840176820755004883e-01,8.034670948982238770e-01,8.214787244796752930e-01,8.336691856384277344e-01,8.415157198905944824e-01,8.423170447349548340e-01,8.297323584556579590e-01,8.186176419258117676e-01,7.826178073883056641e-01,7.088814377784729004e-01,5.973151922225952148e-01,5.122386813163757324e-01,4.585401713848114014e-01,4.103084802627563477e-01,3.849176168441772461e-01,3.535346984863281250e-01,3.504604697227478027e-01,3.710457086563110352e-01,3.947868347167968750e-01,4.365445375442504883e-01,5.088312625885009766e-01,5.786161422729492188e-01,6.828010082244873047e-01,7.636452913284301758e-01,8.206076622009277344e-01,8.558022975921630859e-01,8.769291639328002930e-01,8.919374942779541016e-01,8.994939923286437988e-01,9.038345813751220703e-01,9.049071073532104492e-01,9.053201079368591309e-01,9.053403735160827637e-01,9.053283333778381348e-01,9.053283333778381348e-01,9.053283333778381348e-01,9.053283333778381348e-01,9.053283333778381348e-01,9.053283333778381348e-01,9.053283333778381348e-01,9.053283333778381348e-01,9.053283333778381348e-01,9.053283333778381348e-01,9.053283333778381348e-01,9.053283333778381348e-01,9.053283333778381348e-01,9.053283333778381348e-01,9.053283333778381348e-01,9.053283333778381348e-01,9.053283333778381348e-01,9.053283333778381348e-01,9.053283333778381348e-01,9.053285717964172363e-01,9.053298830986022949e-01,9.053539037704467773e-01,9.053707122802734375e-01,9.051684737205505371e-01,9.045516848564147949e-01,9.033973217010498047e-01,9.016228914260864258e-01,8.990780115127563477e-01,8.949619531631469727e-01,8.886687755584716797e-01,8.801965713500976562e-01,8.707531094551086426e-01,8.578678369522094727e-01,8.293207883834838867e-01,8.082340955734252930e-01,8.006225824356079102e-01,7.746300101280212402e-01,7.220154404640197754e-01,6.160348653793334961e-01
5.886959433555603027e-01,6.142601966857910156e-01,6.568816900253295898e-01,6.577046513557434082e-01,6.812571883201599121e-01,7.054837942123413086e-01,7.418518066406250000e-01,7.632365226745605469e-01,7.839689254760742188e-01,8.033304214477539062e-01,8.208621740341186523e-01,8.360159397125244141e-01,8.446041345596313477e-01,8.456209301948547363e-01,8.334602117538452148e-01,8.210234642028808594e-01,7.865753173828125000e-01,7.225030064582824707e-01,6.103404164314270020e-01,5.247421860694885254e-01,4.679448902606964111e-01,4.219773411750793457e-01,3.863427937030792236e-01,3.594853579998016357e-01,3.566877245903015137e-01,3.674404621124267578e-01,3.894843459129333496e-01,4.442446529865264893e-01,5.019506812095642090e-01,5.736539959907531738e-01,6.694903969764709473e-01,7.576008439064025879e-01,8.122196793556213379e-01,8.529989719390869141e-01,8.753576278686523438e-01,8.907185792922973633e-01,8.985379338264465332e-01,9.029178619384765625e-01,9.049222469329833984e-01,9.052566885948181152e-01,9.053490161895751953e-01,9.053283333778381348e-01,9.053283333778381348e-01,9.053283333778381348e-01,9.053283333778381348e-01,9.053283333778381348e-01,9.053283333778381348e-01,9.053283333778381348e-01,9.053283333778381348e-01,9.053283333778381348e-01,9.053283333778381348e-01,9.053283333778381348e-01,9.053283333778381348e-01,9.053283333778381348e-01,9.053283333778381348e-01,9.053283333778381348e-01,9.053283333778381348e-01,9.053283333778381348e-01,9.053283333778381348e-01,9.053283333778381348e-01,9.053285121917724609e-01,9.053297042846679688e-01,9.053524136543273926e-01,9.053743481636047363e-01,9.051628112792968750e-01,9.045405387878417969e-01,9.033980369567871094e-01,9.016391038894653320e-01,8.990621566772460938e-01,8.949755430221557617e-01,8.886579275131225586e-01,8.801595568656921387e-01,8.708228468894958496e-01,8.578857779502868652e-01,8.292557597160339355e-01,8.082423210144042969e-01,8.006478548049926758e-01,7.746534943580627441e-01,7.220216393470764160e-01,6.160445213317871094e-01
5.886890292167663574e-01,6.142487525939941406e-01,6.568684577941894531e-01,6.576893925666809082e-01,6.812402606010437012e-01,7.054659128189086914e-01,7.418326139450073242e-01,7.632176876068115234e-01,7.839447259902954102e-01,8.027514219284057617e-01,8.211467266082763672e-01,8.367072939872741699e-01,8.464899659156799316e-01,8.473133444786071777e-01,8.371331691741943359e-01,8.245233297348022461e-01,7.885314226150512695e-01,7.411924004554748535e-01,6.176450848579406738e-01,5.374931693077087402e-01,4.754359424114227295e-01,4.246245920658111572e-01,3.913385868072509766e-01,3.585103154182434082e-01,3.537938594818115234e-01,3.648091852664947510e-01,3.959969878196716309e-01,4.511052966117858887e-01,4.901881217956542969e-01,5.556646585464477539e-01,6.628160476684570312e-01,7.486974000930786133e-01,8.032476305961608887e-01,8.453434705734252930e-01,8.730845451354980469e-01,8.863211274147033691e-01,8.958592414855957031e-01,9.025734066963195801e-01,9.048470854759216309e-01,9.052643775939941406e-01,9.053426980972290039e-01,9.053283333778381348e-01,9.053283333778381348e-01,9.053283333778381348e-01,9.053283333778381348e-01,9.053283333778381348e-01,9.053283333778381348e-01,9.053283333778381348e-01,9.053283333778381348e-01,9.053283333778381348e-01,9.053283333778381348e-01,9.053283333778381348e-01,9.053283333778381348e-01,9.053283333778381348e-01,9.053283333778381348e-01,9.053283333778381348e-01,9.053283333778381348e-01,9.053283333778381348e-01,9.053283333778381348e-01,9.053283333778381348e-01,9.053285121917724609e-01,9.053297042846679688e-01,9.053524136543273926e-01,9.053733944892883301e-01,9.051614999771118164e-01,9.045417904853820801e-01,9.034025073051452637e-01,9.016455411911010742e-01,8.990694880485534668e-01,8.949662446975708008e-01,8.886600732803344727e-01,8.801903724670410156e-01,8.708325624465942383e-01,8.578773140907287598e-01,8.292725086212158203e-01,8.082605600357055664e-01,8.006606698036193848e-01,7.746653556823730469e-01,7.220329046249389648e-01,6.160532236099243164e-01
5.886820554733276367e-01,6.142373681068420410e-01,6.568554639816284180e-01,6.576740145683288574e-01,6.812232732772827148e-01,7.054487466812133789e-01,7.418148517608642578e-01,7.632105350494384766e-01,7.839082479476928711e-01,8.025244474411010742e-01,8.216063976287841797e-01,8.384469151496887207e-01,8.476485013961791992e-01,8.498086333274841309e-01,8.455836772918701172e-01,8.325725793838500977e-01,7.961474657058715820e-01,7.432569265365600586e-01,6.454268097877502441e-01,5.422352552413940430e-01,4.903387725353240967e-01,4.345084726810455322e-01,4.026157259941101074e-01,3.645466566085815430e-01,3.539864420890808105e-01,3.755743801593780518e-01,3.970412611961364746e-01,4.452726840972900391e-01,4.821111261844635010e-01,5.479763746261596680e-01,6.456268429756164551e-01,7.329425215721130371e-01,7.973011732101440430e-01,8.398116827011108398e-01,8.687927722930908203e-01,8.851121664047241211e-01,8.952527046203613281e-01,9.021809101104736328e-01,9.048599004745483398e-01,9.052780866622924805e-01,9.053462147712707520e-01,9.053283333778381348e-01,9.053283333778381348e-01,9.053283333778381348e-01,9.053283333778381348e-01,9.053283333778381348e-01,9.053283333778381348e-01,9.053283333778381348e-01,9.053283333778381348e-01,9.053283333778381348e-01,9.053283333778381348e-01,9.053283333778381348e-01,9.053283333778381348e-01,9.053283333778381348e-01,9.053283333778381348e-01,9.053283333778381348e-01,9.053283333778381348e-01,9.053283333778381348e-01,9.053283333778381348e-01,9.053283333778381348e-01,9.053285121917724609e-01,9.053297042846679688e-01,9.053521156311035156e-01,9.053735136985778809e-01,9.051614999771118164e-01,9.045422077178955078e-01,9.034037590026855469e-01,9.016472101211547852e-01,8.990719318389892578e-01,8.949685096740722656e-01,8.886650800704956055e-01,8.801969289779663086e-01,8.708393573760986328e-01,8.578854203224182129e-01,8.292863368988037109e-01,8.082750439643859863e-01,8.006731271743774414e-01,7.746780514717102051e-01,7.220437526702880859e-01,6.160595417022705078e-01
5.886752605438232422e-01,6.142264008522033691e-01,6.568422913551330566e-01,6.576588153839111328e-01,6.812067031860351562e-01,7.054314017295837402e-01,7.417978048324584961e-01,7.631927132606506348e-01,7.839039564132690430e-01,8.025009632110595703e-01,8.211161494255065918e-01,8.384201526641845703e-01,8.481048345565795898e-01,8.502466082572937012e-01,8.524249792098999023e-01,8.377774953842163086e-01,8.070139884948730469e-01,7.611529827117919922e-01,6.659113168716430664e-01,5.772532820701599121e-01,4.999932944774627686e-01,4.581383466720581055e-01,4.168139398097991943e-01,3.686559796333312988e-01,3.649581074714660645e-01,3.926368355751037598e-01,4.042983949184417725e-01,4.352322518825531006e-01,4.813723564147949219e-01,5.562194585800170898e-01,6.192237734794616699e-01,7.214480638504028320e-01,7.957078218460083008e-01,8.361284732818603516e-01,8.662874698638916016e-01,8.843456506729125977e-01,8.948575258255004883e-01,9.021577835083007812e-01,9.046182632446289062e-01,9.052447080612182617e-01,9.053454399108886719e-01,9.053283333778381348e-01,9.053283333778381348e-01,9.053283333778381348e-01,9.053283333778381348e-01,9.053283333778381348e-01,9.053283333778381348e-01,9.053283333778381348e-01,9.053283333778381348e-01,9.053283333778381348e-01,9.053283333778381348e-01,9.053283333778381348e-01,9.053283333778381348e-01,9.053283333778381348e-01,9.053283333778381348e-01,9.053283333778381348e-01,9.053283333778381348e-01,9.053283333778381348e-01,9.053283333778381348e-01,9.053283333778381348e-01,9.053285121917724609e-01,9.053297042846679688e-01,9.053521156311035156e-01,9.053735136985778809e-01,9.051616191864013672e-01,9.045428037643432617e-01,9.034045338630676270e-01,9.016485214233398438e-01,8.990738391876220703e-01,8.949722051620483398e-01,8.886704444885253906e-01,8.802039623260498047e-01,8.708466291427612305e-01,8.578954935073852539e-01,8.292983770370483398e-01,8.082880973815917969e-01,8.006861209869384766e-01,7.746905088424682617e-01,7.220535278320312500e-01,6.160667538642883301e-01
5.886685848236083984e-01,6.142154932022094727e-01,6.568297147750854492e-01,6.576440930366516113e-01,6.811903119087219238e-01,7.054143548011779785e-01,7.417806982994079590e-01,7.631871700286865234e-01,7.839139699935913086e-01,8.025839924812316895e-01,8.213155269622802734e-01,8.392000198364257812e-01,8.489826917648315430e-01,8.561231493949890137e-01,8.570557832717895508e-01,8.438993692398071289e-01,8.175319433212280273e-01,7.752538919448852539e-01,6.937667727470397949e-01,6.194247007369995117e-01,5.444725751876831055e-01,4.843539595603942871e-01,4.287642836570739746e-01,3.967202603816986084e-01,3.909663558006286621e-01,4.065119028091430664e-01,4.188457131385803223e-01,4.471849799156188965e-01,4.887857139110565186e-01,5.406970381736755371e-01,6.218355894088745117e-01,7.226684093475341797e-01,7.941327691078186035e-01,8.336830139160156250e-01,8.665904998779296875e-01,8.842552304267883301e-01,8.943391442298889160e-01,9.023284316062927246e-01,9.045741558074951172e-01,9.052182435989379883e-01,9.053443670272827148e-01,9.053283333778381348e-01,9.053283333778381348e-01,9.053283333778381348e-01,9.053283333778381348e-01,9.053283333778381348e-01,9.053283333778381348e-01,9.053283333778381348e-01,9.053283333778381348e-01,9.053283333778381348e-01,9.053283333778381348e-01,9.053283333778381348e-01,9.053283333778381348e-01,9.053283333778381348e-01,9.053283333778381348e-01,9.053283333778381348e-01,9.053283333778381348e-01,9.053283333778381348e-01,9.053283333778381348e-01,9.053283333778381348e-01,9.053285121917724609e-01,9.053297042846679688e-01,9.053521156311035156e-01,9.053735136985778809e-01,9.051617383956909180e-01,9.045431613922119141e-01,9.034054279327392578e-01,9.016500115394592285e-01,8.990759253501892090e-01,8.949751853942871094e-01,8.886756896972656250e-01,8.802107572555541992e-01,8.708546757698059082e-01,8.579049706459045410e-01,8.293100595474243164e-01,8.083010315895080566e-01,8.006987571716308594e-01,7.747029066085815430e-01,7.220637202262878418e-01,6.160738468170166016e-01
5.886622667312622070e-01,6.142051815986633301e-01,6.568174362182617188e-01,6.576294302940368652e-01,6.811742782592773438e-01,7.053981423377990723e-01,7.417638897895812988e-01,7.631670832633972168e-01,7.839082479476928711e-01,8.024576902389526367e-01,8.212687969207763672e-01,8.385797739028930664e-01,8.491541147232055664e-01,8.586871623992919922e-01,8.646450638771057129e-01,8.528623580932617188e-01,8.309277892112731934e-01,7.895052433013916016e-01,7.286806106567382812e-01,6.606913208961486816e-01,5.923715233802795410e-01,5.262970328330993652e-01,4.513668715953826904e-01,4.314391613006591797e-01,4.261799752712249756e-01,4.438748955726623535e-01,4.455496072769165039e-01,4.664477705955505371e-01,5.010040402412414551e-01,5.451042652130126953e-01,6.202973127365112305e-01,7.189159393310546875e-01,7.923138141632080078e-01,8.331948518753051758e-01,8.652229309082031250e-01,8.846049308776855469e-01,8.943578004837036133e-01,9.020512104034423828e-01,9.044500589370727539e-01,9.052383303642272949e-01,9.053469896316528320e-01,9.053283333778381348e-01,9.053283333778381348e-01,9.053283333778381348e-01,9.053283333778381348e-01,9.053283333778381348e-01,9.053283333778381348e-01,9.053283333778381348e-01,9.053283333778381348e-01,9.053283333778381348e-01,9.053283333778381348e-01,9.053283333778381348e-01,9.053283333778381348e-01,9.053283333778381348e-01,9.053283333778381348e-01,9.053283333778381348e-01,9.053283333778381348e-01,9.053283333778381348e-01,9.053283333778381348e-01,9.053283333778381348e-01,9.053285121917724609e-01,9.053297042846679688e-01,9.053521156311035156e-01,9.053734540939331055e-01,9.051619768142700195e-01,9.045437574386596680e-01,9.034062027931213379e-01,9.016515016555786133e-01,8.990778923034667969e-01,8.949784040451049805e-01,8.886805772781372070e-01,8.802174329757690430e-01,8.708624839782714844e-01,8.579146862030029297e-01,8.293215036392211914e-01,8.083134889602661133e-01,8.007113933563232422e-01,7.747149467468261719e-01,7.220737934112548828e-01,6.160808205604553223e-01
5.886567831039428711e-01,6.141957044601440430e-01,6.568061113357543945e-01,6.576156616210937500e-01,6.811587214469909668e-01,7.053820490837097168e-01,7.417476177215576172e-01,7.631522417068481445e-01,7.839065790176391602e-01,8.024848103523254395e-01,8.210177421569824219e-01,8.378991484642028809e-01,8.502506017684936523e-01,8.589709997177124023e-01,8.658766746520996094e-01,8.599296212196350098e-01,8.430064916610717773e-01,8.184585571289062500e-01,7.588400840759277344e-01,7.043044567108154297e-01,6.270533204078674316e-01,5.586174130439758301e-01,4.830582737922668457e-01,4.750708341598510742e-01,4.802948236465454102e-01,4.862327873706817627e-01,4.809447526931762695e-01,4.857423305511474609e-01,5.014419555664062500e-01,5.575635433197021484e-01,6.425465345382690430e-01,7.269794940948486328e-01,7.909054756164550781e-01,8.308832645416259766e-01,8.632031679153442383e-01,8.835293054580688477e-01,8.946159482002258301e-01,9.022412300109863281e-01,9.044939875602722168e-01,9.052318334579467773e-01,9.053453207015991211e-01,9.053283333778381348e-01,9.053283333778381348e-01,9.053283333778381348e-01,9.053283333778381348e-01,9.053283333778381348e-01,9.053283333778381348e-01,9.053283333778381348e-01,9.053283333778381348e-01,9.053283333778381348e-01,9.053283333778381348e-01,9.053283333778381348e-01,9.053283333778381348e-01,9.053283333778381348e-01,9.053283333778381348e-01,9.053283333778381348e-01,9.053283333778381348e-01,9.053283333778381348e-01,9.053283333778381348e-01,9.053283333778381348e-01,9.053285121917724609e-01,9.053297042846679688e-01,9.053520560264587402e-01,9.053732752799987793e-01,9.051622152328491211e-01,9.045441150665283203e-01,9.034072160720825195e-01,9.016528129577636719e-01,8.990797996520996094e-01,8.949816226959228516e-01,8.886855840682983398e-01,8.802242875099182129e-01,8.708705902099609375e-01,8.579241037368774414e-01,8.293329477310180664e-01,8.083262443542480469e-01,8.007240295410156250e-01,7.747272253036499023e-01,7.220841646194458008e-01,6.160879135131835938e-01
5.886518359184265137e-01,6.141874194145202637e-01,6.567959785461425781e-01,6.576035022735595703e-01,6.811445951461791992e-01,7.053669691085815430e-01,7.417322397232055664e-01,7.631348371505737305e-01,7.838828563690185547e-01,8.024526834487915039e-01,8.208754062652587891e-01,8.373604416847229004e-01,8.512446880340576172e-01,8.630530834197998047e-01,8.683959245681762695e-01,8.625320196151733398e-01,8.493087291717529297e-01,8.280929327011108398e-01,7.902853488922119141e-01,7.399483323097229004e-01,6.644435524940490723e-01,5.871807932853698730e-01,5.324264168739318848e-01,5.053276419639587402e-01,5.294945240020751953e-01,5.295808911323547363e-01,5.284733772277832031e-01,5.103086829185485840e-01,5.337756872177124023e-01,5.799436569213867188e-01,6.504355072975158691e-01,7.315986156463623047e-01,7.940322160720825195e-01,8.316256999969482422e-01,8.629072904586791992e-01,8.832359910011291504e-01,8.944513797760009766e-01,9.020835161209106445e-01,9.045195579528808594e-01,9.052541851997375488e-01,9.053472876548767090e-01,9.053283333778381348e-01,9.053283333778381348e-01,9.053283333778381348e-01,9.053283333778381348e-01,9.053283333778381348e-01,9.053283333778381348e-01,9.053283333778381348e-01,9.053283333778381348e-01,9.053283333778381348e-01,9.053283333778381348e-01,9.053283333778381348e-01,9.053283333778381348e-01,9.053283333778381348e-01,9.053283333778381348e-01,9.053283333778381348e-01,9.053283333778381348e-01,9.053283333778381348e-01,9.053283333778381348e-01,9.053283333778381348e-01,9.053285121917724609e-01,9.053297042846679688e-01,9.053520560264587402e-01,9.053733348846435547e-01,9.051623344421386719e-01,9.045445919036865234e-01,9.034081101417541504e-01,9.016540050506591797e-01,8.990818262100219727e-01,8.949849605560302734e-01,8.886905312538146973e-01,8.802309036254882812e-01,8.708783388137817383e-01,8.579335212707519531e-01,8.293443918228149414e-01,8.083388805389404297e-01,8.007366657257080078e-01,7.747395038604736328e-01,7.220942378044128418e-01,6.160950064659118652e-01
5.886473059654235840e-01,6.141798496246337891e-01,6.567867398262023926e-01,6.575927734375000000e-01,6.811320185661315918e-01,7.053537964820861816e-01,7.417182326316833496e-01,7.631196975708007812e-01,7.838676571846008301e-01,8.024327754974365234e-01,8.203270435333251953e-01,8.374962806701660156e-01,8.514730334281921387e-01,8.649756908416748047e-01,8.719921112060546875e-01,8.644610643386840820e-01,8.527128696441650391e-01,8.316583037376403809e-01,8.102835416793823242e-01,7.634525299072265625e-01,6.869899630546569824e-01,6.030334830284118652e-01,5.732753872871398926e-01,5.559157729148864746e-01,5.581015348434448242e-01,5.764278173446655273e-01,5.695207118988037109e-01,5.416665077209472656e-01,5.535265207290649414e-01,6.028801202774047852e-01,6.602786779403686523e-01,7.360492348670959473e-01,7.970750331878662109e-01,8.322535753250122070e-01,8.624584674835205078e-01,8.829613327980041504e-01,8.943092226982116699e-01,9.020916223526000977e-01,9.045246243476867676e-01,9.052476882934570312e-01,9.053500294685363770e-01,9.053283333778381348e-01,9.053283333778381348e-01,9.053283333778381348e-01,9.053283333778381348e-01,9.053283333778381348e-01,9.053283333778381348e-01,9.053283333778381348e-01,9.053283333778381348e-01,9.053283333778381348e-01,9.053283333778381348e-01,9.053283333778381348e-01,9.053283333778381348e-01,9.053283333778381348e-01,9.053283333778381348e-01,9.053283333778381348e-01,9.053283333778381348e-01,9.053283333778381348e-01,9.053283333778381348e-01,9.053283333778381348e-01,9.053285121917724609e-01,9.053297042846679688e-01,9.053519964218139648e-01,9.053733348846435547e-01,9.051624536514282227e-01,9.045451283454895020e-01,9.034088850021362305e-01,9.016554355621337891e-01,8.990839123725891113e-01,8.949881792068481445e-01,8.886953592300415039e-01,8.802374601364135742e-01,8.708860874176025391e-01,8.579430580139160156e-01,8.293558359146118164e-01,8.083514571189880371e-01,8.007491827011108398e-01,7.747518420219421387e-01,7.221041321754455566e-01,6.161020994186401367e-01
5.886428356170654297e-01,6.141726970672607422e-01,6.567780375480651855e-01,6.575828194618225098e-01,6.811209917068481445e-01,7.053422331809997559e-01,7.417061328887939453e-01,7.631064653396606445e-01,7.838653922080993652e-01,8.024114370346069336e-01,8.201231956481933594e-01,8.374931812286376953e-01,8.529534339904785156e-01,8.661199808120727539e-01,8.710573911666870117e-01,8.690970540046691895e-01,8.550487756729125977e-01,8.360613584518432617e-01,8.139994740486145020e-01,7.919040918350219727e-01,7.079502344131469727e-01,6.299124360084533691e-01,5.935540199279785156e-01,5.797110199928283691e-01,5.973360538482666016e-01,6.171023249626159668e-01,6.032035946846008301e-01,5.653777122497558594e-01,5.727608203887939453e-01,6.186964511871337891e-01,6.643587350845336914e-01,7.468782663345336914e-01,8.015601038932800293e-01,8.329261541366577148e-01,8.624449968338012695e-01,8.829213380813598633e-01,8.942546248435974121e-01,9.020853638648986816e-01,9.045251011848449707e-01,9.052487611770629883e-01,9.053505659103393555e-01,9.053283333778381348e-01,9.053283333778381348e-01,9.053283333778381348e-01,9.053283333778381348e-01,9.053283333778381348e-01,9.053283333778381348e-01,9.053283333778381348e-01,9.053283333778381348e-01,9.053283333778381348e-01,9.053283333778381348e-01,9.053283333778381348e-01,9.053283333778381348e-01,9.053283333778381348e-01,9.053283333778381348e-01,9.053283333778381348e-01,9.053283333778381348e-01,9.053283333778381348e-01,9.053283333778381348e-01,9.053283333778381348e-01,9.053285121917724609e-01,9.053297042846679688e-01,9.053519964218139648e-01,9.053733348846435547e-01,9.051626920700073242e-01,9.045455455780029297e-01,9.034097194671630859e-01,9.016568064689636230e-01,8.990858197212219238e-01,8.949913382530212402e-01,8.887003660202026367e-01,8.802440166473388672e-01,8.708941936492919922e-01,8.579527139663696289e-01,8.293673992156982422e-01,8.083641529083251953e-01,8.007619380950927734e-01,7.747640609741210938e-01,7.221143245697021484e-01,6.161091327667236328e-01
5.886382460594177246e-01,6.141651868820190430e-01,6.567699909210205078e-01,6.575735807418823242e-01,6.811107993125915527e-01,7.053313851356506348e-01,7.416950464248657227e-01,7.630952596664428711e-01,7.838524580001831055e-01,8.024339675903320312e-01,8.201256990432739258e-01,8.369364738464355469e-01,8.530770540237426758e-01,8.657391071319580078e-01,8.701314926147460938e-01,8.681910037994384766e-01,8.593513965606689453e-01,8.406701087951660156e-01,8.275785446166992188e-01,7.971028089523315430e-01,7.151569724082946777e-01,6.481639742851257324e-01,6.148988008499145508e-01,5.857959985733032227e-01,6.331834793090820312e-01,6.400798559188842773e-01,6.317126154899597168e-01,5.880959630012512207e-01,5.870437622070312500e-01,6.292002797126770020e-01,6.753134131431579590e-01,7.507249712944030762e-01,8.025150895118713379e-01,8.337233066558837891e-01,8.623839616775512695e-01,8.828960657119750977e-01,8.942024707794189453e-01,9.020872116088867188e-01,9.045159816741943359e-01,9.052467942237854004e-01,9.053500294685363770e-01,9.053283333778381348e-01,9.053283333778381348e-01,9.053283333778381348e-01,9.053283333778381348e-01,9.053283333778381348e-01,9.053283333778381348e-01,9.053283333778381348e-01,9.053283333778381348e-01,9.053283333778381348e-01,9.053283333778381348e-01,9.053283333778381348e-01,9.053283333778381348e-01,9.053283333778381348e-01,9.053283333778381348e-01,9.053283333778381348e-01,9.053283333778381348e-01,9.053283333778381348e-01,9.053283333778381348e-01,9.053283333778381348e-01,9.053285121917724609e-01,9.053297042846679688e-01,9.053519964218139648e-01,9.053732752799987793e-01,9.051628112792968750e-01,9.045461416244506836e-01,9.034106731414794922e-01,9.016582369804382324e-01,8.990880250930786133e-01,8.949946165084838867e-01,8.887054920196533203e-01,8.802510499954223633e-01,8.709020614624023438e-01,8.579619526863098145e-01,8.293789625167846680e-01,8.083769083023071289e-01,8.007746934890747070e-01,7.747763395309448242e-01,7.221245765686035156e-01,6.161162853240966797e-01
5.886329412460327148e-01,6.141574382781982422e-01,6.567613482475280762e-01,6.575635671615600586e-01,6.811004281044006348e-01,7.053210735321044922e-01,7.416845560073852539e-01,7.630846500396728516e-01,7.838523387908935547e-01,8.024615049362182617e-01,8.202486038208007812e-01,8.368666172027587891e-01,8.522080183029174805e-01,8.653349876403808594e-01,8.686699867248535156e-01,8.675304055213928223e-01,8.589295744895935059e-01,8.452984094619750977e-01,8.295091390609741211e-01,7.982373237609863281e-01,7.338442802429199219e-01,6.699668169021606445e-01,6.320992708206176758e-01,6.206092834472656250e-01,6.403267979621887207e-01,6.534867286682128906e-01,6.573454737663269043e-01,6.103366613388061523e-01,6.010814309120178223e-01,6.353474855422973633e-01,6.828079819679260254e-01,7.498275041580200195e-01,8.027130365371704102e-01,8.337351083755493164e-01,8.628025054931640625e-01,8.830977678298950195e-01,8.942322731018066406e-01,9.021582007408142090e-01,9.045279622077941895e-01,9.052597880363464355e-01,9.053500890731811523e-01,9.053283333778381348e-01,9.053283333778381348e-01,9.053283333778381348e-01,9.053283333778381348e-01,9.053283333778381348e-01,9.053283333778381348e-01,9.053283333778381348e-01,9.053283333778381348e-01,9.053283333778381348e-01,9.053283333778381348e-01,9.053283333778381348e-01,9.053283333778381348e-01,9.053283333778381348e-01,9.053283333778381348e-01,9.053283333778381348e-01,9.053283333778381348e-01,9.053283333778381348e-01,9.053283333778381348e-01,9.053283333778381348e-01,9.053285121917724609e-01,9.053297042846679688e-01,9.053519964218139648e-01,9.053732752799987793e-01,9.051629900932312012e-01,9.045464992523193359e-01,9.034115076065063477e-01,9.016594886779785156e-01,8.990899324417114258e-01,8.949978351593017578e-01,8.887103796005249023e-01,8.802578449249267578e-01,8.709100484848022461e-01,8.579714894294738770e-01,8.293904662132263184e-01,8.083896040916442871e-01,8.007874488830566406e-01,7.747887372970581055e-01,7.221347689628601074e-01,6.161234378814697266e-01
5.886275172233581543e-01,6.141485571861267090e-01,6.567515134811401367e-01,6.575523614883422852e-01,6.810889840126037598e-01,7.053096890449523926e-01,7.416736483573913574e-01,7.630745172500610352e-01,7.838395833969116211e-01,8.024762868881225586e-01,8.201993703842163086e-01,8.369432091712951660e-01,8.516642451286315918e-01,8.630809187889099121e-01,8.676310777664184570e-01,8.652884960174560547e-01,8.597438335418701172e-01,8.496586084365844727e-01,8.319317102432250977e-01,7.950447201728820801e-01,7.345087528228759766e-01,6.758609414100646973e-01,6.455261707305908203e-01,6.481071710586547852e-01,6.679480075836181641e-01,6.693928241729736328e-01,6.662552952766418457e-01,6.288260221481323242e-01,6.093115806579589844e-01,6.336932182312011719e-01,6.830704212188720703e-01,7.495157718658447266e-01,8.034394979476928711e-01,8.334380388259887695e-01,8.628360033035278320e-01,8.829442262649536133e-01,8.942754268646240234e-01,9.022384881973266602e-01,9.045016765594482422e-01,9.052502512931823730e-01,9.053481221199035645e-01,9.053262472152709961e-01,9.053262472152709961e-01,9.053262472152709961e-01,9.053262472152709961e-01,9.053262472152709961e-01,9.053262472152709961e-01,9.053262472152709961e-01,9.053261280059814453e-01,9.053261280059814453e-01,9.053261280059814453e-01,9.053260684013366699e-01,9.053260684013366699e-01,9.053260684013366699e-01,9.053260684013366699e-01,9.053261280059814453e-01,9.053260684013366699e-01,9.053260684013366699e-01,9.053261280059814453e-01,9.053261280059814453e-01,9.053262472152709961e-01,9.053274393081665039e-01,9.053497314453125000e-01,9.053709506988525391e-01,9.051609039306640625e-01,9.045450091361999512e-01,9.034107327461242676e-01,9.016592502593994141e-01,8.990901708602905273e-01,8.949992656707763672e-01,8.887137174606323242e-01,8.802630901336669922e-01,8.709170222282409668e-01,8.579806089401245117e-01,8.294016122817993164e-01,8.084024190902709961e-01,8.008002042770385742e-01,7.748010754585266113e-01,7.221453189849853516e-01,6.161307692527770996e-01
5.886216759681701660e-01,6.141388416290283203e-01,6.567403674125671387e-01,6.575391888618469238e-01,6.810736656188964844e-01,7.052931785583496094e-01,7.416573166847229004e-01,7.630581855773925781e-01,7.838249206542968750e-01,8.024691939353942871e-01,8.202432394027709961e-01,8.366113901138305664e-01,8.507898449897766113e-01,8.623907566070556641e-01,8.649018406867980957e-01,8.624634146690368652e-01,8.607916831970214844e-01,8.511937856674194336e-01,8.319770097732543945e-01,7.998969554901123047e-01,7.256867289543151855e-01,6.774016022682189941e-01,6.632601618766784668e-01,6.657235026359558105e-01,6.802482008934020996e-01,6.844482421875000000e-01,6.901122331619262695e-01,6.428325176239013672e-01,6.233993172645568848e-01,6.469816565513610840e-01,6.884884834289550781e-01,7.486962676048278809e-01,8.026458024978637695e-01,8.341616392135620117e-01,8.628284335136413574e-01,8.828915357589721680e-01,8.942039012908935547e-01,9.022324085235595703e-01,9.044010639190673828e-01,9.052425026893615723e-01,9.053426384925842285e-01,9.053211212158203125e-01,9.053211212158203125e-01,9.053211212158203125e-01,9.053212404251098633e-01,9.053212404251098633e-01,9.053213596343994141e-01,9.053212404251098633e-01,9.053213596343994141e-01,9.053214192390441895e-01,9.053214192390441895e-01,9.053214192390441895e-01,9.053214788436889648e-01,9.053215980529785156e-01,9.053215980529785156e-01,9.053215980529785156e-01,9.053217172622680664e-01,9.053217172622680664e-01,9.053218364715576172e-01,9.053217768669128418e-01,9.053220748901367188e-01,9.053232073783874512e-01,9.053454995155334473e-01,9.053669571876525879e-01,9.051569700241088867e-01,9.045405387878417969e-01,9.034069180488586426e-01,9.016559123992919922e-01,8.990865945816040039e-01,8.949946165084838867e-01,8.887091875076293945e-01,8.802586793899536133e-01,8.709127306938171387e-01,8.579801917076110840e-01,8.294045925140380859e-01,8.084076642990112305e-01,8.008062839508056641e-01,7.748062610626220703e-01,7.221472859382629395e-01,6.161317229270935059e-01
5.886108279228210449e-01,6.141251325607299805e-01,6.567243933677673340e-01,6.575253605842590332e-01,6.810598373413085938e-01,7.052784562110900879e-01,7.416442632675170898e-01,7.630505561828613281e-01,7.838227748870849609e-01,8.024740815162658691e-01,8.202840089797973633e-01,8.367472887039184570e-01,8.509676456451416016e-01,8.628475666046142578e-01,8.629081249237060547e-01,8.592948913574218750e-01,8.585795164108276367e-01,8.465255498886108398e-01,8.365072011947631836e-01,7.911180257797241211e-01,7.241529226303100586e-01,6.884678602218627930e-01,6.816763281822204590e-01,6.922050714492797852e-01,6.981007456779479980e-01,7.087795734405517578e-01,7.024849057197570801e-01,6.500824093818664551e-01,6.336657404899597168e-01,6.579378843307495117e-01,6.934000849723815918e-01,7.536201477050781250e-01,8.023980259895324707e-01,8.351180553436279297e-01,8.634055852890014648e-01,8.833633661270141602e-01,8.943910598754882812e-01,9.024177789688110352e-01,9.044832587242126465e-01,9.053246974945068359e-01,9.054143428802490234e-01,9.053926467895507812e-01,9.053929448127746582e-01,9.053932428359985352e-01,9.053934812545776367e-01,9.053937196731567383e-01,9.053940773010253906e-01,9.053943157196044922e-01,9.053945541381835938e-01,9.053948521614074707e-01,9.053950309753417969e-01,9.053952693939208984e-01,9.053956270217895508e-01,9.053958058357238770e-01,9.053961038589477539e-01,9.053963422775268555e-01,9.053966403007507324e-01,9.053969383239746094e-01,9.053971767425537109e-01,9.053972959518432617e-01,9.053979516029357910e-01,9.053995609283447266e-01,9.054224491119384766e-01,9.054447412490844727e-01,9.052376747131347656e-01,9.046199321746826172e-01,9.034808278083801270e-01,9.017148017883300781e-01,8.991357088088989258e-01,8.950453996658325195e-01,8.887741565704345703e-01,8.803353309631347656e-01,8.710007071495056152e-01,8.580510616302490234e-01,8.294702768325805664e-01,8.084539175033569336e-01,8.008365631103515625e-01,7.748248577117919922e-01,7.221456766128540039e-01,6.161311864852905273e-01
5.886176228523254395e-01,6.141338944435119629e-01,6.567311286926269531e-01,6.575433015823364258e-01,6.810891628265380859e-01,7.053412795066833496e-01,7.417585253715515137e-01,7.632127404212951660e-01,7.840101718902587891e-01,8.026683926582336426e-01,8.205068111419677734e-01,8.370079994201660156e-01,8.518418073654174805e-01,8.618338108062744141e-01,8.624526262283325195e-01,8.594188690185546875e-01,8.593251705169677734e-01,8.450967073440551758e-01,8.282817602157592773e-01,7.858008146286010742e-01,7.231502532958984375e-01,7.018607258796691895e-01,7.111315131187438965e-01,7.142930626869201660e-01,7.124820947647094727e-01,7.248104810714721680e-01,7.160510420799255371e-01,6.689898371696472168e-01,6.543545722961425781e-01,6.674536466598510742e-01,6.988246440887451172e-01,7.527459859848022461e-01,8.045887947082519531e-01,8.344174623489379883e-01,8.631066083908081055e-01,8.837133646011352539e-01,8.942047357559204102e-01,9.024486541748046875e-01,9.045914411544799805e-01,9.054415225982666016e-01,9.054976105690002441e-01,9.054764509201049805e-01,9.054757356643676758e-01,9.054747819900512695e-01,9.054740071296691895e-01,9.054729938507080078e-01,9.054721593856811523e-01,9.054712653160095215e-01,9.054704904556274414e-01,9.054694771766662598e-01,9.054688215255737305e-01,9.054678678512573242e-01,9.054669141769409180e-01,9.054659605026245117e-01,9.054651260375976562e-01,9.054644703865051270e-01,9.054634571075439453e-01,9.054626822471618652e-01,9.054616689682006836e-01,9.054609537124633789e-01,9.054604768753051758e-01,9.054609537124633789e-01,9.054840803146362305e-01,9.055070877075195312e-01,9.053020477294921875e-01,9.046816825866699219e-01,9.035500884056091309e-01,9.017893075942993164e-01,8.992094397544860840e-01,8.951148390769958496e-01,8.888961672782897949e-01,8.804688453674316406e-01,8.711259365081787109e-01,8.582129478454589844e-01,8.296994566917419434e-01,8.087000846862792969e-01,8.010926246643066406e-01,7.750729322433471680e-01,7.224298119544982910e-01,6.165245771408081055e-01
5.888016223907470703e-01,6.143115162849426270e-01,6.569853425025939941e-01,6.578003168106079102e-01,6.813378334045410156e-01,7.055044770240783691e-01,7.418444156646728516e-01,7.632229328155517578e-01,7.838780879974365234e-01,8.024152517318725586e-01,8.201482295989990234e-01,8.366476297378540039e-01,8.516631722450256348e-01,8.594609498977661133e-01,8.595856428146362305e-01,8.567559123039245605e-01,8.557221889495849609e-01,8.477284312248229980e-01,8.350241184234619141e-01,7.768215537071228027e-01,7.257588505744934082e-01,7.101051211357116699e-01,7.342512011528015137e-01,7.315599918365478516e-01,7.350545525550842285e-01,7.396110296249389648e-01,7.301188111305236816e-01,6.851341724395751953e-01,6.674206256866455078e-01,6.721975207328796387e-01,6.995958685874938965e-01,7.527472972869873047e-01,8.058222532272338867e-01,8.347069621086120605e-01,8.624528050422668457e-01,8.834483027458190918e-01,8.941413760185241699e-01,9.020109176635742188e-01,9.039497971534729004e-01,9.045919179916381836e-01,9.046437740325927734e-01,9.046240448951721191e-01,9.046229124069213867e-01,9.046220779418945312e-01,9.046212434768676758e-01,9.046202898025512695e-01,9.046193361282348633e-01,9.046183824539184570e-01,9.046175479888916016e-01,9.046167135238647461e-01,9.046157598495483398e-01,9.046148061752319336e-01,9.046138525009155273e-01,9.046130180358886719e-01,9.046121835708618164e-01,9.046111702919006348e-01,9.046102762222290039e-01,9.046092033386230469e-01,9.046083688735961914e-01,9.046075940132141113e-01,9.046068787574768066e-01,9.046076536178588867e-01,9.046276807785034180e-01,9.046608209609985352e-01,9.044566750526428223e-01,9.038789868354797363e-01,9.027748107910156250e-01,9.010079503059387207e-01,8.984284400939941406e-01,8.943629264831542969e-01,8.880738019943237305e-01,8.796498775482177734e-01,8.703308105468750000e-01,8.574490547180175781e-01,8.288415670394897461e-01,8.078479766845703125e-01,8.004542589187622070e-01,7.742138504981994629e-01,7.216148972511291504e-01,6.159955263137817383e-01
5.891577601432800293e-01,6.141805648803710938e-01,6.566540002822875977e-01,6.571518182754516602e-01,6.804432868957519531e-01,7.042936086654663086e-01,7.404206991195678711e-01,7.615278959274291992e-01,7.820299267768859863e-01,8.004393577575683594e-01,8.180837631225585938e-01,8.348659276962280273e-01,8.494086265563964844e-01,8.572584390640258789e-01,8.570669293403625488e-01,8.554384112358093262e-01,8.584295511245727539e-01,8.483655452728271484e-01,8.366396427154541016e-01,7.636946439743041992e-01,7.314836382865905762e-01,7.380787730216979980e-01,7.355503439903259277e-01,7.623370885848999023e-01,7.572376728057861328e-01,7.564409971237182617e-01,7.455282807350158691e-01,7.109059691429138184e-01,6.684280633926391602e-01,6.786205172538757324e-01,6.991298794746398926e-01,7.588123083114624023e-01,8.062362670898437500e-01,8.341097831726074219e-01,8.613027334213256836e-01,8.827379941940307617e-01,8.933291435241699219e-01,9.013341665267944336e-01,9.030637741088867188e-01,9.037161469459533691e-01,9.037266969680786133e-01,9.037077426910400391e-01,9.037065505981445312e-01,9.037054777145385742e-01,9.037044048309326172e-01,9.037033319473266602e-01,9.037022590637207031e-01,9.037013053894042969e-01,9.037001729011535645e-01,9.036991596221923828e-01,9.036979675292968750e-01,9.036970138549804688e-01,9.036959409713745117e-01,9.036947488784790039e-01,9.036937355995178223e-01,9.036927223205566406e-01,9.036916494369506836e-01,9.036905765533447266e-01,9.036895632743835449e-01,9.036884307861328125e-01,9.036877751350402832e-01,9.036876559257507324e-01,9.037036895751953125e-01,9.037331342697143555e-01,9.035474061965942383e-01,9.029991626739501953e-01,9.019616842269897461e-01,9.002494812011718750e-01,8.976998925209045410e-01,8.936427831649780273e-01,8.874092102050781250e-01,8.790726661682128906e-01,8.698120117187500000e-01,8.568375110626220703e-01,8.282488584518432617e-01,8.071019649505615234e-01,7.996393442153930664e-01,7.733836174011230469e-01,7.204571962356567383e-01,6.144739985466003418e-01
5.884083509445190430e-01,6.125021576881408691e-01,6.548574566841125488e-01,6.552618741989135742e-01,6.780966520309448242e-01,7.014934420585632324e-01,7.376147508621215820e-01,7.587714195251464844e-01,7.793207764625549316e-01,7.977200746536254883e-01,8.153582215309143066e-01,8.323051929473876953e-01,8.465762138366699219e-01,8.541844487190246582e-01,8.547738790512084961e-01,8.542077541351318359e-01,8.530597686767578125e-01,8.508827686309814453e-01,8.345379829406738281e-01,7.650197744369506836e-01,7.434518337249755859e-01,7.487257122993469238e-01,7.615284919738769531e-01,7.735700607299804688e-01,7.748667001724243164e-01,7.722501754760742188e-01,7.569640874862670898e-01,7.178643941879272461e-01,6.697185039520263672e-01,6.753196120262145996e-01,7.039594650268554688e-01,7.630305290222167969e-01,8.028449416160583496e-01,8.305178284645080566e-01,8.612308502197265625e-01,8.807873129844665527e-01,8.919190764427185059e-01,8.994356393814086914e-01,9.012814760208129883e-01,9.018876552581787109e-01,9.019070267677307129e-01,9.018806219100952148e-01,9.018745422363281250e-01,9.018683433532714844e-01,9.018623828887939453e-01,9.018562436103820801e-01,9.018501043319702148e-01,9.018441438674926758e-01,9.018380641937255859e-01,9.018319249153137207e-01,9.018257856369018555e-01,9.018198251724243164e-01,9.018137454986572266e-01,9.018076062202453613e-01,9.018016457557678223e-01,9.017955660820007324e-01,9.017894268035888672e-01,9.017833471298217773e-01,9.017773866653442383e-01,9.017713069915771484e-01,9.017652273178100586e-01,9.017599821090698242e-01,9.017738699913024902e-01,9.017987251281738281e-01,9.016250967979431152e-01,9.011556506156921387e-01,9.001957178115844727e-01,8.985984325408935547e-01,8.961426019668579102e-01,8.921522498130798340e-01,8.860800266265869141e-01,8.775857686996459961e-01,8.682910203933715820e-01,8.554384708404541016e-01,8.269654512405395508e-01,8.060625791549682617e-01,7.985024452209472656e-01,7.719295024871826172e-01,7.191735506057739258e-01,6.126993894577026367e-01
5.864672064781188965e-01,6.097784042358398438e-01,6.518778800964355469e-01,6.520060300827026367e-01,6.745827198028564453e-01,6.974254250526428223e-01,7.329918146133422852e-01,7.536315917968750000e-01,7.735040187835693359e-01,7.914570569992065430e-01,8.088092207908630371e-01,8.255334496498107910e-01,8.402586579322814941e-01,8.475973606109619141e-01,8.509012460708618164e-01,8.495421409606933594e-01,8.483501672744750977e-01,8.449794650077819824e-01,8.185383081436157227e-01,7.540922164916992188e-01,7.466148734092712402e-01,7.479888796806335449e-01,7.802862524986267090e-01,7.872152328491210938e-01,7.785004377365112305e-01,7.743294239044189453e-01,7.641248106956481934e-01,7.282956242561340332e-01,6.794117689132690430e-01,6.789072751998901367e-01,7.034214735031127930e-01,7.525346875190734863e-01,7.996151447296142578e-01,8.267376422882080078e-01,8.563275337219238281e-01,8.740189671516418457e-01,8.855693340301513672e-01,8.929835557937622070e-01,8.948292732238769531e-01,8.953592777252197266e-01,8.953930139541625977e-01,8.953640460968017578e-01,8.953546285629272461e-01,8.953455686569213867e-01,8.953364491462707520e-01,8.953272700309753418e-01,8.953180909156799316e-01,8.953090906143188477e-01,8.952999711036682129e-01,8.952908515930175781e-01,8.952816724777221680e-01,8.952726125717163086e-01,8.952634334564208984e-01,8.952543735504150391e-01,8.952452540397644043e-01,8.952361941337585449e-01,8.952270150184631348e-01,8.952178955078125000e-01,8.952088952064514160e-01,8.951998949050903320e-01,8.951905965805053711e-01,8.951817750930786133e-01,8.951903581619262695e-01,8.952075242996215820e-01,8.950722813606262207e-01,8.946230411529541016e-01,8.938133716583251953e-01,8.923469185829162598e-01,8.900230526924133301e-01,8.861776590347290039e-01,8.802837729454040527e-01,8.720718026161193848e-01,8.626427650451660156e-01,8.496451377868652344e-01,8.213566541671752930e-01,8.010398149490356445e-01,7.939150333404541016e-01,7.675365209579467773e-01,7.151716351509094238e-01,6.077075600624084473e-01
5.825381278991699219e-01,6.038830280303955078e-01,6.454451084136962891e-01,6.448017358779907227e-01,6.661981344223022461e-01,6.881844401359558105e-01,7.229016423225402832e-01,7.430784106254577637e-01,7.622796297073364258e-01,7.793430089950561523e-01,7.960784435272216797e-01,8.124706745147705078e-01,8.274062275886535645e-01,8.353770375251770020e-01,8.384732007980346680e-01,8.380016088485717773e-01,8.397862911224365234e-01,8.353327512741088867e-01,8.020491003990173340e-01,7.602205276489257812e-01,7.403017282485961914e-01,7.515828609466552734e-01,7.743129730224609375e-01,7.903980016708374023e-01,7.738484144210815430e-01,7.749685049057006836e-01,7.612729668617248535e-01,7.311313748359680176e-01,6.740527153015136719e-01,6.725614070892333984e-01,6.942221522331237793e-01,7.439756393432617188e-01,7.819859981536865234e-01,8.146393299102783203e-01,8.449803590774536133e-01,8.606989979743957520e-01,8.737249374389648438e-01,8.820990920066833496e-01,8.840360641479492188e-01,8.844561576843261719e-01,8.844248056411743164e-01,8.843753337860107422e-01,8.843549489974975586e-01,8.843346238136291504e-01,8.843145370483398438e-01,8.842940330505371094e-01,8.842738866806030273e-01,8.842536807060241699e-01,8.842333555221557617e-01,8.842132091522216797e-01,8.841929435729980469e-01,8.841727375984191895e-01,8.841524720191955566e-01,8.841322660446166992e-01,8.841118812561035156e-01,8.840917348861694336e-01,8.840715885162353516e-01,8.840513229370117188e-01,8.840310573577880859e-01,8.840109109878540039e-01,8.839905261993408203e-01,8.839704990386962891e-01,8.839812278747558594e-01,8.840264081954956055e-01,8.838994503021240234e-01,8.835496902465820312e-01,8.828672170639038086e-01,8.813999891281127930e-01,8.790473937988281250e-01,8.753567934036254883e-01,8.695253133773803711e-01,8.616411685943603516e-01,8.525907993316650391e-01,8.395677804946899414e-01,8.107857704162597656e-01,7.916767597198486328e-01,7.853842973709106445e-01,7.605766654014587402e-01,7.071911096572875977e-01,6.017366647720336914e-01
5.753740072250366211e-01,5.940441489219665527e-01,6.345349550247192383e-01,6.318072080612182617e-01,6.512067317962646484e-01,6.719567775726318359e-01,7.057636976242065430e-01,7.251145243644714355e-01,7.435630559921264648e-01,7.599234580993652344e-01,7.757317423820495605e-01,7.917820215225219727e-01,8.063710331916809082e-01,8.141816854476928711e-01,8.164054155349731445e-01,8.183715939521789551e-01,8.146916031837463379e-01,8.046581149101257324e-01,7.666419744491577148e-01,7.364596128463745117e-01,7.275596857070922852e-01,7.321196198463439941e-01,7.607445716857910156e-01,7.735455036163330078e-01,7.586150765419006348e-01,7.636603116989135742e-01,7.559279203414916992e-01,7.042800188064575195e-01,6.524137258529663086e-01,6.504153609275817871e-01,6.771461963653564453e-01,7.216953039169311523e-01,7.654477357864379883e-01,7.889621257781982422e-01,8.171210289001464844e-01,8.379474282264709473e-01,8.512136936187744141e-01,8.593051433563232422e-01,8.600482940673828125e-01,8.608496189117431641e-01,8.607134222984313965e-01,8.606505393981933594e-01,8.606132268905639648e-01,8.605762720108032227e-01,8.605390787124633789e-01,8.605020046234130859e-01,8.604649901390075684e-01,8.604280948638916016e-01,8.603909015655517578e-01,8.603539466857910156e-01,8.603168725967407227e-01,8.602795004844665527e-01,8.602426052093505859e-01,8.602055907249450684e-01,8.601686954498291016e-01,8.601315021514892578e-01,8.600946664810180664e-01,8.600574731826782227e-01,8.600206375122070312e-01,8.599836230278015137e-01,8.599464893341064453e-01,8.599084615707397461e-01,8.599132299423217773e-01,8.599463701248168945e-01,8.597953915596008301e-01,8.595281839370727539e-01,8.591257333755493164e-01,8.579423427581787109e-01,8.558893203735351562e-01,8.521256446838378906e-01,8.465042114257812500e-01,8.387116789817810059e-01,8.299933671951293945e-01,8.169826865196228027e-01,7.877253293991088867e-01,7.699965238571166992e-01,7.670505046844482422e-01,7.438961267471313477e-01,6.925536394119262695e-01,5.922703742980957031e-01
5.643814802169799805e-01,5.786232352256774902e-01,6.173465847969055176e-01,6.113583445549011230e-01,6.278061866760253906e-01,6.468135118484497070e-01,6.787365674972534180e-01,6.960878372192382812e-01,7.121248245239257812e-01,7.261198163032531738e-01,7.397502660751342773e-01,7.544073462486267090e-01,7.673449516296386719e-01,7.728304862976074219e-01,7.741464376449584961e-01,7.830436229705810547e-01,7.754518985748291016e-01,7.573980093002319336e-01,7.247178554534912109e-01,6.971438527107238770e-01,6.888189315795898438e-01,7.001867294311523438e-01,7.250186204910278320e-01,7.308319807052612305e-01,7.271752357482910156e-01,7.307889461517333984e-01,7.192527055740356445e-01,6.617467403411865234e-01,6.238556504249572754e-01,6.137799620628356934e-01,6.500849723815917969e-01,6.860319972038269043e-01,7.239056229591369629e-01,7.427970767021179199e-01,7.722715139389038086e-01,7.947825789451599121e-01,8.096758127212524414e-01,8.166662454605102539e-01,8.176604509353637695e-01,8.181024789810180664e-01,8.179626464843750000e-01,8.178868889808654785e-01,8.178279995918273926e-01,8.177687525749206543e-01,8.177096843719482422e-01,8.176506757736206055e-01,8.175919055938720703e-01,8.175326585769653320e-01,8.174736499786376953e-01,8.174147009849548340e-01,8.173557519912719727e-01,8.172968626022338867e-01,8.172379136085510254e-01,8.171789050102233887e-01,8.171199560165405273e-01,8.170608878135681152e-01,8.170020580291748047e-01,8.169430494308471680e-01,8.168841600418090820e-01,8.168252706527709961e-01,8.167664408683776855e-01,8.167064189910888672e-01,8.166984915733337402e-01,8.166705965995788574e-01,8.164759874343872070e-01,8.160694241523742676e-01,8.156121969223022461e-01,8.143006563186645508e-01,8.124319314956665039e-01,8.094849586486816406e-01,8.042653799057006836e-01,7.970074415206909180e-01,7.894026041030883789e-01,7.773666381835937500e-01,7.478956580162048340e-01,7.329774498939514160e-01,7.344051003456115723e-01,7.134088873863220215e-01,6.685227751731872559e-01,5.795566439628601074e-01
5.498365163803100586e-01,5.541189312934875488e-01,5.890448689460754395e-01,5.790379047393798828e-01,5.922482013702392578e-01,6.085583567619323730e-01,6.381736397743225098e-01,6.527647972106933594e-01,6.666593551635742188e-01,6.783844828605651855e-01,6.897631883621215820e-01,7.023825049400329590e-01,7.122508883476257324e-01,7.145185470581054688e-01,7.162108421325683594e-01,7.241234779357910156e-01,7.100701332092285156e-01,6.870042681694030762e-01,6.670398712158203125e-01,6.353827118873596191e-01,6.247630119323730469e-01,6.582157015800476074e-01,6.659603118896484375e-01,6.660642623901367188e-01,6.689934730529785156e-01,6.620348095893859863e-01,6.467818617820739746e-01,6.147795319557189941e-01,5.840095877647399902e-01,5.767390727996826172e-01,5.918778181076049805e-01,6.305351257324218750e-01,6.666911840438842773e-01,6.817550659179687500e-01,7.083979845046997070e-01,7.356835603713989258e-01,7.466469407081604004e-01,7.497113347053527832e-01,7.502418756484985352e-01,7.511327266693115234e-01,7.510006427764892578e-01,7.508994340896606445e-01,7.508163452148437500e-01,7.507337331771850586e-01,7.506511211395263672e-01,7.505686879158020020e-01,7.504861354827880859e-01,7.504035234451293945e-01,7.503211498260498047e-01,7.502385973930358887e-01,7.501560449600219727e-01,7.500736713409423828e-01,7.499911189079284668e-01,7.499088048934936523e-01,7.498261332511901855e-01,7.497437596321105957e-01,7.496612668037414551e-01,7.495788931846618652e-01,7.494965791702270508e-01,7.494139671325683594e-01,7.493309378623962402e-01,7.492446899414062500e-01,7.492198944091796875e-01,7.491412162780761719e-01,7.489871382713317871e-01,7.487058639526367188e-01,7.481917738914489746e-01,7.468030452728271484e-01,7.445394396781921387e-01,7.411745786666870117e-01,7.364802360534667969e-01,7.301262617111206055e-01,7.241331338882446289e-01,7.128659486770629883e-01,6.834263205528259277e-01,6.726949214935302734e-01,6.815959811210632324e-01,6.628288030624389648e-01,6.335825324058532715e-01,5.563641786575317383e-01
5.325875878334045410e-01,5.238315463066101074e-01,5.546796321868896484e-01,5.387874841690063477e-01,5.466833114624023438e-01,5.595369338989257812e-01,5.837627053260803223e-01,5.949375033378601074e-01,6.054004430770874023e-01,6.135098934173583984e-01,6.214544773101806641e-01,6.309568285942077637e-01,6.368977427482604980e-01,6.371442079544067383e-01,6.400124430656433105e-01,6.452628970146179199e-01,6.260854005813598633e-01,6.049618721008300781e-01,5.990599393844604492e-01,5.686429142951965332e-01,5.617003440856933594e-01,5.869670510292053223e-01,5.956120491027832031e-01,5.878908038139343262e-01,5.999538302421569824e-01,5.858678221702575684e-01,5.672581791877746582e-01,5.449342727661132812e-01,5.205974578857421875e-01,5.159994959831237793e-01,5.301388502120971680e-01,5.662522315979003906e-01,5.892707109451293945e-01,6.097839474678039551e-01,6.302983760833740234e-01,6.501753330230712891e-01,6.568527221679687500e-01,6.612895727157592773e-01,6.606919169425964355e-01,6.613849997520446777e-01,6.613193154335021973e-01,6.612149477005004883e-01,6.611290574073791504e-01,6.610413789749145508e-01,6.609537601470947266e-01,6.608661413192749023e-01,6.607785224914550781e-01,6.606907844543457031e-01,6.606032848358154297e-01,6.605156660079956055e-01,6.604279875755310059e-01,6.603404283523559570e-01,6.602528095245361328e-01,6.601653099060058594e-01,6.600776314735412598e-01,6.599903106689453125e-01,6.599027514457702637e-01,6.598153710365295410e-01,6.597278118133544922e-01,6.596404910087585449e-01,6.595521569252014160e-01,6.594594717025756836e-01,6.593937277793884277e-01,6.593326330184936523e-01,6.591210365295410156e-01,6.589109301567077637e-01,6.585902571678161621e-01,6.574317216873168945e-01,6.554346680641174316e-01,6.522527337074279785e-01,6.490328311920166016e-01,6.442076563835144043e-01,6.403409242630004883e-01,6.306501626968383789e-01,6.031767725944519043e-01,5.958048701286315918e-01,6.114140152931213379e-01,5.966629981994628906e-01,5.878640413284301758e-01,5.267989039421081543e-01
5.116015076637268066e-01,4.894231855869293213e-01,5.142412781715393066e-01,4.909926950931549072e-01,4.925761520862579346e-01,5.011571645736694336e-01,5.197599530220031738e-01,5.277098417282104492e-01,5.348458290100097656e-01,5.396687388420104980e-01,5.444386601448059082e-01,5.507561564445495605e-01,5.539698004722595215e-01,5.530745983123779297e-01,5.551140308380126953e-01,5.582454204559326172e-01,5.366665720939636230e-01,5.222718715667724609e-01,5.190393924713134766e-01,5.047403573989868164e-01,5.033258199691772461e-01,5.192494392395019531e-01,5.204746723175048828e-01,5.168011188507080078e-01,5.265820026397705078e-01,5.100691318511962891e-01,4.873399436473846436e-01,4.816994071006774902e-01,4.645854830741882324e-01,4.564334452152252197e-01,4.818262755870819092e-01,4.976737499237060547e-01,5.100156068801879883e-01,5.260056257247924805e-01,5.457507371902465820e-01,5.617803931236267090e-01,5.646727085113525391e-01,5.687087774276733398e-01,5.685065984725952148e-01,5.692136883735656738e-01,5.690305829048156738e-01,5.689211487770080566e-01,5.688318610191345215e-01,5.687447786331176758e-01,5.686578750610351562e-01,5.685708522796630859e-01,5.684840679168701172e-01,5.683971643447875977e-01,5.683101415634155273e-01,5.682232975959777832e-01,5.681363940238952637e-01,5.680497288703918457e-01,5.679628849029541016e-01,5.678759813308715820e-01,5.677892565727233887e-01,5.677025318145751953e-01,5.676157474517822266e-01,5.675292611122131348e-01,5.674424171447753906e-01,5.673559308052062988e-01,5.672687292098999023e-01,5.671756863594055176e-01,5.670898556709289551e-01,5.670490264892578125e-01,5.670171380043029785e-01,5.669410228729248047e-01,5.667015910148620605e-01,5.661593675613403320e-01,5.646501183509826660e-01,5.622197389602661133e-01,5.591592192649841309e-01,5.555436015129089355e-01,5.536021590232849121e-01,5.454249382019042969e-01,5.213658213615417480e-01,5.172567963600158691e-01,5.382825136184692383e-01,5.279596447944641113e-01,5.395993590354919434e-01,4.964646399021148682e-01
4.905969500541687012e-01,4.557304084300994873e-01,4.713640511035919189e-01,4.409465193748474121e-01,4.362814426422119141e-01,4.406376481056213379e-01,4.540603756904602051e-01,4.581398665904998779e-01,4.624663591384887695e-01,4.647779166698455811e-01,4.672238230705261230e-01,4.708157479763031006e-01,4.725092947483062744e-01,4.733898639678955078e-01,4.750193357467651367e-01,4.752057790756225586e-01,4.582807123661041260e-01,4.519889056682586670e-01,4.484736025333404541e-01,4.442566335201263428e-01,4.396228790283203125e-01,4.435057640075683594e-01,4.488655328750610352e-01,4.558211266994476318e-01,4.627804458141326904e-01,4.455586373805999756e-01,4.306919872760772705e-01,4.229126572608947754e-01,4.097269475460052490e-01,4.039259552955627441e-01,4.221653938293457031e-01,4.306343197822570801e-01,4.411600828170776367e-01,4.509866535663604736e-01,4.656364023685455322e-01,4.727306663990020752e-01,4.789555072784423828e-01,4.796844124794006348e-01,4.814699590206146240e-01,4.813101589679718018e-01,4.812601208686828613e-01,4.811652898788452148e-01,4.810887277126312256e-01,4.810157716274261475e-01,4.809427857398986816e-01,4.808699488639831543e-01,4.807970523834228516e-01,4.807241559028625488e-01,4.806512594223022461e-01,4.805785119533538818e-01,4.805056452751159668e-01,4.804328680038452148e-01,4.803601503372192383e-01,4.802873134613037109e-01,4.802145957946777344e-01,4.801417291164398193e-01,4.800691604614257812e-01,4.799965918064117432e-01,4.799240827560424805e-01,4.798513352870941162e-01,4.797784686088562012e-01,4.797021448612213135e-01,4.796190857887268066e-01,4.795537590980529785e-01,4.795401394367218018e-01,4.795467555522918701e-01,4.794689714908599854e-01,4.793787002563476562e-01,4.788078665733337402e-01,4.777810573577880859e-01,4.768591821193695068e-01,4.752979874610900879e-01,4.752688407897949219e-01,4.694211483001708984e-01,4.494246542453765869e-01,4.481859505176544189e-01,4.717334806919097900e-01,4.687315523624420166e-01,4.949409365653991699e-01,4.690679907798767090e-01
4.694183766841888428e-01,4.224296212196350098e-01,4.285620450973510742e-01,3.950847387313842773e-01,3.841203749179840088e-01,3.856852650642395020e-01,3.960998058319091797e-01,3.990378081798553467e-01,4.020590186119079590e-01,4.032415747642517090e-01,4.043560624122619629e-01,4.058938026428222656e-01,4.064270257949829102e-01,4.070531427860260010e-01,4.080506563186645508e-01,4.055468142032623291e-01,3.957545757293701172e-01,3.915774226188659668e-01,3.862520456314086914e-01,3.894951641559600830e-01,3.882322907447814941e-01,3.881223201751708984e-01,3.915853500366210938e-01,3.989367187023162842e-01,3.984690904617309570e-01,3.822052180767059326e-01,3.791837096214294434e-01,3.731520771980285645e-01,3.653826713562011719e-01,3.629836142063140869e-01,3.744316697120666504e-01,3.792158365249633789e-01,3.870187699794769287e-01,3.898795843124389648e-01,4.008148908615112305e-01,4.017252624034881592e-01,4.068064987659454346e-01,4.081771373748779297e-01,4.093345999717712402e-01,4.092311263084411621e-01,4.091337323188781738e-01,4.090642929077148438e-01,4.090068936347961426e-01,4.089491367340087891e-01,4.088913798332214355e-01,4.088335633277893066e-01,4.087759852409362793e-01,4.087183177471160889e-01,4.086607694625854492e-01,4.086030423641204834e-01,4.085454046726226807e-01,4.084877669811248779e-01,4.084300398826599121e-01,4.083725512027740479e-01,4.083148241043090820e-01,4.082572460174560547e-01,4.081998765468597412e-01,4.081423580646514893e-01,4.080849885940551758e-01,4.080274105072021484e-01,4.079709053039550781e-01,4.079129695892333984e-01,4.078581333160400391e-01,4.078078866004943848e-01,4.077769517898559570e-01,4.077574312686920166e-01,4.077774882316589355e-01,4.076837301254272461e-01,4.073032140731811523e-01,4.064690470695495605e-01,4.056279361248016357e-01,4.045415818691253662e-01,4.051930308341979980e-01,4.014974832534790039e-01,3.856320679187774658e-01,3.876424431800842285e-01,4.134635031223297119e-01,4.176850318908691406e-01,4.559939205646514893e-01,4.460423588752746582e-01
4.513981640338897705e-01,3.938298523426055908e-01,3.929936587810516357e-01,3.573039770126342773e-01,3.413701653480529785e-01,3.406610488891601562e-01,3.481068909168243408e-01,3.498275279998779297e-01,3.515225648880004883e-01,3.519450426101684570e-01,3.524025082588195801e-01,3.529462218284606934e-01,3.533441126346588135e-01,3.541144132614135742e-01,3.544206321239471436e-01,3.531009554862976074e-01,3.495223224163055420e-01,3.455523252487182617e-01,3.401071131229400635e-01,3.445221185684204102e-01,3.434789180755615234e-01,3.420869708061218262e-01,3.454083800315856934e-01,3.477709293365478516e-01,3.470156192779541016e-01,3.382974267005920410e-01,3.349579572677612305e-01,3.316646814346313477e-01,3.294304013252258301e-01,3.258644342422485352e-01,3.298746943473815918e-01,3.362143933773040771e-01,3.419008553028106689e-01,3.459951877593994141e-01,3.485259413719177246e-01,3.514280021190643311e-01,3.517726659774780273e-01,3.528012633323669434e-01,3.529217243194580078e-01,3.531326055526733398e-01,3.531021773815155029e-01,3.530464768409729004e-01,3.530057072639465332e-01,3.529645800590515137e-01,3.529233634471893311e-01,3.528821468353271484e-01,3.528410792350769043e-01,3.527998924255371094e-01,3.527588844299316406e-01,3.527176976203918457e-01,3.526765108108520508e-01,3.526355028152465820e-01,3.525944352149963379e-01,3.525532484054565430e-01,3.525121808052062988e-01,3.524712920188903809e-01,3.524302840232849121e-01,3.523893952369689941e-01,3.523483574390411377e-01,3.523073792457580566e-01,3.522666096687316895e-01,3.522257804870605469e-01,3.521826267242431641e-01,3.521535396575927734e-01,3.521148562431335449e-01,3.520593047142028809e-01,3.520632982254028320e-01,3.521074056625366211e-01,3.520565032958984375e-01,3.519790470600128174e-01,3.517199158668518066e-01,3.512637019157409668e-01,3.520998954772949219e-01,3.494711518287658691e-01,3.362842798233032227e-01,3.391530513763427734e-01,3.653046488761901855e-01,3.756700158119201660e-01,4.224319458007812500e-01,4.258116483688354492e-01
4.349692463874816895e-01,3.689469397068023682e-01,3.612776994705200195e-01,3.251683712005615234e-01,3.061330020427703857e-01,3.047590851783752441e-01,3.108648657798767090e-01,3.122501075267791748e-01,3.134085536003112793e-01,3.134244978427886963e-01,3.133737444877624512e-01,3.133402764797210693e-01,3.135215640068054199e-01,3.138977885246276855e-01,3.136613965034484863e-01,3.134160637855529785e-01,3.127781450748443604e-01,3.094618320465087891e-01,3.071980476379394531e-01,3.088792264461517334e-01,3.091828823089599609e-01,3.092516958713531494e-01,3.102897405624389648e-01,3.100914955139160156e-01,3.095415532588958740e-01,3.054498136043548584e-01,3.019818365573883057e-01,2.996264994144439697e-01,2.986217141151428223e-01,2.982114851474761963e-01,3.016245365142822266e-01,3.032875657081604004e-01,3.088771700859069824e-01,3.090108931064605713e-01,3.105826973915100098e-01,3.130523562431335449e-01,3.128667473793029785e-01,3.132921457290649414e-01,3.127443492412567139e-01,3.128151893615722656e-01,3.128380775451660156e-01,3.128084540367126465e-01,3.127781152725219727e-01,3.127478957176208496e-01,3.127181529998779297e-01,3.126882910728454590e-01,3.126583695411682129e-01,3.126283884048461914e-01,3.125985264778137207e-01,3.125686049461364746e-01,3.125388026237487793e-01,3.125088810920715332e-01,3.124791383743286133e-01,3.124492168426513672e-01,3.124193549156188965e-01,3.123894929885864258e-01,3.123598098754882812e-01,3.123300969600677490e-01,3.123002648353576660e-01,3.122703731060028076e-01,3.122408986091613770e-01,3.122110366821289062e-01,3.121815919876098633e-01,3.121498525142669678e-01,3.121192157268524170e-01,3.120893537998199463e-01,3.120486140251159668e-01,3.119972050189971924e-01,3.119720816612243652e-01,3.118556141853332520e-01,3.117196559906005859e-01,3.115011751651763916e-01,3.122439384460449219e-01,3.104161620140075684e-01,2.992250323295593262e-01,3.025830686092376709e-01,3.288145661354064941e-01,3.441842496395111084e-01,3.968219757080078125e-01,4.100990891456604004e-01
4.212135076522827148e-01,3.491312861442565918e-01,3.364101052284240723e-01,2.999955415725708008e-01,2.791721224784851074e-01,2.769960165023803711e-01,2.819483876228332520e-01,2.831141054630279541e-01,2.839974761009216309e-01,2.838913202285766602e-01,2.838391661643981934e-01,2.838106751441955566e-01,2.838213443756103516e-01,2.839409112930297852e-01,2.835746407508850098e-01,2.838339209556579590e-01,2.836363315582275391e-01,2.821354269981384277e-01,2.806838154792785645e-01,2.817425727844238281e-01,2.817171216011047363e-01,2.831799387931823730e-01,2.826345562934875488e-01,2.823944091796875000e-01,2.824861705303192139e-01,2.810637950897216797e-01,2.778354883193969727e-01,2.757640480995178223e-01,2.766435742378234863e-01,2.753348350524902344e-01,2.767239212989807129e-01,2.788137793540954590e-01,2.798554599285125732e-01,2.812060713768005371e-01,2.819765806198120117e-01,2.832721173763275146e-01,2.834954261779785156e-01,2.831748127937316895e-01,2.833535671234130859e-01,2.831273078918457031e-01,2.831698358058929443e-01,2.831439375877380371e-01,2.831229567527770996e-01,2.831011414527893066e-01,2.830794751644134521e-01,2.830578088760375977e-01,2.830360233783721924e-01,2.830142378807067871e-01,2.829926013946533203e-01,2.829710841178894043e-01,2.829493880271911621e-01,2.829278111457824707e-01,2.829060554504394531e-01,2.828844189643859863e-01,2.828626334667205811e-01,2.828410267829895020e-01,2.828195393085479736e-01,2.827979922294616699e-01,2.827764153480529785e-01,2.827547192573547363e-01,2.827330529689788818e-01,2.827117443084716797e-01,2.826898097991943359e-01,2.826688587665557861e-01,2.826471626758575439e-01,2.826220393180847168e-01,2.825989723205566406e-01,2.825891375541687012e-01,2.825801372528076172e-01,2.825789749622344971e-01,2.825600504875183105e-01,2.824508547782897949e-01,2.830915451049804688e-01,2.817809283733367920e-01,2.718570828437805176e-01,2.751324176788330078e-01,3.007352352142333984e-01,3.195589184761047363e-01,3.762945532798767090e-01,3.975766003131866455e-01
4.091765582561492920e-01,3.324921727180480957e-01,3.159800767898559570e-01,2.799509763717651367e-01,2.584244608879089355e-01,2.558334469795227051e-01,2.600275278091430664e-01,2.610201835632324219e-01,2.617932260036468506e-01,2.617123126983642578e-01,2.616679072380065918e-01,2.616398930549621582e-01,2.616567611694335938e-01,2.616496384143829346e-01,2.614765167236328125e-01,2.617454826831817627e-01,2.616946697235107422e-01,2.613993287086486816e-01,2.606696188449859619e-01,2.602254748344421387e-01,2.605054378509521484e-01,2.613390088081359863e-01,2.612023949623107910e-01,2.615860104560852051e-01,2.615414261817932129e-01,2.608731389045715332e-01,2.591595053672790527e-01,2.578482031822204590e-01,2.578098475933074951e-01,2.585048377513885498e-01,2.579554319381713867e-01,2.584073543548583984e-01,2.590880990028381348e-01,2.597648799419403076e-01,2.609239220619201660e-01,2.605055272579193115e-01,2.616243064403533936e-01,2.612344026565551758e-01,2.611772418022155762e-01,2.611663937568664551e-01,2.611632049083709717e-01,2.611474096775054932e-01,2.611299157142639160e-01,2.611133456230163574e-01,2.610968351364135742e-01,2.610802948474884033e-01,2.610638141632080078e-01,2.610472738742828369e-01,2.610306739807128906e-01,2.610144019126892090e-01,2.609978020191192627e-01,2.609812617301940918e-01,2.609647512435913086e-01,2.609482407569885254e-01,2.609318494796752930e-01,2.609152793884277344e-01,2.608989477157592773e-01,2.608823180198669434e-01,2.608659267425537109e-01,2.608495354652404785e-01,2.608330547809600830e-01,2.608167827129364014e-01,2.608002424240112305e-01,2.607835531234741211e-01,2.607670128345489502e-01,2.607502937316894531e-01,2.607327103614807129e-01,2.607173025608062744e-01,2.607018947601318359e-01,2.606865763664245605e-01,2.606708407402038574e-01,2.605925202369689941e-01,2.611107826232910156e-01,2.600649297237396240e-01,2.511674463748931885e-01,2.544454336166381836e-01,2.794564366340637207e-01,3.009923696517944336e-01,3.605815470218658447e-01,3.876311182975769043e-01
3.991105556488037109e-01,3.188925981521606445e-01,2.997280955314636230e-01,2.643888592720031738e-01,2.423056662082672119e-01,2.394180595874786377e-01,2.430784106254577637e-01,2.439687550067901611e-01,2.446598708629608154e-01,2.445982694625854492e-01,2.445642054080963135e-01,2.445411384105682373e-01,2.445441782474517822e-01,2.445019185543060303e-01,2.443881332874298096e-01,2.444764673709869385e-01,2.445230782032012939e-01,2.444826066493988037e-01,2.441484332084655762e-01,2.441679239273071289e-01,2.441356182098388672e-01,2.443991601467132568e-01,2.444341480731964111e-01,2.443054616451263428e-01,2.442615032196044922e-01,2.442164719104766846e-01,2.433005273342132568e-01,2.425403594970703125e-01,2.430197596549987793e-01,2.425155937671661377e-01,2.436935603618621826e-01,2.435774207115173340e-01,2.436373829841613770e-01,2.438044846057891846e-01,2.441113889217376709e-01,2.440930902957916260e-01,2.439963817596435547e-01,2.442923784255981445e-01,2.442362606525421143e-01,2.442053556442260742e-01,2.441658675670623779e-01,2.441517710685729980e-01,2.441395819187164307e-01,2.441266775131225586e-01,2.441137731075286865e-01,2.441007494926452637e-01,2.440878152847290039e-01,2.440749406814575195e-01,2.440619468688964844e-01,2.440488934516906738e-01,2.440360784530639648e-01,2.440231740474700928e-01,2.440103292465209961e-01,2.439972460269927979e-01,2.439845204353332520e-01,2.439715862274169922e-01,2.439585924148559570e-01,2.439456284046173096e-01,2.439329326152801514e-01,2.439198791980743408e-01,2.439071834087371826e-01,2.438940405845642090e-01,2.438813149929046631e-01,2.438685595989227295e-01,2.438554465770721436e-01,2.438422441482543945e-01,2.438288927078247070e-01,2.438152730464935303e-01,2.438023686408996582e-01,2.437893450260162354e-01,2.437762022018432617e-01,2.437123656272888184e-01,2.441368401050567627e-01,2.433011829853057861e-01,2.352223694324493408e-01,2.385339140892028809e-01,2.629309296607971191e-01,2.863652706146240234e-01,3.479783535003662109e-01,3.796809315681457520e-01
3.908093571662902832e-01,3.077789247035980225e-01,2.866281867027282715e-01,2.519684135913848877e-01,2.295328378677368164e-01,2.264055013656616211e-01,2.296713590621948242e-01,2.304612994194030762e-01,2.310828566551208496e-01,2.310293018817901611e-01,2.310015261173248291e-01,2.309914529323577881e-01,2.309809625148773193e-01,2.309623062610626221e-01,2.309530675411224365e-01,2.309819757938385010e-01,2.309827506542205811e-01,2.310024201869964600e-01,2.308820784091949463e-01,2.308763563632965088e-01,2.308118939399719238e-01,2.309009432792663574e-01,2.308855652809143066e-01,2.308165729045867920e-01,2.309395670890808105e-01,2.308998405933380127e-01,2.307062447071075439e-01,2.301655411720275879e-01,2.300609052181243896e-01,2.302835881710052490e-01,2.303195893764495850e-01,2.306113839149475098e-01,2.306071519851684570e-01,2.308151423931121826e-01,2.307411134243011475e-01,2.308843731880187988e-01,2.306900322437286377e-01,2.307150959968566895e-01,2.306848764419555664e-01,2.307162880897521973e-01,2.306908071041107178e-01,2.306785583496093750e-01,2.306675910949707031e-01,2.306571602821350098e-01,2.306467294692993164e-01,2.306365966796875000e-01,2.306261658668518066e-01,2.306156754493713379e-01,2.306053936481475830e-01,2.305949032306671143e-01,2.305844724178314209e-01,2.305740416049957275e-01,2.305639088153839111e-01,2.305533587932586670e-01,2.305430769920349121e-01,2.305325567722320557e-01,2.305223643779754639e-01,2.305117845535278320e-01,2.305013835430145264e-01,2.304912805557250977e-01,2.304806709289550781e-01,2.304704189300537109e-01,2.304600179195404053e-01,2.304497659206390381e-01,2.304396629333496094e-01,2.304290235042572021e-01,2.304187417030334473e-01,2.304083406925201416e-01,2.303980290889739990e-01,2.303876280784606934e-01,2.303769588470458984e-01,2.303234934806823730e-01,2.306791543960571289e-01,2.300029993057250977e-01,2.225880622863769531e-01,2.259113490581512451e-01,2.498061954975128174e-01,2.745900154113769531e-01,3.377254605293273926e-01,3.731974363327026367e-01
3.838104903697967529e-01,2.985779643058776855e-01,2.758297622203826904e-01,2.418452799320220947e-01,2.191900908946990967e-01,2.158576250076293945e-01,2.188131809234619141e-01,2.195144593715667725e-01,2.200806438922882080e-01,2.200332880020141602e-01,2.200101912021636963e-01,2.200010120868682861e-01,2.199925780296325684e-01,2.199826240539550781e-01,2.199729979038238525e-01,2.199665307998657227e-01,2.199666202068328857e-01,2.199520170688629150e-01,2.199419140815734863e-01,2.199294269084930420e-01,2.199282944202423096e-01,2.199252247810363770e-01,2.198909819126129150e-01,2.198453843593597412e-01,2.199020385742187500e-01,2.198877036571502686e-01,2.197995483875274658e-01,2.196991145610809326e-01,2.195229828357696533e-01,2.194951772689819336e-01,2.197776138782501221e-01,2.197728455066680908e-01,2.197865545749664307e-01,2.198867201805114746e-01,2.197549045085906982e-01,2.197654247283935547e-01,2.198135554790496826e-01,2.197897732257843018e-01,2.197821140289306641e-01,2.197535634040832520e-01,2.197552621364593506e-01,2.197456657886505127e-01,2.197367548942565918e-01,2.197282314300537109e-01,2.197197377681732178e-01,2.197112143039703369e-01,2.197026908397674561e-01,2.196939587593078613e-01,2.196855843067169189e-01,2.196770608425140381e-01,2.196682989597320557e-01,2.196599245071411133e-01,2.196515500545501709e-01,2.196429371833801270e-01,2.196344435214996338e-01,2.196260690689086914e-01,2.196176350116729736e-01,2.196089923381805420e-01,2.196007072925567627e-01,2.195919752120971680e-01,2.195835709571838379e-01,2.195750474929809570e-01,2.195664644241333008e-01,2.195580303668975830e-01,2.195495665073394775e-01,2.195411324501037598e-01,2.195326685905456543e-01,2.195241153240203857e-01,2.195158302783966064e-01,2.195071578025817871e-01,2.194979786872863770e-01,2.194530069828033447e-01,2.197581827640533447e-01,2.192091643810272217e-01,2.123402059078216553e-01,2.156691551208496094e-01,2.391529381275177002e-01,2.649231851100921631e-01,3.292258083820343018e-01,3.678055107593536377e-01
3.778373301029205322e-01,2.908441126346588135e-01,2.668070793151855469e-01,2.334586083889007568e-01,2.106584310531616211e-01,2.071486115455627441e-01,2.098524868488311768e-01,2.104759216308593750e-01,2.109933197498321533e-01,2.109515666961669922e-01,2.109311521053314209e-01,2.109243869781494141e-01,2.109166085720062256e-01,2.109093666076660156e-01,2.109019160270690918e-01,2.108946740627288818e-01,2.108900547027587891e-01,2.108815312385559082e-01,2.108764350414276123e-01,2.108686566352844238e-01,2.108654975891113281e-01,2.108539342880249023e-01,2.108500599861145020e-01,2.108333706855773926e-01,2.108188867568969727e-01,2.108547687530517578e-01,2.108738422393798828e-01,2.107382118701934814e-01,2.107584476470947266e-01,2.107579410076141357e-01,2.106834352016448975e-01,2.108116745948791504e-01,2.107611596584320068e-01,2.107556164264678955e-01,2.107651233673095703e-01,2.107601165771484375e-01,2.107622921466827393e-01,2.107405066490173340e-01,2.107364535331726074e-01,2.107270658016204834e-01,2.107169628143310547e-01,2.107109129428863525e-01,2.107036411762237549e-01,2.106966674327850342e-01,2.106896042823791504e-01,2.106824815273284912e-01,2.106755971908569336e-01,2.106683552265167236e-01,2.106612026691436768e-01,2.106539607048034668e-01,2.106469869613647461e-01,2.106398642063140869e-01,2.106328904628753662e-01,2.106257677078247070e-01,2.106188833713531494e-01,2.106116414070129395e-01,2.106045186519622803e-01,2.105972766876220703e-01,2.105903327465057373e-01,2.105831801891326904e-01,2.105761170387268066e-01,2.105690538883209229e-01,2.105619907379150391e-01,2.105548381805419922e-01,2.105477452278137207e-01,2.105407118797302246e-01,2.105336785316467285e-01,2.105266451835632324e-01,2.105195224285125732e-01,2.105124592781066895e-01,2.105048000812530518e-01,2.104658782482147217e-01,2.107321321964263916e-01,2.102851271629333496e-01,2.038697004318237305e-01,2.071995139122009277e-01,2.303347289562225342e-01,2.568475604057312012e-01,3.220587372779846191e-01,3.632434308528900146e-01
3.726803064346313477e-01,2.842510938644409180e-01,2.591617107391357422e-01,2.263992428779602051e-01,2.035069465637207031e-01,1.998422145843505859e-01,2.023392617702484131e-01,2.028943598270416260e-01,2.033703923225402832e-01,2.033331394195556641e-01,2.033156454563140869e-01,2.033096253871917725e-01,2.033037543296813965e-01,2.032976746559143066e-01,2.032917737960815430e-01,2.032856643199920654e-01,2.032795846462249756e-01,2.032736539840698242e-01,2.032676041126251221e-01,2.032618224620819092e-01,2.032551467418670654e-01,2.032500505447387695e-01,2.032422125339508057e-01,2.032337188720703125e-01,2.032311856746673584e-01,2.032430171966552734e-01,2.032149732112884521e-01,2.032370567321777344e-01,2.031837999820709229e-01,2.031972706317901611e-01,2.031827867031097412e-01,2.031896710395812988e-01,2.031731903553009033e-01,2.031782865524291992e-01,2.031776607036590576e-01,2.031672596931457520e-01,2.031566500663757324e-01,2.031540274620056152e-01,2.031457722187042236e-01,2.031421959400177002e-01,2.031351625919342041e-01,2.031292319297790527e-01,2.031230628490447998e-01,2.031171023845672607e-01,2.031112909317016602e-01,2.031051516532897949e-01,2.030992209911346436e-01,2.030932307243347168e-01,2.030873000621795654e-01,2.030813395977020264e-01,2.030751705169677734e-01,2.030693292617797852e-01,2.030632793903350830e-01,2.030571997165679932e-01,2.030514180660247803e-01,2.030453085899353027e-01,2.030393481254577637e-01,2.030332982540130615e-01,2.030274271965026855e-01,2.030212581157684326e-01,2.030152380466461182e-01,2.030094563961029053e-01,2.030034363269805908e-01,2.029972672462463379e-01,2.029914557933807373e-01,2.029855251312255859e-01,2.029795944690704346e-01,2.029735147953033447e-01,2.029676735401153564e-01,2.029615938663482666e-01,2.029548883438110352e-01,2.029210031032562256e-01,2.031565606594085693e-01,2.027922272682189941e-01,1.967586278915405273e-01,2.000866532325744629e-01,2.229204177856445312e-01,2.500030696392059326e-01,3.159323930740356445e-01,3.593317866325378418e-01
3.681837320327758789e-01,2.785654366016387939e-01,2.526061534881591797e-01,2.203794121742248535e-01,1.974312961101531982e-01,1.936301887035369873e-01,1.959552764892578125e-01,1.964500546455383301e-01,1.968906819820404053e-01,1.968573927879333496e-01,1.968418061733245850e-01,1.968369185924530029e-01,1.968313753604888916e-01,1.968261897563934326e-01,1.968211829662322998e-01,1.968160569667816162e-01,1.968110501766204834e-01,1.968058347702026367e-01,1.968007385730743408e-01,1.967954635620117188e-01,1.967901289463043213e-01,1.967846751213073730e-01,1.967797577381134033e-01,1.967738866806030273e-01,1.967683136463165283e-01,1.967659294605255127e-01,1.967604160308837891e-01,1.967532038688659668e-01,1.967504620552062988e-01,1.967456340789794922e-01,1.967423558235168457e-01,1.967344880104064941e-01,1.967293620109558105e-01,1.967242658138275146e-01,1.967194378376007080e-01,1.967135369777679443e-01,1.967077553272247314e-01,1.967022120952606201e-01,1.966973841190338135e-01,1.966921091079711914e-01,1.966876089572906494e-01,1.966822445392608643e-01,1.966771483421325684e-01,1.966720819473266602e-01,1.966668665409088135e-01,1.966616809368133545e-01,1.966564655303955078e-01,1.966514885425567627e-01,1.966462731361389160e-01,1.966412961483001709e-01,1.966361105442047119e-01,1.966310441493988037e-01,1.966259777545928955e-01,1.966207027435302734e-01,1.966157257556915283e-01,1.966105997562408447e-01,1.966052651405334473e-01,1.966001987457275391e-01,1.965950131416320801e-01,1.965899765491485596e-01,1.965849101543426514e-01,1.965798139572143555e-01,1.965745389461517334e-01,1.965693533420562744e-01,1.965643763542175293e-01,1.965593695640563965e-01,1.965540051460266113e-01,1.965491175651550293e-01,1.965440809726715088e-01,1.965389251708984375e-01,1.965328752994537354e-01,1.965033411979675293e-01,1.967140436172485352e-01,1.964175403118133545e-01,1.907090842723846436e-01,1.940335035324096680e-01,2.166033685207366943e-01,2.441294193267822266e-01,3.106343150138854980e-01,3.559398055076599121e-01
3.642289638519287109e-01,2.736128866672515869e-01,2.469266951084136963e-01,2.151880264282226562e-01,1.922092735767364502e-01,1.882876753807067871e-01,1.904673874378204346e-01,1.909094452857971191e-01,1.913194358348846436e-01,1.912892460823059082e-01,1.912753283977508545e-01,1.912705898284912109e-01,1.912662684917449951e-01,1.912619471549987793e-01,1.912573575973510742e-01,1.912529170513153076e-01,1.912485957145690918e-01,1.912440061569213867e-01,1.912396550178527832e-01,1.912351250648498535e-01,1.912307441234588623e-01,1.912261247634887695e-01,1.912215352058410645e-01,1.912171840667724609e-01,1.912128031253814697e-01,1.912082731723785400e-01,1.912045776844024658e-01,1.911991536617279053e-01,1.911953389644622803e-01,1.911912858486175537e-01,1.911866366863250732e-01,1.911815702915191650e-01,1.911773979663848877e-01,1.911729276180267334e-01,1.911686360836029053e-01,1.911637783050537109e-01,1.911596059799194336e-01,1.911546885967254639e-01,1.911507546901702881e-01,1.911461949348449707e-01,1.911419928073883057e-01,1.911373138427734375e-01,1.911329329013824463e-01,1.911283731460571289e-01,1.911240518093109131e-01,1.911195814609527588e-01,1.911152601242065430e-01,1.911106407642364502e-01,1.911063194274902344e-01,1.911017596721649170e-01,1.910974383354187012e-01,1.910929977893829346e-01,1.910885274410247803e-01,1.910839676856994629e-01,1.910797059535980225e-01,1.910752356052398682e-01,1.910707950592041016e-01,1.910662651062011719e-01,1.910617649555206299e-01,1.910575032234191895e-01,1.910530924797058105e-01,1.910485923290252686e-01,1.910442411899566650e-01,1.910397410392761230e-01,1.910354197025299072e-01,1.910307109355926514e-01,1.910263001918792725e-01,1.910219788551330566e-01,1.910177171230316162e-01,1.910131275653839111e-01,1.910080909729003906e-01,1.909817755222320557e-01,1.911720633506774902e-01,1.909321546554565430e-01,1.855031847953796387e-01,1.888230741024017334e-01,2.111591398715972900e-01,2.390356957912445068e-01,3.060065507888793945e-01,3.529695868492126465e-01
