5.887007117271423340e-01,6.142681837081909180e-01,6.568913459777832031e-01,6.577157974243164062e-01,6.812693476676940918e-01,7.054956555366516113e-01,7.418633699417114258e-01,7.632635235786437988e-01,7.840144634246826172e-01,8.026090264320373535e-01,8.205621242523193359e-01,8.376550674438476562e-01,8.517886400222778320e-01,8.597023487091064453e-01,8.606193065643310547e-01,8.500272035598754883e-01,8.376802206039428711e-01,8.015533089637756348e-01,7.529238462448120117e-01,6.298859715461730957e-01,5.517739057540893555e-01,4.719526469707489014e-01,4.262582063674926758e-01,3.818722963333129883e-01,3.530488610267639160e-01,3.466582298278808594e-01,3.503916859626770020e-01,3.716416060924530029e-01,4.277937412261962891e-01,4.750679731369018555e-01,5.581095814704895020e-01,6.482509374618530273e-01,7.338023781776428223e-01,7.972240447998046875e-01,8.410001397132873535e-01,8.676890134811401367e-01,8.858870267868041992e-01,8.954004049301147461e-01,9.012820720672607422e-01,9.036480188369750977e-01,9.049894809722900391e-01,9.052395820617675781e-01,9.053177237510681152e-01,9.053283333778381348e-01,9.053283333778381348e-01,9.053283333778381348e-01,9.053283333778381348e-01,9.053283333778381348e-01,9.053283333778381348e-01,9.053283333778381348e-01,9.053283333778381348e-01,9.053283333778381348e-01,9.053283333778381348e-01,9.053283333778381348e-01,9.053283333778381348e-01,9.053283333778381348e-01,9.053283333778381348e-01,9.053283333778381348e-01,9.053283333778381348e-01,9.053283333778381348e-01,9.053285121917724609e-01,9.053297042846679688e-01,9.053523540496826172e-01,9.053744077682495117e-01,9.051628112792968750e-01,9.045405387878417969e-01,9.033977985382080078e-01,9.016388654708862305e-01,8.990618586540222168e-01,8.949750065803527832e-01,8.886570334434509277e-01,8.801580667495727539e-01,8.708212375640869141e-01,8.578839302062988281e-01,8.292539119720458984e-01,8.082398772239685059e-01,8.006457686424255371e-01,7.746514081954956055e-01,7.220199704170227051e-01,6.160433888435363770e-01
5.886937975883483887e-01,6.142569184303283691e-01,6.568781137466430664e-01,6.577006578445434570e-01,6.812525391578674316e-01,7.054783105850219727e-01,7.418447732925415039e-01,7.632468938827514648e-01,7.840059399604797363e-01,8.025760650634765625e-01,8.203383684158325195e-01,8.379529714584350586e-01,8.530896306037902832e-01,8.608858585357666016e-01,8.612710237503051758e-01,8.579827547073364258e-01,8.400225639343261719e-01,8.078535795211791992e-01,7.525244355201721191e-01,6.423654556274414062e-01,5.642968416213989258e-01,4.847752153873443604e-01,4.305088818073272705e-01,3.858983814716339111e-01,3.512851595878601074e-01,3.408405184745788574e-01,3.518332242965698242e-01,3.804138004779815674e-01,4.307284355163574219e-01,4.627241790294647217e-01,5.345543622970581055e-01,6.368786096572875977e-01,7.216122150421142578e-01,7.862191200256347656e-01,8.336244225502014160e-01,8.653736114501953125e-01,8.809703588485717773e-01,8.923111557960510254e-01,9.010851383209228516e-01,9.036147594451904297e-01,9.049123525619506836e-01,9.052726030349731445e-01,9.053248763084411621e-01,9.053283333778381348e-01,9.053283333778381348e-01,9.053283333778381348e-01,9.053283333778381348e-01,9.053283333778381348e-01,9.053283333778381348e-01,9.053283333778381348e-01,9.053283333778381348e-01,9.053283333778381348e-01,9.053283333778381348e-01,9.053283333778381348e-01,9.053283333778381348e-01,9.053283333778381348e-01,9.053283333778381348e-01,9.053283333778381348e-01,9.053283333778381348e-01,9.053283333778381348e-01,9.053285121917724609e-01,9.053297042846679688e-01,9.053524732589721680e-01,9.053733944892883301e-01,9.051614403724670410e-01,9.045417308807373047e-01,9.034022092819213867e-01,9.016453623771667480e-01,8.990691900253295898e-01,8.949655294418334961e-01,8.886591196060180664e-01,8.801890611648559570e-01,8.708311319351196289e-01,8.578755855560302734e-01,8.292704820632934570e-01,8.082586526870727539e-01,8.006583452224731445e-01,7.746631503105163574e-01,7.220313549041748047e-01,6.160520911216735840e-01
5.886868834495544434e-01,6.142456531524658203e-01,6.568652391433715820e-01,6.576853990554809570e-01,6.812359094619750977e-01,7.054612636566162109e-01,7.418273687362670898e-01,7.632289528846740723e-01,7.839876413345336914e-01,8.025741577148437500e-01,8.203229904174804688e-01,8.376061916351318359e-01,8.531801700592041016e-01,8.604397177696228027e-01,8.635799884796142578e-01,8.612508177757263184e-01,8.453207015991210938e-01,8.128285408020019531e-01,7.673214673995971680e-01,6.631255745887756348e-01,5.679434537887573242e-01,5.063731074333190918e-01,4.428090453147888184e-01,3.946112990379333496e-01,3.567835092544555664e-01,3.430557548999786377e-01,3.624005913734436035e-01,3.760023117065429688e-01,4.215599894523620605e-01,4.553222060203552246e-01,5.284026265144348145e-01,6.196151375770568848e-01,7.113867998123168945e-01,7.774523496627807617e-01,8.271109461784362793e-01,8.599425554275512695e-01,8.786010742187500000e-01,8.928230404853820801e-01,9.007461071014404297e-01,9.034396409988403320e-01,9.049685597419738770e-01,9.053354263305664062e-01,9.053379297256469727e-01,9.053283333778381348e-01,9.053283333778381348e-01,9.053283333778381348e-01,9.053283333778381348e-01,9.053283333778381348e-01,9.053283333778381348e-01,9.053283333778381348e-01,9.053283333778381348e-01,9.053283333778381348e-01,9.053283333778381348e-01,9.053283333778381348e-01,9.053283333778381348e-01,9.053283333778381348e-01,9.053283333778381348e-01,9.053283333778381348e-01,9.053283333778381348e-01,9.053283333778381348e-01,9.053285121917724609e-01,9.053297042846679688e-01,9.053521156311035156e-01,9.053734540939331055e-01,9.051614403724670410e-01,9.045420885086059570e-01,9.034035205841064453e-01,9.016469717025756836e-01,8.990715742111206055e-01,8.949680328369140625e-01,8.886642456054687500e-01,8.801958560943603516e-01,8.708378076553344727e-01,8.578839302062988281e-01,8.292844295501708984e-01,8.082727193832397461e-01,8.006709814071655273e-01,7.746759653091430664e-01,7.220420837402343750e-01,6.160585284233093262e-01
5.886800289154052734e-01,6.142346858978271484e-01,6.568523645401000977e-01,6.576702594757080078e-01,6.812193989753723145e-01,7.054441571235656738e-01,7.418103218078613281e-01,7.632119059562683105e-01,7.839807868003845215e-01,8.025761842727661133e-01,8.203922510147094727e-01,8.375396728515625000e-01,8.528709411621093750e-01,8.621236681938171387e-01,8.657250404357910156e-01,8.666514158248901367e-01,8.503801822662353516e-01,8.254753947257995605e-01,7.732332944869995117e-01,6.812794208526611328e-01,6.000323295593261719e-01,5.145096182823181152e-01,4.679613113403320312e-01,4.156589508056640625e-01,3.657032549381256104e-01,3.583517968654632568e-01,3.715403676033020020e-01,3.811776638031005859e-01,4.128804206848144531e-01,4.590671658515930176e-01,5.319077372550964355e-01,5.898519158363342285e-01,7.026571035385131836e-01,7.754104137420654297e-01,8.208952546119689941e-01,8.597477674484252930e-01,8.773502111434936523e-01,8.919793963432312012e-01,9.003356695175170898e-01,9.030346870422363281e-01,9.050214290618896484e-01,9.052723646163940430e-01,9.053207635879516602e-01,9.053283333778381348e-01,9.053283333778381348e-01,9.053283333778381348e-01,9.053283333778381348e-01,9.053283333778381348e-01,9.053283333778381348e-01,9.053283333778381348e-01,9.053283333778381348e-01,9.053283333778381348e-01,9.053283333778381348e-01,9.053283333778381348e-01,9.053283333778381348e-01,9.053283333778381348e-01,9.053283333778381348e-01,9.053283333778381348e-01,9.053283333778381348e-01,9.053283333778381348e-01,9.053285121917724609e-01,9.053297042846679688e-01,9.053521156311035156e-01,9.053734540939331055e-01,9.051617383956909180e-01,9.045426845550537109e-01,9.034043550491333008e-01,9.016484022140502930e-01,8.990734815597534180e-01,8.949713706970214844e-01,8.886694908142089844e-01,8.802027702331542969e-01,8.708452582359313965e-01,8.578938245773315430e-01,8.292964696884155273e-01,8.082858920097351074e-01,8.006838560104370117e-01,7.746884822845458984e-01,7.220520377159118652e-01,6.160656213760375977e-01
5.886732935905456543e-01,6.142238378524780273e-01,6.568395495414733887e-01,6.576555967330932617e-01,6.812030673027038574e-01,7.054272294044494629e-01,7.417935132980346680e-01,7.631951570510864258e-01,7.839614152908325195e-01,8.025605678558349609e-01,8.202913999557495117e-01,8.376933336257934570e-01,8.533337712287902832e-01,8.623331189155578613e-01,8.696216940879821777e-01,8.694295287132263184e-01,8.564846515655517578e-01,8.352115750312805176e-01,7.867869734764099121e-01,7.090435028076171875e-01,6.410508155822753906e-01,5.474483966827392578e-01,4.891733229160308838e-01,4.340407550334930420e-01,3.942244052886962891e-01,3.691356480121612549e-01,3.932706117630004883e-01,3.926010727882385254e-01,4.269712567329406738e-01,4.571692645549774170e-01,5.151304602622985840e-01,5.962941646575927734e-01,7.004789113998413086e-01,7.718296051025390625e-01,8.181794881820678711e-01,8.588182926177978516e-01,8.781034946441650391e-01,8.914061784744262695e-01,9.003552794456481934e-01,9.029542207717895508e-01,9.049377441406250000e-01,9.051710367202758789e-01,9.052887558937072754e-01,9.053283333778381348e-01,9.053283333778381348e-01,9.053283333778381348e-01,9.053283333778381348e-01,9.053283333778381348e-01,9.053283333778381348e-01,9.053283333778381348e-01,9.053283333778381348e-01,9.053283333778381348e-01,9.053283333778381348e-01,9.053283333778381348e-01,9.053283333778381348e-01,9.053283333778381348e-01,9.053283333778381348e-01,9.053283333778381348e-01,9.053283333778381348e-01,9.053283333778381348e-01,9.053285121917724609e-01,9.053297042846679688e-01,9.053521156311035156e-01,9.053735136985778809e-01,9.051617383956909180e-01,9.045431613922119141e-01,9.034051895141601562e-01,9.016497731208801270e-01,8.990755081176757812e-01,8.949745893478393555e-01,8.886746168136596680e-01,8.802094459533691406e-01,8.708533048629760742e-01,8.579033613204956055e-01,8.293079137802124023e-01,8.082985877990722656e-01,8.006966114044189453e-01,7.747007608413696289e-01,7.220621705055236816e-01,6.160727143287658691e-01
5.886668562889099121e-01,6.142131090164184570e-01,6.568269729614257812e-01,6.576408743858337402e-01,6.811871528625488281e-01,7.054109573364257812e-01,7.417767047882080078e-01,7.631783485412597656e-01,7.839462757110595703e-01,8.025550842285156250e-01,8.202968835830688477e-01,8.375762701034545898e-01,8.532946109771728516e-01,8.630582094192504883e-01,8.722618222236633301e-01,8.753954172134399414e-01,8.635364770889282227e-01,8.442587852478027344e-01,8.013445138931274414e-01,7.448031902313232422e-01,6.734662652015686035e-01,5.970831513404846191e-01,5.307371616363525391e-01,4.507222771644592285e-01,4.214769601821899414e-01,3.939783275127410889e-01,4.230308234691619873e-01,4.224642217159271240e-01,4.311433136463165283e-01,4.678284823894500732e-01,5.164858102798461914e-01,5.967206358909606934e-01,6.990829706192016602e-01,7.691434621810913086e-01,8.195480108261108398e-01,8.548252582550048828e-01,8.782787322998046875e-01,8.908243179321289062e-01,8.998986482620239258e-01,9.026072025299072266e-01,9.048136472702026367e-01,9.050502777099609375e-01,9.052914381027221680e-01,9.053283333778381348e-01,9.053283333778381348e-01,9.053283333778381348e-01,9.053283333778381348e-01,9.053283333778381348e-01,9.053283333778381348e-01,9.053283333778381348e-01,9.053283333778381348e-01,9.053283333778381348e-01,9.053283333778381348e-01,9.053283333778381348e-01,9.053283333778381348e-01,9.053283333778381348e-01,9.053283333778381348e-01,9.053283333778381348e-01,9.053283333778381348e-01,9.053283333778381348e-01,9.053285121917724609e-01,9.053297042846679688e-01,9.053521156311035156e-01,9.053733944892883301e-01,9.051619768142700195e-01,9.045435786247253418e-01,9.034061431884765625e-01,9.016512632369995117e-01,8.990775346755981445e-01,8.949778676033020020e-01,8.886796832084655762e-01,8.802162408828735352e-01,8.708611130714416504e-01,8.579128980636596680e-01,8.293194770812988281e-01,8.083113431930541992e-01,8.007093667984008789e-01,7.747129201889038086e-01,7.220721244812011719e-01,6.160797476768493652e-01
5.886609554290771484e-01,6.142031550407409668e-01,6.568152904510498047e-01,6.576266884803771973e-01,6.811714172363281250e-01,7.053946852684020996e-01,7.417604327201843262e-01,7.631620168685913086e-01,7.839283943176269531e-01,8.025459051132202148e-01,8.202706575393676758e-01,8.374671936035156250e-01,8.526217937469482422e-01,8.638550043106079102e-01,8.717885017395019531e-01,8.775056600570678711e-01,8.689023256301879883e-01,8.556089401245117188e-01,8.279608488082885742e-01,7.676162719726562500e-01,7.158641815185546875e-01,6.274054050445556641e-01,5.647459626197814941e-01,4.791301786899566650e-01,4.603114128112792969e-01,4.429827332496643066e-01,4.489642977714538574e-01,4.449344873428344727e-01,4.468923211097717285e-01,4.716763794422149658e-01,5.287474989891052246e-01,6.145013570785522461e-01,7.020424604415893555e-01,7.698665857315063477e-01,8.148287534713745117e-01,8.521376252174377441e-01,8.757872581481933594e-01,8.902260661125183105e-01,9.002621173858642578e-01,9.026426076889038086e-01,9.044744968414306641e-01,9.050220251083374023e-01,9.052717685699462891e-01,9.053283333778381348e-01,9.053283333778381348e-01,9.053283333778381348e-01,9.053283333778381348e-01,9.053283333778381348e-01,9.053283333778381348e-01,9.053283333778381348e-01,9.053283333778381348e-01,9.053283333778381348e-01,9.053283333778381348e-01,9.053283333778381348e-01,9.053283333778381348e-01,9.053283333778381348e-01,9.053283333778381348e-01,9.053283333778381348e-01,9.053283333778381348e-01,9.053283333778381348e-01,9.053285121917724609e-01,9.053297042846679688e-01,9.053520560264587402e-01,9.053733348846435547e-01,9.051620960235595703e-01,9.045440554618835449e-01,9.034069180488586426e-01,9.016525149345397949e-01,8.990795016288757324e-01,8.949810266494750977e-01,8.886847496032714844e-01,8.802230358123779297e-01,8.708692193031311035e-01,8.579224348068237305e-01,8.293310403823852539e-01,8.083240985870361328e-01,8.007219433784484863e-01,7.747251987457275391e-01,7.220822572708129883e-01,6.160867810249328613e-01
5.886553525924682617e-01,6.141939759254455566e-01,6.568042635917663574e-01,6.576136350631713867e-01,6.811566352844238281e-01,7.053793668746948242e-01,7.417446374893188477e-01,7.631461620330810547e-01,7.839119434356689453e-01,8.025249838829040527e-01,8.202477097511291504e-01,8.373081684112548828e-01,8.521419763565063477e-01,8.647420406341552734e-01,8.752430677413940430e-01,8.792951703071594238e-01,8.719933629035949707e-01,8.597795367240905762e-01,8.362174034118652344e-01,7.993177175521850586e-01,7.409645318984985352e-01,6.625389456748962402e-01,5.943187475204467773e-01,5.165238380432128906e-01,4.895705878734588623e-01,4.791921973228454590e-01,4.880058467388153076e-01,4.723313748836517334e-01,4.763662219047546387e-01,5.028016567230224609e-01,5.440475940704345703e-01,6.188058257102966309e-01,7.065116763114929199e-01,7.713767290115356445e-01,8.139374256134033203e-01,8.526647090911865234e-01,8.748103380203247070e-01,8.893774151802062988e-01,9.000092744827270508e-01,9.025663137435913086e-01,9.042937159538269043e-01,9.051179885864257812e-01,9.052797555923461914e-01,9.053283333778381348e-01,9.053283333778381348e-01,9.053283333778381348e-01,9.053283333778381348e-01,9.053283333778381348e-01,9.053283333778381348e-01,9.053283333778381348e-01,9.053283333778381348e-01,9.053283333778381348e-01,9.053283333778381348e-01,9.053283333778381348e-01,9.053283333778381348e-01,9.053283333778381348e-01,9.053283333778381348e-01,9.053283333778381348e-01,9.053283333778381348e-01,9.053283333778381348e-01,9.053285121917724609e-01,9.053297042846679688e-01,9.053520560264587402e-01,9.053734540939331055e-01,9.051623344421386719e-01,9.045444726943969727e-01,9.034078121185302734e-01,9.016537666320800781e-01,8.990814089775085449e-01,8.949842453002929688e-01,8.886897563934326172e-01,8.802295923233032227e-01,8.708769083023071289e-01,8.579318523406982422e-01,8.293423056602478027e-01,8.083367347717285156e-01,8.007345199584960938e-01,7.747374773025512695e-01,7.220925688743591309e-01,6.160938143730163574e-01
5.886500477790832520e-01,6.141851544380187988e-01,6.567938327789306641e-01,6.576017141342163086e-01,6.811425685882568359e-01,7.053647041320800781e-01,7.417297363281250000e-01,7.631309032440185547e-01,7.838963270187377930e-01,8.025068044662475586e-01,8.202295303344726562e-01,8.368123769760131836e-01,8.524395823478698730e-01,8.645910024642944336e-01,8.771487474441528320e-01,8.811552524566650391e-01,8.741041421890258789e-01,8.622009754180908203e-01,8.396655321121215820e-01,8.178317546844482422e-01,7.627216577529907227e-01,6.885654926300048828e-01,6.166783571243286133e-01,5.521636605262756348e-01,5.244891643524169922e-01,5.176791548728942871e-01,5.357460379600524902e-01,5.169907808303833008e-01,4.937505125999450684e-01,5.151153802871704102e-01,5.612615346908569336e-01,6.288529038429260254e-01,7.120314240455627441e-01,7.768175601959228516e-01,8.143147826194763184e-01,8.533614873886108398e-01,8.744677901268005371e-01,8.889883756637573242e-01,8.999003171920776367e-01,9.023529291152954102e-01,9.045925140380859375e-01,9.051690697669982910e-01,9.053459167480468750e-01,9.053283333778381348e-01,9.053283333778381348e-01,9.053283333778381348e-01,9.053283333778381348e-01,9.053283333778381348e-01,9.053283333778381348e-01,9.053283333778381348e-01,9.053283333778381348e-01,9.053283333778381348e-01,9.053283333778381348e-01,9.053283333778381348e-01,9.053283333778381348e-01,9.053283333778381348e-01,9.053283333778381348e-01,9.053283333778381348e-01,9.053283333778381348e-01,9.053283333778381348e-01,9.053285121917724609e-01,9.053297042846679688e-01,9.053519964218139648e-01,9.053733348846435547e-01,9.051623344421386719e-01,9.045450687408447266e-01,9.034086465835571289e-01,9.016551971435546875e-01,8.990836143493652344e-01,8.949874639511108398e-01,8.886945843696594238e-01,8.802363872528076172e-01,8.708848953247070312e-01,8.579414486885070801e-01,8.293539285659790039e-01,8.083494901657104492e-01,8.007471561431884766e-01,7.747498750686645508e-01,7.221026420593261719e-01,6.161010265350341797e-01
5.886448025703430176e-01,6.141766309738159180e-01,6.567838191986083984e-01,6.575900316238403320e-01,6.811298727989196777e-01,7.053515911102294922e-01,7.417160868644714355e-01,7.631169557571411133e-01,7.838817834854125977e-01,8.025021553039550781e-01,8.202031850814819336e-01,8.366314172744750977e-01,8.524248003959655762e-01,8.659520745277404785e-01,8.773899674415588379e-01,8.807870149612426758e-01,8.780510425567626953e-01,8.627240657806396484e-01,8.451105356216430664e-01,8.208853602409362793e-01,7.896951436996459961e-01,7.060617208480834961e-01,6.318435668945312500e-01,5.927966237068176270e-01,5.390504002571105957e-01,5.658738613128662109e-01,5.660862326622009277e-01,5.527487993240356445e-01,5.125060081481933594e-01,5.326954722404479980e-01,5.766673684120178223e-01,6.360445022583007812e-01,7.272282838821411133e-01,7.827529311180114746e-01,8.145242333412170410e-01,8.525123000144958496e-01,8.754426240921020508e-01,8.896658420562744141e-01,9.001368880271911621e-01,9.027788639068603516e-01,9.048187732696533203e-01,9.052386283874511719e-01,9.053097963333129883e-01,9.053283333778381348e-01,9.053283333778381348e-01,9.053283333778381348e-01,9.053283333778381348e-01,9.053283333778381348e-01,9.053283333778381348e-01,9.053283333778381348e-01,9.053283333778381348e-01,9.053283333778381348e-01,9.053283333778381348e-01,9.053283333778381348e-01,9.053283333778381348e-01,9.053283333778381348e-01,9.053283333778381348e-01,9.053283333778381348e-01,9.053283333778381348e-01,9.053283333778381348e-01,9.053285121917724609e-01,9.053297042846679688e-01,9.053520560264587402e-01,9.053733348846435547e-01,9.051625132560729980e-01,9.045455455780029297e-01,9.034096002578735352e-01,9.016566276550292969e-01,8.990854620933532715e-01,8.949908018112182617e-01,8.886996507644653320e-01,8.802430629730224609e-01,8.708927631378173828e-01,8.579508066177368164e-01,8.293654918670654297e-01,8.083621263504028320e-01,8.007599115371704102e-01,7.747621536254882812e-01,7.221127748489379883e-01,6.161081790924072266e-01
5.886394977569580078e-01,6.141680479049682617e-01,6.567740440368652344e-01,6.575787067413330078e-01,6.811172962188720703e-01,7.053387761116027832e-01,7.417031526565551758e-01,7.631041407585144043e-01,7.838686704635620117e-01,8.024870753288269043e-01,8.202298283576965332e-01,8.366193771362304688e-01,8.517737388610839844e-01,8.660181760787963867e-01,8.768640756607055664e-01,8.788152933120727539e-01,8.769476413726806641e-01,8.647881150245666504e-01,8.474093079566955566e-01,8.318610191345214844e-01,7.831544876098632812e-01,7.260916233062744141e-01,6.420446634292602539e-01,6.134682893753051758e-01,5.658792853355407715e-01,5.861876606941223145e-01,6.002851128578186035e-01,5.778213739395141602e-01,5.477317571640014648e-01,5.456097126007080078e-01,5.988723039627075195e-01,6.490097641944885254e-01,7.322084903717041016e-01,7.817404270172119141e-01,8.201800584793090820e-01,8.540381789207458496e-01,8.769645690917968750e-01,8.912935256958007812e-01,9.010770320892333984e-01,9.032383561134338379e-01,9.047874212265014648e-01,9.053333997726440430e-01,9.052683115005493164e-01,9.053283333778381348e-01,9.053283333778381348e-01,9.053283333778381348e-01,9.053283333778381348e-01,9.053283333778381348e-01,9.053283333778381348e-01,9.053283333778381348e-01,9.053283333778381348e-01,9.053283333778381348e-01,9.053283333778381348e-01,9.053283333778381348e-01,9.053283333778381348e-01,9.053283333778381348e-01,9.053283333778381348e-01,9.053283333778381348e-01,9.053283333778381348e-01,9.053283333778381348e-01,9.053285121917724609e-01,9.053297042846679688e-01,9.053519964218139648e-01,9.053733348846435547e-01,9.051628112792968750e-01,9.045460224151611328e-01,9.034105539321899414e-01,9.016579389572143555e-01,8.990876674652099609e-01,8.949939608573913574e-01,8.887046575546264648e-01,8.802498579025268555e-01,8.709006309509277344e-01,8.579603433609008789e-01,8.293770551681518555e-01,8.083747625350952148e-01,8.007725477218627930e-01,7.747744321823120117e-01,7.221228480339050293e-01,6.161152124404907227e-01
5.886338949203491211e-01,6.141591072082519531e-01,6.567638516426086426e-01,6.575669050216674805e-01,6.811047792434692383e-01,7.053261399269104004e-01,7.416905164718627930e-01,7.630916237831115723e-01,7.838561534881591797e-01,8.024829626083374023e-01,8.202447891235351562e-01,8.367338776588439941e-01,8.518086671829223633e-01,8.654403686523437500e-01,8.757266998291015625e-01,8.784823417663574219e-01,8.742094635963439941e-01,8.661823272705078125e-01,8.490835428237915039e-01,8.327168822288513184e-01,7.912490367889404297e-01,7.300218939781188965e-01,6.653833985328674316e-01,6.234939694404602051e-01,5.974583029747009277e-01,6.059631705284118652e-01,6.178502440452575684e-01,6.146948337554931641e-01,5.727881789207458496e-01,5.679734349250793457e-01,6.084227561950683594e-01,6.615795493125915527e-01,7.338784933090209961e-01,7.851620912551879883e-01,8.250496983528137207e-01,8.570075035095214844e-01,8.777626752853393555e-01,8.922831416130065918e-01,9.006603360176086426e-01,9.037759304046630859e-01,9.050485491752624512e-01,9.053137302398681641e-01,9.053190946578979492e-01,9.053283333778381348e-01,9.053283333778381348e-01,9.053283333778381348e-01,9.053283333778381348e-01,9.053283333778381348e-01,9.053283333778381348e-01,9.053283333778381348e-01,9.053283333778381348e-01,9.053283333778381348e-01,9.053283333778381348e-01,9.053283333778381348e-01,9.053283333778381348e-01,9.053283333778381348e-01,9.053283333778381348e-01,9.053283333778381348e-01,9.053283333778381348e-01,9.053283333778381348e-01,9.053285121917724609e-01,9.053297042846679688e-01,9.053519964218139648e-01,9.053733348846435547e-01,9.051629900932312012e-01,9.045463800430297852e-01,9.034113883972167969e-01,9.016593098640441895e-01,8.990894556045532227e-01,8.949972391128540039e-01,8.887097239494323730e-01,8.802565336227416992e-01,8.709086179733276367e-01,8.579698204994201660e-01,8.293886780738830566e-01,8.083876371383666992e-01,8.007854819297790527e-01,7.747869491577148438e-01,7.221332788467407227e-01,6.161224246025085449e-01
5.886279344558715820e-01,6.141493320465087891e-01,6.567528247833251953e-01,6.575543284416198730e-01,6.810917854309082031e-01,7.053130269050598145e-01,7.416774630546569824e-01,7.630790472030639648e-01,7.838441133499145508e-01,8.024650812149047852e-01,8.202511668205261230e-01,8.366518020629882812e-01,8.516671657562255859e-01,8.642305135726928711e-01,8.745978474617004395e-01,8.755589723587036133e-01,8.731765747070312500e-01,8.670051097869873047e-01,8.538289070129394531e-01,8.294048905372619629e-01,7.951778769493103027e-01,7.219090461730957031e-01,6.613997220993041992e-01,6.477811932563781738e-01,6.126163005828857422e-01,6.430366039276123047e-01,6.269303560256958008e-01,6.319307684898376465e-01,5.923458933830261230e-01,5.821189284324645996e-01,6.146671175956726074e-01,6.679853796958923340e-01,7.396321296691894531e-01,7.891656160354614258e-01,8.281915187835693359e-01,8.598839640617370605e-01,8.790798783302307129e-01,8.927358388900756836e-01,9.012382030487060547e-01,9.041103124618530273e-01,9.053324460983276367e-01,9.052846431732177734e-01,9.053388833999633789e-01,9.053262472152709961e-01,9.053262472152709961e-01,9.053262472152709961e-01,9.053262472152709961e-01,9.053261280059814453e-01,9.053261280059814453e-01,9.053261280059814453e-01,9.053261280059814453e-01,9.053261280059814453e-01,9.053260684013366699e-01,9.053260684013366699e-01,9.053260684013366699e-01,9.053261280059814453e-01,9.053260684013366699e-01,9.053260684013366699e-01,9.053261280059814453e-01,9.053261280059814453e-01,9.053262472152709961e-01,9.053274393081665039e-01,9.053497314453125000e-01,9.053709506988525391e-01,9.051609039306640625e-01,9.045449495315551758e-01,9.034105539321899414e-01,9.016590714454650879e-01,8.990898132324218750e-01,8.949986696243286133e-01,8.887127637863159180e-01,8.802620768547058105e-01,8.709157109260559082e-01,8.579790592193603516e-01,8.293998241424560547e-01,8.084005117416381836e-01,8.007984161376953125e-01,7.747992277145385742e-01,7.221436500549316406e-01,6.161297559738159180e-01
5.886217355728149414e-01,6.141390204429626465e-01,6.567408442497253418e-01,6.575401425361633301e-01,6.810747981071472168e-01,7.052948474884033203e-01,7.416592836380004883e-01,7.630607485771179199e-01,7.838256955146789551e-01,8.024519085884094238e-01,8.202362656593322754e-01,8.368061780929565430e-01,8.512223958969116211e-01,8.645445704460144043e-01,8.735289573669433594e-01,8.732706308364868164e-01,8.686495423316955566e-01,8.669729232788085938e-01,8.483229875564575195e-01,8.373484611511230469e-01,7.885106205940246582e-01,7.214185595512390137e-01,6.763268113136291504e-01,6.555106043815612793e-01,6.465728282928466797e-01,6.521000862121582031e-01,6.497826576232910156e-01,6.601763367652893066e-01,6.072870492935180664e-01,5.993613600730895996e-01,6.255871653556823730e-01,6.823253631591796875e-01,7.417668104171752930e-01,7.973595857620239258e-01,8.294085264205932617e-01,8.618084192276000977e-01,8.809224963188171387e-01,8.932575583457946777e-01,9.009444713592529297e-01,9.039989709854125977e-01,9.053323268890380859e-01,9.053089618682861328e-01,9.053317308425903320e-01,9.053211212158203125e-01,9.053212404251098633e-01,9.053212404251098633e-01,9.053212404251098633e-01,9.053213596343994141e-01,9.053214192390441895e-01,9.053214192390441895e-01,9.053214192390441895e-01,9.053214192390441895e-01,9.053214192390441895e-01,9.053215980529785156e-01,9.053215980529785156e-01,9.053215980529785156e-01,9.053217172622680664e-01,9.053217172622680664e-01,9.053217768669128418e-01,9.053217768669128418e-01,9.053220152854919434e-01,9.053232073783874512e-01,9.053455591201782227e-01,9.053670167922973633e-01,9.051568508148193359e-01,9.045404195785522461e-01,9.034066796302795410e-01,9.016557931900024414e-01,8.990862369537353516e-01,8.949941396713256836e-01,8.887084722518920898e-01,8.802576065063476562e-01,8.709116578102111816e-01,8.579787015914916992e-01,8.294025659561157227e-01,8.084058165550231934e-01,8.008044958114624023e-01,7.748044729232788086e-01,7.221457958221435547e-01,6.161305904388427734e-01
5.886105895042419434e-01,6.141250133514404297e-01,6.567240953445434570e-01,6.575254797935485840e-01,6.810603141784667969e-01,7.052791714668273926e-01,7.416452169418334961e-01,7.630518674850463867e-01,7.838236689567565918e-01,8.024585247039794922e-01,8.202617168426513672e-01,8.369194269180297852e-01,8.513382077217102051e-01,8.647674322128295898e-01,8.720442056655883789e-01,8.726716041564941406e-01,8.694571256637573242e-01,8.664110898971557617e-01,8.478378057479858398e-01,8.294295072555541992e-01,7.819264531135559082e-01,7.214636802673339844e-01,6.920649409294128418e-01,6.703266501426696777e-01,6.802369356155395508e-01,6.747761964797973633e-01,6.869317889213562012e-01,6.780952215194702148e-01,6.340010166168212891e-01,6.121034622192382812e-01,6.431971788406372070e-01,6.957533955574035645e-01,7.453438043594360352e-01,8.043075799942016602e-01,8.326330184936523438e-01,8.640646338462829590e-01,8.833569288253784180e-01,8.947452306747436523e-01,9.022282361984252930e-01,9.045641422271728516e-01,9.053447246551513672e-01,9.053890705108642578e-01,9.053983688354492188e-01,9.053932428359985352e-01,9.053934812545776367e-01,9.053937196731567383e-01,9.053939580917358398e-01,9.053941965103149414e-01,9.053945541381835938e-01,9.053948521614074707e-01,9.053950309753417969e-01,9.053952693939208984e-01,9.053956270217895508e-01,9.053957462310791016e-01,9.053961038589477539e-01,9.053963422775268555e-01,9.053965806961059570e-01,9.053968191146850586e-01,9.053971171379089355e-01,9.053972959518432617e-01,9.053978919982910156e-01,9.053995609283447266e-01,9.054225683212280273e-01,9.054448604583740234e-01,9.052376747131347656e-01,9.046199321746826172e-01,9.034806489944458008e-01,9.017146229743957520e-01,8.991352915763854980e-01,8.950449228286743164e-01,8.887734413146972656e-01,8.803341388702392578e-01,8.709994554519653320e-01,8.580495119094848633e-01,8.294686079025268555e-01,8.084521293640136719e-01,8.008346557617187500e-01,7.748232483863830566e-01,7.221441268920898438e-01,6.161302924156188965e-01
5.886173248291015625e-01,6.141334772109985352e-01,6.567303538322448730e-01,6.575428843498229980e-01,6.810886263847351074e-01,7.053411006927490234e-01,7.417587041854858398e-01,7.632132768630981445e-01,7.840105295181274414e-01,8.026646375656127930e-01,8.204783797264099121e-01,8.370587229728698730e-01,8.514529466629028320e-01,8.646185994148254395e-01,8.696056008338928223e-01,8.695608377456665039e-01,8.666394948959350586e-01,8.637667894363403320e-01,8.511090278625488281e-01,8.313778638839721680e-01,7.768778800964355469e-01,7.292919158935546875e-01,7.070232629776000977e-01,7.020467519760131836e-01,6.968644261360168457e-01,7.019697427749633789e-01,7.086827754974365234e-01,7.099175453186035156e-01,6.537759304046630859e-01,6.350879669189453125e-01,6.617596745491027832e-01,7.070370316505432129e-01,7.603695392608642578e-01,8.055900931358337402e-01,8.363615274429321289e-01,8.668901920318603516e-01,8.830258846282958984e-01,8.948045969009399414e-01,9.027221202850341797e-01,9.050222635269165039e-01,9.054508805274963379e-01,9.055361151695251465e-01,9.054689407348632812e-01,9.054749011993408203e-01,9.054740667343139648e-01,9.054731130599975586e-01,9.054722189903259277e-01,9.054713249206542969e-01,9.054706096649169922e-01,9.054696559906005859e-01,9.054688811302185059e-01,9.054679870605468750e-01,9.054670333862304688e-01,9.054662585258483887e-01,9.054653048515319824e-01,9.054644703865051270e-01,9.054635763168334961e-01,9.054628014564514160e-01,9.054619073867797852e-01,9.054610133171081543e-01,9.054606556892395020e-01,9.054611325263977051e-01,9.054841995239257812e-01,9.055072069168090820e-01,9.053021669387817383e-01,9.046816825866699219e-01,9.035501480102539062e-01,9.017891287803649902e-01,8.992092609405517578e-01,8.951144218444824219e-01,8.888953924179077148e-01,8.804677724838256836e-01,8.711249828338623047e-01,8.582116961479187012e-01,8.296977281570434570e-01,8.086982369422912598e-01,8.010907173156738281e-01,7.750711441040039062e-01,7.224283218383789062e-01,6.165235042572021484e-01
5.888012051582336426e-01,6.143107414245605469e-01,6.569846272468566895e-01,6.577994823455810547e-01,6.813371181488037109e-01,7.055035829544067383e-01,7.418438792228698730e-01,7.632226943969726562e-01,7.838783264160156250e-01,8.024141788482666016e-01,8.201129436492919922e-01,8.366143703460693359e-01,8.513422012329101562e-01,8.624130487442016602e-01,8.682029247283935547e-01,8.660743236541748047e-01,8.650424480438232422e-01,8.620140552520751953e-01,8.529874086380004883e-01,8.282499313354492188e-01,7.629342079162597656e-01,7.399752736091613770e-01,7.356113195419311523e-01,7.132506370544433594e-01,7.170299291610717773e-01,7.305017113685607910e-01,7.417760491371154785e-01,7.284032106399536133e-01,6.766100525856018066e-01,6.506754755973815918e-01,6.722162961959838867e-01,7.189298272132873535e-01,7.713476419448852539e-01,8.141934871673583984e-01,8.386796712875366211e-01,8.685645461082458496e-01,8.851408362388610840e-01,8.965628147125244141e-01,9.029585123062133789e-01,9.041815996170043945e-01,9.046878814697265625e-01,9.046438336372375488e-01,9.046233892440795898e-01,9.046221971511840820e-01,9.046213030815124512e-01,9.046202898025512695e-01,9.046195149421691895e-01,9.046185016632080078e-01,9.046176671981811523e-01,9.046167135238647461e-01,9.046159982681274414e-01,9.046148061752319336e-01,9.046139717102050781e-01,9.046131372451782227e-01,9.046121835708618164e-01,9.046112298965454102e-01,9.046104550361633301e-01,9.046094417572021484e-01,9.046086072921752930e-01,9.046077728271484375e-01,9.046069979667663574e-01,9.046077132225036621e-01,9.046276807785034180e-01,9.046608805656433105e-01,9.044567346572875977e-01,9.038789272308349609e-01,9.027746915817260742e-01,9.010077714920043945e-01,8.984281420707702637e-01,8.943622112274169922e-01,8.880730867385864258e-01,8.796491026878356934e-01,8.703299760818481445e-01,8.574478626251220703e-01,8.288401365280151367e-01,8.078464269638061523e-01,8.004526495933532715e-01,7.742122411727905273e-01,7.216137647628784180e-01,6.159948706626892090e-01
5.891574025154113770e-01,6.141798496246337891e-01,6.566532254219055176e-01,6.571508646011352539e-01,6.804422736167907715e-01,7.042927742004394531e-01,7.404199242591857910e-01,7.615271806716918945e-01,7.820295095443725586e-01,8.004394173622131348e-01,8.180426955223083496e-01,8.343645930290222168e-01,8.487899303436279297e-01,8.602265119552612305e-01,8.637977242469787598e-01,8.638263940811157227e-01,8.652937412261962891e-01,8.606244921684265137e-01,8.531450629234313965e-01,8.192908167839050293e-01,7.619072198867797852e-01,7.484520077705383301e-01,7.387481927871704102e-01,7.399770021438598633e-01,7.536781430244445801e-01,7.495784759521484375e-01,7.601413130760192871e-01,7.561056613922119141e-01,6.876926422119140625e-01,6.671968698501586914e-01,6.803138852119445801e-01,7.339948415756225586e-01,7.783716320991516113e-01,8.211062550544738770e-01,8.419373631477355957e-01,8.702188134193420410e-01,8.862866759300231934e-01,8.978874683380126953e-01,9.023466110229492188e-01,9.033398628234863281e-01,9.037037491798400879e-01,9.037191867828369141e-01,9.037066102027893066e-01,9.037055373191833496e-01,9.037044048309326172e-01,9.037034511566162109e-01,9.037024378776550293e-01,9.037013053894042969e-01,9.037002325057983398e-01,9.036992788314819336e-01,9.036980867385864258e-01,9.036970734596252441e-01,9.036960601806640625e-01,9.036949276924133301e-01,9.036937952041625977e-01,9.036928415298461914e-01,9.036917090415954590e-01,9.036908149719238281e-01,9.036896228790283203e-01,9.036885499954223633e-01,9.036878347396850586e-01,9.036877751350402832e-01,9.037036895751953125e-01,9.037333130836486816e-01,9.035474061965942383e-01,9.029991626739501953e-01,9.019616842269897461e-01,9.002492427825927734e-01,8.976996541023254395e-01,8.936422467231750488e-01,8.874086141586303711e-01,8.790717124938964844e-01,8.698109984397888184e-01,8.568360805511474609e-01,8.282473087310791016e-01,8.071000576019287109e-01,7.996376752853393555e-01,7.733816504478454590e-01,7.204560041427612305e-01,6.144732236862182617e-01
5.884079933166503906e-01,6.125015020370483398e-01,6.548568010330200195e-01,6.552610397338867188e-01,6.780957579612731934e-01,7.014923691749572754e-01,7.376138567924499512e-01,7.587704658508300781e-01,7.793201208114624023e-01,7.977268695831298828e-01,8.153329491615295410e-01,8.316836357116699219e-01,8.464719653129577637e-01,8.584652543067932129e-01,8.601596355438232422e-01,8.594636917114257812e-01,8.609991669654846191e-01,8.562121391296386719e-01,8.554284572601318359e-01,8.084449768066406250e-01,7.604775428771972656e-01,7.604246139526367188e-01,7.505394220352172852e-01,7.624717950820922852e-01,7.670513391494750977e-01,7.657632827758789062e-01,7.646436691284179688e-01,7.638272047042846680e-01,6.819518804550170898e-01,6.799893379211425781e-01,7.040820121765136719e-01,7.357503175735473633e-01,7.856594920158386230e-01,8.211386203765869141e-01,8.464652299880981445e-01,8.711571693420410156e-01,8.873395919799804688e-01,8.981594443321228027e-01,9.008265733718872070e-01,9.015991687774658203e-01,9.019443988800048828e-01,9.018840789794921875e-01,9.018751978874206543e-01,9.018689393997192383e-01,9.018629193305969238e-01,9.018568992614746094e-01,9.018508195877075195e-01,9.018447399139404297e-01,9.018386006355285645e-01,9.018325209617614746e-01,9.018265008926391602e-01,9.018204212188720703e-01,9.018145203590393066e-01,9.018083810806274414e-01,9.018023014068603516e-01,9.017961025238037109e-01,9.017901420593261719e-01,9.017840623855590820e-01,9.017779827117919922e-01,9.017720222473144531e-01,9.017660617828369141e-01,9.017606973648071289e-01,9.017745256423950195e-01,9.017995595932006836e-01,9.016257524490356445e-01,9.011564254760742188e-01,9.001964330673217773e-01,8.985989689826965332e-01,8.961428403854370117e-01,8.921523094177246094e-01,8.860797882080078125e-01,8.775854706764221191e-01,8.682904243469238281e-01,8.554376363754272461e-01,8.269641399383544922e-01,8.060609698295593262e-01,7.985010147094726562e-01,7.719279527664184570e-01,7.191725373268127441e-01,6.126989126205444336e-01
5.864668488502502441e-01,6.097779870033264160e-01,6.518770456314086914e-01,6.520051360130310059e-01,6.745818257331848145e-01,6.974245309829711914e-01,7.329909801483154297e-01,7.536307573318481445e-01,7.735033631324768066e-01,7.914533615112304688e-01,8.087999820709228516e-01,8.249371647834777832e-01,8.402462005615234375e-01,8.510068655014038086e-01,8.549453020095825195e-01,8.536546230316162109e-01,8.558310270309448242e-01,8.470761775970458984e-01,8.335912823677062988e-01,7.952280044555664062e-01,7.681933045387268066e-01,7.635692358016967773e-01,7.606806755065917969e-01,7.695741653442382812e-01,7.753926515579223633e-01,7.719131708145141602e-01,7.783590555191040039e-01,7.646356821060180664e-01,6.863270401954650879e-01,6.790732741355895996e-01,6.981916427612304688e-01,7.374413013458251953e-01,7.874679565429687500e-01,8.198301792144775391e-01,8.424282073974609375e-01,8.677643537521362305e-01,8.825233578681945801e-01,8.917059898376464844e-01,8.950473070144653320e-01,8.949757814407348633e-01,8.954395055770874023e-01,8.953752517700195312e-01,8.953555822372436523e-01,8.953462839126586914e-01,8.953374028205871582e-01,8.953281641006469727e-01,8.953189849853515625e-01,8.953100442886352539e-01,8.953009843826293945e-01,8.952919244766235352e-01,8.952827453613281250e-01,8.952734470367431641e-01,8.952645659446716309e-01,8.952554464340209961e-01,8.952463865280151367e-01,8.952373266220092773e-01,8.952282667160034180e-01,8.952190876007080078e-01,8.952100276947021484e-01,8.952008485794067383e-01,8.951917886734008789e-01,8.951828479766845703e-01,8.951915502548217773e-01,8.952086567878723145e-01,8.950734734535217285e-01,8.946241140365600586e-01,8.938143849372863770e-01,8.923476934432983398e-01,8.900237679481506348e-01,8.861781358718872070e-01,8.802837133407592773e-01,8.720715045928955078e-01,8.626422286033630371e-01,8.496448993682861328e-01,8.213561773300170898e-01,8.010389804840087891e-01,7.939141988754272461e-01,7.675359249114990234e-01,7.151713371276855469e-01,6.077073812484741211e-01
5.825378894805908203e-01,6.038824319839477539e-01,6.454445719718933105e-01,6.448010802268981934e-01,6.661974787712097168e-01,6.881836652755737305e-01,7.229008078575134277e-01,7.430778145790100098e-01,7.622792720794677734e-01,7.793574333190917969e-01,7.961145639419555664e-01,8.119752407073974609e-01,8.276814222335815430e-01,8.373537063598632812e-01,8.410627245903015137e-01,8.408117294311523438e-01,8.460735678672790527e-01,8.396952152252197266e-01,8.168979883193969727e-01,7.786325216293334961e-01,7.610322237014770508e-01,7.538590431213378906e-01,7.554669976234436035e-01,7.755925059318542480e-01,7.785094976425170898e-01,7.714623212814331055e-01,7.762833237648010254e-01,7.578101158142089844e-01,6.829465031623840332e-01,6.716705560684204102e-01,6.804605722427368164e-01,7.427453398704528809e-01,7.779288887977600098e-01,8.061701655387878418e-01,8.318421840667724609e-01,8.558804988861083984e-01,8.715075254440307617e-01,8.808567523956298828e-01,8.841144442558288574e-01,8.843370676040649414e-01,8.844418525695800781e-01,8.843855857849121094e-01,8.843567967414855957e-01,8.843366503715515137e-01,8.843163251876831055e-01,8.842960000038146973e-01,8.842757940292358398e-01,8.842557668685913086e-01,8.842355012893676758e-01,8.842151761054992676e-01,8.841950893402099609e-01,8.841748237609863281e-01,8.841546177864074707e-01,8.841344118118286133e-01,8.841142654418945312e-01,8.840941190719604492e-01,8.840738534927368164e-01,8.840535283088684082e-01,8.840334415435791016e-01,8.840134143829345703e-01,8.839929699897766113e-01,8.839727044105529785e-01,8.839834332466125488e-01,8.840287923812866211e-01,8.839016556739807129e-01,8.835520744323730469e-01,8.828692436218261719e-01,8.814020752906799316e-01,8.790495395660400391e-01,8.753588199615478516e-01,8.695272207260131836e-01,8.616427183151245117e-01,8.525918722152709961e-01,8.395685553550720215e-01,8.107866048812866211e-01,7.916769385337829590e-01,7.853842973709106445e-01,7.605764269828796387e-01,7.071912288665771484e-01,6.017366647720336914e-01
5.753738284111022949e-01,5.940437912940979004e-01,6.345346570014953613e-01,6.318067312240600586e-01,6.512063145637512207e-01,6.719565391540527344e-01,7.057632803916931152e-01,7.251141071319580078e-01,7.435628175735473633e-01,7.599360942840576172e-01,7.757751345634460449e-01,7.915174365043640137e-01,8.063618540763854980e-01,8.156183958053588867e-01,8.180181384086608887e-01,8.204124569892883301e-01,8.212480545043945312e-01,8.131952285766601562e-01,7.867069244384765625e-01,7.461309432983398438e-01,7.381038069725036621e-01,7.277249693870544434e-01,7.453980445861816406e-01,7.551910877227783203e-01,7.604230642318725586e-01,7.594608664512634277e-01,7.585846185684204102e-01,7.299966812133789062e-01,6.633349657058715820e-01,6.503836512565612793e-01,6.643314957618713379e-01,7.145040035247802734e-01,7.505521774291992188e-01,7.764823436737060547e-01,8.063211441040039062e-01,8.307061195373535156e-01,8.486039638519287109e-01,8.583351373672485352e-01,8.597408533096313477e-01,8.607695102691650391e-01,8.607448339462280273e-01,8.606612086296081543e-01,8.606168627738952637e-01,8.605797290802001953e-01,8.605427145957946777e-01,8.605058193206787109e-01,8.604687452316284180e-01,8.604316711425781250e-01,8.603947162628173828e-01,8.603577017784118652e-01,8.603208065032958984e-01,8.602836132049560547e-01,8.602467775344848633e-01,8.602097034454345703e-01,8.601728677749633789e-01,8.601359128952026367e-01,8.600987195968627930e-01,8.600619435310363770e-01,8.600249886512756348e-01,8.599880337715148926e-01,8.599507808685302734e-01,8.599128723144531250e-01,8.599177598953247070e-01,8.599511384963989258e-01,8.598002195358276367e-01,8.595330715179443359e-01,8.591306209564208984e-01,8.579469919204711914e-01,8.558936119079589844e-01,8.521299362182617188e-01,8.465078473091125488e-01,8.387146592140197754e-01,8.299959301948547363e-01,8.169850111007690430e-01,7.877274751663208008e-01,7.699983119964599609e-01,7.670522928237915039e-01,7.438979148864746094e-01,6.925551295280456543e-01,5.922715663909912109e-01
5.643814206123352051e-01,5.786229968070983887e-01,6.173463463783264160e-01,6.113581061363220215e-01,6.278060078620910645e-01,6.468136310577392578e-01,6.787365674972534180e-01,6.960879564285278320e-01,7.121251821517944336e-01,7.261258959770202637e-01,7.398274540901184082e-01,7.541815638542175293e-01,7.668834924697875977e-01,7.740404605865478516e-01,7.759420871734619141e-01,7.854350805282592773e-01,7.787299156188964844e-01,7.666580677032470703e-01,7.389798760414123535e-01,7.036427259445190430e-01,6.972383260726928711e-01,6.914081573486328125e-01,7.110440731048583984e-01,7.182224392890930176e-01,7.253292202949523926e-01,7.213369011878967285e-01,7.173029780387878418e-01,6.749664545059204102e-01,6.289383769035339355e-01,6.094833612442016602e-01,6.339536905288696289e-01,6.788930296897888184e-01,7.060759067535400391e-01,7.346013784408569336e-01,7.646634578704833984e-01,7.890988588333129883e-01,8.047407269477844238e-01,8.153570890426635742e-01,8.175795078277587891e-01,8.181560039520263672e-01,8.179740905761718750e-01,8.178963065147399902e-01,8.178333044052124023e-01,8.177742958068847656e-01,8.177155256271362305e-01,8.176565170288085938e-01,8.175976276397705078e-01,8.175386190414428711e-01,8.174797892570495605e-01,8.174208998680114746e-01,8.173620700836181641e-01,8.173031806945800781e-01,8.172443509101867676e-01,8.171855211257934570e-01,8.171266317367553711e-01,8.170676827430725098e-01,8.170089721679687500e-01,8.169500231742858887e-01,8.168914318084716797e-01,8.168326020240783691e-01,8.167736530303955078e-01,8.167136907577514648e-01,8.167060017585754395e-01,8.166782259941101074e-01,8.164837360382080078e-01,8.160772323608398438e-01,8.156203031539916992e-01,8.143086433410644531e-01,8.124400377273559570e-01,8.094927668571472168e-01,8.042722940444946289e-01,7.970137596130371094e-01,7.894085645675659180e-01,7.773722410202026367e-01,7.479010224342346191e-01,7.329826354980468750e-01,7.344097495079040527e-01,7.134130597114562988e-01,6.685256958007812500e-01,5.795584321022033691e-01
5.498366355895996094e-01,5.541190505027770996e-01,5.890450477600097656e-01,5.790382623672485352e-01,5.922483205795288086e-01,6.085586547851562500e-01,6.381739377975463867e-01,6.527653336524963379e-01,6.666599512100219727e-01,6.783918738365173340e-01,6.898179054260253906e-01,7.021030187606811523e-01,7.125936150550842285e-01,7.161360979080200195e-01,7.190005183219909668e-01,7.246793508529663086e-01,7.148249745368957520e-01,7.012602090835571289e-01,6.791030168533325195e-01,6.384071707725524902e-01,6.214421987533569336e-01,6.499562859535217285e-01,6.546003222465515137e-01,6.542371511459350586e-01,6.684206128120422363e-01,6.584898829460144043e-01,6.544117927551269531e-01,6.099867224693298340e-01,5.823282003402709961e-01,5.607351064682006836e-01,5.771725177764892578e-01,6.221607923507690430e-01,6.487025022506713867e-01,6.720455288887023926e-01,7.022448778152465820e-01,7.263780236244201660e-01,7.415032982826232910e-01,7.483874559402465820e-01,7.502543926239013672e-01,7.512494921684265137e-01,7.510452866554260254e-01,7.509169578552246094e-01,7.508242130279541016e-01,7.507418394088745117e-01,7.506595253944396973e-01,7.505770921707153320e-01,7.504946589469909668e-01,7.504121661186218262e-01,7.503297328948974609e-01,7.502474784851074219e-01,7.501651048660278320e-01,7.500828504562377930e-01,7.500004768371582031e-01,7.499181032180786133e-01,7.498357295989990234e-01,7.497535943984985352e-01,7.496713995933532715e-01,7.495890259742736816e-01,7.495067715644836426e-01,7.494245767593383789e-01,7.493416070938110352e-01,7.492554187774658203e-01,7.492306232452392578e-01,7.491524219512939453e-01,7.489982247352600098e-01,7.487169504165649414e-01,7.482025623321533203e-01,7.468140125274658203e-01,7.445501089096069336e-01,7.411852478981018066e-01,7.364907264709472656e-01,7.301356792449951172e-01,7.241419553756713867e-01,7.128742933273315430e-01,6.834346055984497070e-01,6.727028489112854004e-01,6.816030740737915039e-01,6.628360152244567871e-01,6.335871219635009766e-01,5.563673973083496094e-01
5.325877070426940918e-01,5.238318443298339844e-01,5.546799302101135254e-01,5.387878417968750000e-01,5.466840267181396484e-01,5.595377683639526367e-01,5.837635993957519531e-01,5.949384570121765137e-01,6.054017543792724609e-01,6.135030984878540039e-01,6.214596629142761230e-01,6.305119991302490234e-01,6.370494961738586426e-01,6.386352777481079102e-01,6.432027816772460938e-01,6.434290409088134766e-01,6.286641955375671387e-01,6.172828674316406250e-01,6.032062768936157227e-01,5.735471844673156738e-01,5.608564615249633789e-01,5.742765069007873535e-01,5.814778208732604980e-01,5.800760388374328613e-01,5.906023979187011719e-01,5.786715745925903320e-01,5.728720426559448242e-01,5.467278957366943359e-01,5.155636668205261230e-01,5.049908757209777832e-01,5.181041955947875977e-01,5.553132891654968262e-01,5.803657174110412598e-01,6.006105542182922363e-01,6.207753419876098633e-01,6.410791277885437012e-01,6.537375450134277344e-01,6.600574851036071777e-01,6.605041027069091797e-01,6.614866852760314941e-01,6.613304615020751953e-01,6.612285971641540527e-01,6.611374020576477051e-01,6.610499024391174316e-01,6.609624028205871582e-01,6.608748435974121094e-01,6.607872247695922852e-01,6.606997251510620117e-01,6.606124639511108398e-01,6.605249643325805664e-01,6.604375839233398438e-01,6.603502035140991211e-01,6.602626442909240723e-01,6.601754426956176758e-01,6.600879430770874023e-01,6.600005030632019043e-01,6.599132418632507324e-01,6.598260402679443359e-01,6.597385406494140625e-01,6.596513986587524414e-01,6.595631837844848633e-01,6.594706177711486816e-01,6.594049930572509766e-01,6.593441367149353027e-01,6.591327786445617676e-01,6.589227914810180664e-01,6.586023569107055664e-01,6.574438810348510742e-01,6.554463505744934082e-01,6.522645950317382812e-01,6.490451097488403320e-01,6.442183256149291992e-01,6.403511166572570801e-01,6.306602358818054199e-01,6.031867265701293945e-01,5.958148837089538574e-01,6.114234924316406250e-01,5.966724157333374023e-01,5.878708362579345703e-01,5.268032550811767578e-01
5.116016268730163574e-01,4.894234240055084229e-01,5.142416357994079590e-01,4.909933209419250488e-01,4.925769269466400146e-01,5.011581778526306152e-01,5.197609066963195801e-01,5.277110338211059570e-01,5.348472595214843750e-01,5.396679639816284180e-01,5.444530248641967773e-01,5.504208803176879883e-01,5.542060732841491699e-01,5.555022954940795898e-01,5.561063885688781738e-01,5.573924779891967773e-01,5.394659042358398438e-01,5.294705629348754883e-01,5.204291343688964844e-01,5.031449198722839355e-01,5.069007873535156250e-01,5.022712945938110352e-01,5.165145397186279297e-01,5.180685520172119141e-01,5.231250524520874023e-01,5.104782581329345703e-01,4.909725487232208252e-01,4.686471223831176758e-01,4.634079933166503906e-01,4.538998007774353027e-01,4.627421498298645020e-01,4.897236824035644531e-01,5.106030106544494629e-01,5.201492905616760254e-01,5.364773273468017578e-01,5.571419596672058105e-01,5.632339715957641602e-01,5.680019259452819824e-01,5.683121085166931152e-01,5.692604780197143555e-01,5.690233707427978516e-01,5.689270496368408203e-01,5.688402056694030762e-01,5.687533020973205566e-01,5.686664581298828125e-01,5.685795545578002930e-01,5.684928297996520996e-01,5.684060454368591309e-01,5.683193206787109375e-01,5.682325363159179688e-01,5.681459903717041016e-01,5.680593848228454590e-01,5.679727196693420410e-01,5.678861141204833984e-01,5.677995085716247559e-01,5.677129030227661133e-01,5.676263570785522461e-01,5.675398111343383789e-01,5.674532651901245117e-01,5.673667788505554199e-01,5.672798752784729004e-01,5.671870708465576172e-01,5.671015381813049316e-01,5.670607686042785645e-01,5.670288801193237305e-01,5.669527053833007812e-01,5.667134523391723633e-01,5.661711096763610840e-01,5.646610260009765625e-01,5.622303485870361328e-01,5.591693520545959473e-01,5.555540919303894043e-01,5.536121129989624023e-01,5.454347729682922363e-01,5.213752985000610352e-01,5.172664523124694824e-01,5.382916331291198730e-01,5.279686450958251953e-01,5.396064519882202148e-01,4.964689016342163086e-01
4.905970096588134766e-01,4.557307660579681396e-01,4.713645875453948975e-01,4.409471750259399414e-01,4.362823963165283203e-01,4.406388401985168457e-01,4.540616273880004883e-01,4.581412374973297119e-01,4.624677896499633789e-01,4.647723138332366943e-01,4.672157764434814453e-01,4.705458879470825195e-01,4.727387726306915283e-01,4.749855399131774902e-01,4.760505557060241699e-01,4.747237265110015869e-01,4.630105197429656982e-01,4.548621475696563721e-01,4.455712139606475830e-01,4.425919651985168457e-01,4.360619485378265381e-01,4.420505166053771973e-01,4.462035298347473145e-01,4.537793397903442383e-01,4.569227099418640137e-01,4.446668624877929688e-01,4.326084852218627930e-01,4.080465734004974365e-01,4.154170751571655273e-01,3.977370858192443848e-01,4.090426862239837646e-01,4.212082624435424805e-01,4.379639029502868652e-01,4.463337957859039307e-01,4.611677229404449463e-01,4.725151360034942627e-01,4.778949618339538574e-01,4.800684154033660889e-01,4.808153510093688965e-01,4.813981056213378906e-01,4.812607169151306152e-01,4.811714589595794678e-01,4.810956716537475586e-01,4.810227453708648682e-01,4.809497296810150146e-01,4.808770418167114258e-01,4.808042943477630615e-01,4.807316362857818604e-01,4.806588888168334961e-01,4.805862605571746826e-01,4.805135726928710938e-01,4.804407954216003418e-01,4.803681969642639160e-01,4.802955985069274902e-01,4.802228808403015137e-01,4.801505208015441895e-01,4.800778627395629883e-01,4.800053238868713379e-01,4.799328148365020752e-01,4.798603355884552002e-01,4.797875881195068359e-01,4.797115623950958252e-01,4.796283543109893799e-01,4.795632958412170410e-01,4.795497059822082520e-01,4.795567989349365234e-01,4.794791638851165771e-01,4.793891012668609619e-01,4.788182377815246582e-01,4.777911603450775146e-01,4.768691956996917725e-01,4.753075242042541504e-01,4.752779603004455566e-01,4.694302678108215332e-01,4.494333863258361816e-01,4.481942057609558105e-01,4.717415273189544678e-01,4.687392413616180420e-01,4.949468076229095459e-01,4.690721333026885986e-01
4.694184958934783936e-01,4.224299490451812744e-01,4.285625815391540527e-01,3.950852751731872559e-01,3.841212093830108643e-01,3.856860995292663574e-01,3.961008787155151367e-01,3.990388810634613037e-01,4.020604193210601807e-01,4.032414257526397705e-01,4.043584764003753662e-01,4.056304395198822021e-01,4.065140783786773682e-01,4.075500369071960449e-01,4.086748361587524414e-01,4.065778851509094238e-01,3.993346691131591797e-01,3.947124779224395752e-01,3.855099678039550781e-01,3.912422955036163330e-01,3.877154588699340820e-01,3.871624469757080078e-01,3.893879652023315430e-01,3.949213325977325439e-01,3.963313996791839600e-01,3.848917484283447266e-01,3.778716623783111572e-01,3.672284781932830811e-01,3.620544075965881348e-01,3.570827841758728027e-01,3.646877110004425049e-01,3.732205033302307129e-01,3.839047551155090332e-01,3.866766691207885742e-01,3.972480595111846924e-01,4.022193253040313721e-01,4.068479537963867188e-01,4.084429144859313965e-01,4.090924859046936035e-01,4.091883599758148193e-01,4.091529250144958496e-01,4.090721309185028076e-01,4.090121090412139893e-01,4.089545607566833496e-01,4.088967442512512207e-01,4.088391065597534180e-01,4.087816476821899414e-01,4.087241291999816895e-01,4.086664915084838867e-01,4.086087644100189209e-01,4.085512757301330566e-01,4.084938466548919678e-01,4.084363281726837158e-01,4.083788096904754639e-01,4.083213806152343750e-01,4.082639217376708984e-01,4.082064926624298096e-01,4.081490635871887207e-01,4.080917537212371826e-01,4.080343246459960938e-01,4.079778790473937988e-01,4.079200029373168945e-01,4.078652560710906982e-01,4.078151583671569824e-01,4.077843427658081055e-01,4.077649712562561035e-01,4.077852070331573486e-01,4.076914787292480469e-01,4.073106646537780762e-01,4.064762592315673828e-01,4.056352972984313965e-01,4.045491516590118408e-01,4.052007794380187988e-01,4.015050232410430908e-01,3.856390714645385742e-01,3.876498043537139893e-01,4.134704470634460449e-01,4.176914393901824951e-01,4.559993147850036621e-01,4.460455179214477539e-01
4.513982832431793213e-01,3.938301503658294678e-01,3.929939270019531250e-01,3.573043346405029297e-01,3.413706719875335693e-01,3.406617045402526855e-01,3.481078147888183594e-01,3.498285412788391113e-01,3.515234291553497314e-01,3.519453108310699463e-01,3.524028658866882324e-01,3.528400063514709473e-01,3.534949123859405518e-01,3.543167114257812500e-01,3.548109233379364014e-01,3.541884422302246094e-01,3.522104918956756592e-01,3.459287881851196289e-01,3.410075902938842773e-01,3.413841724395751953e-01,3.440298438072204590e-01,3.421406149864196777e-01,3.452713489532470703e-01,3.452570438385009766e-01,3.446952998638153076e-01,3.398919701576232910e-01,3.325233459472656250e-01,3.275619745254516602e-01,3.283476829528808594e-01,3.238528966903686523e-01,3.278584480285644531e-01,3.324160873889923096e-01,3.401082456111907959e-01,3.419713079929351807e-01,3.470131158828735352e-01,3.501079082489013672e-01,3.518449664115905762e-01,3.527316153049468994e-01,3.528870642185211182e-01,3.531671762466430664e-01,3.531087636947631836e-01,3.530498147010803223e-01,3.530093431472778320e-01,3.529682755470275879e-01,3.529270291328430176e-01,3.528859615325927734e-01,3.528449833393096924e-01,3.528039157390594482e-01,3.527629375457763672e-01,3.527217507362365723e-01,3.526807427406311035e-01,3.526397347450256348e-01,3.525986373424530029e-01,3.525577187538146973e-01,3.525168299674987793e-01,3.524757623672485352e-01,3.524348735809326172e-01,3.523940742015838623e-01,3.523529767990112305e-01,3.523121476173400879e-01,3.522714078426361084e-01,3.522308468818664551e-01,3.521876335144042969e-01,3.521587252616882324e-01,3.521201610565185547e-01,3.520647287368774414e-01,3.520687818527221680e-01,3.521130084991455078e-01,3.520621657371520996e-01,3.519845902919769287e-01,3.517252504825592041e-01,3.512690961360931396e-01,3.521054387092590332e-01,3.494762480258941650e-01,3.362896740436553955e-01,3.391585350036621094e-01,3.653101325035095215e-01,3.756747245788574219e-01,4.224359393119812012e-01,4.258144795894622803e-01
4.349693357944488525e-01,3.689470291137695312e-01,3.612778186798095703e-01,3.251687288284301758e-01,3.061333298683166504e-01,3.047596216201782227e-01,3.108653128147125244e-01,3.122506141662597656e-01,3.134091794490814209e-01,3.134265542030334473e-01,3.133814930915832520e-01,3.132966160774230957e-01,3.134682774543762207e-01,3.138777017593383789e-01,3.135215640068054199e-01,3.136557936668395996e-01,3.137083053588867188e-01,3.100212216377258301e-01,3.077532351016998291e-01,3.100314736366271973e-01,3.078568577766418457e-01,3.096772134304046631e-01,3.099198043346405029e-01,3.096345067024230957e-01,3.102598488330841064e-01,3.068406581878662109e-01,3.023082017898559570e-01,2.978272438049316406e-01,2.969949543476104736e-01,2.957895994186401367e-01,3.004833459854125977e-01,3.013797998428344727e-01,3.062448501586914062e-01,3.084377646446228027e-01,3.101175427436828613e-01,3.117064833641052246e-01,3.127471208572387695e-01,3.129937052726745605e-01,3.127421140670776367e-01,3.128359317779541016e-01,3.128457665443420410e-01,3.128107488155364990e-01,3.127805888652801514e-01,3.127504587173461914e-01,3.127208352088928223e-01,3.126908242702484131e-01,3.126611709594726562e-01,3.126311004161834717e-01,3.126013576984405518e-01,3.125715255737304688e-01,3.125417232513427734e-01,3.125119805335998535e-01,3.124819993972778320e-01,3.124523758888244629e-01,3.124225437641143799e-01,3.123927116394042969e-01,3.123630285263061523e-01,3.123331964015960693e-01,3.123035132884979248e-01,3.122738897800445557e-01,3.122443556785583496e-01,3.122147917747497559e-01,3.121852278709411621e-01,3.121535778045654297e-01,3.121229410171508789e-01,3.120929896831512451e-01,3.120523393154144287e-01,3.120008707046508789e-01,3.119760155677795410e-01,3.118593692779541016e-01,3.117233514785766602e-01,3.115051388740539551e-01,3.122478425502777100e-01,3.104202747344970703e-01,2.992291450500488281e-01,3.025870323181152344e-01,3.288188576698303223e-01,3.441880345344543457e-01,3.968251347541809082e-01,4.101012647151947021e-01
4.212135970592498779e-01,3.491310179233551025e-01,3.364102244377136230e-01,2.999955713748931885e-01,2.791722714900970459e-01,2.769961655139923096e-01,2.819485664367675781e-01,2.831144034862518311e-01,2.839976549148559570e-01,2.838945984840393066e-01,2.838457822799682617e-01,2.838309109210968018e-01,2.838370800018310547e-01,2.838695645332336426e-01,2.836747765541076660e-01,2.841039896011352539e-01,2.837590873241424561e-01,2.828192710876464844e-01,2.813071012496948242e-01,2.808158993721008301e-01,2.814199328422546387e-01,2.830267548561096191e-01,2.823739647865295410e-01,2.825923562049865723e-01,2.829028964042663574e-01,2.801659107208251953e-01,2.776637077331542969e-01,2.760001420974731445e-01,2.751470804214477539e-01,2.743068933486938477e-01,2.763082981109619141e-01,2.763777077198028564e-01,2.797736823558807373e-01,2.809499204158782959e-01,2.822510898113250732e-01,2.831414639949798584e-01,2.835242748260498047e-01,2.832792401313781738e-01,2.833207845687866211e-01,2.831334769725799561e-01,2.831736803054809570e-01,2.831461131572723389e-01,2.831245660781860352e-01,2.831028103828430176e-01,2.830811440944671631e-01,2.830595374107360840e-01,2.830379903316497803e-01,2.830163240432739258e-01,2.829945087432861328e-01,2.829729914665222168e-01,2.829514145851135254e-01,2.829296886920928955e-01,2.829083204269409180e-01,2.828864455223083496e-01,2.828649282455444336e-01,2.828432321548461914e-01,2.828215956687927246e-01,2.828000187873840332e-01,2.827785611152648926e-01,2.827571034431457520e-01,2.827355861663818359e-01,2.827140092849731445e-01,2.826924324035644531e-01,2.826715707778930664e-01,2.826496958732604980e-01,2.826246619224548340e-01,2.826014161109924316e-01,2.825921177864074707e-01,2.825827896595001221e-01,2.825818657875061035e-01,2.825627923011779785e-01,2.824538648128509521e-01,2.830942869186401367e-01,2.817839682102203369e-01,2.718600630760192871e-01,2.751354575157165527e-01,3.007383942604064941e-01,3.195615410804748535e-01,3.762969672679901123e-01,3.975783586502075195e-01
4.091765284538269043e-01,3.324922323226928711e-01,3.159802556037902832e-01,2.799510955810546875e-01,2.584244608879089355e-01,2.558333873748779297e-01,2.600276470184326172e-01,2.610204219818115234e-01,2.617933750152587891e-01,2.617111206054687500e-01,2.616696953773498535e-01,2.616255879402160645e-01,2.616634666919708252e-01,2.615737915039062500e-01,2.614422142505645752e-01,2.616937160491943359e-01,2.617168426513671875e-01,2.614879608154296875e-01,2.611681818962097168e-01,2.605204582214355469e-01,2.605542540550231934e-01,2.610673308372497559e-01,2.611927688121795654e-01,2.617245912551879883e-01,2.612262964248657227e-01,2.603532075881958008e-01,2.598688602447509766e-01,2.571691274642944336e-01,2.570148706436157227e-01,2.577250301837921143e-01,2.574633955955505371e-01,2.580653429031372070e-01,2.597325444221496582e-01,2.595050036907196045e-01,2.605335116386413574e-01,2.606174945831298828e-01,2.615596055984497070e-01,2.612964510917663574e-01,2.612573504447937012e-01,2.611508369445800781e-01,2.611690163612365723e-01,2.611479759216308594e-01,2.611311078071594238e-01,2.611147165298461914e-01,2.610980272293090820e-01,2.610816657543182373e-01,2.610651850700378418e-01,2.610487937927246094e-01,2.610322833061218262e-01,2.610158324241638184e-01,2.609992325305938721e-01,2.609825134277343750e-01,2.609662711620330811e-01,2.609497308731079102e-01,2.609333992004394531e-01,2.609168887138366699e-01,2.609005868434906006e-01,2.608841061592102051e-01,2.608677148818969727e-01,2.608512043952941895e-01,2.608347535133361816e-01,2.608184516429901123e-01,2.608021199703216553e-01,2.607852816581726074e-01,2.607688307762145996e-01,2.607520520687103271e-01,2.607347667217254639e-01,2.607192397117614746e-01,2.607040405273437500e-01,2.606886625289916992e-01,2.606730461120605469e-01,2.605946660041809082e-01,2.611129879951477051e-01,2.600669264793395996e-01,2.511693835258483887e-01,2.544478774070739746e-01,2.794588804244995117e-01,3.009943366050720215e-01,3.605833351612091064e-01,3.876324295997619629e-01
3.991104662418365479e-01,3.188924789428710938e-01,2.997280955314636230e-01,2.643887698650360107e-01,2.423056066036224365e-01,2.394180595874786377e-01,2.430785298347473145e-01,2.439689040184020996e-01,2.446601092815399170e-01,2.445982694625854492e-01,2.445647716522216797e-01,2.445509135723114014e-01,2.445249259471893311e-01,2.445178925991058350e-01,2.445020377635955811e-01,2.444422841072082520e-01,2.444663047790527344e-01,2.446892857551574707e-01,2.441920638084411621e-01,2.442228794097900391e-01,2.442334592342376709e-01,2.442469000816345215e-01,2.444211840629577637e-01,2.443675696849822998e-01,2.442082464694976807e-01,2.442888617515563965e-01,2.435186803340911865e-01,2.427114546298980713e-01,2.427056133747100830e-01,2.423347830772399902e-01,2.430684864521026611e-01,2.427513003349304199e-01,2.434672117233276367e-01,2.435218691825866699e-01,2.439566254615783691e-01,2.441304624080657959e-01,2.441157102584838867e-01,2.442719042301177979e-01,2.442107200622558594e-01,2.441921830177307129e-01,2.441684901714324951e-01,2.441532611846923828e-01,2.441404759883880615e-01,2.441274523735046387e-01,2.441148161888122559e-01,2.441017329692840576e-01,2.440888285636901855e-01,2.440759837627410889e-01,2.440630495548248291e-01,2.440500259399414062e-01,2.440372705459594727e-01,2.440243661403656006e-01,2.440114915370941162e-01,2.439985573291778564e-01,2.439856231212615967e-01,2.439727783203125000e-01,2.439599633216857910e-01,2.439469099044799805e-01,2.439343035221099854e-01,2.439211905002593994e-01,2.439083456993103027e-01,2.438953816890716553e-01,2.438828051090240479e-01,2.438697516918182373e-01,2.438568174839019775e-01,2.438436150550842285e-01,2.438305914402008057e-01,2.438170015811920166e-01,2.438039183616638184e-01,2.437908351421356201e-01,2.437778115272521973e-01,2.437139153480529785e-01,2.441383898258209229e-01,2.433027327060699463e-01,2.352241277694702148e-01,2.385356128215789795e-01,2.629327476024627686e-01,2.863668203353881836e-01,3.479799628257751465e-01,3.796820044517517090e-01
3.908092677593231201e-01,3.077787756919860840e-01,2.866282463073730469e-01,2.519684731960296631e-01,2.295326590538024902e-01,2.264053821563720703e-01,2.296714186668395996e-01,2.304615378379821777e-01,2.310828864574432373e-01,2.310293018817901611e-01,2.310021817684173584e-01,2.309894859790802002e-01,2.309816181659698486e-01,2.309677004814147949e-01,2.309482395648956299e-01,2.309490144252777100e-01,2.309976816177368164e-01,2.309407293796539307e-01,2.309592962265014648e-01,2.308779060840606689e-01,2.308613359928131104e-01,2.308419346809387207e-01,2.308996021747589111e-01,2.307921350002288818e-01,2.308773696422576904e-01,2.308484315872192383e-01,2.306672632694244385e-01,2.299474179744720459e-01,2.299251854419708252e-01,2.301280498504638672e-01,2.305182218551635742e-01,2.305929958820343018e-01,2.305763363838195801e-01,2.306069135665893555e-01,2.306786179542541504e-01,2.308120131492614746e-01,2.306071519851684570e-01,2.307612895965576172e-01,2.307140231132507324e-01,2.307203412055969238e-01,2.306908369064331055e-01,2.306789159774780273e-01,2.306683361530303955e-01,2.306578457355499268e-01,2.306475043296813965e-01,2.306372523307800293e-01,2.306268513202667236e-01,2.306165695190429688e-01,2.306061089038848877e-01,2.305957376956939697e-01,2.305852770805358887e-01,2.305749654769897461e-01,2.305645644664764404e-01,2.305542826652526855e-01,2.305437922477722168e-01,2.305335402488708496e-01,2.305232882499694824e-01,2.305128574371337891e-01,2.305024266242980957e-01,2.304921746253967285e-01,2.304817736148834229e-01,2.304715216159820557e-01,2.304611504077911377e-01,2.304508090019226074e-01,2.304406166076660156e-01,2.304301261901855469e-01,2.304198145866394043e-01,2.304094135761260986e-01,2.303990721702575684e-01,2.303888201713562012e-01,2.303780317306518555e-01,2.303247749805450439e-01,2.306803166866302490e-01,2.300042510032653809e-01,2.225892245769500732e-01,2.259125709533691406e-01,2.498075962066650391e-01,2.745912373065948486e-01,3.377267420291900635e-01,3.731982707977294922e-01
3.838104903697967529e-01,2.985779345035552979e-01,2.758296728134155273e-01,2.418452203273773193e-01,2.191900908946990967e-01,2.158576548099517822e-01,2.188132107257843018e-01,2.195146381855010986e-01,2.200807034969329834e-01,2.200331389904022217e-01,2.200105488300323486e-01,2.200016081333160400e-01,2.199911177158355713e-01,2.199836373329162598e-01,2.199741899967193604e-01,2.199623584747314453e-01,2.199645340442657471e-01,2.199567556381225586e-01,2.199436128139495850e-01,2.199300825595855713e-01,2.199294567108154297e-01,2.199331223964691162e-01,2.198949456214904785e-01,2.198463082313537598e-01,2.199317812919616699e-01,2.199386656284332275e-01,2.198606431484222412e-01,2.197319865226745605e-01,2.195420861244201660e-01,2.193911075592041016e-01,2.196448147296905518e-01,2.197517752647399902e-01,2.197304964065551758e-01,2.198832333087921143e-01,2.198675274848937988e-01,2.198281884193420410e-01,2.197926640510559082e-01,2.197619378566741943e-01,2.197705507278442383e-01,2.197624444961547852e-01,2.197561860084533691e-01,2.197464406490325928e-01,2.197371721267700195e-01,2.197288274765014648e-01,2.197203338146209717e-01,2.197117209434509277e-01,2.197031676769256592e-01,2.196947634220123291e-01,2.196861207485198975e-01,2.196777164936065674e-01,2.196691334247589111e-01,2.196606397628784180e-01,2.196522653102874756e-01,2.196436822414398193e-01,2.196351289749145508e-01,2.196269035339355469e-01,2.196183502674102783e-01,2.196098566055297852e-01,2.196014821529388428e-01,2.195930182933807373e-01,2.195844352245330811e-01,2.195759117603302002e-01,2.195672094821929932e-01,2.195588946342468262e-01,2.195504307746887207e-01,2.195419669151306152e-01,2.195335328578948975e-01,2.195251286029815674e-01,2.195166945457458496e-01,2.195082604885101318e-01,2.194989919662475586e-01,2.194539308547973633e-01,2.197591960430145264e-01,2.192101478576660156e-01,2.123411595821380615e-01,2.156701087951660156e-01,2.391540706157684326e-01,2.649242877960205078e-01,3.292266726493835449e-01,3.678061068058013916e-01
3.778372406959533691e-01,2.908440232276916504e-01,2.668070197105407715e-01,2.334585785865783691e-01,2.106582820415496826e-01,2.071485519409179688e-01,2.098524868488311768e-01,2.104758918285369873e-01,2.109935283660888672e-01,2.109515666961669922e-01,2.109314501285552979e-01,2.109244465827941895e-01,2.109171152114868164e-01,2.109095752239227295e-01,2.109020352363586426e-01,2.108954489231109619e-01,2.108877897262573242e-01,2.108832895755767822e-01,2.108755409717559814e-01,2.108667492866516113e-01,2.108643949031829834e-01,2.108544707298278809e-01,2.108463943004608154e-01,2.108351290225982666e-01,2.108130753040313721e-01,2.108062505722045898e-01,2.108513116836547852e-01,2.107588946819305420e-01,2.106942534446716309e-01,2.106938362121582031e-01,2.107130885124206543e-01,2.107716500759124756e-01,2.107753455638885498e-01,2.107824683189392090e-01,2.107147276401519775e-01,2.107425630092620850e-01,2.107735872268676758e-01,2.107444703578948975e-01,2.107376754283905029e-01,2.107240259647369385e-01,2.107184231281280518e-01,2.107116281986236572e-01,2.107039988040924072e-01,2.106972038745880127e-01,2.106900513172149658e-01,2.106828987598419189e-01,2.106759846210479736e-01,2.106690108776092529e-01,2.106617093086242676e-01,2.106545865535736084e-01,2.106474041938781738e-01,2.106404006481170654e-01,2.106334269046783447e-01,2.106262743473052979e-01,2.106191813945770264e-01,2.106120288372039795e-01,2.106049656867980957e-01,2.105980217456817627e-01,2.105909287929534912e-01,2.105837464332580566e-01,2.105768322944641113e-01,2.105697095394134521e-01,2.105626463890075684e-01,2.105557024478912354e-01,2.105484902858734131e-01,2.105413973331451416e-01,2.105345129966735840e-01,2.105273902416229248e-01,2.105202972888946533e-01,2.105133235454559326e-01,2.105054855346679688e-01,2.104668021202087402e-01,2.107330858707427979e-01,2.102858722209930420e-01,2.038702964782714844e-01,2.072003483772277832e-01,2.303356230258941650e-01,2.568483948707580566e-01,3.220595419406890869e-01,3.632438778877258301e-01
3.726801276206970215e-01,2.842510342597961426e-01,2.591616511344909668e-01,2.263992726802825928e-01,2.035070359706878662e-01,1.998420357704162598e-01,2.023392915725708008e-01,2.028944790363311768e-01,2.033705711364746094e-01,2.033332586288452148e-01,2.033157050609588623e-01,2.033096253871917725e-01,2.033037543296813965e-01,2.032976746559143066e-01,2.032916545867919922e-01,2.032856643199920654e-01,2.032797038555145264e-01,2.032735943794250488e-01,2.032676637172698975e-01,2.032618224620819092e-01,2.032553851604461670e-01,2.032501399517059326e-01,2.032433152198791504e-01,2.032342553138732910e-01,2.032295763492584229e-01,2.032451331615447998e-01,2.032302021980285645e-01,2.032393515110015869e-01,2.031926214694976807e-01,2.031904757022857666e-01,2.031639516353607178e-01,2.031883895397186279e-01,2.031789422035217285e-01,2.031793594360351562e-01,2.031747996807098389e-01,2.031747698783874512e-01,2.031608819961547852e-01,2.031534612178802490e-01,2.031473815441131592e-01,2.031438052654266357e-01,2.031351923942565918e-01,2.031296193599700928e-01,2.031234502792358398e-01,2.031176388263702393e-01,2.031117677688598633e-01,2.031056582927703857e-01,2.030996680259704590e-01,2.030936181545257568e-01,2.030877768993377686e-01,2.030817270278930664e-01,2.030757665634155273e-01,2.030695676803588867e-01,2.030636072158813477e-01,2.030576467514038086e-01,2.030519247055053711e-01,2.030457556247711182e-01,2.030399739742279053e-01,2.030338943004608154e-01,2.030279934406280518e-01,2.030219137668609619e-01,2.030158936977386475e-01,2.030100524425506592e-01,2.030040025711059570e-01,2.029978930950164795e-01,2.029920220375061035e-01,2.029860615730285645e-01,2.029802203178405762e-01,2.029741108417510986e-01,2.029683291912078857e-01,2.029621303081512451e-01,2.029555141925811768e-01,2.029218971729278564e-01,2.031573355197906494e-01,2.027928233146667480e-01,1.967592835426330566e-01,2.000871300697326660e-01,2.229212224483489990e-01,2.500035762786865234e-01,3.159331679344177246e-01,3.593323826789855957e-01
3.681836128234863281e-01,2.785655260086059570e-01,2.526060938835144043e-01,2.203792333602905273e-01,1.974312663078308105e-01,1.936298906803131104e-01,1.959550678730010986e-01,1.964500248432159424e-01,1.968906819820404053e-01,1.968573629856109619e-01,1.968416571617126465e-01,1.968368589878082275e-01,1.968314647674560547e-01,1.968263685703277588e-01,1.968210935592651367e-01,1.968161165714263916e-01,1.968110203742980957e-01,1.968058347702026367e-01,1.968007683753967285e-01,1.967955231666564941e-01,1.967903971672058105e-01,1.967848837375640869e-01,1.967796385288238525e-01,1.967742145061492920e-01,1.967685520648956299e-01,1.967653930187225342e-01,1.967616677284240723e-01,1.967556476593017578e-01,1.967495083808898926e-01,1.967435181140899658e-01,1.967412829399108887e-01,1.967343389987945557e-01,1.967274546623229980e-01,1.967223584651947021e-01,1.967194676399230957e-01,1.967141330242156982e-01,1.967075467109680176e-01,1.967017352581024170e-01,1.966975331306457520e-01,1.966924667358398438e-01,1.966879665851593018e-01,1.966826021671295166e-01,1.966774463653564453e-01,1.966722905635833740e-01,1.966671645641326904e-01,1.966619789600372314e-01,1.966571509838104248e-01,1.966519653797149658e-01,1.966468095779418945e-01,1.966417729854583740e-01,1.966365277767181396e-01,1.966314315795898438e-01,1.966263651847839355e-01,1.966210603713989258e-01,1.966159343719482422e-01,1.966109871864318848e-01,1.966057121753692627e-01,1.966006457805633545e-01,1.965954303741455078e-01,1.965906023979187012e-01,1.965853571891784668e-01,1.965803205966949463e-01,1.965749859809875488e-01,1.965697407722473145e-01,1.965648829936981201e-01,1.965598464012145996e-01,1.965546607971191406e-01,1.965497136116027832e-01,1.965445876121520996e-01,1.965394914150238037e-01,1.965333819389343262e-01,1.965036988258361816e-01,1.967146396636962891e-01,1.964182853698730469e-01,1.907097101211547852e-01,1.940340101718902588e-01,2.166039645671844482e-01,2.441300749778747559e-01,3.106348514556884766e-01,3.559400737285614014e-01
3.642288446426391602e-01,2.736127376556396484e-01,2.469265162944793701e-01,2.151880562305450439e-01,1.922092437744140625e-01,1.882875263690948486e-01,1.904671788215637207e-01,1.909091174602508545e-01,1.913192868232727051e-01,1.912891268730163574e-01,1.912751793861389160e-01,1.912705004215240479e-01,1.912662684917449951e-01,1.912618279457092285e-01,1.912573575973510742e-01,1.912527978420257568e-01,1.912487149238586426e-01,1.912438571453094482e-01,1.912396252155303955e-01,1.912350654602050781e-01,1.912308335304260254e-01,1.912262439727783203e-01,1.912215948104858398e-01,1.912170350551605225e-01,1.912124752998352051e-01,1.912080049514770508e-01,1.912044286727905273e-01,1.911996901035308838e-01,1.911955475807189941e-01,1.911911666393280029e-01,1.911879777908325195e-01,1.911830604076385498e-01,1.911778151988983154e-01,1.911729574203491211e-01,1.911691129207611084e-01,1.911646723747253418e-01,1.911599636077880859e-01,1.911547183990478516e-01,1.911505460739135742e-01,1.911461949348449707e-01,1.911421418190002441e-01,1.911376714706420898e-01,1.911331713199615479e-01,1.911285221576690674e-01,1.911242604255676270e-01,1.911198794841766357e-01,1.911153495311737061e-01,1.911109685897827148e-01,1.911064684391021729e-01,1.911020874977111816e-01,1.910977065563201904e-01,1.910932362079620361e-01,1.910888254642486572e-01,1.910842955112457275e-01,1.910801529884338379e-01,1.910755336284637451e-01,1.910712420940399170e-01,1.910666823387145996e-01,1.910621821880340576e-01,1.910578310489654541e-01,1.910534799098968506e-01,1.910490989685058594e-01,1.910445988178253174e-01,1.910400688648223877e-01,1.910358667373657227e-01,1.910311877727508545e-01,1.910268366336822510e-01,1.910224556922912598e-01,1.910178661346435547e-01,1.910136342048645020e-01,1.910085380077362061e-01,1.909824013710021973e-01,1.911724805831909180e-01,1.909328997135162354e-01,1.855038106441497803e-01,1.888235211372375488e-01,2.111597061157226562e-01,2.390361726284027100e-01,3.060069084167480469e-01,3.529699146747589111e-01
3.607222139835357666e-01,2.692638635635375977e-01,2.419605255126953125e-01,2.106671035289764404e-01,1.876752078533172607e-01,1.836442947387695312e-01,1.856967508792877197e-01,1.860916614532470703e-01,1.864751577377319336e-01,1.864477396011352539e-01,1.864350736141204834e-01,1.864309012889862061e-01,1.864273846149444580e-01,1.864232122898101807e-01,1.864194273948669434e-01,1.864156424999237061e-01,1.864117681980133057e-01,1.864079236984252930e-01,1.864040493965148926e-01,1.864002346992492676e-01,1.863962709903717041e-01,1.863924860954284668e-01,1.863886117935180664e-01,1.863844990730285645e-01,1.863806247711181641e-01,1.863768100738525391e-01,1.863731145858764648e-01,1.863690316677093506e-01,1.863652467727661133e-01,1.863614320755004883e-01,1.863574087619781494e-01,1.863535344600677490e-01,1.863497495651245117e-01,1.863458454608917236e-01,1.863418221473693848e-01,1.863380372524261475e-01,1.863341629505157471e-01,1.863304376602172852e-01,1.863265037536621094e-01,1.863226294517517090e-01,1.863188147544860840e-01,1.863149106502532959e-01,1.863108277320861816e-01,1.863069236278533936e-01,1.863032281398773193e-01,1.862993836402893066e-01,1.862954795360565186e-01,1.862917244434356689e-01,1.862877309322357178e-01,1.862840950489044189e-01,1.862802505493164062e-01,1.862761080265045166e-01,1.862726211547851562e-01,1.862684190273284912e-01,1.862645447254180908e-01,1.862606406211853027e-01,1.862567663192749023e-01,1.862529814243316650e-01,1.862490475177764893e-01,1.862453222274780273e-01,1.862414777278900146e-01,1.862374842166900635e-01,1.862336695194244385e-01,1.862298846244812012e-01,1.862260401248931885e-01,1.862221360206604004e-01,1.862184405326843262e-01,1.862145066261291504e-01,1.862106025218963623e-01,1.862066090106964111e-01,1.862019896507263184e-01,1.861790716648101807e-01,1.863525509834289551e-01,1.861604452133178711e-01,1.809755563735961914e-01,1.842901110649108887e-01,2.064188122749328613e-01,2.345700860023498535e-01,3.019186258316040039e-01,3.503376245498657227e-01
3.576374053955078125e-01,2.654602527618408203e-01,2.376330494880676270e-01,2.067416906356811523e-01,1.837372779846191406e-01,1.796101927757263184e-01,1.815581321716308594e-01,1.819112300872802734e-01,1.822716295719146729e-01,1.822464764118194580e-01,1.822345256805419922e-01,1.822312474250793457e-01,1.822276711463928223e-01,1.822243332862854004e-01,1.822209060192108154e-01,1.822173893451690674e-01,1.822138130664825439e-01,1.822105348110198975e-01,1.822070479393005371e-01,1.822037696838378906e-01,1.822003126144409180e-01,1.821968555450439453e-01,1.821935176849365234e-01,1.821902990341186523e-01,1.821868121623992920e-01,1.821833550930023193e-01,1.821798682212829590e-01,1.821765601634979248e-01,1.821731328964233398e-01,1.821696162223815918e-01,1.821662783622741699e-01,1.821627318859100342e-01,1.821594536304473877e-01,1.821560263633728027e-01,1.821526885032653809e-01,1.821492612361907959e-01,1.821456849575042725e-01,1.821424067020416260e-01,1.821388602256774902e-01,1.821356415748596191e-01,1.821321547031402588e-01,1.821288168430328369e-01,1.821253895759582520e-01,1.821219623088836670e-01,1.821185052394866943e-01,1.821151375770568848e-01,1.821118593215942383e-01,1.821084320545196533e-01,1.821050941944122314e-01,1.821015477180480957e-01,1.820981800556182861e-01,1.820947825908660889e-01,1.820913255214691162e-01,1.820881366729736328e-01,1.820845305919647217e-01,1.820810735225677490e-01,1.820777356624603271e-01,1.820743680000305176e-01,1.820710897445678711e-01,1.820676028728485107e-01,1.820641160011291504e-01,1.820608079433441162e-01,1.820574104785919189e-01,1.820539534091949463e-01,1.820506751537322998e-01,1.820472478866577148e-01,1.820439100265502930e-01,1.820403337478637695e-01,1.820369958877563477e-01,1.820337772369384766e-01,1.820294857025146484e-01,1.820084750652313232e-01,1.821674704551696777e-01,1.820155084133148193e-01,1.770402789115905762e-01,1.803429126739501953e-01,2.022823691368103027e-01,2.306688129901885986e-01,2.983112335205078125e-01,3.479941785335540771e-01
3.552457094192504883e-01,2.622941136360168457e-01,2.341429591178894043e-01,2.035855352878570557e-01,1.805847585201263428e-01,1.763868629932403564e-01,1.782718896865844727e-01,1.786171495914459229e-01,1.789575219154357910e-01,1.789329648017883301e-01,1.789223253726959229e-01,1.789191961288452148e-01,1.789162158966064453e-01,1.789131164550781250e-01,1.789101660251617432e-01,1.789072453975677490e-01,1.789039671421051025e-01,1.789008975028991699e-01,1.788980364799499512e-01,1.788948774337768555e-01,1.788919866085052490e-01,1.788889467716217041e-01,1.788859367370605469e-01,1.788827776908874512e-01,1.788798272609710693e-01,1.788769066333770752e-01,1.788738071918487549e-01,1.788707077503204346e-01,1.788676381111145020e-01,1.788645386695861816e-01,1.788614392280578613e-01,1.788585484027862549e-01,1.788554787635803223e-01,1.788523197174072266e-01,1.788494288921356201e-01,1.788463592529296875e-01,1.788433492183685303e-01,1.788402199745178223e-01,1.788372993469238281e-01,1.788342893123626709e-01,1.788314282894134521e-01,1.788282394409179688e-01,1.788253188133239746e-01,1.788221001625061035e-01,1.788190603256225586e-01,1.788160204887390137e-01,1.788132190704345703e-01,1.788100004196166992e-01,1.788071095943450928e-01,1.788038611412048340e-01,1.788010001182556152e-01,1.787979900836944580e-01,1.787948906421661377e-01,1.787918508052825928e-01,1.787888109683990479e-01,1.787858009338378906e-01,1.787826716899871826e-01,1.787799000740051270e-01,1.787767112255096436e-01,1.787736117839813232e-01,1.787705719470977783e-01,1.787674427032470703e-01,1.787646114826202393e-01,1.787616610527038574e-01,1.787585020065307617e-01,1.787554919719696045e-01,1.787525117397308350e-01,1.787495017051696777e-01,1.787464320659637451e-01,1.787433326244354248e-01,1.787396073341369629e-01,1.787208616733551025e-01,1.788688302040100098e-01,1.787452697753906250e-01,1.739439964294433594e-01,1.772522032260894775e-01,1.989187300205230713e-01,2.273617684841156006e-01,2.952047586441040039e-01,3.462707996368408203e-01
3.522582352161407471e-01,2.585259675979614258e-01,2.300034165382385254e-01,1.997264921665191650e-01,1.766579151153564453e-01,1.722870767116546631e-01,1.739267110824584961e-01,1.741950809955596924e-01,1.744948923587799072e-01,1.744746863842010498e-01,1.744650900363922119e-01,1.744625568389892578e-01,1.744598448276519775e-01,1.744572222232818604e-01,1.744544506072998047e-01,1.744518280029296875e-01,1.744493544101715088e-01,1.744467020034790039e-01,1.744437515735626221e-01,1.744411289691925049e-01,1.744385361671447754e-01,1.744360029697418213e-01,1.744333207607269287e-01,1.744306385517120361e-01,1.744280159473419189e-01,1.744251847267150879e-01,1.744226813316345215e-01,1.744199097156524658e-01,1.744171977043151855e-01,1.744146645069122314e-01,1.744119822978973389e-01,1.744092702865600586e-01,1.744066178798675537e-01,1.744039356708526611e-01,1.744013428688049316e-01,1.743986606597900391e-01,1.743960380554199219e-01,1.743935048580169678e-01,1.743907034397125244e-01,1.743882000446319580e-01,1.743854880332946777e-01,1.743828058242797852e-01,1.743800044059753418e-01,1.743776798248291016e-01,1.743746995925903320e-01,1.743720769882202148e-01,1.743694245815277100e-01,1.743668317794799805e-01,1.743640899658203125e-01,1.743615567684173584e-01,1.743588745594024658e-01,1.743561625480651855e-01,1.743533909320831299e-01,1.743508577346801758e-01,1.743483543395996094e-01,1.743455827236175537e-01,1.743430495262145996e-01,1.743403077125549316e-01,1.743376851081848145e-01,1.743350327014923096e-01,1.743321716785430908e-01,1.743296086788177490e-01,1.743269264698028564e-01,1.743245422840118408e-01,1.743216514587402344e-01,1.743191182613372803e-01,1.743164658546447754e-01,1.743137836456298828e-01,1.743109524250030518e-01,1.743084788322448730e-01,1.743054687976837158e-01,1.742874681949615479e-01,1.744302809238433838e-01,1.743087470531463623e-01,1.696801185607910156e-01,1.730751693248748779e-01,1.948007643222808838e-01,2.234539091587066650e-01,2.916891574859619141e-01,3.432701826095581055e-01
3.534521460533142090e-01,2.556053996086120605e-01,2.290334105491638184e-01,1.991981565952301025e-01,1.747832596302032471e-01,1.703471243381500244e-01,1.715837419033050537e-01,1.718491315841674805e-01,1.721445322036743164e-01,1.721244752407073975e-01,1.721162199974060059e-01,1.721138656139373779e-01,1.721113920211791992e-01,1.721090376377105713e-01,1.721066534519195557e-01,1.721043586730957031e-01,1.721019148826599121e-01,1.720995903015136719e-01,1.720972061157226562e-01,1.720949411392211914e-01,1.720925271511077881e-01,1.720900535583496094e-01,1.720876693725585938e-01,1.720853447914123535e-01,1.720830500125885010e-01,1.720807254314422607e-01,1.720783114433288574e-01,1.720758378505706787e-01,1.720734536647796631e-01,1.720711290836334229e-01,1.720687747001647949e-01,1.720661520957946777e-01,1.720640361309051514e-01,1.720615625381469727e-01,1.720591187477111816e-01,1.720570027828216553e-01,1.720545589923858643e-01,1.720522046089172363e-01,1.720498204231262207e-01,1.720474660396575928e-01,1.720449328422546387e-01,1.720427572727203369e-01,1.720404028892517090e-01,1.720380187034606934e-01,1.720354259014129639e-01,1.720332801342010498e-01,1.720306873321533203e-01,1.720284521579742432e-01,1.720260381698608398e-01,1.720235347747802734e-01,1.720212399959564209e-01,1.720189452171325684e-01,1.720165610313415527e-01,1.720141470432281494e-01,1.720119416713714600e-01,1.720094978809356689e-01,1.720070540904998779e-01,1.720047295093536377e-01,1.720023155212402344e-01,1.719999909400939941e-01,1.719976067543029785e-01,1.719953417778015137e-01,1.719927787780761719e-01,1.719906330108642578e-01,1.719882488250732422e-01,1.719857752323150635e-01,1.719836294651031494e-01,1.719809770584106445e-01,1.719787120819091797e-01,1.719764173030853271e-01,1.719740331172943115e-01,1.719539165496826172e-01,1.720589101314544678e-01,1.720516979694366455e-01,1.679019331932067871e-01,1.713127791881561279e-01,1.922454535961151123e-01,2.205624878406524658e-01,2.916402220726013184e-01,3.415898680686950684e-01
3.557897806167602539e-01,2.536363005638122559e-01,2.169758677482604980e-01,1.914369761943817139e-01,1.698947548866271973e-01,1.649756729602813721e-01,1.661605238914489746e-01,1.664638221263885498e-01,1.667150259017944336e-01,1.666951179504394531e-01,1.666878759860992432e-01,1.666857898235321045e-01,1.666837632656097412e-01,1.666817367076873779e-01,1.666797101497650146e-01,1.666775047779083252e-01,1.666755974292755127e-01,1.666735410690307617e-01,1.666714549064636230e-01,1.666694581508636475e-01,1.666674017906188965e-01,1.666652560234069824e-01,1.666632890701293945e-01,1.666613221168518066e-01,1.666591465473175049e-01,1.666572391986846924e-01,1.666551530361175537e-01,1.666531562805175781e-01,1.666512489318847656e-01,1.666490435600280762e-01,1.666470766067504883e-01,1.666448414325714111e-01,1.666427552700042725e-01,1.666408181190490723e-01,1.666387915611267090e-01,1.666367053985595703e-01,1.666347682476043701e-01,1.666325330734252930e-01,1.666303873062133789e-01,1.666284501552581787e-01,1.666264533996582031e-01,1.666243672370910645e-01,1.666224002838134766e-01,1.666202843189239502e-01,1.666184067726135254e-01,1.666163504123687744e-01,1.666142642498016357e-01,1.666121482849121094e-01,1.666100919246673584e-01,1.666080355644226074e-01,1.666062772274017334e-01,1.666039824485778809e-01,1.666019260883331299e-01,1.666000187397003174e-01,1.665979623794555664e-01,1.665958762168884277e-01,1.665937602519989014e-01,1.665919125080108643e-01,1.665898263454437256e-01,1.665877699851989746e-01,1.665855944156646729e-01,1.665835976600646973e-01,1.665816903114318848e-01,1.665796637535095215e-01,1.665777266025543213e-01,1.665754616260528564e-01,1.665734350681304932e-01,1.665715277194976807e-01,1.665694415569305420e-01,1.665673553943634033e-01,1.665669977664947510e-01,1.665430665016174316e-01,1.666106581687927246e-01,1.667928099632263184e-01,1.623809933662414551e-01,1.654348671436309814e-01,1.886166036128997803e-01,2.108097076416015625e-01,2.860369384288787842e-01,3.337818980216979980e-01
3.380685448646545410e-01,2.402381002902984619e-01,2.027125954627990723e-01,1.804867386817932129e-01,1.658504307270050049e-01,1.592121124267578125e-01,1.592745482921600342e-01,1.594828367233276367e-01,1.597138941287994385e-01,1.596969068050384521e-01,1.596916615962982178e-01,1.596900820732116699e-01,1.596883833408355713e-01,1.596868634223937988e-01,1.596850752830505371e-01,1.596834063529968262e-01,1.596817970275878906e-01,1.596801578998565674e-01,1.596784889698028564e-01,1.596767902374267578e-01,1.596751511096954346e-01,1.596735119819641113e-01,1.596718728542327881e-01,1.596703231334686279e-01,1.596685945987701416e-01,1.596670448780059814e-01,1.596651971340179443e-01,1.596637070178985596e-01,1.596620976924896240e-01,1.596605181694030762e-01,1.596588194370269775e-01,1.596571207046508789e-01,1.596553623676300049e-01,1.596537530422210693e-01,1.596521139144897461e-01,1.596503853797912598e-01,1.596487462520599365e-01,1.596470177173614502e-01,1.596454977989196777e-01,1.596437394618988037e-01,1.596422195434570312e-01,1.596404314041137695e-01,1.596389710903167725e-01,1.596373021602630615e-01,1.596356034278869629e-01,1.596338152885437012e-01,1.596322357654571533e-01,1.596307456493377686e-01,1.596288979053497314e-01,1.596273481845855713e-01,1.596257090568542480e-01,1.596240103244781494e-01,1.596224904060363770e-01,1.596208214759826660e-01,1.596191823482513428e-01,1.596174538135528564e-01,1.596159636974334717e-01,1.596142053604125977e-01,1.596125662326812744e-01,1.596110165119171143e-01,1.596091985702514648e-01,1.596077978610992432e-01,1.596060097217559814e-01,1.596042811870574951e-01,1.596025824546813965e-01,1.596011817455291748e-01,1.595993638038635254e-01,1.595978438854217529e-01,1.595962941646575928e-01,1.595945060253143311e-01,1.595928668975830078e-01,1.595648527145385742e-01,1.596041619777679443e-01,1.598357558250427246e-01,1.557653248310089111e-01,1.533354222774505615e-01,1.688703596591949463e-01,2.049824595451354980e-01,2.839690446853637695e-01,3.553455471992492676e-01
3.297489285469055176e-01,2.279990613460540771e-01,1.979698538780212402e-01,1.790181994438171387e-01,1.636391878128051758e-01,1.572909653186798096e-01,1.598439514636993408e-01,1.601184904575347900e-01,1.602990031242370605e-01,1.602831482887268066e-01,1.602791547775268555e-01,1.602778136730194092e-01,1.602765619754791260e-01,1.602750718593597412e-01,1.602736711502075195e-01,1.602721810340881348e-01,1.602708101272583008e-01,1.602693796157836914e-01,1.602679491043090820e-01,1.602664589881896973e-01,1.602649390697479248e-01,1.602636873722076416e-01,1.602621972560882568e-01,1.602607071399688721e-01,1.602591872215270996e-01,1.602578163146972656e-01,1.602563560009002686e-01,1.602548062801361084e-01,1.602536141872406006e-01,1.602522134780883789e-01,1.602506041526794434e-01,1.602490246295928955e-01,1.602478623390197754e-01,1.602464318275451660e-01,1.602448225021362305e-01,1.602434515953063965e-01,1.602419614791870117e-01,1.602407395839691162e-01,1.602391302585601807e-01,1.602379977703094482e-01,1.602364480495452881e-01,1.602349579334259033e-01,1.602335870265960693e-01,1.602322459220886230e-01,1.602307856082916260e-01,1.602292656898498535e-01,1.602278351783752441e-01,1.602263748645782471e-01,1.602250337600708008e-01,1.602233946323394775e-01,1.602221727371215820e-01,1.602204740047454834e-01,1.602192223072052002e-01,1.602177619934082031e-01,1.602161228656768799e-01,1.602148711681365967e-01,1.602134108543395996e-01,1.602120697498321533e-01,1.602105796337127686e-01,1.602092087268829346e-01,1.602077484130859375e-01,1.602064073085784912e-01,1.602047979831695557e-01,1.602033078670501709e-01,1.602020561695098877e-01,1.602006852626800537e-01,1.601991355419158936e-01,1.601976752281188965e-01,1.601963937282562256e-01,1.601947844028472900e-01,1.601960361003875732e-01,1.601743698120117188e-01,1.602483689785003662e-01,1.604149639606475830e-01,1.554421484470367432e-01,1.561041772365570068e-01,1.747395098209381104e-01,1.962417364120483398e-01,3.100825548171997070e-01,3.704557120800018311e-01
