5.834181308746337891e-01,5.977102518081665039e-01,6.267957687377929688e-01,6.188291311264038086e-01,6.430767774581909180e-01,6.537659764289855957e-01,6.840217113494873047e-01,7.024553418159484863e-01,7.179751396179199219e-01,7.333667278289794922e-01,7.466895580291748047e-01,7.608376741409301758e-01,7.761750817298889160e-01,7.861709594726562500e-01,7.878886461257934570e-01,7.781884670257568359e-01,7.683116793632507324e-01,7.407355904579162598e-01,7.121573686599731445e-01,6.615419387817382812e-01,5.796158909797668457e-01,5.255686640739440918e-01,5.039840936660766602e-01,4.810336232185363770e-01,4.410655796527862549e-01,4.191735982894897461e-01,4.132077097892761230e-01,4.186724722385406494e-01,4.325116276741027832e-01,4.549085795879364014e-01,4.887561798095703125e-01,5.054290890693664551e-01,5.551502108573913574e-01,6.168674826622009277e-01,6.663222908973693848e-01,7.111414670944213867e-01,7.601037025451660156e-01,7.857164740562438965e-01,7.972954511642456055e-01,8.140932917594909668e-01,8.236647844314575195e-01,8.290882110595703125e-01,8.295404911041259766e-01,8.297349214553833008e-01,8.297177553176879883e-01,8.297177553176879883e-01,8.297177553176879883e-01,8.297177553176879883e-01,8.297177553176879883e-01,8.297177553176879883e-01,8.297177553176879883e-01,8.297177553176879883e-01,8.297177553176879883e-01,8.297177553176879883e-01,8.297177553176879883e-01,8.297177553176879883e-01,8.297177553176879883e-01,8.297177553176879883e-01,8.297177553176879883e-01,8.297177553176879883e-01,8.297183513641357422e-01,8.297199010848999023e-01,8.297309875488281250e-01,8.296777009963989258e-01,8.294304609298706055e-01,8.290033340454101562e-01,8.281319141387939453e-01,8.263173103332519531e-01,8.234796524047851562e-01,8.194963932037353516e-01,8.142957687377929688e-01,8.066042065620422363e-01,7.968277335166931152e-01,7.858005762100219727e-01,7.639677524566650391e-01,7.405081987380981445e-01,7.343804240226745605e-01,7.291399240493774414e-01,6.448091268539428711e-01,5.760591626167297363e-01
5.795694589614868164e-01,5.982274413108825684e-01,6.480342149734497070e-01,6.185624003410339355e-01,6.515614986419677734e-01,6.743701100349426270e-01,7.075744867324829102e-01,7.301644086837768555e-01,7.501351833343505859e-01,7.685487866401672363e-01,7.867723703384399414e-01,8.030921816825866699e-01,8.193313479423522949e-01,8.301239013671875000e-01,8.311154246330261230e-01,8.242507576942443848e-01,8.108984231948852539e-01,7.770978212356567383e-01,7.414618134498596191e-01,6.713187694549560547e-01,5.779215693473815918e-01,5.084124207496643066e-01,4.617608785629272461e-01,4.149931967258453369e-01,3.805031478404998779e-01,3.586671948432922363e-01,3.518065810203552246e-01,3.547937870025634766e-01,3.713046312332153320e-01,4.068524837493896484e-01,4.371565282344818115e-01,4.693045020103454590e-01,5.377212166786193848e-01,6.180814504623413086e-01,6.968920230865478516e-01,7.554851770401000977e-01,8.015205264091491699e-01,8.299509286880493164e-01,8.498371839523315430e-01,8.628245592117309570e-01,8.703458309173583984e-01,8.729728460311889648e-01,8.735015392303466797e-01,8.736083507537841797e-01,8.736065626144409180e-01,8.736065626144409180e-01,8.736065626144409180e-01,8.736065626144409180e-01,8.736065626144409180e-01,8.736065626144409180e-01,8.736065626144409180e-01,8.736065626144409180e-01,8.736065626144409180e-01,8.736065626144409180e-01,8.736065626144409180e-01,8.736065626144409180e-01,8.736065626144409180e-01,8.736065626144409180e-01,8.736065626144409180e-01,8.736065626144409180e-01,8.736073970794677734e-01,8.736078739166259766e-01,8.735969066619873047e-01,8.734918832778930664e-01,8.732705116271972656e-01,8.728840351104736328e-01,8.715966939926147461e-01,8.696140050888061523e-01,8.668368458747863770e-01,8.627976179122924805e-01,8.571885824203491211e-01,8.482737541198730469e-01,8.390409946441650391e-01,8.248978257179260254e-01,7.998245954513549805e-01,7.775604724884033203e-01,7.645373344421386719e-01,7.502847909927368164e-01,6.782302856445312500e-01,5.986379981040954590e-01
5.916144847869873047e-01,6.112015247344970703e-01,6.348618268966674805e-01,6.225428581237792969e-01,6.499781608581542969e-01,6.736596226692199707e-01,7.128687500953674316e-01,7.344667315483093262e-01,7.552251219749450684e-01,7.754497528076171875e-01,7.933269739151000977e-01,8.111848235130310059e-01,8.261994719505310059e-01,8.359353542327880859e-01,8.401402235031127930e-01,8.362553119659423828e-01,8.207218647003173828e-01,7.991143465042114258e-01,7.486845254898071289e-01,6.781012415885925293e-01,5.721589326858520508e-01,4.974223077297210693e-01,4.367226958274841309e-01,3.894828557968139648e-01,3.563707172870635986e-01,3.314601480960845947e-01,3.206560611724853516e-01,3.232992887496948242e-01,3.471221327781677246e-01,3.850015699863433838e-01,4.082805514335632324e-01,4.620514810085296631e-01,5.288857221603393555e-01,6.251779198646545410e-01,7.085026502609252930e-01,7.701222300529479980e-01,8.093437552452087402e-01,8.415490388870239258e-01,8.595764040946960449e-01,8.736331462860107422e-01,8.788983821868896484e-01,8.811789751052856445e-01,8.816290497779846191e-01,8.817534446716308594e-01,8.817465305328369141e-01,8.817465305328369141e-01,8.817465305328369141e-01,8.817465305328369141e-01,8.817465305328369141e-01,8.817465305328369141e-01,8.817465305328369141e-01,8.817465305328369141e-01,8.817465305328369141e-01,8.817465305328369141e-01,8.817465305328369141e-01,8.817465305328369141e-01,8.817465305328369141e-01,8.817465305328369141e-01,8.817465305328369141e-01,8.817465305328369141e-01,8.817470073699951172e-01,8.817480206489562988e-01,8.817404508590698242e-01,8.816744089126586914e-01,8.815388679504394531e-01,8.809620141983032227e-01,8.796998262405395508e-01,8.776178359985351562e-01,8.748981952667236328e-01,8.710981011390686035e-01,8.653819561004638672e-01,8.571844100952148438e-01,8.473747968673706055e-01,8.313039541244506836e-01,8.018580675125122070e-01,7.748315334320068359e-01,7.663228511810302734e-01,7.447317838668823242e-01,6.771140098571777344e-01,5.832110047340393066e-01
5.760099291801452637e-01,5.908886790275573730e-01,6.343240737915039062e-01,6.279843449592590332e-01,6.464048624038696289e-01,6.690361499786376953e-01,7.076345682144165039e-01,7.304190993309020996e-01,7.530186176300048828e-01,7.734168767929077148e-01,7.938296794891357422e-01,8.128182291984558105e-01,8.299533724784851074e-01,8.394830822944641113e-01,8.444787263870239258e-01,8.441848754882812500e-01,8.253079652786254883e-01,8.051083683967590332e-01,7.647525072097778320e-01,6.763341426849365234e-01,5.477612018585205078e-01,4.646008610725402832e-01,4.030116498470306396e-01,3.607333898544311523e-01,3.344433307647705078e-01,3.063382208347320557e-01,2.932829260826110840e-01,2.971714735031127930e-01,3.179699778556823730e-01,3.505797982215881348e-01,3.738031983375549316e-01,4.544661343097686768e-01,5.343438982963562012e-01,6.179889440536499023e-01,7.184935212135314941e-01,7.857202887535095215e-01,8.232238888740539551e-01,8.483053445816040039e-01,8.684103488922119141e-01,8.792505264282226562e-01,8.824963569641113281e-01,8.846817016601562500e-01,8.853008747100830078e-01,8.854179382324218750e-01,8.854033946990966797e-01,8.854033946990966797e-01,8.854033946990966797e-01,8.854033946990966797e-01,8.854033946990966797e-01,8.854033946990966797e-01,8.854033946990966797e-01,8.854033946990966797e-01,8.854033946990966797e-01,8.854033946990966797e-01,8.854033946990966797e-01,8.854033946990966797e-01,8.854033946990966797e-01,8.854033946990966797e-01,8.854033946990966797e-01,8.854033946990966797e-01,8.854037523269653320e-01,8.854061365127563477e-01,8.854007720947265625e-01,8.853733539581298828e-01,8.852573633193969727e-01,8.845686316490173340e-01,8.830137252807617188e-01,8.810085058212280273e-01,8.780159950256347656e-01,8.743042945861816406e-01,8.680227994918823242e-01,8.589202761650085449e-01,8.470520973205566406e-01,8.327413797378540039e-01,7.983230352401733398e-01,7.725981473922729492e-01,7.662476301193237305e-01,7.430698275566101074e-01,6.942275762557983398e-01,5.934386849403381348e-01
5.856283307075500488e-01,6.095333695411682129e-01,6.510700583457946777e-01,6.518852114677429199e-01,6.743676066398620605e-01,6.974369883537292480e-01,7.324469089508056641e-01,7.537937164306640625e-01,7.752472162246704102e-01,7.939968109130859375e-01,8.124909400939941406e-01,8.303222656250000000e-01,8.444195985794067383e-01,8.565853834152221680e-01,8.621046543121337891e-01,8.606140017509460449e-01,8.460064530372619629e-01,8.262252807617187500e-01,7.866727113723754883e-01,7.165187597274780273e-01,5.915975570678710938e-01,5.057045817375183105e-01,4.424513876438140869e-01,3.881521821022033691e-01,3.614920973777770996e-01,3.279866874217987061e-01,3.140367865562438965e-01,3.193660974502563477e-01,3.419985771179199219e-01,3.737913966178894043e-01,4.096884727478027344e-01,4.823488593101501465e-01,5.651457309722900391e-01,6.579040288925170898e-01,7.473568916320800781e-01,8.047630786895751953e-01,8.419942855834960938e-01,8.673794269561767578e-01,8.833184242248535156e-01,8.919204473495483398e-01,8.953151702880859375e-01,8.967905044555664062e-01,8.973606228828430176e-01,8.974741697311401367e-01,8.974796533584594727e-01,8.974796533584594727e-01,8.974796533584594727e-01,8.974796533584594727e-01,8.974796533584594727e-01,8.974796533584594727e-01,8.974796533584594727e-01,8.974796533584594727e-01,8.974796533584594727e-01,8.974796533584594727e-01,8.974796533584594727e-01,8.974796533584594727e-01,8.974796533584594727e-01,8.974796533584594727e-01,8.974796533584594727e-01,8.974796533584594727e-01,8.974802494049072266e-01,8.974832296371459961e-01,8.974843025207519531e-01,8.975172042846679688e-01,8.973149061203002930e-01,8.965862989425659180e-01,8.951684236526489258e-01,8.932806253433227539e-01,8.911216259002685547e-01,8.871866464614868164e-01,8.810497522354125977e-01,8.720312118530273438e-01,8.623293638229370117e-01,8.480494022369384766e-01,8.182774782180786133e-01,7.959858179092407227e-01,7.858512401580810547e-01,7.581068277359008789e-01,7.064214944839477539e-01,6.076664328575134277e-01
5.862378478050231934e-01,6.089707612991333008e-01,6.536785364151000977e-01,6.547639369964599609e-01,6.780820488929748535e-01,7.019318938255310059e-01,7.384423017501831055e-01,7.597739696502685547e-01,7.806813120841979980e-01,7.996084690093994141e-01,8.179315328598022461e-01,8.354265689849853516e-01,8.508293628692626953e-01,8.635112047195434570e-01,8.708907365798950195e-01,8.714855909347534180e-01,8.571550846099853516e-01,8.404527902603149414e-01,7.977317571640014648e-01,7.447566986083984375e-01,6.250700950622558594e-01,5.108021497726440430e-01,4.481947124004364014e-01,3.956744670867919922e-01,3.628365397453308105e-01,3.273992240428924561e-01,3.138496875762939453e-01,3.204865455627441406e-01,3.420124650001525879e-01,3.714898824691772461e-01,4.152628779411315918e-01,4.850383102893829346e-01,5.648583173751831055e-01,6.776727437973022461e-01,7.514501810073852539e-01,8.093385696411132812e-01,8.509926795959472656e-01,8.733512163162231445e-01,8.896820545196533203e-01,8.980023860931396484e-01,9.014989137649536133e-01,9.026708006858825684e-01,9.031010866165161133e-01,9.031535387039184570e-01,9.031499028205871582e-01,9.031499028205871582e-01,9.031499028205871582e-01,9.031499028205871582e-01,9.031499028205871582e-01,9.031499028205871582e-01,9.031499028205871582e-01,9.031499028205871582e-01,9.031499028205871582e-01,9.031499028205871582e-01,9.031499028205871582e-01,9.031499028205871582e-01,9.031499028205871582e-01,9.031499028205871582e-01,9.031499028205871582e-01,9.031499028205871582e-01,9.031504988670349121e-01,9.031525850296020508e-01,9.031727313995361328e-01,9.031926393508911133e-01,9.029688239097595215e-01,9.022175073623657227e-01,9.009394645690917969e-01,8.995095491409301758e-01,8.970087766647338867e-01,8.931937217712402344e-01,8.870418071746826172e-01,8.788648843765258789e-01,8.685718178749084473e-01,8.554656505584716797e-01,8.276736736297607422e-01,8.058680891990661621e-01,7.978022098541259766e-01,7.732263207435607910e-01,7.197756171226501465e-01,6.134905219078063965e-01
5.892081856727600098e-01,6.141204237937927246e-01,6.574152112007141113e-01,6.579445004463195801e-01,6.818127632141113281e-01,7.059240937232971191e-01,7.424381971359252930e-01,7.638132572174072266e-01,7.844139337539672852e-01,8.029676675796508789e-01,8.210010528564453125e-01,8.376533985137939453e-01,8.539382815361022949e-01,8.674626350402832031e-01,8.749551177024841309e-01,8.740709424018859863e-01,8.674063682556152344e-01,8.472331762313842773e-01,8.102288842201232910e-01,7.525857686996459961e-01,6.472173333168029785e-01,5.254356265068054199e-01,4.496574401855468750e-01,4.062027633190155029e-01,3.694727122783660889e-01,3.302021920680999756e-01,3.140370845794677734e-01,3.223149180412292480e-01,3.422409892082214355e-01,3.751055598258972168e-01,4.224312305450439453e-01,4.878583252429962158e-01,5.738220214843750000e-01,6.738108396530151367e-01,7.604998350143432617e-01,8.108193874359130859e-01,8.526448607444763184e-01,8.737058639526367188e-01,8.916643857955932617e-01,9.005954265594482422e-01,9.034878015518188477e-01,9.051932096481323242e-01,9.056409001350402832e-01,9.056029915809631348e-01,9.055932760238647461e-01,9.055932760238647461e-01,9.055932760238647461e-01,9.055932760238647461e-01,9.055932760238647461e-01,9.055932760238647461e-01,9.055932760238647461e-01,9.055932760238647461e-01,9.055932760238647461e-01,9.055932760238647461e-01,9.055932760238647461e-01,9.055932760238647461e-01,9.055932760238647461e-01,9.055932760238647461e-01,9.055932760238647461e-01,9.055932760238647461e-01,9.055936336517333984e-01,9.055963754653930664e-01,9.056217670440673828e-01,9.056230783462524414e-01,9.053975939750671387e-01,9.047108888626098633e-01,9.036212563514709473e-01,9.019794464111328125e-01,8.994618654251098633e-01,8.957190513610839844e-01,8.896174430847167969e-01,8.807697296142578125e-01,8.713616132736206055e-01,8.590610623359680176e-01,8.305628299713134766e-01,8.090399503707885742e-01,8.007913827896118164e-01,7.751325964927673340e-01,7.216400504112243652e-01,6.156528592109680176e-01
5.887271165847778320e-01,6.143654584884643555e-01,6.567995548248291016e-01,6.576642990112304688e-01,6.813156604766845703e-01,7.055878639221191406e-01,7.419058084487915039e-01,7.633254528045654297e-01,7.840590476989746094e-01,8.025863766670227051e-01,8.202517032623291016e-01,8.370167016983032227e-01,8.529216051101684570e-01,8.676366209983825684e-01,8.740816116333007812e-01,8.754791021347045898e-01,8.701833486557006836e-01,8.478868007659912109e-01,8.156099319458007812e-01,7.673959732055664062e-01,6.686300039291381836e-01,5.494718551635742188e-01,4.664465487003326416e-01,4.112593531608581543e-01,3.668047189712524414e-01,3.342344164848327637e-01,3.164897859096527100e-01,3.205243349075317383e-01,3.374117612838745117e-01,3.678686618804931641e-01,4.210644960403442383e-01,4.876597523689270020e-01,5.673088431358337402e-01,6.719643473625183105e-01,7.574790716171264648e-01,8.163024187088012695e-01,8.525456190109252930e-01,8.720221519470214844e-01,8.908219337463378906e-01,9.000165462493896484e-01,9.032941460609436035e-01,9.046854972839355469e-01,9.053139686584472656e-01,9.053022861480712891e-01,9.053094983100891113e-01,9.053092002868652344e-01,9.053092002868652344e-01,9.053092002868652344e-01,9.053092002868652344e-01,9.053092002868652344e-01,9.053092002868652344e-01,9.053092002868652344e-01,9.053092002868652344e-01,9.053092002868652344e-01,9.053092002868652344e-01,9.053092002868652344e-01,9.053092002868652344e-01,9.053092002868652344e-01,9.053092002868652344e-01,9.053092002868652344e-01,9.053095579147338867e-01,9.053115844726562500e-01,9.053359031677246094e-01,9.053480625152587891e-01,9.051196575164794922e-01,9.044816493988037109e-01,9.033946990966796875e-01,9.016045928001403809e-01,8.991289734840393066e-01,8.952393531799316406e-01,8.887597322463989258e-01,8.801454305648803711e-01,8.711622357368469238e-01,8.581223487854003906e-01,8.292394876480102539e-01,8.083747625350952148e-01,8.007947206497192383e-01,7.746152877807617188e-01,7.219855189323425293e-01,6.160558462142944336e-01
5.887527465820312500e-01,6.143547892570495605e-01,6.569737792015075684e-01,6.578202247619628906e-01,6.813700199127197266e-01,7.055974602699279785e-01,7.419735789299011230e-01,7.633640766143798828e-01,7.841233611106872559e-01,8.027318716049194336e-01,8.204286098480224609e-01,8.368958830833435059e-01,8.528431653976440430e-01,8.671933412551879883e-01,8.741044998168945312e-01,8.786373138427734375e-01,8.755204677581787109e-01,8.530779480934143066e-01,8.270787000656127930e-01,7.748237848281860352e-01,6.916179656982421875e-01,5.614528656005859375e-01,4.894760549068450928e-01,4.216766357421875000e-01,3.749026656150817871e-01,3.419784009456634521e-01,3.198055624961853027e-01,3.185564875602722168e-01,3.359790146350860596e-01,3.656049370765686035e-01,4.194680154323577881e-01,4.807254970073699951e-01,5.580810308456420898e-01,6.620489358901977539e-01,7.447283267974853516e-01,8.092342615127563477e-01,8.507443666458129883e-01,8.731652498245239258e-01,8.893233537673950195e-01,8.975802659988403320e-01,9.026269912719726562e-01,9.048056602478027344e-01,9.053103923797607422e-01,9.053037166595458984e-01,9.053335189819335938e-01,9.053338766098022461e-01,9.053338766098022461e-01,9.053338766098022461e-01,9.053338766098022461e-01,9.053338766098022461e-01,9.053338766098022461e-01,9.053338766098022461e-01,9.053338766098022461e-01,9.053338766098022461e-01,9.053338766098022461e-01,9.053338766098022461e-01,9.053338766098022461e-01,9.053338766098022461e-01,9.053338766098022461e-01,9.053338766098022461e-01,9.053341150283813477e-01,9.053355455398559570e-01,9.053572416305541992e-01,9.053782224655151367e-01,9.051495790481567383e-01,9.045430421829223633e-01,9.034050703048706055e-01,9.016185998916625977e-01,8.991125822067260742e-01,8.950922489166259766e-01,8.886239528656005859e-01,8.803085684776306152e-01,8.709105253219604492e-01,8.577832579612731934e-01,8.293086290359497070e-01,8.084068298339843750e-01,8.006677031517028809e-01,7.746282815933227539e-01,7.219782471656799316e-01,6.160815954208374023e-01
5.887321233749389648e-01,6.143184304237365723e-01,6.569487452507019043e-01,6.577817201614379883e-01,6.813411712646484375e-01,7.055702209472656250e-01,7.419325709342956543e-01,7.633370161056518555e-01,7.840991616249084473e-01,8.027120828628540039e-01,8.204562664031982422e-01,8.368476033210754395e-01,8.525831699371337891e-01,8.661323785781860352e-01,8.746469020843505859e-01,8.782563209533691406e-01,8.752262592315673828e-01,8.589327335357666016e-01,8.393290042877197266e-01,7.954783439636230469e-01,7.079658508300781250e-01,5.836246013641357422e-01,4.951308369636535645e-01,4.359568357467651367e-01,3.770663440227508545e-01,3.579752743244171143e-01,3.230163455009460449e-01,3.183872103691101074e-01,3.301041722297668457e-01,3.557650446891784668e-01,4.174053370952606201e-01,4.688555002212524414e-01,5.525456070899963379e-01,6.426550149917602539e-01,7.346019744873046875e-01,8.027319908142089844e-01,8.460662961006164551e-01,8.714048862457275391e-01,8.880815505981445312e-01,8.959057331085205078e-01,9.019353985786437988e-01,9.043547511100769043e-01,9.051591157913208008e-01,9.053050279617309570e-01,9.053304195404052734e-01,9.053283333778381348e-01,9.053283333778381348e-01,9.053283333778381348e-01,9.053283333778381348e-01,9.053283333778381348e-01,9.053283333778381348e-01,9.053283333778381348e-01,9.053283333778381348e-01,9.053283333778381348e-01,9.053283333778381348e-01,9.053283333778381348e-01,9.053283333778381348e-01,9.053283333778381348e-01,9.053283333778381348e-01,9.053283333778381348e-01,9.053285717964172363e-01,9.053298830986022949e-01,9.053539037704467773e-01,9.053707122802734375e-01,9.051684737205505371e-01,9.045516848564147949e-01,9.033973217010498047e-01,9.016228914260864258e-01,8.990780115127563477e-01,8.949619531631469727e-01,8.886686563491821289e-01,8.801966905593872070e-01,8.707531094551086426e-01,8.578679561614990234e-01,8.293209075927734375e-01,8.082339763641357422e-01,8.006225824356079102e-01,7.746300697326660156e-01,7.220154404640197754e-01,6.160349845886230469e-01
5.887252688407897949e-01,6.143074035644531250e-01,6.569362878799438477e-01,6.577673554420471191e-01,6.813250780105590820e-01,7.055521011352539062e-01,7.419184446334838867e-01,7.633162736892700195e-01,7.840805053710937500e-01,8.027044534683227539e-01,8.204460740089416504e-01,8.368723392486572266e-01,8.523594141006469727e-01,8.657107353210449219e-01,8.762038946151733398e-01,8.810220956802368164e-01,8.778772950172424316e-01,8.644256591796875000e-01,8.440005779266357422e-01,8.012173771858215332e-01,7.271361947059631348e-01,5.929309725761413574e-01,5.053963661193847656e-01,4.523114562034606934e-01,3.939817547798156738e-01,3.544190526008605957e-01,3.278245925903320312e-01,3.220801353454589844e-01,3.315767049789428711e-01,3.559406995773315430e-01,4.159084558486938477e-01,4.539796113967895508e-01,5.266196131706237793e-01,6.288857460021972656e-01,7.224669456481933594e-01,7.911614179611206055e-01,8.360955119132995605e-01,8.684774637222290039e-01,8.832848072052001953e-01,8.933900594711303711e-01,9.017027020454406738e-01,9.040616750717163086e-01,9.050025343894958496e-01,9.052450656890869141e-01,9.053199291229248047e-01,9.053283333778381348e-01,9.053283333778381348e-01,9.053283333778381348e-01,9.053283333778381348e-01,9.053283333778381348e-01,9.053283333778381348e-01,9.053283333778381348e-01,9.053283333778381348e-01,9.053283333778381348e-01,9.053283333778381348e-01,9.053283333778381348e-01,9.053283333778381348e-01,9.053283333778381348e-01,9.053283333778381348e-01,9.053283333778381348e-01,9.053285121917724609e-01,9.053297042846679688e-01,9.053523540496826172e-01,9.053743481636047363e-01,9.051628112792968750e-01,9.045405387878417969e-01,9.033980369567871094e-01,9.016391038894653320e-01,8.990620970726013184e-01,8.949755430221557617e-01,8.886579275131225586e-01,8.801594376564025879e-01,8.708228468894958496e-01,8.578857779502868652e-01,8.292558789253234863e-01,8.082423210144042969e-01,8.006480932235717773e-01,7.746535539627075195e-01,7.220216989517211914e-01,6.160445809364318848e-01
5.887184143066406250e-01,6.142963171005249023e-01,6.569235920906066895e-01,6.577526330947875977e-01,6.813089251518249512e-01,7.055354118347167969e-01,7.419012784957885742e-01,7.633016705513000488e-01,7.840636968612670898e-01,8.026860952377319336e-01,8.204317092895507812e-01,8.368563652038574219e-01,8.519246578216552734e-01,8.659055829048156738e-01,8.767167329788208008e-01,8.824490904808044434e-01,8.802930712699890137e-01,8.687294721603393555e-01,8.485293984413146973e-01,8.095321059226989746e-01,7.463185191154479980e-01,6.106147170066833496e-01,5.351890325546264648e-01,4.562741816043853760e-01,4.018952548503875732e-01,3.626777529716491699e-01,3.324435949325561523e-01,3.190630078315734863e-01,3.285307288169860840e-01,3.509855270385742188e-01,4.053193926811218262e-01,4.462091922760009766e-01,5.169194936752319336e-01,6.108456850051879883e-01,7.088100910186767578e-01,7.821770310401916504e-01,8.295776844024658203e-01,8.617250919342041016e-01,8.817499876022338867e-01,8.929767608642578125e-01,9.004517793655395508e-01,9.037009477615356445e-01,9.049181938171386719e-01,9.052816629409790039e-01,9.053385257720947266e-01,9.053283333778381348e-01,9.053283333778381348e-01,9.053283333778381348e-01,9.053283333778381348e-01,9.053283333778381348e-01,9.053283333778381348e-01,9.053283333778381348e-01,9.053283333778381348e-01,9.053283333778381348e-01,9.053283333778381348e-01,9.053283333778381348e-01,9.053283333778381348e-01,9.053283333778381348e-01,9.053283333778381348e-01,9.053283333778381348e-01,9.053285121917724609e-01,9.053297042846679688e-01,9.053524732589721680e-01,9.053734540939331055e-01,9.051614999771118164e-01,9.045417904853820801e-01,9.034024477005004883e-01,9.016455411911010742e-01,8.990693092346191406e-01,8.949662446975708008e-01,8.886600732803344727e-01,8.801903724670410156e-01,8.708325624465942383e-01,8.578774929046630859e-01,8.292726278305053711e-01,8.082606792449951172e-01,8.006606698036193848e-01,7.746653556823730469e-01,7.220329642295837402e-01,6.160532832145690918e-01
5.887115001678466797e-01,6.142852306365966797e-01,6.569107174873352051e-01,6.577378511428833008e-01,6.812929511070251465e-01,7.055191993713378906e-01,7.418847680091857910e-01,7.632850408554077148e-01,7.840484380722045898e-01,8.026703596115112305e-01,8.204288482666015625e-01,8.368324041366577148e-01,8.517316579818725586e-01,8.661581277847290039e-01,8.780791759490966797e-01,8.831813335418701172e-01,8.834980726242065430e-01,8.742520809173583984e-01,8.585243225097656250e-01,8.198270797729492188e-01,7.527809143066406250e-01,6.513977050781250000e-01,5.499683022499084473e-01,4.773294329643249512e-01,4.094944000244140625e-01,3.748547434806823730e-01,3.436459898948669434e-01,3.190990090370178223e-01,3.274056315422058105e-01,3.500998020172119141e-01,3.906338214874267578e-01,4.416998922824859619e-01,5.120828151702880859e-01,5.856748819351196289e-01,7.017002701759338379e-01,7.737413644790649414e-01,8.224010467529296875e-01,8.600664138793945312e-01,8.793420791625976562e-01,8.924291133880615234e-01,9.004204273223876953e-01,9.042145013809204102e-01,9.049619436264038086e-01,9.053781628608703613e-01,9.053305387496948242e-01,9.053283333778381348e-01,9.053283333778381348e-01,9.053283333778381348e-01,9.053283333778381348e-01,9.053283333778381348e-01,9.053283333778381348e-01,9.053283333778381348e-01,9.053283333778381348e-01,9.053283333778381348e-01,9.053283333778381348e-01,9.053283333778381348e-01,9.053283333778381348e-01,9.053283333778381348e-01,9.053283333778381348e-01,9.053283333778381348e-01,9.053285121917724609e-01,9.053297042846679688e-01,9.053521156311035156e-01,9.053735136985778809e-01,9.051614403724670410e-01,9.045423269271850586e-01,9.034036993980407715e-01,9.016472101211547852e-01,8.990719318389892578e-01,8.949686288833618164e-01,8.886650800704956055e-01,8.801970481872558594e-01,8.708392977714538574e-01,8.578854203224182129e-01,8.292863368988037109e-01,8.082752227783203125e-01,8.006731867790222168e-01,7.746780514717102051e-01,7.220437526702880859e-01,6.160597205162048340e-01
5.887046456336975098e-01,6.142739057540893555e-01,6.568977832794189453e-01,6.577229499816894531e-01,6.812765598297119141e-01,7.055026292800903320e-01,7.418681979179382324e-01,7.632690072059631348e-01,7.840327024459838867e-01,8.026549816131591797e-01,8.204132318496704102e-01,8.368297815322875977e-01,8.517192006111145020e-01,8.656743764877319336e-01,8.783150911331176758e-01,8.845440149307250977e-01,8.839855194091796875e-01,8.810018897056579590e-01,8.630291223526000977e-01,8.256370425224304199e-01,7.773151397705078125e-01,6.782968044281005859e-01,5.961853265762329102e-01,5.072746872901916504e-01,4.471832215785980225e-01,3.882902860641479492e-01,3.420780897140502930e-01,3.253366649150848389e-01,3.335180878639221191e-01,3.552915453910827637e-01,3.810539245605468750e-01,4.274431169033050537e-01,5.055772066116333008e-01,5.844086408615112305e-01,6.859556436538696289e-01,7.691700458526611328e-01,8.176441788673400879e-01,8.601855039596557617e-01,8.759887218475341797e-01,8.914304971694946289e-01,9.002790451049804688e-01,9.035326242446899414e-01,9.047954082489013672e-01,9.052406549453735352e-01,9.053202867507934570e-01,9.053283333778381348e-01,9.053283333778381348e-01,9.053283333778381348e-01,9.053283333778381348e-01,9.053283333778381348e-01,9.053283333778381348e-01,9.053283333778381348e-01,9.053283333778381348e-01,9.053283333778381348e-01,9.053283333778381348e-01,9.053283333778381348e-01,9.053283333778381348e-01,9.053283333778381348e-01,9.053283333778381348e-01,9.053283333778381348e-01,9.053285121917724609e-01,9.053297042846679688e-01,9.053521156311035156e-01,9.053734540939331055e-01,9.051617383956909180e-01,9.045428037643432617e-01,9.034044742584228516e-01,9.016485810279846191e-01,8.990737795829772949e-01,8.949720859527587891e-01,8.886704444885253906e-01,8.802038431167602539e-01,8.708466291427612305e-01,8.578955531120300293e-01,8.292983770370483398e-01,8.082879781723022461e-01,8.006861209869384766e-01,7.746904492378234863e-01,7.220536470413208008e-01,6.160668730735778809e-01
5.886976122856140137e-01,6.142624020576477051e-01,6.568845510482788086e-01,6.577078700065612793e-01,6.812602281570434570e-01,7.054859399795532227e-01,7.418518066406250000e-01,7.632524967193603516e-01,7.840167284011840820e-01,8.026395440101623535e-01,8.204064965248107910e-01,8.368397951126098633e-01,8.517996668815612793e-01,8.658306598663330078e-01,8.788954019546508789e-01,8.850125074386596680e-01,8.867943286895751953e-01,8.860833644866943359e-01,8.723738193511962891e-01,8.385879993438720703e-01,7.984111309051513672e-01,7.124782800674438477e-01,6.492483615875244141e-01,5.511760711669921875e-01,4.747022986412048340e-01,4.044046401977539062e-01,3.579447269439697266e-01,3.412731289863586426e-01,3.549355864524841309e-01,3.554123640060424805e-01,3.764475286006927490e-01,4.266679286956787109e-01,5.016975402832031250e-01,5.671870708465576172e-01,6.767578125000000000e-01,7.639983892440795898e-01,8.219226598739624023e-01,8.539357185363769531e-01,8.762126564979553223e-01,8.930547237396240234e-01,9.000099897384643555e-01,9.030081033706665039e-01,9.048879742622375488e-01,9.051927924156188965e-01,9.052959680557250977e-01,9.053283333778381348e-01,9.053283333778381348e-01,9.053283333778381348e-01,9.053283333778381348e-01,9.053283333778381348e-01,9.053283333778381348e-01,9.053283333778381348e-01,9.053283333778381348e-01,9.053283333778381348e-01,9.053283333778381348e-01,9.053283333778381348e-01,9.053283333778381348e-01,9.053283333778381348e-01,9.053283333778381348e-01,9.053283333778381348e-01,9.053285121917724609e-01,9.053297042846679688e-01,9.053520560264587402e-01,9.053735136985778809e-01,9.051617383956909180e-01,9.045432209968566895e-01,9.034054279327392578e-01,9.016499519348144531e-01,8.990758657455444336e-01,8.949751853942871094e-01,8.886756300926208496e-01,8.802107572555541992e-01,8.708545565605163574e-01,8.579049706459045410e-01,8.293100595474243164e-01,8.083008527755737305e-01,8.006988167762756348e-01,7.747029066085815430e-01,7.220638394355773926e-01,6.160738468170166016e-01
5.886902213096618652e-01,6.142507195472717285e-01,6.568710207939147949e-01,6.576926708221435547e-01,6.812434196472167969e-01,7.054691314697265625e-01,7.418347597122192383e-01,7.632361650466918945e-01,7.840005159378051758e-01,8.026239871978759766e-01,8.203908205032348633e-01,8.368368148803710938e-01,8.517081737518310547e-01,8.657790422439575195e-01,8.781493902206420898e-01,8.834612369537353516e-01,8.896006345748901367e-01,8.900855779647827148e-01,8.786302208900451660e-01,8.528928756713867188e-01,8.161284923553466797e-01,7.594133615493774414e-01,6.796711683273315430e-01,5.799591541290283203e-01,5.022098422050476074e-01,4.280527234077453613e-01,3.679928779602050781e-01,3.654653429985046387e-01,3.669223785400390625e-01,3.625656068325042725e-01,3.722855448722839355e-01,4.347073733806610107e-01,4.993788897991180420e-01,5.671947598457336426e-01,6.799948215484619141e-01,7.478218078613281250e-01,8.179771900177001953e-01,8.523465394973754883e-01,8.753318190574645996e-01,8.911133408546447754e-01,8.998622894287109375e-01,9.019771814346313477e-01,9.047661423683166504e-01,9.050827026367187500e-01,9.053211212158203125e-01,9.053283333778381348e-01,9.053283333778381348e-01,9.053283333778381348e-01,9.053283333778381348e-01,9.053283333778381348e-01,9.053283333778381348e-01,9.053283333778381348e-01,9.053283333778381348e-01,9.053283333778381348e-01,9.053283333778381348e-01,9.053283333778381348e-01,9.053283333778381348e-01,9.053283333778381348e-01,9.053283333778381348e-01,9.053283333778381348e-01,9.053285121917724609e-01,9.053297042846679688e-01,9.053521156311035156e-01,9.053734540939331055e-01,9.051619768142700195e-01,9.045436978340148926e-01,9.034062027931213379e-01,9.016515016555786133e-01,8.990778923034667969e-01,8.949784040451049805e-01,8.886805772781372070e-01,8.802173137664794922e-01,8.708624243736267090e-01,8.579145669937133789e-01,8.293213844299316406e-01,8.083134293556213379e-01,8.007113933563232422e-01,7.747150659561157227e-01,7.220738530158996582e-01,6.160809397697448730e-01
5.886822342872619629e-01,6.142382025718688965e-01,6.568571329116821289e-01,6.576767563819885254e-01,6.812261939048767090e-01,7.054516077041625977e-01,7.418178319931030273e-01,7.632193565368652344e-01,7.839841246604919434e-01,8.026082515716552734e-01,8.203774094581604004e-01,8.368365764617919922e-01,8.517194390296936035e-01,8.655838966369628906e-01,8.774198889732360840e-01,8.843864202499389648e-01,8.912175893783569336e-01,8.936393857002258301e-01,8.824284076690673828e-01,8.639573454856872559e-01,8.409421443939208984e-01,7.763273715972900391e-01,7.136924266815185547e-01,6.142986416816711426e-01,5.286786556243896484e-01,4.496028721332550049e-01,4.024403691291809082e-01,3.866143822669982910e-01,3.923984766006469727e-01,3.748466372489929199e-01,3.861066997051239014e-01,4.417355954647064209e-01,4.842623472213745117e-01,5.747690200805664062e-01,6.744443178176879883e-01,7.518621683120727539e-01,8.061355352401733398e-01,8.504907488822937012e-01,8.762390613555908203e-01,8.901798725128173828e-01,8.981730937957763672e-01,9.030370712280273438e-01,9.049133062362670898e-01,9.052501320838928223e-01,9.052941799163818359e-01,9.053283333778381348e-01,9.053283333778381348e-01,9.053283333778381348e-01,9.053283333778381348e-01,9.053283333778381348e-01,9.053283333778381348e-01,9.053283333778381348e-01,9.053283333778381348e-01,9.053283333778381348e-01,9.053283333778381348e-01,9.053283333778381348e-01,9.053283333778381348e-01,9.053283333778381348e-01,9.053283333778381348e-01,9.053283333778381348e-01,9.053285121917724609e-01,9.053297042846679688e-01,9.053519964218139648e-01,9.053732752799987793e-01,9.051622152328491211e-01,9.045441150665283203e-01,9.034070968627929688e-01,9.016528129577636719e-01,8.990797996520996094e-01,8.949816226959228516e-01,8.886854648590087891e-01,8.802241683006286621e-01,8.708705902099609375e-01,8.579238653182983398e-01,8.293328285217285156e-01,8.083261251449584961e-01,8.007240295410156250e-01,7.747273445129394531e-01,7.220842242240905762e-01,6.160879731178283691e-01
5.886738300323486328e-01,6.142250299453735352e-01,6.568419933319091797e-01,6.576596498489379883e-01,6.812083125114440918e-01,7.054336667060852051e-01,7.418000102043151855e-01,7.632021307945251465e-01,7.839674949645996094e-01,8.025920391082763672e-01,8.203610777854919434e-01,8.368146419525146484e-01,8.516925573348999023e-01,8.654586672782897949e-01,8.768099546432495117e-01,8.855737447738647461e-01,8.937075138092041016e-01,8.950616121292114258e-01,8.835266232490539551e-01,8.689207434654235840e-01,8.454978466033935547e-01,7.936722040176391602e-01,7.523243427276611328e-01,6.562348604202270508e-01,5.530069470405578613e-01,4.580800831317901611e-01,4.392791986465454102e-01,4.096338152885437012e-01,4.101091027259826660e-01,3.892575502395629883e-01,4.103717505931854248e-01,4.488810002803802490e-01,4.871332645416259766e-01,5.737230777740478516e-01,6.834346055984497070e-01,7.550624012947082520e-01,8.073687553405761719e-01,8.488796949386596680e-01,8.763173818588256836e-01,8.882224559783935547e-01,8.977680206298828125e-01,9.032023549079895020e-01,9.047244787216186523e-01,9.052964448928833008e-01,9.053335189819335938e-01,9.053283333778381348e-01,9.053283333778381348e-01,9.053283333778381348e-01,9.053283333778381348e-01,9.053283333778381348e-01,9.053283333778381348e-01,9.053283333778381348e-01,9.053283333778381348e-01,9.053283333778381348e-01,9.053283333778381348e-01,9.053283333778381348e-01,9.053283333778381348e-01,9.053283333778381348e-01,9.053283333778381348e-01,9.053283333778381348e-01,9.053285121917724609e-01,9.053297042846679688e-01,9.053520560264587402e-01,9.053734540939331055e-01,9.051623344421386719e-01,9.045445919036865234e-01,9.034079909324645996e-01,9.016541242599487305e-01,8.990818262100219727e-01,8.949849605560302734e-01,8.886904716491699219e-01,8.802308440208435059e-01,8.708783388137817383e-01,8.579335212707519531e-01,8.293443918228149414e-01,8.083388805389404297e-01,8.007367849349975586e-01,7.747395634651184082e-01,7.220941781997680664e-01,6.160950064659118652e-01
5.886651873588562012e-01,6.142109632492065430e-01,6.568261981010437012e-01,6.576414108276367188e-01,6.811887025833129883e-01,7.054142951965332031e-01,7.417811155319213867e-01,7.631838917732238770e-01,7.839499711990356445e-01,8.025754690170288086e-01,8.203453421592712402e-01,8.367991447448730469e-01,8.516958951950073242e-01,8.650556802749633789e-01,8.769204020500183105e-01,8.863774538040161133e-01,8.952502012252807617e-01,8.950222730636596680e-01,8.835351467132568359e-01,8.760502338409423828e-01,8.448402285575866699e-01,8.187497258186340332e-01,7.641118168830871582e-01,6.742274761199951172e-01,5.719077587127685547e-01,4.866735637187957764e-01,4.660453200340270996e-01,4.285810589790344238e-01,4.258437156677246094e-01,4.072357118129730225e-01,4.318553209304809570e-01,4.505178332328796387e-01,4.997162818908691406e-01,5.971207618713378906e-01,6.898318529129028320e-01,7.660779953002929688e-01,8.114285469055175781e-01,8.505446910858154297e-01,8.754223585128784180e-01,8.895986080169677734e-01,8.999099731445312500e-01,9.038589000701904297e-01,9.053019285202026367e-01,9.052969813346862793e-01,9.053437709808349609e-01,9.053283333778381348e-01,9.053283333778381348e-01,9.053283333778381348e-01,9.053283333778381348e-01,9.053283333778381348e-01,9.053283333778381348e-01,9.053283333778381348e-01,9.053283333778381348e-01,9.053283333778381348e-01,9.053283333778381348e-01,9.053283333778381348e-01,9.053283333778381348e-01,9.053283333778381348e-01,9.053283333778381348e-01,9.053283333778381348e-01,9.053285121917724609e-01,9.053297042846679688e-01,9.053519964218139648e-01,9.053733348846435547e-01,9.051624536514282227e-01,9.045451879501342773e-01,9.034087657928466797e-01,9.016554355621337891e-01,8.990838527679443359e-01,8.949880599975585938e-01,8.886954784393310547e-01,8.802373409271240234e-01,8.708861470222473145e-01,8.579429388046264648e-01,8.293559551239013672e-01,8.083513379096984863e-01,8.007491827011108398e-01,7.747519016265869141e-01,7.221041917800903320e-01,6.161020994186401367e-01
5.886563062667846680e-01,6.141967177391052246e-01,6.568099856376647949e-01,6.576228141784667969e-01,6.811683773994445801e-01,7.053934335708618164e-01,7.417610883712768555e-01,7.631644010543823242e-01,7.839316129684448242e-01,8.025580644607543945e-01,8.203290700912475586e-01,8.367927074432373047e-01,8.516677021980285645e-01,8.649158477783203125e-01,8.770450353622436523e-01,8.868886828422546387e-01,8.948525190353393555e-01,8.908140659332275391e-01,8.877214193344116211e-01,8.765554428100585938e-01,8.490403890609741211e-01,8.232429027557373047e-01,7.790439128875732422e-01,6.982415914535522461e-01,5.888063907623291016e-01,5.124487280845642090e-01,4.726085066795349121e-01,4.355229437351226807e-01,4.472251534461975098e-01,4.379254281520843506e-01,4.299103021621704102e-01,4.521804153919219971e-01,5.337783694267272949e-01,6.319066286087036133e-01,6.898187398910522461e-01,7.714568972587585449e-01,8.220492601394653320e-01,8.572998046875000000e-01,8.783466219902038574e-01,8.917019963264465332e-01,9.026097655296325684e-01,9.044023752212524414e-01,9.050161838531494141e-01,9.053440093994140625e-01,9.052940607070922852e-01,9.053283333778381348e-01,9.053283333778381348e-01,9.053283333778381348e-01,9.053283333778381348e-01,9.053283333778381348e-01,9.053283333778381348e-01,9.053283333778381348e-01,9.053283333778381348e-01,9.053283333778381348e-01,9.053283333778381348e-01,9.053283333778381348e-01,9.053283333778381348e-01,9.053283333778381348e-01,9.053283333778381348e-01,9.053283333778381348e-01,9.053285121917724609e-01,9.053297042846679688e-01,9.053520560264587402e-01,9.053733348846435547e-01,9.051625728607177734e-01,9.045455455780029297e-01,9.034097194671630859e-01,9.016568660736083984e-01,8.990857601165771484e-01,8.949912786483764648e-01,8.887003660202026367e-01,8.802440166473388672e-01,8.708941340446472168e-01,8.579525351524353027e-01,8.293674588203430176e-01,8.083641529083251953e-01,8.007618188858032227e-01,7.747640609741210938e-01,7.221143841743469238e-01,6.161091923713684082e-01
5.886477828025817871e-01,6.141827106475830078e-01,6.567933559417724609e-01,6.576035618782043457e-01,6.811474561691284180e-01,7.053723335266113281e-01,7.417399287223815918e-01,7.631438970565795898e-01,7.839117050170898438e-01,8.025392293930053711e-01,8.203117847442626953e-01,8.367723226547241211e-01,8.516840338706970215e-01,8.649328947067260742e-01,8.767694234848022461e-01,8.867272138595581055e-01,8.914559483528137207e-01,8.904703855514526367e-01,8.847370147705078125e-01,8.732129335403442383e-01,8.523693084716796875e-01,8.373718261718750000e-01,7.848321795463562012e-01,6.960632801055908203e-01,5.959093570709228516e-01,5.116195082664489746e-01,4.773608446121215820e-01,4.636114239692687988e-01,4.933096766471862793e-01,4.434289038181304932e-01,4.412068128585815430e-01,4.629260003566741943e-01,5.517696142196655273e-01,6.438775062561035156e-01,7.125717401504516602e-01,7.901647090911865234e-01,8.336384296417236328e-01,8.630868196487426758e-01,8.858712911605834961e-01,8.967118263244628906e-01,9.029984474182128906e-01,9.054512977600097656e-01,9.048675894737243652e-01,9.054492712020874023e-01,9.053057432174682617e-01,9.053283333778381348e-01,9.053283333778381348e-01,9.053283333778381348e-01,9.053283333778381348e-01,9.053283333778381348e-01,9.053283333778381348e-01,9.053283333778381348e-01,9.053283333778381348e-01,9.053283333778381348e-01,9.053283333778381348e-01,9.053283333778381348e-01,9.053283333778381348e-01,9.053283333778381348e-01,9.053283333778381348e-01,9.053283333778381348e-01,9.053285121917724609e-01,9.053297042846679688e-01,9.053519964218139648e-01,9.053733348846435547e-01,9.051628112792968750e-01,9.045461416244506836e-01,9.034107327461242676e-01,9.016581773757934570e-01,8.990878462791442871e-01,8.949946165084838867e-01,8.887054324150085449e-01,8.802510499954223633e-01,8.709019422531127930e-01,8.579618334770202637e-01,8.293789625167846680e-01,8.083767294883728027e-01,8.007745742797851562e-01,7.747762799263000488e-01,7.221244573593139648e-01,6.161162853240966797e-01
5.886395573616027832e-01,6.141691207885742188e-01,6.567772030830383301e-01,6.575847268104553223e-01,6.811264157295227051e-01,7.053506374359130859e-01,7.417185306549072266e-01,7.631227970123291016e-01,7.838912010192871094e-01,8.025193214416503906e-01,8.202935457229614258e-01,8.367657661437988281e-01,8.516947031021118164e-01,8.650919198989868164e-01,8.762948513031005859e-01,8.857572674751281738e-01,8.897546529769897461e-01,8.892333507537841797e-01,8.831954598426818848e-01,8.708508014678955078e-01,8.528759479522705078e-01,8.319219350814819336e-01,7.750046253204345703e-01,6.895742416381835938e-01,5.938123464584350586e-01,5.177657008171081543e-01,5.116367340087890625e-01,4.849977493286132812e-01,5.111870765686035156e-01,4.647873640060424805e-01,4.549436569213867188e-01,4.952329099178314209e-01,5.716816186904907227e-01,6.663713455200195312e-01,7.404449582099914551e-01,8.014584183692932129e-01,8.385766148567199707e-01,8.695069551467895508e-01,8.870652914047241211e-01,8.991174697875976562e-01,9.033466577529907227e-01,9.052723646163940430e-01,9.052143096923828125e-01,9.052591323852539062e-01,9.053479433059692383e-01,9.053283333778381348e-01,9.053283333778381348e-01,9.053283333778381348e-01,9.053283333778381348e-01,9.053283333778381348e-01,9.053283333778381348e-01,9.053283333778381348e-01,9.053283333778381348e-01,9.053283333778381348e-01,9.053283333778381348e-01,9.053283333778381348e-01,9.053283333778381348e-01,9.053283333778381348e-01,9.053283333778381348e-01,9.053283333778381348e-01,9.053285121917724609e-01,9.053297042846679688e-01,9.053519368171691895e-01,9.053732752799987793e-01,9.051629900932312012e-01,9.045465588569641113e-01,9.034115076065063477e-01,9.016594886779785156e-01,8.990899324417114258e-01,8.949977755546569824e-01,8.887103199958801270e-01,8.802577257156372070e-01,8.709099888801574707e-01,8.579714298248291016e-01,8.293902873992919922e-01,8.083895444869995117e-01,8.007872104644775391e-01,7.747887372970581055e-01,7.221347689628601074e-01,6.161233782768249512e-01
5.886315107345581055e-01,6.141560673713684082e-01,6.567620038986206055e-01,6.575668454170227051e-01,6.811062097549438477e-01,7.053300142288208008e-01,7.416974306106567383e-01,7.631015777587890625e-01,7.838696241378784180e-01,8.024986982345581055e-01,8.202739357948303223e-01,8.367478847503662109e-01,8.516966104507446289e-01,8.650932312011718750e-01,8.762757182121276855e-01,8.847668170928955078e-01,8.896931409835815430e-01,8.865520358085632324e-01,8.797746896743774414e-01,8.703094124794006348e-01,8.530888557434082031e-01,8.236960172653198242e-01,7.540903091430664062e-01,6.888874173164367676e-01,5.832954645156860352e-01,5.420509576797485352e-01,5.102310776710510254e-01,5.127925872802734375e-01,5.150837302207946777e-01,5.022534132003784180e-01,4.707646369934082031e-01,5.299800634384155273e-01,6.119605898857116699e-01,6.819416284561157227e-01,7.647884488105773926e-01,8.157116174697875977e-01,8.486603498458862305e-01,8.733259439468383789e-01,8.904547691345214844e-01,9.016373753547668457e-01,9.045687317848205566e-01,9.047750234603881836e-01,9.053907394409179688e-01,9.053862690925598145e-01,9.053244590759277344e-01,9.053262472152709961e-01,9.053262472152709961e-01,9.053262472152709961e-01,9.053261280059814453e-01,9.053261280059814453e-01,9.053261280059814453e-01,9.053261280059814453e-01,9.053260684013366699e-01,9.053260684013366699e-01,9.053260684013366699e-01,9.053261280059814453e-01,9.053261280059814453e-01,9.053260684013366699e-01,9.053261280059814453e-01,9.053260684013366699e-01,9.053263664245605469e-01,9.053274393081665039e-01,9.053497314453125000e-01,9.053709506988525391e-01,9.051609039306640625e-01,9.045450091361999512e-01,9.034106731414794922e-01,9.016593098640441895e-01,8.990901708602905273e-01,8.949992656707763672e-01,8.887136578559875488e-01,8.802630901336669922e-01,8.709170818328857422e-01,8.579804301261901855e-01,8.294016122817993164e-01,8.084024190902709961e-01,8.008002042770385742e-01,7.748010754585266113e-01,7.221451997756958008e-01,6.161307096481323242e-01
5.886235833168029785e-01,6.141430139541625977e-01,6.567463874816894531e-01,6.575481891632080078e-01,6.810846924781799316e-01,7.053061127662658691e-01,7.416723966598510742e-01,7.630759477615356445e-01,7.838438153266906738e-01,8.024718761444091797e-01,8.202480077743530273e-01,8.367345333099365234e-01,8.516734838485717773e-01,8.650519847869873047e-01,8.760844469070434570e-01,8.849313855171203613e-01,8.878290653228759766e-01,8.852126002311706543e-01,8.749876022338867188e-01,8.697408437728881836e-01,8.502758741378784180e-01,8.082156181335449219e-01,7.573933601379394531e-01,6.738789677619934082e-01,5.835031270980834961e-01,5.573481321334838867e-01,5.451716780662536621e-01,5.190030932426452637e-01,5.495264530181884766e-01,5.211976170539855957e-01,4.976356327533721924e-01,5.630456209182739258e-01,6.379921436309814453e-01,7.174718976020812988e-01,7.842249870300292969e-01,8.257980346679687500e-01,8.566060066223144531e-01,8.774506449699401855e-01,8.925433158874511719e-01,9.013126492500305176e-01,9.054034948348999023e-01,9.049845933914184570e-01,9.054362773895263672e-01,9.052947163581848145e-01,9.053335189819335938e-01,9.053212404251098633e-01,9.053213596343994141e-01,9.053213596343994141e-01,9.053213596343994141e-01,9.053213596343994141e-01,9.053214192390441895e-01,9.053214192390441895e-01,9.053214192390441895e-01,9.053215980529785156e-01,9.053215980529785156e-01,9.053215980529785156e-01,9.053217172622680664e-01,9.053217172622680664e-01,9.053217768669128418e-01,9.053218364715576172e-01,9.053220152854919434e-01,9.053232073783874512e-01,9.053455591201782227e-01,9.053668975830078125e-01,9.051569104194641113e-01,9.045405387878417969e-01,9.034069180488586426e-01,9.016559123992919922e-01,8.990864753723144531e-01,8.949944972991943359e-01,8.887090682983398438e-01,8.802586793899536133e-01,8.709127902984619141e-01,8.579801321029663086e-01,8.294044733047485352e-01,8.084076046943664551e-01,8.008064031600952148e-01,7.748062610626220703e-01,7.221472263336181641e-01,6.161316037178039551e-01
5.886110067367553711e-01,6.141268014907836914e-01,6.567267775535583496e-01,6.575298309326171875e-01,6.810657978057861328e-01,7.052859663963317871e-01,7.416538000106811523e-01,7.630621194839477539e-01,7.838356494903564453e-01,8.024708032608032227e-01,8.202565908432006836e-01,8.367530107498168945e-01,8.517302274703979492e-01,8.651498556137084961e-01,8.763287067413330078e-01,8.844292163848876953e-01,8.863080739974975586e-01,8.808239698410034180e-01,8.726998567581176758e-01,8.654711246490478516e-01,8.490573167800903320e-01,8.096876144409179688e-01,7.538012266159057617e-01,6.587291955947875977e-01,5.947068929672241211e-01,5.827757716178894043e-01,5.906655788421630859e-01,5.585901737213134766e-01,5.794075727462768555e-01,5.281689167022705078e-01,5.283762812614440918e-01,5.930346250534057617e-01,6.704316139221191406e-01,7.490208745002746582e-01,8.013474941253662109e-01,8.312251567840576172e-01,8.644315004348754883e-01,8.829304575920104980e-01,8.973175883293151855e-01,9.033684134483337402e-01,9.049968123435974121e-01,9.051951766014099121e-01,9.054724574089050293e-01,9.054299592971801758e-01,9.053909778594970703e-01,9.053938388824462891e-01,9.053939580917358398e-01,9.053940773010253906e-01,9.053944945335388184e-01,9.053947329521179199e-01,9.053950309753417969e-01,9.053952693939208984e-01,9.053955078125000000e-01,9.053957462310791016e-01,9.053959846496582031e-01,9.053962826728820801e-01,9.053965806961059570e-01,9.053966403007507324e-01,9.053970575332641602e-01,9.053972959518432617e-01,9.053977727890014648e-01,9.053994417190551758e-01,9.054224491119384766e-01,9.054448008537292480e-01,9.052375555038452148e-01,9.046199321746826172e-01,9.034807682037353516e-01,9.017146825790405273e-01,8.991357088088989258e-01,8.950453996658325195e-01,8.887740373611450195e-01,8.803352117538452148e-01,8.710006475448608398e-01,8.580509424209594727e-01,8.294701576232910156e-01,8.084537982940673828e-01,8.008363246917724609e-01,7.748247385025024414e-01,7.221454977989196777e-01,6.161312460899353027e-01
5.886173248291015625e-01,6.141340136528015137e-01,6.567311286926269531e-01,6.575444936752319336e-01,6.810910105705261230e-01,7.053444981575012207e-01,7.417631745338439941e-01,7.632192373275756836e-01,7.840185761451721191e-01,8.026653528213500977e-01,8.204494714736938477e-01,8.369568586349487305e-01,8.518905639648437500e-01,8.651367425918579102e-01,8.761404752731323242e-01,8.841341733932495117e-01,8.836410641670227051e-01,8.769061565399169922e-01,8.731013536453247070e-01,8.650981783866882324e-01,8.464118242263793945e-01,8.108057379722595215e-01,7.288463711738586426e-01,6.575769186019897461e-01,6.143956184387207031e-01,6.350145339965820312e-01,5.972909331321716309e-01,6.188782453536987305e-01,6.037456989288330078e-01,5.564790368080139160e-01,5.637557506561279297e-01,6.336455345153808594e-01,7.077323198318481445e-01,7.670173645019531250e-01,8.115983009338378906e-01,8.369153738021850586e-01,8.689731359481811523e-01,8.852913975715637207e-01,8.993461132049560547e-01,9.043750762939453125e-01,9.048842191696166992e-01,9.055271744728088379e-01,9.054824113845825195e-01,9.054819345474243164e-01,9.054775238037109375e-01,9.054732322692871094e-01,9.054723978042602539e-01,9.054715633392333984e-01,9.054706692695617676e-01,9.054697751998901367e-01,9.054690003395080566e-01,9.054682254791259766e-01,9.054672718048095703e-01,9.054663181304931641e-01,9.054656028747558594e-01,9.054645299911499023e-01,9.054638147354125977e-01,9.054629802703857422e-01,9.054621458053588867e-01,9.054610729217529297e-01,9.054607152938842773e-01,9.054613113403320312e-01,9.054843187332153320e-01,9.055073261260986328e-01,9.053024053573608398e-01,9.046819210052490234e-01,9.035503864288330078e-01,9.017895460128784180e-01,8.992097377777099609e-01,8.951151371002197266e-01,8.888961672782897949e-01,8.804687261581420898e-01,8.711261749267578125e-01,8.582130670547485352e-01,8.296993970870971680e-01,8.086999654769897461e-01,8.010926246643066406e-01,7.750728130340576172e-01,7.224296331405639648e-01,6.165242195129394531e-01
5.888009667396545410e-01,6.143105030059814453e-01,6.569841504096984863e-01,6.577994227409362793e-01,6.813375353813171387e-01,7.055046558380126953e-01,7.418455481529235840e-01,7.632254958152770996e-01,7.838824987411499023e-01,8.023999929428100586e-01,8.200713396072387695e-01,8.364373445510864258e-01,8.514102101325988770e-01,8.642519712448120117e-01,8.757287859916687012e-01,8.823652267456054688e-01,8.804470300674438477e-01,8.724792003631591797e-01,8.710715770721435547e-01,8.581539392471313477e-01,8.495349884033203125e-01,8.002046942710876465e-01,7.286376357078552246e-01,6.634153127670288086e-01,6.543844342231750488e-01,6.596457958221435547e-01,6.253411769866943359e-01,6.453426480293273926e-01,6.215146780014038086e-01,5.701834559440612793e-01,6.081452369689941406e-01,6.638187766075134277e-01,7.189359664916992188e-01,7.819256782531738281e-01,8.173476457595825195e-01,8.467767238616943359e-01,8.727933168411254883e-01,8.897825479507446289e-01,9.002895355224609375e-01,9.040302038192749023e-01,9.043419361114501953e-01,9.047389030456542969e-01,9.046338796615600586e-01,9.046235084533691406e-01,9.046212434768676758e-01,9.046206474304199219e-01,9.046195745468139648e-01,9.046187996864318848e-01,9.046178460121154785e-01,9.046169519424438477e-01,9.046161174774169922e-01,9.046151041984558105e-01,9.046141505241394043e-01,9.046133756637573242e-01,9.046124219894409180e-01,9.046114087104797363e-01,9.046105742454528809e-01,9.046097993850708008e-01,9.046087861061096191e-01,9.046080112457275391e-01,9.046074748039245605e-01,9.046080112457275391e-01,9.046280384063720703e-01,9.046612381935119629e-01,9.044570326805114746e-01,9.038794040679931641e-01,9.027750492095947266e-01,9.010081291198730469e-01,8.984285593032836914e-01,8.943630456924438477e-01,8.880737423896789551e-01,8.796500563621520996e-01,8.703309297561645508e-01,8.574492931365966797e-01,8.288416862487792969e-01,8.078483343124389648e-01,8.004544973373413086e-01,7.742141485214233398e-01,7.216151952743530273e-01,6.159960627555847168e-01
5.891569852828979492e-01,6.141792535781860352e-01,6.566523313522338867e-01,6.571502685546875000e-01,6.804419755935668945e-01,7.042926549911499023e-01,7.404202818870544434e-01,7.615281939506530762e-01,7.820311784744262695e-01,8.004172444343566895e-01,8.180025815963745117e-01,8.343796133995056152e-01,8.494682312011718750e-01,8.627307415008544922e-01,8.743938803672790527e-01,8.808103799819946289e-01,8.785859942436218262e-01,8.736370801925659180e-01,8.694815635681152344e-01,8.595318794250488281e-01,8.432562351226806641e-01,7.950034141540527344e-01,7.255168557167053223e-01,6.826087236404418945e-01,6.860554218292236328e-01,6.698047518730163574e-01,6.733055114746093750e-01,6.780014038085937500e-01,6.337137222290039062e-01,5.877633690834045410e-01,6.287626028060913086e-01,6.776818037033081055e-01,7.279042601585388184e-01,7.895560264587402344e-01,8.238042593002319336e-01,8.534278869628906250e-01,8.779895305633544922e-01,8.920103907585144043e-01,9.002802371978759766e-01,9.033527374267578125e-01,9.032707214355468750e-01,9.038254022598266602e-01,9.037263393402099609e-01,9.037094116210937500e-01,9.037042856216430664e-01,9.037037491798400879e-01,9.037026166915893555e-01,9.037015438079833984e-01,9.037005901336669922e-01,9.036995172500610352e-01,9.036984443664550781e-01,9.036973714828491211e-01,9.036962985992431641e-01,9.036952257156372070e-01,9.036942720413208008e-01,9.036931395530700684e-01,9.036921262741088867e-01,9.036910533905029297e-01,9.036899209022521973e-01,9.036890268325805664e-01,9.036881923675537109e-01,9.036880731582641602e-01,9.037040472030639648e-01,9.037336111068725586e-01,9.035478830337524414e-01,9.029995203018188477e-01,9.019621014595031738e-01,9.002497196197509766e-01,8.977001905441284180e-01,8.936430215835571289e-01,8.874096870422363281e-01,8.790730237960815430e-01,8.698122501373291016e-01,8.568375706672668457e-01,8.282489776611328125e-01,8.071018457412719727e-01,7.996397018432617188e-01,7.733834385871887207e-01,7.204574942588806152e-01,6.144742965698242188e-01
5.884078145027160645e-01,6.125010848045349121e-01,6.548561453819274902e-01,6.552603840827941895e-01,6.780951619148254395e-01,7.014919519424438477e-01,7.376133203506469727e-01,7.587704658508300781e-01,7.793204784393310547e-01,7.977037429809570312e-01,8.152769804000854492e-01,8.317650556564331055e-01,8.468282818794250488e-01,8.602355718612670898e-01,8.721783161163330078e-01,8.766472339630126953e-01,8.753708600997924805e-01,8.686661720275878906e-01,8.670208454132080078e-01,8.574500083923339844e-01,8.341846466064453125e-01,7.889776229858398438e-01,7.329127788543701172e-01,7.101843953132629395e-01,6.906708478927612305e-01,7.038891315460205078e-01,6.828457713127136230e-01,7.093891501426696777e-01,6.237577199935913086e-01,6.089727282524108887e-01,6.464170813560485840e-01,6.860440969467163086e-01,7.476078271865844727e-01,7.882609367370605469e-01,8.270211219787597656e-01,8.595209121704101562e-01,8.763968348503112793e-01,8.915715217590332031e-01,8.992204666137695312e-01,9.017101526260375977e-01,9.018847942352294922e-01,9.019073247909545898e-01,9.018816947937011719e-01,9.018732309341430664e-01,9.018639922142028809e-01,9.018580317497253418e-01,9.018520116806030273e-01,9.018459320068359375e-01,9.018399715423583984e-01,9.018338918685913086e-01,9.018276929855346680e-01,9.018218517303466797e-01,9.018155336380004883e-01,9.018097519874572754e-01,9.018037319183349609e-01,9.017976522445678711e-01,9.017916321754455566e-01,9.017856121063232422e-01,9.017795920372009277e-01,9.017735719680786133e-01,9.017676115036010742e-01,9.017623662948608398e-01,9.017761349678039551e-01,9.018009305000305176e-01,9.016273617744445801e-01,9.011579751968383789e-01,9.001979827880859375e-01,8.986004590988159180e-01,8.961443901062011719e-01,8.921539783477783203e-01,8.860816359519958496e-01,8.775870800018310547e-01,8.682924509048461914e-01,8.554400205612182617e-01,8.269664645195007324e-01,8.060631752014160156e-01,7.985031604766845703e-01,7.719302177429199219e-01,7.191746234893798828e-01,6.127009391784667969e-01
5.864667296409606934e-01,6.097778081893920898e-01,6.518768072128295898e-01,6.520048379898071289e-01,6.745814085006713867e-01,6.974242329597473145e-01,7.329908609390258789e-01,7.536305785179138184e-01,7.735034227371215820e-01,7.914419174194335938e-01,8.087577223777770996e-01,8.250210285186767578e-01,8.400728702545166016e-01,8.539435863494873047e-01,8.645588755607604980e-01,8.708391785621643066e-01,8.677213191986083984e-01,8.628208041191101074e-01,8.625271916389465332e-01,8.550199270248413086e-01,8.290314674377441406e-01,7.675001621246337891e-01,7.400251626968383789e-01,7.218601703643798828e-01,7.080612778663635254e-01,7.176377773284912109e-01,7.177664637565612793e-01,7.088038325309753418e-01,6.396383047103881836e-01,6.232436299324035645e-01,6.492334604263305664e-01,6.966589093208312988e-01,7.529129981994628906e-01,7.896161675453186035e-01,8.197521567344665527e-01,8.545454740524291992e-01,8.719927072525024414e-01,8.871753811836242676e-01,8.940045833587646484e-01,8.945962190628051758e-01,8.954031467437744141e-01,8.954068422317504883e-01,8.953619599342346191e-01,8.953478932380676270e-01,8.953390121459960938e-01,8.953299522399902344e-01,8.953207731246948242e-01,8.953118324279785156e-01,8.953027725219726562e-01,8.952938318252563477e-01,8.952845931053161621e-01,8.952755331993103027e-01,8.952665328979492188e-01,8.952574729919433594e-01,8.952484130859375000e-01,8.952393531799316406e-01,8.952302932739257812e-01,8.952212333679199219e-01,8.952121734619140625e-01,8.952031135559082031e-01,8.951939344406127930e-01,8.951851129531860352e-01,8.951939344406127930e-01,8.952111005783081055e-01,8.950759172439575195e-01,8.946265578269958496e-01,8.938167095184326172e-01,8.923499584197998047e-01,8.900262117385864258e-01,8.861804008483886719e-01,8.802864551544189453e-01,8.720741271972656250e-01,8.626449108123779297e-01,8.496479392051696777e-01,8.213597536087036133e-01,8.010423183441162109e-01,7.939173579216003418e-01,7.675390243530273438e-01,7.151740789413452148e-01,6.077094078063964844e-01
5.825379490852355957e-01,6.038824915885925293e-01,6.454446315765380859e-01,6.448010206222534180e-01,6.661975383758544922e-01,6.881838440895080566e-01,7.229010462760925293e-01,7.430779933929443359e-01,7.622793316841125488e-01,7.793441414833068848e-01,7.960666418075561523e-01,8.120000362396240234e-01,8.269060850143432617e-01,8.404904603958129883e-01,8.523583412170410156e-01,8.564333319664001465e-01,8.556430339813232422e-01,8.559051752090454102e-01,8.469959497451782227e-01,8.386867642402648926e-01,8.042854070663452148e-01,7.567094564437866211e-01,7.312685251235961914e-01,7.137785553932189941e-01,7.300570011138916016e-01,7.153887748718261719e-01,7.243617773056030273e-01,7.034127116203308105e-01,6.264153718948364258e-01,6.309175491333007812e-01,6.370466351509094238e-01,6.955374479293823242e-01,7.506898045539855957e-01,7.863324880599975586e-01,8.110549449920654297e-01,8.432395458221435547e-01,8.621009588241577148e-01,8.769651651382446289e-01,8.835586309432983398e-01,8.842005729675292969e-01,8.845505118370056152e-01,8.843862414360046387e-01,8.843609094619750977e-01,8.843395709991455078e-01,8.843201994895935059e-01,8.842999935150146484e-01,8.842797279357910156e-01,8.842596411705017090e-01,8.842395544052124023e-01,8.842195272445678711e-01,8.841993212699890137e-01,8.841792345046997070e-01,8.841589689254760742e-01,8.841388225555419922e-01,8.841187953948974609e-01,8.840986490249633789e-01,8.840786218643188477e-01,8.840584754943847656e-01,8.840382695198059082e-01,8.840182423591613770e-01,8.839979767799377441e-01,8.839779496192932129e-01,8.839886188507080078e-01,8.840341567993164062e-01,8.839070796966552734e-01,8.835574984550476074e-01,8.828744888305664062e-01,8.814072608947753906e-01,8.790549039840698242e-01,8.753644227981567383e-01,8.695326447486877441e-01,8.616480827331542969e-01,8.525967597961425781e-01,8.395732641220092773e-01,8.107914924621582031e-01,7.916817665100097656e-01,7.853884696960449219e-01,7.605799436569213867e-01,7.071949839591979980e-01,6.017390489578247070e-01
5.753741264343261719e-01,5.940441489219665527e-01,6.345349550247192383e-01,6.318070888519287109e-01,6.512067914009094238e-01,6.719571352005004883e-01,7.057639360427856445e-01,7.251151204109191895e-01,7.435635328292846680e-01,7.599281072616577148e-01,7.757323384284973145e-01,7.909325361251831055e-01,8.056058883666992188e-01,8.200079202651977539e-01,8.315081596374511719e-01,8.341218233108520508e-01,8.315806984901428223e-01,8.335992097854614258e-01,8.202555179595947266e-01,8.149238824844360352e-01,7.681415081024169922e-01,7.366467714309692383e-01,7.023692131042480469e-01,7.051675915718078613e-01,7.060338854789733887e-01,7.044668197631835938e-01,7.006188035011291504e-01,6.848776340484619141e-01,6.027957201004028320e-01,6.184431910514831543e-01,6.442270874977111816e-01,6.694715023040771484e-01,7.257862091064453125e-01,7.629920244216918945e-01,7.915059328079223633e-01,8.199259638786315918e-01,8.437016606330871582e-01,8.566366434097290039e-01,8.596507310867309570e-01,8.601979017257690430e-01,8.608666658401489258e-01,8.606902360916137695e-01,8.606307506561279297e-01,8.605867028236389160e-01,8.605495691299438477e-01,8.605126142501831055e-01,8.604757189750671387e-01,8.604390025138854980e-01,8.604019880294799805e-01,8.603651523590087891e-01,8.603280782699584961e-01,8.602916002273559570e-01,8.602545261383056641e-01,8.602175712585449219e-01,8.601808547973632812e-01,8.601438999176025391e-01,8.601071834564208984e-01,8.600703477859497070e-01,8.600337505340576172e-01,8.599966168403625488e-01,8.599596619606018066e-01,8.599219322204589844e-01,8.599269390106201172e-01,8.599601984024047852e-01,8.598096370697021484e-01,8.595424890518188477e-01,8.591402173042297363e-01,8.579562902450561523e-01,8.559025526046752930e-01,8.521387577056884766e-01,8.465166091918945312e-01,8.387230634689331055e-01,8.300042152404785156e-01,8.169930577278137207e-01,7.877357006072998047e-01,7.700065374374389648e-01,7.670597434043884277e-01,7.439045906066894531e-01,6.925606131553649902e-01,5.922744274139404297e-01
5.643818974494934082e-01,5.786236524581909180e-01,6.173472404479980469e-01,6.113588809967041016e-01,6.278071403503417969e-01,6.468148231506347656e-01,6.787381172180175781e-01,6.960896849632263184e-01,7.121270895004272461e-01,7.261313199996948242e-01,7.397716641426086426e-01,7.531784772872924805e-01,7.666270732879638672e-01,7.803899049758911133e-01,7.894112467765808105e-01,7.936455011367797852e-01,7.934813499450683594e-01,7.945085763931274414e-01,7.809474468231201172e-01,7.517372965812683105e-01,7.258365154266357422e-01,6.893405914306640625e-01,6.573353409767150879e-01,6.714663505554199219e-01,6.764176487922668457e-01,6.633912324905395508e-01,6.664269566535949707e-01,6.338359713554382324e-01,5.718132257461547852e-01,5.800449252128601074e-01,6.101776957511901855e-01,6.428337693214416504e-01,6.887250542640686035e-01,7.246887683868408203e-01,7.530643939971923828e-01,7.814785242080688477e-01,8.033831715583801270e-01,8.140187263488769531e-01,8.178458809852600098e-01,8.177151679992675781e-01,8.180245757102966309e-01,8.179161548614501953e-01,8.178473711013793945e-01,8.177844285964965820e-01,8.177257776260375977e-01,8.176672458648681641e-01,8.176081776618957520e-01,8.175496459007263184e-01,8.174909353256225586e-01,8.174322247505187988e-01,8.173736333847045898e-01,8.173148632049560547e-01,8.172562122344970703e-01,8.171974420547485352e-01,8.171388506889343262e-01,8.170802593231201172e-01,8.170216679573059082e-01,8.169629573822021484e-01,8.169043660163879395e-01,8.168457150459289551e-01,8.167872428894042969e-01,8.167273998260498047e-01,8.167196512222290039e-01,8.166921734809875488e-01,8.164980411529541016e-01,8.160914182662963867e-01,8.156347274780273438e-01,8.143236637115478516e-01,8.124554157257080078e-01,8.095077872276306152e-01,8.042861223220825195e-01,7.970277070999145508e-01,7.894222140312194824e-01,7.773860096931457520e-01,7.479147911071777344e-01,7.329953908920288086e-01,7.344210743904113770e-01,7.134232521057128906e-01,6.685334444046020508e-01,5.795628428459167480e-01
5.498372912406921387e-01,5.541202425956726074e-01,5.890461802482604980e-01,5.790395736694335938e-01,5.922498703002929688e-01,6.085600852966308594e-01,6.381758451461791992e-01,6.527678370475769043e-01,6.666626930236816406e-01,6.783973574638366699e-01,6.898189187049865723e-01,7.009801864624023438e-01,7.120416164398193359e-01,7.232035994529724121e-01,7.288762927055358887e-01,7.287685871124267578e-01,7.313755154609680176e-01,7.271246314048767090e-01,7.174078822135925293e-01,6.922023892402648926e-01,6.662110686302185059e-01,6.340878009796142578e-01,6.068504452705383301e-01,6.143091917037963867e-01,6.187118291854858398e-01,6.100777387619018555e-01,6.123999357223510742e-01,5.776334404945373535e-01,5.341925621032714844e-01,5.413442850112915039e-01,5.549139380455017090e-01,6.119623184204101562e-01,6.361027956008911133e-01,6.658442020416259766e-01,6.907744407653808594e-01,7.211478948593139648e-01,7.418667078018188477e-01,7.484666705131530762e-01,7.509444952011108398e-01,7.507548332214355469e-01,7.511128783226013184e-01,7.509279251098632812e-01,7.508369684219360352e-01,7.507554888725280762e-01,7.506731748580932617e-01,7.505909800529479980e-01,7.505090236663818359e-01,7.504267692565917969e-01,7.503448128700256348e-01,7.502626180648803711e-01,7.501804828643798828e-01,7.500982880592346191e-01,7.500163316726684570e-01,7.499343156814575195e-01,7.498521804809570312e-01,7.497701644897460938e-01,7.496881484985351562e-01,7.496059536933898926e-01,7.495242357254028320e-01,7.494423389434814453e-01,7.493593692779541016e-01,7.492735385894775391e-01,7.492491006851196289e-01,7.491710782051086426e-01,7.490172386169433594e-01,7.487357854843139648e-01,7.482213377952575684e-01,7.468330860137939453e-01,7.445690035820007324e-01,7.412040233612060547e-01,7.365098595619201660e-01,7.301542162895202637e-01,7.241599559783935547e-01,7.128919959068298340e-01,6.834525465965270996e-01,6.727197170257568359e-01,6.816183924674987793e-01,6.628499031066894531e-01,6.335971355438232422e-01,5.563736557960510254e-01
5.325886011123657227e-01,5.238330960273742676e-01,5.546811819076538086e-01,5.387896895408630371e-01,5.466859340667724609e-01,5.595400929450988770e-01,5.837664604187011719e-01,5.949413776397705078e-01,6.054050922393798828e-01,6.135280728340148926e-01,6.215380430221557617e-01,6.294421553611755371e-01,6.377909183502197266e-01,6.441650986671447754e-01,6.506651639938354492e-01,6.477491259574890137e-01,6.472486853599548340e-01,6.458511352539062500e-01,6.304923295974731445e-01,6.057133078575134277e-01,5.807442665100097656e-01,5.624579787254333496e-01,5.443999767303466797e-01,5.615125894546508789e-01,5.655201077461242676e-01,5.519272089004516602e-01,5.447491407394409180e-01,5.161007046699523926e-01,4.952478408813476562e-01,4.900801777839660645e-01,5.054953098297119141e-01,5.482593774795532227e-01,5.701768994331359863e-01,5.892997980117797852e-01,6.140329241752624512e-01,6.366025209426879883e-01,6.534969806671142578e-01,6.603174805641174316e-01,6.605052947998046875e-01,6.616313457489013672e-01,6.613491177558898926e-01,6.612495183944702148e-01,6.611500978469848633e-01,6.610643863677978516e-01,6.609770059585571289e-01,6.608898639678955078e-01,6.608026623725891113e-01,6.607153415679931641e-01,6.606282591819763184e-01,6.605408787727355957e-01,6.604536771774291992e-01,6.603666543960571289e-01,6.602795124053955078e-01,6.601923108100891113e-01,6.601053476333618164e-01,6.600182056427001953e-01,6.599310636520385742e-01,6.598439216613769531e-01,6.597570776939392090e-01,6.596700549125671387e-01,6.595823168754577637e-01,6.594899296760559082e-01,6.594245433807373047e-01,6.593639254570007324e-01,6.591528654098510742e-01,6.589430570602416992e-01,6.586226224899291992e-01,6.574643850326538086e-01,6.554667949676513672e-01,6.522854566574096680e-01,6.490663886070251465e-01,6.442378759384155273e-01,6.403707265853881836e-01,6.306793093681335449e-01,6.032055616378784180e-01,5.958333015441894531e-01,6.114407777786254883e-01,5.966886281967163086e-01,5.878823995590209961e-01,5.268107652664184570e-01
5.116026401519775391e-01,4.894250631332397461e-01,5.142433643341064453e-01,4.909955263137817383e-01,4.925793409347534180e-01,5.011609196662902832e-01,5.197640061378479004e-01,5.277143716812133789e-01,5.348510742187500000e-01,5.396885275840759277e-01,5.445532798767089844e-01,5.496549010276794434e-01,5.548239350318908691e-01,5.585789680480957031e-01,5.597585439682006836e-01,5.591933131217956543e-01,5.586484074592590332e-01,5.501835942268371582e-01,5.394086241722106934e-01,5.170900821685791016e-01,5.277934670448303223e-01,4.971359074115753174e-01,4.912537336349487305e-01,4.955187439918518066e-01,5.028762817382812500e-01,4.862846732139587402e-01,4.736067652702331543e-01,4.535915255546569824e-01,4.545901119709014893e-01,4.449271559715270996e-01,4.537252485752105713e-01,4.914553165435791016e-01,5.052299499511718750e-01,5.191257596015930176e-01,5.335935354232788086e-01,5.570067167282104492e-01,5.620670318603515625e-01,5.688601136207580566e-01,5.684842467308044434e-01,5.695223808288574219e-01,5.690476298332214355e-01,5.689453482627868652e-01,5.688547492027282715e-01,5.687673091888427734e-01,5.686808824539184570e-01,5.685942769050598145e-01,5.685077905654907227e-01,5.684212446212768555e-01,5.683348178863525391e-01,5.682482123374938965e-01,5.681617259979248047e-01,5.680754184722900391e-01,5.679889321327209473e-01,5.679026842117309570e-01,5.678162574768066406e-01,5.677300691604614258e-01,5.676435232162475586e-01,5.675574541091918945e-01,5.674712061882019043e-01,5.673850178718566895e-01,5.672981142997741699e-01,5.672056674957275391e-01,5.671203136444091797e-01,5.670797228813171387e-01,5.670481324195861816e-01,5.669718980789184570e-01,5.667325854301452637e-01,5.661904215812683105e-01,5.646793842315673828e-01,5.622485280036926270e-01,5.591868758201599121e-01,5.555720925331115723e-01,5.536297559738159180e-01,5.454529523849487305e-01,5.213927030563354492e-01,5.172835588455200195e-01,5.383077859878540039e-01,5.279829502105712891e-01,5.396174788475036621e-01,4.964749217033386230e-01
4.905981421470642090e-01,4.557321369647979736e-01,4.713664948940277100e-01,4.409492015838623047e-01,4.362847805023193359e-01,4.406418204307556152e-01,4.540648758411407471e-01,4.581450223922729492e-01,4.624715447425842285e-01,4.647959172725677490e-01,4.673486351966857910e-01,4.700964093208312988e-01,4.729594290256500244e-01,4.762033224105834961e-01,4.781368672847747803e-01,4.795466363430023193e-01,4.812453687191009521e-01,4.743478000164031982e-01,4.628630876541137695e-01,4.486440122127532959e-01,4.427531361579895020e-01,4.347187280654907227e-01,4.325447082519531250e-01,4.355238974094390869e-01,4.416996240615844727e-01,4.318795800209045410e-01,4.190231859683990479e-01,4.047035872936248779e-01,4.041818678379058838e-01,3.942196965217590332e-01,4.058292210102081299e-01,4.280234873294830322e-01,4.350301623344421387e-01,4.484880864620208740e-01,4.629413485527038574e-01,4.747542440891265869e-01,4.775627851486206055e-01,4.805795848369598389e-01,4.809334576129913330e-01,4.816475808620452881e-01,4.813012182712554932e-01,4.811931252479553223e-01,4.811074137687683105e-01,4.810347259044647217e-01,4.809621572494506836e-01,4.808895587921142578e-01,4.808169305324554443e-01,4.807444810867309570e-01,4.806720614433288574e-01,4.805993437767028809e-01,4.805268943309783936e-01,4.804543256759643555e-01,4.803819060325622559e-01,4.803095161914825439e-01,4.802372157573699951e-01,4.801649451255798340e-01,4.800924956798553467e-01,4.800201654434204102e-01,4.799480140209197998e-01,4.798755347728729248e-01,4.798032045364379883e-01,4.797271192073822021e-01,4.796441495418548584e-01,4.795794785022735596e-01,4.795661866664886475e-01,4.795733094215393066e-01,4.794962406158447266e-01,4.794065356254577637e-01,4.788357019424438477e-01,4.778090417385101318e-01,4.768869578838348389e-01,4.753246903419494629e-01,4.752945899963378906e-01,4.694461524486541748e-01,4.494485855102539062e-01,4.482085704803466797e-01,4.717548787593841553e-01,4.687510430812835693e-01,4.949549734592437744e-01,4.690769612789154053e-01
4.694195985794067383e-01,4.224314093589782715e-01,4.285641908645629883e-01,3.950871825218200684e-01,3.841232359409332275e-01,3.856883943080902100e-01,3.961034417152404785e-01,3.990415036678314209e-01,4.020635485649108887e-01,4.032546877861022949e-01,4.044487178325653076e-01,4.056152105331420898e-01,4.063637852668762207e-01,4.074594378471374512e-01,4.086797833442687988e-01,4.083576500415802002e-01,4.071624279022216797e-01,4.059066176414489746e-01,3.956618010997772217e-01,3.904004693031311035e-01,3.897667527198791504e-01,3.899809718132019043e-01,3.833676576614379883e-01,3.825401365756988525e-01,3.880467116832733154e-01,3.736844062805175781e-01,3.686010837554931641e-01,3.624856472015380859e-01,3.623876571655273438e-01,3.532214760780334473e-01,3.706243634223937988e-01,3.736010193824768066e-01,3.828499317169189453e-01,3.884885907173156738e-01,3.977343738079071045e-01,4.027131795883178711e-01,4.079502224922180176e-01,4.086541235446929932e-01,4.094421863555908203e-01,4.092026650905609131e-01,4.091446399688720703e-01,4.090850353240966797e-01,4.090216755867004395e-01,4.089644551277160645e-01,4.089066982269287109e-01,4.088493287563323975e-01,4.087919592857360840e-01,4.087345302104949951e-01,4.086772203445434570e-01,4.086197018623352051e-01,4.085623025894165039e-01,4.085049331188201904e-01,4.084475934505462646e-01,4.083902239799499512e-01,4.083330631256103516e-01,4.082757830619812012e-01,4.082185029983520508e-01,4.081613123416900635e-01,4.081041216850280762e-01,4.080468118190765381e-01,4.079905450344085693e-01,4.079327583312988281e-01,4.078782796859741211e-01,4.078282713890075684e-01,4.077976644039154053e-01,4.077786207199096680e-01,4.077987968921661377e-01,4.077048897743225098e-01,4.073238372802734375e-01,4.064895510673522949e-01,4.056483805179595947e-01,4.045625329017639160e-01,4.052142798900604248e-01,4.015185534954071045e-01,3.856517970561981201e-01,3.876622319221496582e-01,4.134823381900787354e-01,4.177017509937286377e-01,4.560067951679229736e-01,4.460493624210357666e-01
4.513992369174957275e-01,3.938314318656921387e-01,3.929956555366516113e-01,3.573061823844909668e-01,3.413726687431335449e-01,3.406636714935302734e-01,3.481101393699645996e-01,3.498309254646301270e-01,3.515259325504302979e-01,3.519470095634460449e-01,3.524739444255828857e-01,3.529208004474639893e-01,3.534414768218994141e-01,3.537591695785522461e-01,3.549641966819763184e-01,3.553662300109863281e-01,3.553946912288665771e-01,3.540896773338317871e-01,3.507697582244873047e-01,3.412119448184967041e-01,3.430924415588378906e-01,3.397846817970275879e-01,3.415784537792205811e-01,3.415890336036682129e-01,3.455084264278411865e-01,3.352738618850708008e-01,3.317086696624755859e-01,3.281115889549255371e-01,3.253361582756042480e-01,3.237216472625732422e-01,3.267608284950256348e-01,3.345299363136291504e-01,3.396953940391540527e-01,3.443692326545715332e-01,3.483160734176635742e-01,3.502303659915924072e-01,3.526222705841064453e-01,3.524003028869628906e-01,3.532990813255310059e-01,3.531954288482666016e-01,3.531017005443572998e-01,3.530557155609130859e-01,3.530164957046508789e-01,3.529754281044006348e-01,3.529343307018280029e-01,3.528932929039001465e-01,3.528524041175842285e-01,3.528116047382354736e-01,3.527706861495971680e-01,3.527294993400573730e-01,3.526886999607086182e-01,3.526478111743927002e-01,3.526069819927215576e-01,3.525661230087280273e-01,3.525251746177673340e-01,3.524844348430633545e-01,3.524436652660369873e-01,3.524026870727539062e-01,3.523618280887603760e-01,3.523209393024444580e-01,3.522804975509643555e-01,3.522400259971618652e-01,3.521970510482788086e-01,3.521683812141418457e-01,3.521297574043273926e-01,3.520743250846862793e-01,3.520787060260772705e-01,3.521230816841125488e-01,3.520724475383758545e-01,3.519950509071350098e-01,3.517355322837829590e-01,3.512796163558959961e-01,3.521156907081604004e-01,3.494863510131835938e-01,3.362993001937866211e-01,3.391679823398590088e-01,3.653194308280944824e-01,3.756824731826782227e-01,4.224417805671691895e-01,4.258176386356353760e-01
4.349701404571533203e-01,3.689483404159545898e-01,3.612793684005737305e-01,3.251701593399047852e-01,3.061349689960479736e-01,3.047613799571990967e-01,3.108670413494110107e-01,3.122525215148925781e-01,3.134112954139709473e-01,3.134241104125976562e-01,3.134069144725799561e-01,3.133987784385681152e-01,3.133913576602935791e-01,3.136011362075805664e-01,3.135104179382324219e-01,3.132351040840148926e-01,3.137497305870056152e-01,3.135879039764404297e-01,3.112969398498535156e-01,3.100583553314208984e-01,3.077116608619689941e-01,3.086686134338378906e-01,3.101542592048645020e-01,3.081169724464416504e-01,3.078580200672149658e-01,3.035700321197509766e-01,3.000269532203674316e-01,2.978776395320892334e-01,2.982106804847717285e-01,2.961004972457885742e-01,3.020479381084442139e-01,3.036314249038696289e-01,3.076881766319274902e-01,3.077095150947570801e-01,3.109333217144012451e-01,3.117256164550781250e-01,3.126127123832702637e-01,3.131014108657836914e-01,3.127418458461761475e-01,3.128842711448669434e-01,3.128483891487121582e-01,3.128144145011901855e-01,3.127855956554412842e-01,3.127559125423431396e-01,3.127260804176330566e-01,3.126963376998901367e-01,3.126665055751800537e-01,3.126369416713714600e-01,3.126070499420166016e-01,3.125773668289184570e-01,3.125478625297546387e-01,3.125179409980773926e-01,3.124882578849792480e-01,3.124586045742034912e-01,3.124288320541381836e-01,3.123994171619415283e-01,3.123694658279418945e-01,3.123397827148437500e-01,3.123100996017456055e-01,3.122805953025817871e-01,3.122510313987731934e-01,3.122215270996093750e-01,3.121922910213470459e-01,3.121602535247802734e-01,3.121302127838134766e-01,3.121002018451690674e-01,3.120596408843994141e-01,3.120083212852478027e-01,3.119836449623107910e-01,3.118667006492614746e-01,3.117308616638183594e-01,3.115127086639404297e-01,3.122552037239074707e-01,3.104279935359954834e-01,2.992364466190338135e-01,3.025943636894226074e-01,3.288261890411376953e-01,3.441942334175109863e-01,3.968296349048614502e-01,4.101035594940185547e-01
4.212144017219543457e-01,3.491322994232177734e-01,3.364112973213195801e-01,2.999968826770782471e-01,2.791737318038940430e-01,2.769976556301116943e-01,2.819502651691436768e-01,2.831162512302398682e-01,2.839995026588439941e-01,2.838889360427856445e-01,2.838518321514129639e-01,2.838543951511383057e-01,2.838384807109832764e-01,2.837850451469421387e-01,2.837794125080108643e-01,2.839310169219970703e-01,2.839229404926300049e-01,2.837585806846618652e-01,2.841446399688720703e-01,2.820677459239959717e-01,2.807098925113677979e-01,2.813358008861541748e-01,2.824928760528564453e-01,2.820445299148559570e-01,2.831762433052062988e-01,2.799367308616638184e-01,2.787888050079345703e-01,2.749680280685424805e-01,2.766951322555541992e-01,2.737938165664672852e-01,2.765685915946960449e-01,2.767316102981567383e-01,2.809971570968627930e-01,2.815631628036499023e-01,2.822858691215515137e-01,2.840018272399902344e-01,2.833204567432403564e-01,2.833208441734313965e-01,2.831690311431884766e-01,2.831667065620422363e-01,2.831781208515167236e-01,2.831513285636901855e-01,2.831284403800964355e-01,2.831066250801086426e-01,2.830851376056671143e-01,2.830635309219360352e-01,2.830421924591064453e-01,2.830204963684082031e-01,2.829989492893218994e-01,2.829773426055908203e-01,2.829557657241821289e-01,2.829342782497406006e-01,2.829126715660095215e-01,2.828911542892456055e-01,2.828696072101593018e-01,2.828479707241058350e-01,2.828264832496643066e-01,2.828049659729003906e-01,2.827834486961364746e-01,2.827619612216949463e-01,2.827404737472534180e-01,2.827190756797790527e-01,2.826973199844360352e-01,2.826766967773437500e-01,2.826551795005798340e-01,2.826300859451293945e-01,2.826068997383117676e-01,2.825974822044372559e-01,2.825883030891418457e-01,2.825872302055358887e-01,2.825684547424316406e-01,2.824597358703613281e-01,2.831000685691833496e-01,2.817896008491516113e-01,2.718655169010162354e-01,2.751410305500030518e-01,3.007440865039825439e-01,3.195661902427673340e-01,3.763005733489990234e-01,3.975802659988403320e-01
4.091771841049194336e-01,3.324931859970092773e-01,3.159812688827514648e-01,2.799522280693054199e-01,2.584257423877716064e-01,2.558347880840301514e-01,2.600288987159729004e-01,2.610217630863189697e-01,2.617947161197662354e-01,2.617098093032836914e-01,2.616714239120483398e-01,2.616495490074157715e-01,2.616251111030578613e-01,2.615979909896850586e-01,2.616401910781860352e-01,2.615418434143066406e-01,2.613890767097473145e-01,2.616301476955413818e-01,2.619012594223022461e-01,2.611274719238281250e-01,2.609180808067321777e-01,2.605203390121459961e-01,2.607607841491699219e-01,2.609576284885406494e-01,2.611704766750335693e-01,2.599080801010131836e-01,2.590193152427673340e-01,2.573839426040649414e-01,2.570341825485229492e-01,2.581989169120788574e-01,2.579305768013000488e-01,2.589070796966552734e-01,2.600619196891784668e-01,2.596867680549621582e-01,2.603316605091094971e-01,2.608759105205535889e-01,2.614956498146057129e-01,2.613219618797302246e-01,2.612721323966979980e-01,2.611601352691650391e-01,2.611697316169738770e-01,2.611501514911651611e-01,2.611342072486877441e-01,2.611176371574401855e-01,2.611011266708374023e-01,2.610847949981689453e-01,2.610683739185333252e-01,2.610519528388977051e-01,2.610354423522949219e-01,2.610189318656921387e-01,2.610025703907012939e-01,2.609860897064208984e-01,2.609696388244628906e-01,2.609536051750183105e-01,2.609368562698364258e-01,2.609205842018127441e-01,2.609041631221771240e-01,2.608878314495086670e-01,2.608714699745178223e-01,2.608550190925598145e-01,2.608386874198913574e-01,2.608223557472229004e-01,2.608061730861663818e-01,2.607893943786621094e-01,2.607728838920593262e-01,2.607560753822326660e-01,2.607387304306030273e-01,2.607234120368957520e-01,2.607081532478332520e-01,2.606931030750274658e-01,2.606772780418395996e-01,2.605990767478942871e-01,2.611173689365386963e-01,2.600714862346649170e-01,2.511737644672393799e-01,2.544519305229187012e-01,2.794631719589233398e-01,3.009982705116271973e-01,3.605864048004150391e-01,3.876339793205261230e-01
3.991111516952514648e-01,3.188932538032531738e-01,2.997290492057800293e-01,2.643895447254180908e-01,2.423066198825836182e-01,2.394189834594726562e-01,2.430795133113861084e-01,2.439700365066528320e-01,2.446611523628234863e-01,2.445979714393615723e-01,2.445655465126037598e-01,2.445522546768188477e-01,2.445361912250518799e-01,2.445186972618103027e-01,2.444958090782165527e-01,2.444966137409210205e-01,2.444438040256500244e-01,2.444464862346649170e-01,2.445414066314697266e-01,2.445504069328308105e-01,2.440854609012603760e-01,2.442056834697723389e-01,2.443854510784149170e-01,2.440612912178039551e-01,2.445255815982818604e-01,2.444154918193817139e-01,2.435211837291717529e-01,2.425687313079833984e-01,2.432195544242858887e-01,2.424810230731964111e-01,2.431822717189788818e-01,2.428633868694305420e-01,2.432976365089416504e-01,2.437275648117065430e-01,2.443454563617706299e-01,2.439791560173034668e-01,2.443399727344512939e-01,2.441774904727935791e-01,2.442224025726318359e-01,2.441785037517547607e-01,2.441694140434265137e-01,2.441563308238983154e-01,2.441427707672119141e-01,2.441299557685852051e-01,2.441172301769256592e-01,2.441042959690093994e-01,2.440911531448364258e-01,2.440784275531768799e-01,2.440655529499053955e-01,2.440526783466339111e-01,2.440400123596191406e-01,2.440269589424133301e-01,2.440144121646881104e-01,2.440013587474822998e-01,2.439884245395660400e-01,2.439757287502288818e-01,2.439629137516021729e-01,2.439501583576202393e-01,2.439371943473815918e-01,2.439242899417877197e-01,2.439114153385162354e-01,2.438989281654357910e-01,2.438859641551971436e-01,2.438731491565704346e-01,2.438600063323974609e-01,2.438468337059020996e-01,2.438336908817291260e-01,2.438204586505889893e-01,2.438073754310607910e-01,2.437941133975982666e-01,2.437814176082611084e-01,2.437172532081604004e-01,2.441419064998626709e-01,2.433063089847564697e-01,2.352272570133209229e-01,2.385389804840087891e-01,2.629359960556030273e-01,2.863697409629821777e-01,3.479825258255004883e-01,3.796832263469696045e-01
3.908097445964813232e-01,3.077794909477233887e-01,2.866288721561431885e-01,2.519691288471221924e-01,2.295334339141845703e-01,2.264063656330108643e-01,2.296724021434783936e-01,2.304624021053314209e-01,2.310840189456939697e-01,2.310293316841125488e-01,2.310024499893188477e-01,2.309927344322204590e-01,2.309821248054504395e-01,2.309684753417968750e-01,2.309636771678924561e-01,2.309480905532836914e-01,2.309244573116302490e-01,2.309359908103942871e-01,2.309861779212951660e-01,2.308882772922515869e-01,2.309576272964477539e-01,2.308195233345031738e-01,2.308802008628845215e-01,2.307274341583251953e-01,2.309290468692779541e-01,2.307382822036743164e-01,2.305423617362976074e-01,2.300038337707519531e-01,2.298227250576019287e-01,2.301907837390899658e-01,2.307734191417694092e-01,2.305801510810852051e-01,2.306151688098907471e-01,2.306998968124389648e-01,2.305919826030731201e-01,2.307083308696746826e-01,2.306146621704101562e-01,2.307877838611602783e-01,2.307246625423431396e-01,2.307153642177581787e-01,2.306920886039733887e-01,2.306804955005645752e-01,2.306703627109527588e-01,2.306599020957946777e-01,2.306494116783142090e-01,2.306393384933471680e-01,2.306288480758666992e-01,2.306185066699981689e-01,2.306086421012878418e-01,2.305980324745178223e-01,2.305876016616821289e-01,2.305772304534912109e-01,2.305668890476226807e-01,2.305565178394317627e-01,2.305462062358856201e-01,2.305360138416290283e-01,2.305256426334381104e-01,2.305153608322143555e-01,2.305051386356353760e-01,2.304947376251220703e-01,2.304844260215759277e-01,2.304739952087402344e-01,2.304637730121612549e-01,2.304534912109375000e-01,2.304431200027465820e-01,2.304327785968780518e-01,2.304226160049438477e-01,2.304123640060424805e-01,2.304017543792724609e-01,2.303917109966278076e-01,2.303809523582458496e-01,2.303275465965270996e-01,2.306833565235137939e-01,2.300071120262145996e-01,2.225920259952545166e-01,2.259151935577392578e-01,2.498103976249694824e-01,2.745938301086425781e-01,3.377287387847900391e-01,3.731993436813354492e-01
3.838109374046325684e-01,2.985786795616149902e-01,2.758303880691528320e-01,2.418458759784698486e-01,2.191908955574035645e-01,2.158583998680114746e-01,2.188139855861663818e-01,2.195154428482055664e-01,2.200817167758941650e-01,2.200338244438171387e-01,2.200109958648681641e-01,2.200028896331787109e-01,2.199944853782653809e-01,2.199851870536804199e-01,2.199747860431671143e-01,2.199683189392089844e-01,2.199573218822479248e-01,2.199472486972808838e-01,2.199530601501464844e-01,2.199399173259735107e-01,2.199141979217529297e-01,2.199323773384094238e-01,2.199060916900634766e-01,2.198578715324401855e-01,2.199100255966186523e-01,2.199534475803375244e-01,2.199141681194305420e-01,2.197154164314270020e-01,2.195128798484802246e-01,2.195336818695068359e-01,2.196278274059295654e-01,2.197569310665130615e-01,2.198167443275451660e-01,2.198058664798736572e-01,2.198886275291442871e-01,2.198876738548278809e-01,2.197709083557128906e-01,2.197695076465606689e-01,2.197596132755279541e-01,2.197704911231994629e-01,2.197572290897369385e-01,2.197476029396057129e-01,2.197390198707580566e-01,2.197304964065551758e-01,2.197219729423522949e-01,2.197135686874389648e-01,2.197050154209136963e-01,2.196965515613555908e-01,2.196880578994750977e-01,2.196796238422393799e-01,2.196710407733917236e-01,2.196627557277679443e-01,2.196541726589202881e-01,2.196457684040069580e-01,2.196372747421264648e-01,2.196288108825683594e-01,2.196203172206878662e-01,2.196118831634521484e-01,2.196034193038940430e-01,2.195948660373687744e-01,2.195865511894226074e-01,2.195779979228973389e-01,2.195696830749511719e-01,2.195611596107482910e-01,2.195527255535125732e-01,2.195442914962768555e-01,2.195358872413635254e-01,2.195273339748382568e-01,2.195188701152801514e-01,2.195105254650115967e-01,2.195013165473937988e-01,2.194564044475555420e-01,2.197616696357727051e-01,2.192125022411346436e-01,2.123434245586395264e-01,2.156724333763122559e-01,2.391564548015594482e-01,2.649263739585876465e-01,3.292284607887268066e-01,3.678070604801177979e-01
3.778376579284667969e-01,2.908445894718170166e-01,2.668074965476989746e-01,2.334592044353485107e-01,2.106589376926422119e-01,2.071494162082672119e-01,2.098532319068908691e-01,2.104768455028533936e-01,2.109941542148590088e-01,2.109522521495819092e-01,2.109321653842926025e-01,2.109252214431762695e-01,2.109179794788360596e-01,2.109110355377197266e-01,2.109036743640899658e-01,2.108963131904602051e-01,2.108892798423767090e-01,2.108821868896484375e-01,2.108751237392425537e-01,2.108716964721679688e-01,2.108599245548248291e-01,2.108526229858398438e-01,2.108498513698577881e-01,2.108380794525146484e-01,2.108130455017089844e-01,2.108109593391418457e-01,2.108534872531890869e-01,2.107276320457458496e-01,2.107193470001220703e-01,2.106649875640869141e-01,2.107443213462829590e-01,2.107725143432617188e-01,2.107801735401153564e-01,2.107684910297393799e-01,2.107281386852264404e-01,2.107380330562591553e-01,2.107681035995483398e-01,2.107451558113098145e-01,2.107416689395904541e-01,2.107219398021697998e-01,2.107204198837280273e-01,2.107130885124206543e-01,2.107056975364685059e-01,2.106985151767730713e-01,2.106915116310119629e-01,2.106844484806060791e-01,2.106773853302001953e-01,2.106704413890838623e-01,2.106633186340332031e-01,2.106560766696929932e-01,2.106489837169647217e-01,2.106419801712036133e-01,2.106350362300872803e-01,2.106279730796813965e-01,2.106208503246307373e-01,2.106137573719024658e-01,2.106067240238189697e-01,2.105996906757354736e-01,2.105928361415863037e-01,2.105856239795684814e-01,2.105785012245178223e-01,2.105716168880462646e-01,2.105645835399627686e-01,2.105574905872344971e-01,2.105503976345062256e-01,2.105434834957122803e-01,2.105361521244049072e-01,2.105291485786437988e-01,2.105224430561065674e-01,2.105151712894439697e-01,2.105075120925903320e-01,2.104687392711639404e-01,2.107352316379547119e-01,2.102879583835601807e-01,2.038725316524505615e-01,2.072021067142486572e-01,2.303376793861389160e-01,2.568505406379699707e-01,3.220612108707427979e-01,3.632450103759765625e-01
3.726805746555328369e-01,2.842514514923095703e-01,2.591621875762939453e-01,2.263997197151184082e-01,2.035073935985565186e-01,1.998426616191864014e-01,2.023400068283081055e-01,2.028949558734893799e-01,2.033710777759552002e-01,2.033337652683258057e-01,2.033163309097290039e-01,2.033101916313171387e-01,2.033043205738067627e-01,2.032982707023620605e-01,2.032924294471740723e-01,2.032865583896636963e-01,2.032803893089294434e-01,2.032742798328399658e-01,2.032685577869415283e-01,2.032626569271087646e-01,2.032561898231506348e-01,2.032509148120880127e-01,2.032440006732940674e-01,2.032353579998016357e-01,2.032299637794494629e-01,2.032470107078552246e-01,2.032303810119628906e-01,2.032392323017120361e-01,2.031902670860290527e-01,2.031951248645782471e-01,2.031661272048950195e-01,2.031900882720947266e-01,2.031788825988769531e-01,2.031841874122619629e-01,2.031767368316650391e-01,2.031747102737426758e-01,2.031614482402801514e-01,2.031557559967041016e-01,2.031491994857788086e-01,2.031444311141967773e-01,2.031365036964416504e-01,2.031311094760894775e-01,2.031248509883880615e-01,2.031187713146209717e-01,2.031127214431762695e-01,2.031069099903106689e-01,2.031009793281555176e-01,2.030949294567108154e-01,2.030891180038452148e-01,2.030830979347229004e-01,2.030770182609558105e-01,2.030709385871887207e-01,2.030651569366455078e-01,2.030590176582336426e-01,2.030530571937561035e-01,2.030472159385681152e-01,2.030413150787353516e-01,2.030356824398040771e-01,2.030294239521026611e-01,2.030235528945922852e-01,2.030173838138580322e-01,2.030115723609924316e-01,2.030055820941925049e-01,2.029995620250701904e-01,2.029937505722045898e-01,2.029876708984375000e-01,2.029817998409271240e-01,2.029757201671600342e-01,2.029697597026824951e-01,2.029636502265930176e-01,2.029572129249572754e-01,2.029233872890472412e-01,2.031591832637786865e-01,2.027947008609771729e-01,1.967608034610748291e-01,2.000888288021087646e-01,2.229229509830474854e-01,2.500053644180297852e-01,3.159343302249908447e-01,3.593330383300781250e-01
