5.856295824050903320e-01,6.095352768898010254e-01,6.510722637176513672e-01,6.518877148628234863e-01,6.743701696395874023e-01,6.974394321441650391e-01,7.324493527412414551e-01,7.537962198257446289e-01,7.752497196197509766e-01,7.940114736557006836e-01,8.124964237213134766e-01,8.297241926193237305e-01,8.446219563484191895e-01,8.578433990478515625e-01,8.680047988891601562e-01,8.729423284530639648e-01,8.684297800064086914e-01,8.505829572677612305e-01,8.326164484024047852e-01,7.911562919616699219e-01,7.185938358306884766e-01,5.950930714607238770e-01,5.016489624977111816e-01,4.297014474868774414e-01,3.817811310291290283e-01,3.488653302192687988e-01,3.140466809272766113e-01,2.998600602149963379e-01,2.937932014465332031e-01,3.097863793373107910e-01,3.321300745010375977e-01,3.664318323135375977e-01,4.146248996257781982e-01,4.793736040592193604e-01,5.544635653495788574e-01,6.638803482055664062e-01,7.426585555076599121e-01,7.890795469284057617e-01,8.333580493927001953e-01,8.587605953216552734e-01,8.777177333831787109e-01,8.879102468490600586e-01,8.919455409049987793e-01,8.952729701995849609e-01,8.962798118591308594e-01,8.969547748565673828e-01,8.974351882934570312e-01,8.974636793136596680e-01,8.974674940109252930e-01,8.974796533584594727e-01,8.974796533584594727e-01,8.974796533584594727e-01,8.974796533584594727e-01,8.974796533584594727e-01,8.974796533584594727e-01,8.974796533584594727e-01,8.974796533584594727e-01,8.974796533584594727e-01,8.974796533584594727e-01,8.974796533584594727e-01,8.974802494049072266e-01,8.974832296371459961e-01,8.974844217300415039e-01,8.975172638893127441e-01,8.973147869110107422e-01,8.965860605239868164e-01,8.951674699783325195e-01,8.932794928550720215e-01,8.911199569702148438e-01,8.871841430664062500e-01,8.810461759567260742e-01,8.720259666442871094e-01,8.623226881027221680e-01,8.480412364006042480e-01,8.182665109634399414e-01,7.959733009338378906e-01,7.858384251594543457e-01,7.580935359001159668e-01,7.064106464385986328e-01,6.076585650444030762e-01
5.862390398979187012e-01,6.089726686477661133e-01,6.536806821823120117e-01,6.547664403915405273e-01,6.780846714973449707e-01,7.019344568252563477e-01,7.384449243545532227e-01,7.597764730453491211e-01,7.806837558746337891e-01,7.996265888214111328e-01,8.179579377174377441e-01,8.352307081222534180e-01,8.502191901206970215e-01,8.637971878051757812e-01,8.753836154937744141e-01,8.807820081710815430e-01,8.779296875000000000e-01,8.631319999694824219e-01,8.439475297927856445e-01,7.997085452079772949e-01,7.437587976455688477e-01,6.084001064300537109e-01,5.179994702339172363e-01,4.404327571392059326e-01,3.882113695144653320e-01,3.522766828536987305e-01,3.159720897674560547e-01,3.006963729858398438e-01,2.935508191585540771e-01,3.082997202873229980e-01,3.290054202079772949e-01,3.637894392013549805e-01,4.135262370109558105e-01,4.736709892749786377e-01,5.510926246643066406e-01,6.660170555114746094e-01,7.432309389114379883e-01,7.933102250099182129e-01,8.338814377784729004e-01,8.635509014129638672e-01,8.818831443786621094e-01,8.929021358489990234e-01,8.973711133003234863e-01,8.997681140899658203e-01,9.020105600357055664e-01,9.026055335998535156e-01,9.030182361602783203e-01,9.031319618225097656e-01,9.031546115875244141e-01,9.031507968902587891e-01,9.031499028205871582e-01,9.031499028205871582e-01,9.031499028205871582e-01,9.031499028205871582e-01,9.031499028205871582e-01,9.031499028205871582e-01,9.031499028205871582e-01,9.031499028205871582e-01,9.031499028205871582e-01,9.031499028205871582e-01,9.031504988670349121e-01,9.031525850296020508e-01,9.031727313995361328e-01,9.031926393508911133e-01,9.029687643051147461e-01,9.022169709205627441e-01,9.009386301040649414e-01,8.995084166526794434e-01,8.970072269439697266e-01,8.931913375854492188e-01,8.870380520820617676e-01,8.788594007492065430e-01,8.685646653175354004e-01,8.554567098617553711e-01,8.276624679565429688e-01,8.058555126190185547e-01,7.977893948554992676e-01,7.732132077217102051e-01,7.197648286819458008e-01,6.134824156761169434e-01
5.892093181610107422e-01,6.141222715377807617e-01,6.574172973632812500e-01,6.579468250274658203e-01,6.818153262138366699e-01,7.059266567230224609e-01,7.424406409263610840e-01,7.638156414031982422e-01,7.844159603118896484e-01,8.029776811599731445e-01,8.210706114768981934e-01,8.376615047454833984e-01,8.528184294700622559e-01,8.669163584709167480e-01,8.788778781890869141e-01,8.838109374046325684e-01,8.815562725067138672e-01,8.715358972549438477e-01,8.520581722259521484e-01,8.109052181243896484e-01,7.525403499603271484e-01,6.337498426437377930e-01,5.230858922004699707e-01,4.530073404312133789e-01,3.945238888263702393e-01,3.512684106826782227e-01,3.200145363807678223e-01,3.016568422317504883e-01,2.956939339637756348e-01,3.079365491867065430e-01,3.301417231559753418e-01,3.636614084243774414e-01,4.121252596378326416e-01,4.744040966033935547e-01,5.569810867309570312e-01,6.655887365341186523e-01,7.410869002342224121e-01,7.946584224700927734e-01,8.352285027503967285e-01,8.664503693580627441e-01,8.814428448677062988e-01,8.943217992782592773e-01,8.998371958732604980e-01,9.020637273788452148e-01,9.039865732192993164e-01,9.047315120697021484e-01,9.053458571434020996e-01,9.056164026260375977e-01,9.055867195129394531e-01,9.055819511413574219e-01,9.055932760238647461e-01,9.055932760238647461e-01,9.055932760238647461e-01,9.055932760238647461e-01,9.055932760238647461e-01,9.055932760238647461e-01,9.055932760238647461e-01,9.055932760238647461e-01,9.055932760238647461e-01,9.055932760238647461e-01,9.055936336517333984e-01,9.055963754653930664e-01,9.056217670440673828e-01,9.056230783462524414e-01,9.053975343704223633e-01,9.047104120254516602e-01,9.036204218864440918e-01,9.019785523414611816e-01,8.994603157043457031e-01,8.957166671752929688e-01,8.896133303642272949e-01,8.807638883590698242e-01,8.713542222976684570e-01,8.590520620346069336e-01,8.305518627166748047e-01,8.090271949768066406e-01,8.007783889770507812e-01,7.751193046569824219e-01,7.216290831565856934e-01,6.156446933746337891e-01
5.887282490730285645e-01,6.143671870231628418e-01,6.568017005920410156e-01,6.576666831970214844e-01,6.813179850578308105e-01,7.055903077125549316e-01,7.419081926345825195e-01,7.633275985717773438e-01,7.840612530708312988e-01,8.025954961776733398e-01,8.203027248382568359e-01,8.370295763015747070e-01,8.520230054855346680e-01,8.658680915832519531e-01,8.782303333282470703e-01,8.832573294639587402e-01,8.810865879058837891e-01,8.741725683212280273e-01,8.547106981277465820e-01,8.166619539260864258e-01,7.648085355758666992e-01,6.565459370613098145e-01,5.372507572174072266e-01,4.524474143981933594e-01,4.052483439445495605e-01,3.552262783050537109e-01,3.218678236007690430e-01,3.024614751338958740e-01,2.918556928634643555e-01,3.076649904251098633e-01,3.265153169631958008e-01,3.604514598846435547e-01,4.046694934368133545e-01,4.719648361206054688e-01,5.545662641525268555e-01,6.490009427070617676e-01,7.467749118804931641e-01,7.895313501358032227e-01,8.319662809371948242e-01,8.576052188873291016e-01,8.780181407928466797e-01,8.931789398193359375e-01,8.988255858421325684e-01,9.004981517791748047e-01,9.034358263015747070e-01,9.043375253677368164e-01,9.048078060150146484e-01,9.051774740219116211e-01,9.053170680999755859e-01,9.053062200546264648e-01,9.053092002868652344e-01,9.053092002868652344e-01,9.053092002868652344e-01,9.053092002868652344e-01,9.053092002868652344e-01,9.053092002868652344e-01,9.053092002868652344e-01,9.053092002868652344e-01,9.053092002868652344e-01,9.053092002868652344e-01,9.053095579147338867e-01,9.053115844726562500e-01,9.053359031677246094e-01,9.053480625152587891e-01,9.051195383071899414e-01,9.044811725616455078e-01,9.033938646316528320e-01,9.016035795211791992e-01,8.991273641586303711e-01,8.952369689941406250e-01,8.887553215026855469e-01,8.801393508911132812e-01,8.711547255516052246e-01,8.581131696701049805e-01,8.292285799980163574e-01,8.083620071411132812e-01,8.007817268371582031e-01,7.746019959449768066e-01,7.219745516777038574e-01,6.160477399826049805e-01
5.887538790702819824e-01,6.143564581871032715e-01,6.569757461547851562e-01,6.578224897384643555e-01,6.813724040985107422e-01,7.055999040603637695e-01,7.419761419296264648e-01,7.633663415908813477e-01,7.841256856918334961e-01,8.027316331863403320e-01,8.204562664031982422e-01,8.368621468544006348e-01,8.519951701164245605e-01,8.660134673118591309e-01,8.787004947662353516e-01,8.837271928787231445e-01,8.850096464157104492e-01,8.778307437896728516e-01,8.573378324508666992e-01,8.265097141265869141e-01,7.725954055786132812e-01,6.743294000625610352e-01,5.648525953292846680e-01,4.709382653236389160e-01,4.174447953701019287e-01,3.648278117179870605e-01,3.227338492870330811e-01,3.064235150814056396e-01,2.957804203033447266e-01,3.051087856292724609e-01,3.243749737739562988e-01,3.514444231986999512e-01,4.006578028202056885e-01,4.703730344772338867e-01,5.464243888854980469e-01,6.469056606292724609e-01,7.377372980117797852e-01,7.914856672286987305e-01,8.291639089584350586e-01,8.551777601242065430e-01,8.772642612457275391e-01,8.926137089729309082e-01,8.995515108108520508e-01,9.006048440933227539e-01,9.021622538566589355e-01,9.043433070182800293e-01,9.048546552658081055e-01,9.051986932754516602e-01,9.054126739501953125e-01,9.053322076797485352e-01,9.053338766098022461e-01,9.053338766098022461e-01,9.053338766098022461e-01,9.053338766098022461e-01,9.053338766098022461e-01,9.053338766098022461e-01,9.053338766098022461e-01,9.053338766098022461e-01,9.053338766098022461e-01,9.053338766098022461e-01,9.053341150283813477e-01,9.053356647491455078e-01,9.053572416305541992e-01,9.053782224655151367e-01,9.051494002342224121e-01,9.045426249504089355e-01,9.034044742584228516e-01,9.016172289848327637e-01,8.991111516952514648e-01,8.950896859169006348e-01,8.886197805404663086e-01,8.803024291992187500e-01,8.709031343460083008e-01,8.577742576599121094e-01,8.292973041534423828e-01,8.083940744400024414e-01,8.006547689437866211e-01,7.746154069900512695e-01,7.219675779342651367e-01,6.160736083984375000e-01
5.887331366539001465e-01,6.143200397491455078e-01,6.569508314132690430e-01,6.577838063240051270e-01,6.813436746597290039e-01,7.055727243423461914e-01,7.419350147247314453e-01,7.633392810821533203e-01,7.841012477874755859e-01,8.027133941650390625e-01,8.204686641693115234e-01,8.369009494781494141e-01,8.517732620239257812e-01,8.659303188323974609e-01,8.779767751693725586e-01,8.834908008575439453e-01,8.865190148353576660e-01,8.832629919052124023e-01,8.637678027153015137e-01,8.394390344619750977e-01,7.863534688949584961e-01,7.012256979942321777e-01,5.846457481384277344e-01,5.012708902359008789e-01,4.218062758445739746e-01,3.732739388942718506e-01,3.304842710494995117e-01,3.092739284038543701e-01,2.980226278305053711e-01,3.027848303318023682e-01,3.209459185600280762e-01,3.498030900955200195e-01,4.007290005683898926e-01,4.652040004730224609e-01,5.363466739654541016e-01,6.358261108398437500e-01,7.254270315170288086e-01,7.888900041580200195e-01,8.258163928985595703e-01,8.537882566452026367e-01,8.737692832946777344e-01,8.881171941757202148e-01,8.979486227035522461e-01,9.006941318511962891e-01,9.015120267868041992e-01,9.037287235260009766e-01,9.045314788818359375e-01,9.049869775772094727e-01,9.053915739059448242e-01,9.053282737731933594e-01,9.053283333778381348e-01,9.053283333778381348e-01,9.053283333778381348e-01,9.053283333778381348e-01,9.053283333778381348e-01,9.053283333778381348e-01,9.053283333778381348e-01,9.053283333778381348e-01,9.053283333778381348e-01,9.053283333778381348e-01,9.053285121917724609e-01,9.053298830986022949e-01,9.053539037704467773e-01,9.053707122802734375e-01,9.051684141159057617e-01,9.045512676239013672e-01,9.033966064453125000e-01,9.016218185424804688e-01,8.990765810012817383e-01,8.949592113494873047e-01,8.886644840240478516e-01,8.801907300949096680e-01,8.707458376884460449e-01,8.578590750694274902e-01,8.293099403381347656e-01,8.082217574119567871e-01,8.006103038787841797e-01,7.746175527572631836e-01,7.220048904418945312e-01,6.160272359848022461e-01
5.887262821197509766e-01,6.143090128898620605e-01,6.569380164146423340e-01,6.577693223953247070e-01,6.813272237777709961e-01,7.055542469024658203e-01,7.419207096099853516e-01,7.633184194564819336e-01,7.840825915336608887e-01,8.027043342590332031e-01,8.204609155654907227e-01,8.369115591049194336e-01,8.518054485321044922e-01,8.657007217407226562e-01,8.773498535156250000e-01,8.847738504409790039e-01,8.872660398483276367e-01,8.851643800735473633e-01,8.677070140838623047e-01,8.517234325408935547e-01,8.066338300704956055e-01,7.192283868789672852e-01,5.990332365036010742e-01,5.289337635040283203e-01,4.398652017116546631e-01,3.732053041458129883e-01,3.556401729583740234e-01,3.261337280273437500e-01,2.987499833106994629e-01,3.009137511253356934e-01,3.173101544380187988e-01,3.430448770523071289e-01,3.985283374786376953e-01,4.538806676864624023e-01,5.279113650321960449e-01,6.213801503181457520e-01,7.209583520889282227e-01,7.797171473503112793e-01,8.269416093826293945e-01,8.532747626304626465e-01,8.704235553741455078e-01,8.832800388336181641e-01,8.957468271255493164e-01,9.014763236045837402e-01,9.017623662948608398e-01,9.030754566192626953e-01,9.045509696006774902e-01,9.049127101898193359e-01,9.052819013595581055e-01,9.052880406379699707e-01,9.053283333778381348e-01,9.053283333778381348e-01,9.053283333778381348e-01,9.053283333778381348e-01,9.053283333778381348e-01,9.053283333778381348e-01,9.053283333778381348e-01,9.053283333778381348e-01,9.053283333778381348e-01,9.053283333778381348e-01,9.053285121917724609e-01,9.053297042846679688e-01,9.053524136543273926e-01,9.053743481636047363e-01,9.051626920700073242e-01,9.045401811599731445e-01,9.033973217010498047e-01,9.016380310058593750e-01,8.990604877471923828e-01,8.949730396270751953e-01,8.886538743972778320e-01,8.801535367965698242e-01,8.708156347274780273e-01,8.578770160675048828e-01,8.292451500892639160e-01,8.082304596900939941e-01,8.006360530853271484e-01,7.746415734291076660e-01,7.220118045806884766e-01,6.160372495651245117e-01
5.887193083763122559e-01,6.142978668212890625e-01,6.569252014160156250e-01,6.577545404434204102e-01,6.813110709190368652e-01,7.055376172065734863e-01,7.419032454490661621e-01,7.633035182952880859e-01,7.840657234191894531e-01,8.026870489120483398e-01,8.204494714736938477e-01,8.368940353393554688e-01,8.517754077911376953e-01,8.655754327774047852e-01,8.771343231201171875e-01,8.862547874450683594e-01,8.905808925628662109e-01,8.889771103858947754e-01,8.744591474533081055e-01,8.610485792160034180e-01,8.115372657775878906e-01,7.443000674247741699e-01,6.361081600189208984e-01,5.575523376464843750e-01,4.671748876571655273e-01,4.105720818042755127e-01,3.682875037193298340e-01,3.274919986724853516e-01,3.063901662826538086e-01,3.046904206275939941e-01,3.240041732788085938e-01,3.440631628036499023e-01,4.016099274158477783e-01,4.493187963962554932e-01,5.077528953552246094e-01,6.135060191154479980e-01,7.097443342208862305e-01,7.783178091049194336e-01,8.240505456924438477e-01,8.481793403625488281e-01,8.696134686470031738e-01,8.828014135360717773e-01,8.942254185676574707e-01,9.015647172927856445e-01,9.022837877273559570e-01,9.020820260047912598e-01,9.037811756134033203e-01,9.045269489288330078e-01,9.050350189208984375e-01,9.052779078483581543e-01,9.053283333778381348e-01,9.053283333778381348e-01,9.053283333778381348e-01,9.053283333778381348e-01,9.053283333778381348e-01,9.053283333778381348e-01,9.053283333778381348e-01,9.053283333778381348e-01,9.053283333778381348e-01,9.053283333778381348e-01,9.053285121917724609e-01,9.053297042846679688e-01,9.053524136543273926e-01,9.053734540939331055e-01,9.051613807678222656e-01,9.045413732528686523e-01,9.034017324447631836e-01,9.016444683074951172e-01,8.990680575370788574e-01,8.949636816978454590e-01,8.886561393737792969e-01,8.801846504211425781e-01,8.708256483078002930e-01,8.578691482543945312e-01,8.292622566223144531e-01,8.082492351531982422e-01,8.006492853164672852e-01,7.746539115905761719e-01,7.220234870910644531e-01,6.160464286804199219e-01
5.887123942375183105e-01,6.142864823341369629e-01,6.569122076034545898e-01,6.577397584915161133e-01,6.812949180603027344e-01,7.055211067199707031e-01,7.418867349624633789e-01,7.632870674133300781e-01,7.840503454208374023e-01,8.026719093322753906e-01,8.204350471496582031e-01,8.368808031082153320e-01,8.517588376998901367e-01,8.651623725891113281e-01,8.773262500762939453e-01,8.866337537765502930e-01,8.919169902801513672e-01,8.894190788269042969e-01,8.810804486274719238e-01,8.698904514312744141e-01,8.226487040519714355e-01,7.820561528205871582e-01,6.693490743637084961e-01,5.965427756309509277e-01,4.896351993083953857e-01,4.388072490692138672e-01,3.851946592330932617e-01,3.349755406379699707e-01,3.261431753635406494e-01,3.096020519733428955e-01,3.217980265617370605e-01,3.434279561042785645e-01,3.974374234676361084e-01,4.372876584529876709e-01,5.041365623474121094e-01,6.082875728607177734e-01,7.046062946319580078e-01,7.739839553833007812e-01,8.190476894378662109e-01,8.490352630615234375e-01,8.701907992362976074e-01,8.822883367538452148e-01,8.895765542984008789e-01,9.010086059570312500e-01,9.023942947387695312e-01,9.023243188858032227e-01,9.040147066116333008e-01,9.044263362884521484e-01,9.050372838973999023e-01,9.052354693412780762e-01,9.053283333778381348e-01,9.053283333778381348e-01,9.053283333778381348e-01,9.053283333778381348e-01,9.053283333778381348e-01,9.053283333778381348e-01,9.053283333778381348e-01,9.053283333778381348e-01,9.053283333778381348e-01,9.053283333778381348e-01,9.053285121917724609e-01,9.053297042846679688e-01,9.053521752357482910e-01,9.053735136985778809e-01,9.051612615585327148e-01,9.045418500900268555e-01,9.034031629562377930e-01,9.016461372375488281e-01,8.990705013275146484e-01,8.949662446975708008e-01,8.886613845825195312e-01,8.801916837692260742e-01,8.708330392837524414e-01,8.578777313232421875e-01,8.292769193649291992e-01,8.082641959190368652e-01,8.006624579429626465e-01,7.746676206588745117e-01,7.220351696014404297e-01,6.160532832145690918e-01
5.887053608894348145e-01,6.142750978469848633e-01,6.568990945816040039e-01,6.577246189117431641e-01,6.812784075736999512e-01,7.055044770240783691e-01,7.418701052665710449e-01,7.632709741592407227e-01,7.840344905853271484e-01,8.026566505432128906e-01,8.204202651977539062e-01,8.368766903877258301e-01,8.517345190048217773e-01,8.650079965591430664e-01,8.776930570602416992e-01,8.882660865783691406e-01,8.920977711677551270e-01,8.924428224563598633e-01,8.882423639297485352e-01,8.743379116058349609e-01,8.396441936492919922e-01,8.051499128341674805e-01,7.233350276947021484e-01,6.422091722488403320e-01,5.381041765213012695e-01,4.593278169631958008e-01,4.002532064914703369e-01,3.658199906349182129e-01,3.534138798713684082e-01,3.233185708522796631e-01,3.259223699569702148e-01,3.528667092323303223e-01,4.012193083763122559e-01,4.310963451862335205e-01,5.112617611885070801e-01,5.914877653121948242e-01,6.891437768936157227e-01,7.826579213142395020e-01,8.275084495544433594e-01,8.527787327766418457e-01,8.669646978378295898e-01,8.854078054428100586e-01,8.909066319465637207e-01,8.981491327285766602e-01,9.023113250732421875e-01,9.033235311508178711e-01,9.033281803131103516e-01,9.041413068771362305e-01,9.049862623214721680e-01,9.052675962448120117e-01,9.053283333778381348e-01,9.053283333778381348e-01,9.053283333778381348e-01,9.053283333778381348e-01,9.053283333778381348e-01,9.053283333778381348e-01,9.053283333778381348e-01,9.053283333778381348e-01,9.053283333778381348e-01,9.053283333778381348e-01,9.053285121917724609e-01,9.053297042846679688e-01,9.053521156311035156e-01,9.053734540939331055e-01,9.051614999771118164e-01,9.045422077178955078e-01,9.034039974212646484e-01,9.016478061676025391e-01,8.990725278854370117e-01,8.949697613716125488e-01,8.886669874191284180e-01,8.801989555358886719e-01,8.708407878875732422e-01,8.578883409500122070e-01,8.292893171310424805e-01,8.082781434059143066e-01,8.006762266159057617e-01,7.746807932853698730e-01,7.220454216003417969e-01,6.160609126091003418e-01
5.886982679367065430e-01,6.142637133598327637e-01,6.568859219551086426e-01,6.577093601226806641e-01,6.812618970870971680e-01,7.054877281188964844e-01,7.418534755706787109e-01,7.632544040679931641e-01,7.840183973312377930e-01,8.026411533355712891e-01,8.204061985015869141e-01,8.368617296218872070e-01,8.517437577247619629e-01,8.649852275848388672e-01,8.773205280303955078e-01,8.879771232604980469e-01,8.908933997154235840e-01,8.952959179878234863e-01,8.968133330345153809e-01,8.793420195579528809e-01,8.570246696472167969e-01,8.257195949554443359e-01,7.593195438385009766e-01,6.837343573570251465e-01,5.853889584541320801e-01,5.038680434226989746e-01,4.316011667251586914e-01,3.976809680461883545e-01,3.745689392089843750e-01,3.410168290138244629e-01,3.325809240341186523e-01,3.613616824150085449e-01,3.948683738708496094e-01,4.369527101516723633e-01,5.156541466712951660e-01,6.020458936691284180e-01,7.047502994537353516e-01,7.758492231369018555e-01,8.322783112525939941e-01,8.604252338409423828e-01,8.716901540756225586e-01,8.846443295478820801e-01,8.948920369148254395e-01,8.985894918441772461e-01,9.021714329719543457e-01,9.030392765998840332e-01,9.038913846015930176e-01,9.046248793601989746e-01,9.051487445831298828e-01,9.052956104278564453e-01,9.053283333778381348e-01,9.053283333778381348e-01,9.053283333778381348e-01,9.053283333778381348e-01,9.053283333778381348e-01,9.053283333778381348e-01,9.053283333778381348e-01,9.053283333778381348e-01,9.053283333778381348e-01,9.053283333778381348e-01,9.053285121917724609e-01,9.053297042846679688e-01,9.053521156311035156e-01,9.053734540939331055e-01,9.051617383956909180e-01,9.045429229736328125e-01,9.034048318862915039e-01,9.016492366790771484e-01,8.990746736526489258e-01,8.949731588363647461e-01,8.886722326278686523e-01,8.802061080932617188e-01,8.708490729331970215e-01,8.578984141349792480e-01,8.293018341064453125e-01,8.082916140556335449e-01,8.006896376609802246e-01,7.746939659118652344e-01,7.220565676689147949e-01,6.160684823989868164e-01
5.886908173561096191e-01,6.142519116401672363e-01,6.568723917007446289e-01,6.576939821243286133e-01,6.812450289726257324e-01,7.054705023765563965e-01,7.418366074562072754e-01,7.632378339767456055e-01,7.840021848678588867e-01,8.026255369186401367e-01,8.203916549682617188e-01,8.368551731109619141e-01,8.517621755599975586e-01,8.650453686714172363e-01,8.772510290145874023e-01,8.868833780288696289e-01,8.924081325531005859e-01,8.971534967422485352e-01,8.980256915092468262e-01,8.864612579345703125e-01,8.700901269912719727e-01,8.456312417984008789e-01,7.828085422515869141e-01,7.337595224380493164e-01,6.380609869956970215e-01,5.400481820106506348e-01,4.722810089588165283e-01,4.234282970428466797e-01,3.910471200942993164e-01,3.572992682456970215e-01,3.562752902507781982e-01,3.682937622070312500e-01,3.978728055953979492e-01,4.448113739490509033e-01,5.178956985473632812e-01,6.097347140312194824e-01,7.144130468368530273e-01,7.798309326171875000e-01,8.292148113250732422e-01,8.657271862030029297e-01,8.779252171516418457e-01,8.857786655426025391e-01,8.973881006240844727e-01,8.986586332321166992e-01,9.021583795547485352e-01,9.045031070709228516e-01,9.039341211318969727e-01,9.046597480773925781e-01,9.052190780639648438e-01,9.053068161010742188e-01,9.053283333778381348e-01,9.053283333778381348e-01,9.053283333778381348e-01,9.053283333778381348e-01,9.053283333778381348e-01,9.053283333778381348e-01,9.053283333778381348e-01,9.053283333778381348e-01,9.053283333778381348e-01,9.053283333778381348e-01,9.053285121917724609e-01,9.053297042846679688e-01,9.053521156311035156e-01,9.053734540939331055e-01,9.051619172096252441e-01,9.045433998107910156e-01,9.034057855606079102e-01,9.016505479812622070e-01,8.990768194198608398e-01,8.949766159057617188e-01,8.886777162551879883e-01,8.802132606506347656e-01,8.708575367927551270e-01,8.579083681106567383e-01,8.293139934539794922e-01,8.083052039146423340e-01,8.007032275199890137e-01,7.747071981430053711e-01,7.220673561096191406e-01,6.160761117935180664e-01
5.886828303337097168e-01,6.142390966415405273e-01,6.568581461906433105e-01,6.576780080795288086e-01,6.812277436256408691e-01,7.054532170295715332e-01,7.418193817138671875e-01,7.632206678390502930e-01,7.839856147766113281e-01,8.026096820831298828e-01,8.203767538070678711e-01,8.368406891822814941e-01,8.517490625381469727e-01,8.649709224700927734e-01,8.770925402641296387e-01,8.860803842544555664e-01,8.932373523712158203e-01,8.992448449134826660e-01,8.987658619880676270e-01,8.901706933975219727e-01,8.831460475921630859e-01,8.532826900482177734e-01,8.172527551651000977e-01,7.547788619995117188e-01,6.868637204170227051e-01,5.711346268653869629e-01,5.076586008071899414e-01,4.588989019393920898e-01,4.039246439933776855e-01,3.777734339237213135e-01,3.713521361351013184e-01,3.860574364662170410e-01,3.951728045940399170e-01,4.571593403816223145e-01,5.417555570602416992e-01,6.358896493911743164e-01,7.226861119270324707e-01,7.917084097862243652e-01,8.329756855964660645e-01,8.670817613601684570e-01,8.852409124374389648e-01,8.931558728218078613e-01,8.987093567848205566e-01,9.015182256698608398e-01,9.027645587921142578e-01,9.048016667366027832e-01,9.046877622604370117e-01,9.050046205520629883e-01,9.053319692611694336e-01,9.052820205688476562e-01,9.053283333778381348e-01,9.053283333778381348e-01,9.053283333778381348e-01,9.053283333778381348e-01,9.053283333778381348e-01,9.053283333778381348e-01,9.053283333778381348e-01,9.053283333778381348e-01,9.053283333778381348e-01,9.053283333778381348e-01,9.053285121917724609e-01,9.053297042846679688e-01,9.053520560264587402e-01,9.053734540939331055e-01,9.051620364189147949e-01,9.045438766479492188e-01,9.034068584442138672e-01,9.016520977020263672e-01,8.990789651870727539e-01,8.949799537658691406e-01,8.886828422546386719e-01,8.802201747894287109e-01,8.708659410476684570e-01,8.579185009002685547e-01,8.293261528015136719e-01,8.083186745643615723e-01,8.007167577743530273e-01,7.747203707695007324e-01,7.220782041549682617e-01,6.160838007926940918e-01
5.886743664741516113e-01,6.142258644104003906e-01,6.568430066108703613e-01,6.576609611511230469e-01,6.812095642089843750e-01,7.054349780082702637e-01,7.418015599250793457e-01,7.632035017013549805e-01,7.839688062667846680e-01,8.025934696197509766e-01,8.203616142272949219e-01,8.368281126022338867e-01,8.517395257949829102e-01,8.649947643280029297e-01,8.766474723815917969e-01,8.863495588302612305e-01,8.933712840080261230e-01,8.992878198623657227e-01,8.995164632797241211e-01,8.911443948745727539e-01,8.853009939193725586e-01,8.567696809768676758e-01,8.427653312683105469e-01,7.946877479553222656e-01,7.109981775283813477e-01,5.926007032394409180e-01,5.235127806663513184e-01,4.848779439926147461e-01,4.205313324928283691e-01,3.989198207855224609e-01,3.877101540565490723e-01,3.980213701725006104e-01,4.064370989799499512e-01,4.902490675449371338e-01,5.689815282821655273e-01,6.384053230285644531e-01,7.366003990173339844e-01,8.053846359252929688e-01,8.424522876739501953e-01,8.673508167266845703e-01,8.893078565597534180e-01,8.947761654853820801e-01,8.999349474906921387e-01,9.035974740982055664e-01,9.033907055854797363e-01,9.052469134330749512e-01,9.051909446716308594e-01,9.049568772315979004e-01,9.053121209144592285e-01,9.052810668945312500e-01,9.053283333778381348e-01,9.053283333778381348e-01,9.053283333778381348e-01,9.053283333778381348e-01,9.053283333778381348e-01,9.053283333778381348e-01,9.053283333778381348e-01,9.053283333778381348e-01,9.053283333778381348e-01,9.053283333778381348e-01,9.053285121917724609e-01,9.053297042846679688e-01,9.053521156311035156e-01,9.053734540939331055e-01,9.051623344421386719e-01,9.045443534851074219e-01,9.034075736999511719e-01,9.016535282135009766e-01,8.990810513496398926e-01,8.949833512306213379e-01,8.886882066726684570e-01,8.802273869514465332e-01,8.708742856979370117e-01,8.579285144805908203e-01,8.293383121490478516e-01,8.083321452140808105e-01,8.007302284240722656e-01,7.747334241867065430e-01,7.220888137817382812e-01,6.160912513732910156e-01
5.886657238006591797e-01,6.142119765281677246e-01,6.568272113800048828e-01,6.576426625251770020e-01,6.811900138854980469e-01,7.054156661033630371e-01,7.417824864387512207e-01,7.631851434707641602e-01,7.839514017105102539e-01,8.025767207145690918e-01,8.203461170196533203e-01,8.368129730224609375e-01,8.517337441444396973e-01,8.649734258651733398e-01,8.765305280685424805e-01,8.865858316421508789e-01,8.940091133117675781e-01,8.987594246864318848e-01,9.002196788787841797e-01,8.965569734573364258e-01,8.856503963470458984e-01,8.616511821746826172e-01,8.445094823837280273e-01,8.042706251144409180e-01,7.206720113754272461e-01,6.116022467613220215e-01,5.458880662918090820e-01,4.942138493061065674e-01,4.496631622314453125e-01,4.129708409309387207e-01,3.981795608997344971e-01,4.013570547103881836e-01,4.172391593456268311e-01,4.922353923320770264e-01,5.923511981964111328e-01,6.805809140205383301e-01,7.559213042259216309e-01,8.136714100837707520e-01,8.492661714553833008e-01,8.755396008491516113e-01,8.901066780090332031e-01,9.007885456085205078e-01,9.038244485855102539e-01,9.033662676811218262e-01,9.040169715881347656e-01,9.044485092163085938e-01,9.054163098335266113e-01,9.052053689956665039e-01,9.053901433944702148e-01,9.053161144256591797e-01,9.053283333778381348e-01,9.053283333778381348e-01,9.053283333778381348e-01,9.053283333778381348e-01,9.053283333778381348e-01,9.053283333778381348e-01,9.053283333778381348e-01,9.053283333778381348e-01,9.053283333778381348e-01,9.053283333778381348e-01,9.053285121917724609e-01,9.053297042846679688e-01,9.053520560264587402e-01,9.053733348846435547e-01,9.051623344421386719e-01,9.045449495315551758e-01,9.034085273742675781e-01,9.016548991203308105e-01,8.990831375122070312e-01,8.949866294860839844e-01,8.886933326721191406e-01,8.802343606948852539e-01,8.708826899528503418e-01,8.579385280609130859e-01,8.293505907058715820e-01,8.083456754684448242e-01,8.007436990737915039e-01,7.747464179992675781e-01,7.220996618270874023e-01,6.160988807678222656e-01
5.886567831039428711e-01,6.141974925994873047e-01,6.568109393119812012e-01,6.576238274574279785e-01,6.811696290969848633e-01,7.053947448730468750e-01,7.417622804641723633e-01,7.631656527519226074e-01,7.839328050613403320e-01,8.025590181350708008e-01,8.203301429748535156e-01,8.367985486984252930e-01,8.517209291458129883e-01,8.649837970733642578e-01,8.765389919281005859e-01,8.862109184265136719e-01,8.935475349426269531e-01,8.982070684432983398e-01,8.982019424438476562e-01,8.962900042533874512e-01,8.833249807357788086e-01,8.637104630470275879e-01,8.522013425827026367e-01,8.077865242958068848e-01,7.392078638076782227e-01,6.302226781845092773e-01,5.563309788703918457e-01,4.922066926956176758e-01,4.504065513610839844e-01,4.344235658645629883e-01,4.150599241256713867e-01,4.062554836273193359e-01,4.419993460178375244e-01,5.129529237747192383e-01,6.147713661193847656e-01,7.153908014297485352e-01,7.683976292610168457e-01,8.231652975082397461e-01,8.592973947525024414e-01,8.776469230651855469e-01,8.966077566146850586e-01,9.019284844398498535e-01,9.043179154396057129e-01,9.043664336204528809e-01,9.037827849388122559e-01,9.044675827026367188e-01,9.053645133972167969e-01,9.054048657417297363e-01,9.052628278732299805e-01,9.053553342819213867e-01,9.053283333778381348e-01,9.053283333778381348e-01,9.053283333778381348e-01,9.053283333778381348e-01,9.053283333778381348e-01,9.053283333778381348e-01,9.053283333778381348e-01,9.053283333778381348e-01,9.053283333778381348e-01,9.053283333778381348e-01,9.053285121917724609e-01,9.053297042846679688e-01,9.053519964218139648e-01,9.053733348846435547e-01,9.051625728607177734e-01,9.045454859733581543e-01,9.034094810485839844e-01,9.016563892364501953e-01,8.990852832794189453e-01,8.949903249740600586e-01,8.886986970901489258e-01,8.802415132522583008e-01,8.708910942077636719e-01,8.579487800598144531e-01,8.293627500534057617e-01,8.083591461181640625e-01,8.007571101188659668e-01,7.747594118118286133e-01,7.221105098724365234e-01,6.161064505577087402e-01
5.886482596397399902e-01,6.141833662986755371e-01,6.567944288253784180e-01,6.576044559478759766e-01,6.811485290527343750e-01,7.053734064102172852e-01,7.417410612106323242e-01,7.631449699401855469e-01,7.839127779006958008e-01,8.025403022766113281e-01,8.203129768371582031e-01,8.367829918861389160e-01,8.517131805419921875e-01,8.649963140487670898e-01,8.766375184059143066e-01,8.862808346748352051e-01,8.929162025451660156e-01,8.977110385894775391e-01,8.990279436111450195e-01,8.934111595153808594e-01,8.826225399971008301e-01,8.723779916763305664e-01,8.525404930114746094e-01,8.078448772430419922e-01,7.283614277839660645e-01,6.335492134094238281e-01,5.540246367454528809e-01,5.007002949714660645e-01,4.762244522571563721e-01,4.317780733108520508e-01,4.222080409526824951e-01,4.076775014400482178e-01,4.776348173618316650e-01,5.461438298225402832e-01,6.353248357772827148e-01,7.221325635910034180e-01,7.975229024887084961e-01,8.334310650825500488e-01,8.638073205947875977e-01,8.863338828086853027e-01,8.997485637664794922e-01,9.039120674133300781e-01,9.036136865615844727e-01,9.051533937454223633e-01,9.046212434768676758e-01,9.046575427055358887e-01,9.051107764244079590e-01,9.053698778152465820e-01,9.053699970245361328e-01,9.053318500518798828e-01,9.053283333778381348e-01,9.053283333778381348e-01,9.053283333778381348e-01,9.053283333778381348e-01,9.053283333778381348e-01,9.053283333778381348e-01,9.053283333778381348e-01,9.053283333778381348e-01,9.053283333778381348e-01,9.053283333778381348e-01,9.053285121917724609e-01,9.053297042846679688e-01,9.053519964218139648e-01,9.053734540939331055e-01,9.051628112792968750e-01,9.045460224151611328e-01,9.034104347229003906e-01,9.016577601432800293e-01,8.990874290466308594e-01,8.949935436248779297e-01,8.887037038803100586e-01,8.802488446235656738e-01,8.708994388580322266e-01,8.579586744308471680e-01,8.293750286102294922e-01,8.083727359771728516e-01,8.007706403732299805e-01,7.747727632522583008e-01,7.221214771270751953e-01,6.161141395568847656e-01
5.886399745941162109e-01,6.141697764396667480e-01,6.567779779434204102e-01,6.575857996940612793e-01,6.811274290084838867e-01,7.053518891334533691e-01,7.417194843292236328e-01,7.631238698959350586e-01,7.838921546936035156e-01,8.025203347206115723e-01,8.202945590019226074e-01,8.367664813995361328e-01,8.516981005668640137e-01,8.649969696998596191e-01,8.765670061111450195e-01,8.862032294273376465e-01,8.924723267555236816e-01,8.967273235321044922e-01,8.972615003585815430e-01,8.898740410804748535e-01,8.778568506240844727e-01,8.718091845512390137e-01,8.461004495620727539e-01,8.035088777542114258e-01,7.287604808807373047e-01,6.239307522773742676e-01,5.549767613410949707e-01,5.083371996879577637e-01,4.983849525451660156e-01,4.460361599922180176e-01,4.242978692054748535e-01,4.338069558143615723e-01,5.064945220947265625e-01,5.785922408103942871e-01,6.589963436126708984e-01,7.443199157714843750e-01,8.052777647972106934e-01,8.462216258049011230e-01,8.701196908950805664e-01,8.887163996696472168e-01,8.985912799835205078e-01,9.048353433609008789e-01,9.046610593795776367e-01,9.048494100570678711e-01,9.050631523132324219e-01,9.051485061645507812e-01,9.052343368530273438e-01,9.053203463554382324e-01,9.053069353103637695e-01,9.053345322608947754e-01,9.053283333778381348e-01,9.053283333778381348e-01,9.053283333778381348e-01,9.053283333778381348e-01,9.053283333778381348e-01,9.053283333778381348e-01,9.053283333778381348e-01,9.053283333778381348e-01,9.053283333778381348e-01,9.053283333778381348e-01,9.053285121917724609e-01,9.053297042846679688e-01,9.053519964218139648e-01,9.053733348846435547e-01,9.051630496978759766e-01,9.045464992523193359e-01,9.034113883972167969e-01,9.016592502593994141e-01,8.990894556045532227e-01,8.949970006942749023e-01,8.887091279029846191e-01,8.802558779716491699e-01,8.709076642990112305e-01,8.579688668251037598e-01,8.293874263763427734e-01,8.083864450454711914e-01,8.007841706275939941e-01,7.747858166694641113e-01,7.221323251724243164e-01,6.161217689514160156e-01
5.886319279670715332e-01,6.141567826271057129e-01,6.567628979682922363e-01,6.575677990913391113e-01,6.811072826385498047e-01,7.053310871124267578e-01,7.416983842849731445e-01,7.631024122238159180e-01,7.838707566261291504e-01,8.024995923042297363e-01,8.202748298645019531e-01,8.367486000061035156e-01,8.516820669174194336e-01,8.649866580963134766e-01,8.766013383865356445e-01,8.861584663391113281e-01,8.926776647567749023e-01,8.963685035705566406e-01,8.957400321960449219e-01,8.877003192901611328e-01,8.782101869583129883e-01,8.722888231277465820e-01,8.424838781356811523e-01,7.879835367202758789e-01,7.219940423965454102e-01,6.237639188766479492e-01,5.645532011985778809e-01,5.247095823287963867e-01,5.103537440299987793e-01,4.615052044391632080e-01,4.360897541046142578e-01,4.598318636417388916e-01,5.171463489532470703e-01,6.025272011756896973e-01,6.948725581169128418e-01,7.693719863891601562e-01,8.181316852569580078e-01,8.563996553421020508e-01,8.765835762023925781e-01,8.939287662506103516e-01,9.001936912536621094e-01,9.036461710929870605e-01,9.053401947021484375e-01,9.054324626922607422e-01,9.053148627281188965e-01,9.052716493606567383e-01,9.052500724792480469e-01,9.053264856338500977e-01,9.053459167480468750e-01,9.053187370300292969e-01,9.053261280059814453e-01,9.053260684013366699e-01,9.053260684013366699e-01,9.053260684013366699e-01,9.053260684013366699e-01,9.053260684013366699e-01,9.053261280059814453e-01,9.053260684013366699e-01,9.053261280059814453e-01,9.053261280059814453e-01,9.053262472152709961e-01,9.053274393081665039e-01,9.053497314453125000e-01,9.053709506988525391e-01,9.051609039306640625e-01,9.045450091361999512e-01,9.034105539321899414e-01,9.016590118408203125e-01,8.990898132324218750e-01,8.949984312057495117e-01,8.887125849723815918e-01,8.802617192268371582e-01,8.709152936935424805e-01,8.579785823822021484e-01,8.293991088867187500e-01,8.083999156951904297e-01,8.007978796958923340e-01,7.747989892959594727e-01,7.221434116363525391e-01,6.161294579505920410e-01
5.886239409446716309e-01,6.141437292098999023e-01,6.567471027374267578e-01,6.575492620468139648e-01,6.810856461524963379e-01,7.053072452545166016e-01,7.416733503341674805e-01,7.630770206451416016e-01,7.838446497917175293e-01,8.024727106094360352e-01,8.202489614486694336e-01,8.367238640785217285e-01,8.516549468040466309e-01,8.649658560752868652e-01,8.765681982040405273e-01,8.860135078430175781e-01,8.920880556106567383e-01,8.962646722793579102e-01,8.919106721878051758e-01,8.833945989608764648e-01,8.767099380493164062e-01,8.683282136917114258e-01,8.353657722473144531e-01,7.865519523620605469e-01,6.993407011032104492e-01,6.189200878143310547e-01,5.710139274597167969e-01,5.436834096908569336e-01,5.319545269012451172e-01,4.626307785511016846e-01,4.619566798210144043e-01,4.968293011188507080e-01,5.469207167625427246e-01,6.441923975944519043e-01,7.268232107162475586e-01,7.872985005378723145e-01,8.281234502792358398e-01,8.603004217147827148e-01,8.798388242721557617e-01,8.961026072502136230e-01,9.032665491104125977e-01,9.041101932525634766e-01,9.054149985313415527e-01,9.051511287689208984e-01,9.053457975387573242e-01,9.053516387939453125e-01,9.053190350532531738e-01,9.053180217742919922e-01,9.053213596343994141e-01,9.053217172622680664e-01,9.053213596343994141e-01,9.053214192390441895e-01,9.053214192390441895e-01,9.053215980529785156e-01,9.053215980529785156e-01,9.053215980529785156e-01,9.053217172622680664e-01,9.053217172622680664e-01,9.053218364715576172e-01,9.053218364715576172e-01,9.053220748901367188e-01,9.053232073783874512e-01,9.053455591201782227e-01,9.053669571876525879e-01,9.051569700241088867e-01,9.045404195785522461e-01,9.034067392349243164e-01,9.016557335853576660e-01,8.990863561630249023e-01,8.949942588806152344e-01,8.887083530426025391e-01,8.802574872970581055e-01,8.709114789962768555e-01,8.579784631729125977e-01,8.294025659561157227e-01,8.084059953689575195e-01,8.008047342300415039e-01,7.748047113418579102e-01,7.221458554267883301e-01,6.161307692527770996e-01
5.886115431785583496e-01,6.141275167465209961e-01,6.567276716232299805e-01,6.575307846069335938e-01,6.810667514801025391e-01,7.052869796752929688e-01,7.416546344757080078e-01,7.630630135536193848e-01,7.838364839553833008e-01,8.024716973304748535e-01,8.202582597732543945e-01,8.367466330528259277e-01,8.517003655433654785e-01,8.650230169296264648e-01,8.767344951629638672e-01,8.858506083488464355e-01,8.926827907562255859e-01,8.952689170837402344e-01,8.900969624519348145e-01,8.799066543579101562e-01,8.754237890243530273e-01,8.632272481918334961e-01,8.401497006416320801e-01,7.798822522163391113e-01,6.714104413986206055e-01,6.186335682868957520e-01,5.983253717422485352e-01,5.816280245780944824e-01,5.572184920310974121e-01,4.832551181316375732e-01,4.744601249694824219e-01,5.252950191497802734e-01,5.957287549972534180e-01,6.745027303695678711e-01,7.553153634071350098e-01,8.064674139022827148e-01,8.426614999771118164e-01,8.682122230529785156e-01,8.881633877754211426e-01,8.995738029479980469e-01,9.039627313613891602e-01,9.045891761779785156e-01,9.054720401763916016e-01,9.054038524627685547e-01,9.053807854652404785e-01,9.053943157196044922e-01,9.053965806961059570e-01,9.053943157196044922e-01,9.053945541381835938e-01,9.053948521614074707e-01,9.053950309753417969e-01,9.053952693939208984e-01,9.053956270217895508e-01,9.053957462310791016e-01,9.053959846496582031e-01,9.053963422775268555e-01,9.053966403007507324e-01,9.053968191146850586e-01,9.053971767425537109e-01,9.053974151611328125e-01,9.053978919982910156e-01,9.053995609283447266e-01,9.054225683212280273e-01,9.054447412490844727e-01,9.052376747131347656e-01,9.046199321746826172e-01,9.034808278083801270e-01,9.017146825790405273e-01,8.991357088088989258e-01,8.950450420379638672e-01,8.887735009193420410e-01,8.803344964981079102e-01,8.709998726844787598e-01,8.580499887466430664e-01,8.294689655303955078e-01,8.084527254104614258e-01,8.008353114128112793e-01,7.748238444328308105e-01,7.221449017524719238e-01,6.161306500434875488e-01
5.886178016662597656e-01,6.141346096992492676e-01,6.567318439483642578e-01,6.575453877449035645e-01,6.810919046401977539e-01,7.053453922271728516e-01,7.417640089988708496e-01,7.632201910018920898e-01,7.840194702148437500e-01,8.026661872863769531e-01,8.204534053802490234e-01,8.369383215904235840e-01,8.518708944320678711e-01,8.651718497276306152e-01,8.769130110740661621e-01,8.859557509422302246e-01,8.930786848068237305e-01,8.936705589294433594e-01,8.884876966476440430e-01,8.800666332244873047e-01,8.765338063240051270e-01,8.561201691627502441e-01,8.331394195556640625e-01,7.719926834106445312e-01,6.727279424667358398e-01,6.319792270660400391e-01,6.157508492469787598e-01,6.100772023200988770e-01,5.624387264251708984e-01,5.241818428039550781e-01,5.027846693992614746e-01,5.604042410850524902e-01,6.276692152023315430e-01,7.061496973037719727e-01,7.704470753669738770e-01,8.206650614738464355e-01,8.544629812240600586e-01,8.768081665039062500e-01,8.929670453071594238e-01,9.003185629844665527e-01,9.048095941543579102e-01,9.049731492996215820e-01,9.055343866348266602e-01,9.054862260818481445e-01,9.054806828498840332e-01,9.054730534553527832e-01,9.054726362228393555e-01,9.054713249206542969e-01,9.054704904556274414e-01,9.054696559906005859e-01,9.054688215255737305e-01,9.054679870605468750e-01,9.054671525955200195e-01,9.054661989212036133e-01,9.054653048515319824e-01,9.054644703865051270e-01,9.054634571075439453e-01,9.054627418518066406e-01,9.054617881774902344e-01,9.054610133171081543e-01,9.054605960845947266e-01,9.054609537124633789e-01,9.054840803146362305e-01,9.055072069168090820e-01,9.053020477294921875e-01,9.046816229820251465e-01,9.035501480102539062e-01,9.017891883850097656e-01,8.992093205451965332e-01,8.951146006584167480e-01,8.888956308364868164e-01,8.804682493209838867e-01,8.711255788803100586e-01,8.582122921943664551e-01,8.296984434127807617e-01,8.086992502212524414e-01,8.010916709899902344e-01,7.750723361968994141e-01,7.224292159080505371e-01,6.165242791175842285e-01
5.888013839721679688e-01,6.143111586570739746e-01,6.569851040840148926e-01,6.578004360198974609e-01,6.813384294509887695e-01,7.055054903030395508e-01,7.418464422225952148e-01,7.632266283035278320e-01,7.838833332061767578e-01,8.024008274078369141e-01,8.200691938400268555e-01,8.364214897155761719e-01,8.512713909149169922e-01,8.644925355911254883e-01,8.760699033737182617e-01,8.851435184478759766e-01,8.921729922294616699e-01,8.907291889190673828e-01,8.849942684173583984e-01,8.781736493110656738e-01,8.748022317886352539e-01,8.562925457954406738e-01,8.303751349449157715e-01,7.581309676170349121e-01,6.636525988578796387e-01,6.501816511154174805e-01,6.438260078430175781e-01,6.228623986244201660e-01,5.987598299980163574e-01,5.457688570022583008e-01,5.324820280075073242e-01,5.780251622200012207e-01,6.523365378379821777e-01,7.456164956092834473e-01,7.927370071411132812e-01,8.258548378944396973e-01,8.609429597854614258e-01,8.809974193572998047e-01,8.942569494247436523e-01,9.015470743179321289e-01,9.040241241455078125e-01,9.046746492385864258e-01,9.045703411102294922e-01,9.046536684036254883e-01,9.046245217323303223e-01,9.046185016632080078e-01,9.046186208724975586e-01,9.046183824539184570e-01,9.046175479888916016e-01,9.046166539192199707e-01,9.046157598495483398e-01,9.046148061752319336e-01,9.046139121055603027e-01,9.046130776405334473e-01,9.046120643615722656e-01,9.046112298965454102e-01,9.046102762222290039e-01,9.046093225479125977e-01,9.046083688735961914e-01,9.046075940132141113e-01,9.046068787574768066e-01,9.046076536178588867e-01,9.046276211738586426e-01,9.046607017517089844e-01,9.044564962387084961e-01,9.038789272308349609e-01,9.027748107910156250e-01,9.010077714920043945e-01,8.984284400939941406e-01,8.943624496459960938e-01,8.880735635757446289e-01,8.796496391296386719e-01,8.703305125236511230e-01,8.574486374855041504e-01,8.288412690162658691e-01,8.078476190567016602e-01,8.004539608955383301e-01,7.742134332656860352e-01,7.216145992279052734e-01,6.159954071044921875e-01
5.891574621200561523e-01,6.141797900199890137e-01,6.566531658172607422e-01,6.571511030197143555e-01,6.804426312446594238e-01,7.042933702468872070e-01,7.404208183288574219e-01,7.615287303924560547e-01,7.820317149162292480e-01,8.004176020622253418e-01,8.180013895034790039e-01,8.343540430068969727e-01,8.493441343307495117e-01,8.627895116806030273e-01,8.746286630630493164e-01,8.842776417732238770e-01,8.897820711135864258e-01,8.891314864158630371e-01,8.816447854042053223e-01,8.764893412590026855e-01,8.706504106521606445e-01,8.593815565109252930e-01,8.312391042709350586e-01,7.360500097274780273e-01,6.850929856300354004e-01,6.749213933944702148e-01,6.607912182807922363e-01,6.509433984756469727e-01,6.210851669311523438e-01,5.517365932464599609e-01,5.494696497917175293e-01,6.074749231338500977e-01,6.964431405067443848e-01,7.538658380508422852e-01,8.016113042831420898e-01,8.331699371337890625e-01,8.637626767158508301e-01,8.807984590530395508e-01,8.956394791603088379e-01,9.021643400192260742e-01,9.029269218444824219e-01,9.037613272666931152e-01,9.037814140319824219e-01,9.037150144577026367e-01,9.037029743194580078e-01,9.037036299705505371e-01,9.037023782730102539e-01,9.037013053894042969e-01,9.037001132965087891e-01,9.036991596221923828e-01,9.036979079246520996e-01,9.036969542503356934e-01,9.036957621574401855e-01,9.036948084831237793e-01,9.036936759948730469e-01,9.036926031112670898e-01,9.036916494369506836e-01,9.036905765533447266e-01,9.036895036697387695e-01,9.036884307861328125e-01,9.036877155303955078e-01,9.036875963211059570e-01,9.037036895751953125e-01,9.037330150604248047e-01,9.035472869873046875e-01,9.029991626739501953e-01,9.019615650177001953e-01,9.002492427825927734e-01,8.976997137069702148e-01,8.936424255371093750e-01,8.874088525772094727e-01,8.790723681449890137e-01,8.698117733001708984e-01,8.568371534347534180e-01,8.282485008239746094e-01,8.071014881134033203e-01,7.996390461921691895e-01,7.733830213546752930e-01,7.204571366310119629e-01,6.144739985466003418e-01
5.884079933166503906e-01,6.125015616416931152e-01,6.548568606376647949e-01,6.552609801292419434e-01,6.780958175659179688e-01,7.014924883842468262e-01,7.376138567924499512e-01,7.587709426879882812e-01,7.793209552764892578e-01,7.977041006088256836e-01,8.152695298194885254e-01,8.317412137985229492e-01,8.468606472015380859e-01,8.603770136833190918e-01,8.721382021903991699e-01,8.814474940299987793e-01,8.872236013412475586e-01,8.847757577896118164e-01,8.792965412139892578e-01,8.757606744766235352e-01,8.671967983245849609e-01,8.528364300727844238e-01,8.166859149932861328e-01,7.230889797210693359e-01,6.863655447959899902e-01,7.034512758255004883e-01,6.660219430923461914e-01,6.849530935287475586e-01,6.255318522453308105e-01,5.530991554260253906e-01,5.778509378433227539e-01,6.500923633575439453e-01,7.022185325622558594e-01,7.695918083190917969e-01,8.103849291801452637e-01,8.426359295845031738e-01,8.666086196899414062e-01,8.859352469444274902e-01,8.965055346488952637e-01,9.008044004440307617e-01,9.015569090843200684e-01,9.019414782524108887e-01,9.018782973289489746e-01,9.018758535385131836e-01,9.018619060516357422e-01,9.018564224243164062e-01,9.018503427505493164e-01,9.018441438674926758e-01,9.018381834030151367e-01,9.018318653106689453e-01,9.018259048461914062e-01,9.018199443817138672e-01,9.018139243125915527e-01,9.018079042434692383e-01,9.018017053604125977e-01,9.017955660820007324e-01,9.017895460128784180e-01,9.017837047576904297e-01,9.017774462699890137e-01,9.017715454101562500e-01,9.017655849456787109e-01,9.017602801322937012e-01,9.017741084098815918e-01,9.017988443374633789e-01,9.016252756118774414e-01,9.011558294296264648e-01,9.001958370208740234e-01,8.985985517501831055e-01,8.961427211761474609e-01,8.921520709991455078e-01,8.860800266265869141e-01,8.775858283042907715e-01,8.682910203933715820e-01,8.554386496543884277e-01,8.269652724266052246e-01,8.060624599456787109e-01,7.985022664070129395e-01,7.719293236732482910e-01,7.191735506057739258e-01,6.126993894577026367e-01
5.864669084548950195e-01,6.097779870033264160e-01,6.518771648406982422e-01,6.520051956176757812e-01,6.745817661285400391e-01,6.974243521690368652e-01,7.329908609390258789e-01,7.536306381225585938e-01,7.735032439231872559e-01,7.914415597915649414e-01,8.087481260299682617e-01,8.249920010566711426e-01,8.399695158004760742e-01,8.535652160644531250e-01,8.653266429901123047e-01,8.749771118164062500e-01,8.810946941375732422e-01,8.773285150527954102e-01,8.703612685203552246e-01,8.670088648796081543e-01,8.572162389755249023e-01,8.529142141342163086e-01,7.921776771545410156e-01,7.173210382461547852e-01,6.985633969306945801e-01,7.079275846481323242e-01,6.852257251739501953e-01,6.806505918502807617e-01,6.218348145484924316e-01,5.535051226615905762e-01,5.982118248939514160e-01,6.619880199432373047e-01,7.130538821220397949e-01,7.628536820411682129e-01,8.039660453796386719e-01,8.409279584884643555e-01,8.658463954925537109e-01,8.814155459403991699e-01,8.913822174072265625e-01,8.947666883468627930e-01,8.949422836303710938e-01,8.954455852508544922e-01,8.954068422317504883e-01,8.953430056571960449e-01,8.953366279602050781e-01,8.953275084495544434e-01,8.953183889389038086e-01,8.953093290328979492e-01,8.953000903129577637e-01,8.952911496162414551e-01,8.952819108963012695e-01,8.952728509902954102e-01,8.952638506889343262e-01,8.952546715736389160e-01,8.952456116676330566e-01,8.952365517616271973e-01,8.952274322509765625e-01,8.952184319496154785e-01,8.952091932296752930e-01,8.952000737190246582e-01,8.951907157897949219e-01,8.951820135116577148e-01,8.951907157897949219e-01,8.952078819274902344e-01,8.950726985931396484e-01,8.946233987808227539e-01,8.938136100769042969e-01,8.923471570014953613e-01,8.900233507156372070e-01,8.861776590347290039e-01,8.802838921546936035e-01,8.720719218254089355e-01,8.626426458358764648e-01,8.496452569961547852e-01,8.213568329811096191e-01,8.010399341583251953e-01,7.939152717590332031e-01,7.675367593765258789e-01,7.151721715927124023e-01,6.077077984809875488e-01
5.825377702713012695e-01,6.038821339607238770e-01,6.454443931579589844e-01,6.448007822036743164e-01,6.661971211433410645e-01,6.881834268569946289e-01,7.229005694389343262e-01,7.430772781372070312e-01,7.622784376144409180e-01,7.793430089950561523e-01,7.960603237152099609e-01,8.119961619377136230e-01,8.270367383956909180e-01,8.409203290939331055e-01,8.530011177062988281e-01,8.636075258255004883e-01,8.692220449447631836e-01,8.670105934143066406e-01,8.594948053359985352e-01,8.573130369186401367e-01,8.395253419876098633e-01,8.246703743934631348e-01,7.652727365493774414e-01,7.090322971343994141e-01,7.064602375030517578e-01,6.847922801971435547e-01,6.933377981185913086e-01,6.779785752296447754e-01,6.012280583381652832e-01,5.534283518791198730e-01,6.049585938453674316e-01,6.536502838134765625e-01,7.159675955772399902e-01,7.580350637435913086e-01,7.965390086174011230e-01,8.324395418167114258e-01,8.567686676979064941e-01,8.733056187629699707e-01,8.820254802703857422e-01,8.840602040290832520e-01,8.842762708663940430e-01,8.844414353370666504e-01,8.843539953231811523e-01,8.843387365341186523e-01,8.843148946762084961e-01,8.842946290969848633e-01,8.842742443084716797e-01,8.842539787292480469e-01,8.842337131500244141e-01,8.842135667800903320e-01,8.841934204101562500e-01,8.841731548309326172e-01,8.841528892517089844e-01,8.841327428817749023e-01,8.841124176979064941e-01,8.840922117233276367e-01,8.840720653533935547e-01,8.840519189834594727e-01,8.840316534042358398e-01,8.840115070343017578e-01,8.839910626411437988e-01,8.839710354804992676e-01,8.839817047119140625e-01,8.840268254280090332e-01,8.838998079299926758e-01,8.835501670837402344e-01,8.828676342964172363e-01,8.814004659652709961e-01,8.790479898452758789e-01,8.753573894500732422e-01,8.695260286331176758e-01,8.616420030593872070e-01,8.525913953781127930e-01,8.395683765411376953e-01,8.107866644859313965e-01,7.916771769523620605e-01,7.853847742080688477e-01,7.605771422386169434e-01,7.071914076805114746e-01,6.017368435859680176e-01
5.753735303878784180e-01,5.940433740615844727e-01,6.345341801643371582e-01,6.318061947822570801e-01,6.512056589126586914e-01,6.719559431076049805e-01,7.057626247406005859e-01,7.251133918762207031e-01,7.435618638992309570e-01,7.599259614944458008e-01,7.757294178009033203e-01,7.908964157104492188e-01,8.055500388145446777e-01,8.189907073974609375e-01,8.309234380722045898e-01,8.418450355529785156e-01,8.451167345046997070e-01,8.424813151359558105e-01,8.362396955490112305e-01,8.342709541320800781e-01,8.168092966079711914e-01,7.927108407020568848e-01,7.273840308189392090e-01,6.914685964584350586e-01,6.761977672576904297e-01,6.718450188636779785e-01,6.728381514549255371e-01,6.577975749969482422e-01,5.513085722923278809e-01,5.600986480712890625e-01,5.995568037033081055e-01,6.462090611457824707e-01,6.989967226982116699e-01,7.395080327987670898e-01,7.729907035827636719e-01,8.082960844039916992e-01,8.323287963867187500e-01,8.516315817832946777e-01,8.589770793914794922e-01,8.599988222122192383e-01,8.607841730117797852e-01,8.606882691383361816e-01,8.606199026107788086e-01,8.605767488479614258e-01,8.605399727821350098e-01,8.605028390884399414e-01,8.604659438133239746e-01,8.604289293289184570e-01,8.603917956352233887e-01,8.603546619415283203e-01,8.603177666664123535e-01,8.602806329727172852e-01,8.602436184883117676e-01,8.602067828178405762e-01,8.601698875427246094e-01,8.601325750350952148e-01,8.600957393646240234e-01,8.600588440895080566e-01,8.600217700004577637e-01,8.599848151206970215e-01,8.599474430084228516e-01,8.599096536636352539e-01,8.599146604537963867e-01,8.599475622177124023e-01,8.597966432571411133e-01,8.595296144485473633e-01,8.591271638870239258e-01,8.579439520835876465e-01,8.558905124664306641e-01,8.521269559860229492e-01,8.465053439140319824e-01,8.387125730514526367e-01,8.299942016601562500e-01,8.169834613800048828e-01,7.877261638641357422e-01,7.699973583221435547e-01,7.670513987541198730e-01,7.438973784446716309e-01,6.925545334815979004e-01,5.922713279724121094e-01
5.643808245658874512e-01,5.786221623420715332e-01,6.173454523086547852e-01,6.113569736480712891e-01,6.278048753738403320e-01,6.468122005462646484e-01,6.787352561950683594e-01,6.960867643356323242e-01,7.121235132217407227e-01,7.261272668838500977e-01,7.397755384445190430e-01,7.531881332397460938e-01,7.665132284164428711e-01,7.789691686630249023e-01,7.905449867248535156e-01,7.999349236488342285e-01,8.028302788734436035e-01,7.987927794456481934e-01,7.963162660598754883e-01,7.924278974533081055e-01,7.754921913146972656e-01,7.412624359130859375e-01,6.614775061607360840e-01,6.493977308273315430e-01,6.278458833694458008e-01,6.415508985519409180e-01,6.419170498847961426e-01,5.986254811286926270e-01,5.196235775947570801e-01,5.430847406387329102e-01,5.812929272651672363e-01,6.055614948272705078e-01,6.689988970756530762e-01,7.049191594123840332e-01,7.347028255462646484e-01,7.672771215438842773e-01,7.957220077514648438e-01,8.113000392913818359e-01,8.168185353279113770e-01,8.176977634429931641e-01,8.180937170982360840e-01,8.179289102554321289e-01,8.178304433822631836e-01,8.177690505981445312e-01,8.177111148834228516e-01,8.176521062850952148e-01,8.175930976867675781e-01,8.175342679023742676e-01,8.174752593040466309e-01,8.174163103103637695e-01,8.173573017120361328e-01,8.172982931137084961e-01,8.172394037246704102e-01,8.171806335449218750e-01,8.171216249465942383e-01,8.170627355575561523e-01,8.170038461685180664e-01,8.169448971748352051e-01,8.168860673904418945e-01,8.168272972106933594e-01,8.167685270309448242e-01,8.167084455490112305e-01,8.167006969451904297e-01,8.166728019714355469e-01,8.164782524108886719e-01,8.160716295242309570e-01,8.156148195266723633e-01,8.143031001091003418e-01,8.124343156814575195e-01,8.094874620437622070e-01,8.042677640914916992e-01,7.970095872879028320e-01,7.894045710563659668e-01,7.773685455322265625e-01,7.478975653648376465e-01,7.329796552658081055e-01,7.344070076942443848e-01,7.134108543395996094e-01,6.685239076614379883e-01,5.795574784278869629e-01
5.498358607292175293e-01,5.541176795959472656e-01,5.890434980392456055e-01,5.790364742279052734e-01,5.922465920448303223e-01,6.085569858551025391e-01,6.381720304489135742e-01,6.527631878852844238e-01,6.666577458381652832e-01,6.783919930458068848e-01,6.897999048233032227e-01,7.009321451187133789e-01,7.119141221046447754e-01,7.218291759490966797e-01,7.317986488342285156e-01,7.384906411170959473e-01,7.381419539451599121e-01,7.339176535606384277e-01,7.335858941078186035e-01,7.200242280960083008e-01,7.060895562171936035e-01,6.704324483871459961e-01,6.225652694702148438e-01,5.984655618667602539e-01,5.875791907310485840e-01,5.845834016799926758e-01,5.879352092742919922e-01,5.450222492218017578e-01,4.875521063804626465e-01,5.148280262947082520e-01,5.364221334457397461e-01,5.725288987159729004e-01,6.204833388328552246e-01,6.539614200592041016e-01,6.776269674301147461e-01,7.129458189010620117e-01,7.360734939575195312e-01,7.464197874069213867e-01,7.502425909042358398e-01,7.501394748687744141e-01,7.513263225555419922e-01,7.509191036224365234e-01,7.508289217948913574e-01,7.507362365722656250e-01,7.506532669067382812e-01,7.505708932876586914e-01,7.504881620407104492e-01,7.504059672355651855e-01,7.503233551979064941e-01,7.502409219741821289e-01,7.501583695411682129e-01,7.500761747360229492e-01,7.499937415122985840e-01,7.499113082885742188e-01,7.498288750648498535e-01,7.497465014457702637e-01,7.496641874313354492e-01,7.495818138122558594e-01,7.494994997978210449e-01,7.494173049926757812e-01,7.493342161178588867e-01,7.492480278015136719e-01,7.492232322692871094e-01,7.491447925567626953e-01,7.489906549453735352e-01,7.487094402313232422e-01,7.481949925422668457e-01,7.468065619468688965e-01,7.445429563522338867e-01,7.411780357360839844e-01,7.364837527275085449e-01,7.301293611526489258e-01,7.241361141204833984e-01,7.128683924674987793e-01,6.834290027618408203e-01,6.726975440979003906e-01,6.815985441207885742e-01,6.628314256668090820e-01,6.335841417312622070e-01,5.563653707504272461e-01
5.325868129730224609e-01,5.238302350044250488e-01,5.546779632568359375e-01,5.387858748435974121e-01,5.466816425323486328e-01,5.595352649688720703e-01,5.837609171867370605e-01,5.949355363845825195e-01,6.053987145423889160e-01,6.135213375091552734e-01,6.215340495109558105e-01,6.294589042663574219e-01,6.371035575866699219e-01,6.439103484153747559e-01,6.514099836349487305e-01,6.548170447349548340e-01,6.524887681007385254e-01,6.502541899681091309e-01,6.512501835823059082e-01,6.299350261688232422e-01,6.197460293769836426e-01,5.822492837905883789e-01,5.503389239311218262e-01,5.277192592620849609e-01,5.263193249702453613e-01,5.311850309371948242e-01,5.198292732238769531e-01,4.901610016822814941e-01,4.557964503765106201e-01,4.717136323451995850e-01,4.782300293445587158e-01,5.306668877601623535e-01,5.557788610458374023e-01,5.829384922981262207e-01,6.046329736709594727e-01,6.309099197387695312e-01,6.503750085830688477e-01,6.574114561080932617e-01,6.614390015602111816e-01,6.612148880958557129e-01,6.613842248916625977e-01,6.612300872802734375e-01,6.611357331275939941e-01,6.610429883003234863e-01,6.609554290771484375e-01,6.608677506446838379e-01,6.607803106307983398e-01,6.606926918029785156e-01,6.606051921844482422e-01,6.605175733566284180e-01,6.604301333427429199e-01,6.603425741195678711e-01,6.602551341056823730e-01,6.601676940917968750e-01,6.600801944732666016e-01,6.599927544593811035e-01,6.599053740501403809e-01,6.598179340362548828e-01,6.597306728363037109e-01,6.596432924270629883e-01,6.595553755760192871e-01,6.594625115394592285e-01,6.593965291976928711e-01,6.593357920646667480e-01,6.591243743896484375e-01,6.589143276214599609e-01,6.585935354232788086e-01,6.574351787567138672e-01,6.554378867149353027e-01,6.522563099861145020e-01,6.490366458892822266e-01,6.442110538482666016e-01,6.403441429138183594e-01,6.306531429290771484e-01,6.031798124313354492e-01,5.958082675933837891e-01,6.114171743392944336e-01,5.966662764549255371e-01,5.878663659095764160e-01,5.268003344535827637e-01
5.116005539894104004e-01,4.894217848777770996e-01,5.142395496368408203e-01,4.909909367561340332e-01,4.925741553306579590e-01,5.011551976203918457e-01,5.197576880455017090e-01,5.277076959609985352e-01,5.348435044288635254e-01,5.396805405616760254e-01,5.445507168769836426e-01,5.496577620506286621e-01,5.545866489410400391e-01,5.588422417640686035e-01,5.633187890052795410e-01,5.645275115966796875e-01,5.631695985794067383e-01,5.605237483978271484e-01,5.596566796302795410e-01,5.414459705352783203e-01,5.332093238830566406e-01,5.102025270462036133e-01,4.910770952701568604e-01,4.758893847465515137e-01,4.765906929969787598e-01,4.669817984104156494e-01,4.566619694232940674e-01,4.337466359138488770e-01,4.319184422492980957e-01,4.300277233123779297e-01,4.411143660545349121e-01,4.688140451908111572e-01,4.909323751926422119e-01,5.090914368629455566e-01,5.280346870422363281e-01,5.490530133247375488e-01,5.620132088661193848e-01,5.682718157768249512e-01,5.677719116210937500e-01,5.690919160842895508e-01,5.690903067588806152e-01,5.689249038696289062e-01,5.688320994377136230e-01,5.687460303306579590e-01,5.686592459678649902e-01,5.685724020004272461e-01,5.684856176376342773e-01,5.683988332748413086e-01,5.683121681213378906e-01,5.682252645492553711e-01,5.681385993957519531e-01,5.680516362190246582e-01,5.679650306701660156e-01,5.678780674934387207e-01,5.677917003631591797e-01,5.677049756050109863e-01,5.676184296607971191e-01,5.675317645072937012e-01,5.674450993537902832e-01,5.673586130142211914e-01,5.672714710235595703e-01,5.671787261962890625e-01,5.670929551124572754e-01,5.670521259307861328e-01,5.670204162597656250e-01,5.669441819190979004e-01,5.667047500610351562e-01,5.661624670028686523e-01,5.646530389785766602e-01,5.622224807739257812e-01,5.591621994972229004e-01,5.555467605590820312e-01,5.536048412322998047e-01,5.454275012016296387e-01,5.213684439659118652e-01,5.172595977783203125e-01,5.382852554321289062e-01,5.279625654220581055e-01,5.396017432212829590e-01,4.964661002159118652e-01
4.905958175659179688e-01,4.557286798954010010e-01,4.713622927665710449e-01,4.409445524215698242e-01,4.362795948982238770e-01,4.406357109546661377e-01,4.540582597255706787e-01,4.581377804279327393e-01,4.624643921852111816e-01,4.647881090641021729e-01,4.673462808132171631e-01,4.701612591743469238e-01,4.729012846946716309e-01,4.754074811935424805e-01,4.783858656883239746e-01,4.788993895053863525e-01,4.798648059368133545e-01,4.799026548862457275e-01,4.770860075950622559e-01,4.622573554515838623e-01,4.538827836513519287e-01,4.384188055992126465e-01,4.355949163436889648e-01,4.217698872089385986e-01,4.215664565563201904e-01,4.144994020462036133e-01,4.056693911552429199e-01,3.903148770332336426e-01,3.882147967815399170e-01,3.821791410446166992e-01,3.954991400241851807e-01,4.208085536956787109e-01,4.269561469554901123e-01,4.412904679775238037e-01,4.555875062942504883e-01,4.703093469142913818e-01,4.725909829139709473e-01,4.798186123371124268e-01,4.810583591461181641e-01,4.816855788230895996e-01,4.812273085117340088e-01,4.811607599258422852e-01,4.810875654220581055e-01,4.810162782669067383e-01,4.809433817863464355e-01,4.808708727359771729e-01,4.807978570461273193e-01,4.807250201702117920e-01,4.806522130966186523e-01,4.805796444416046143e-01,4.805067181587219238e-01,4.804342389106750488e-01,4.803613424301147461e-01,4.802887141704559326e-01,4.802160263061523438e-01,4.801433086395263672e-01,4.800707399845123291e-01,4.799981117248535156e-01,4.799256920814514160e-01,4.798531830310821533e-01,4.797803163528442383e-01,4.797041416168212891e-01,4.796209931373596191e-01,4.795557856559753418e-01,4.795421957969665527e-01,4.795491099357604980e-01,4.794711172580718994e-01,4.793809056282043457e-01,4.788102805614471436e-01,4.777833819389343262e-01,4.768612980842590332e-01,4.753001034259796143e-01,4.752709567546844482e-01,4.694232046604156494e-01,4.494268894195556641e-01,4.481880366802215576e-01,4.717357754707336426e-01,4.687339067459106445e-01,4.949430227279663086e-01,4.690696299076080322e-01
4.694172739982604980e-01,4.224281311035156250e-01,4.285602271556854248e-01,3.950829505920410156e-01,3.841186463832855225e-01,3.856833577156066895e-01,3.960978388786315918e-01,3.990358114242553711e-01,4.020573198795318604e-01,4.032478928565979004e-01,4.044592678546905518e-01,4.056683182716369629e-01,4.066715240478515625e-01,4.075069129467010498e-01,4.083829522132873535e-01,4.087944924831390381e-01,4.091110825538635254e-01,4.098948538303375244e-01,4.081089198589324951e-01,3.992251753807067871e-01,3.909507393836975098e-01,3.817646503448486328e-01,3.856352269649505615e-01,3.759100437164306641e-01,3.759112358093261719e-01,3.661713600158691406e-01,3.621826171875000000e-01,3.527438342571258545e-01,3.541947007179260254e-01,3.480644524097442627e-01,3.603866100311279297e-01,3.680565953254699707e-01,3.750849366188049316e-01,3.828944265842437744e-01,3.936466276645660400e-01,4.021571874618530273e-01,4.060265123844146729e-01,4.077142775058746338e-01,4.086973071098327637e-01,4.094247817993164062e-01,4.091391563415527344e-01,4.090795814990997314e-01,4.090074896812438965e-01,4.089489579200744629e-01,4.088914692401885986e-01,4.088337421417236328e-01,4.087760746479034424e-01,4.087183177471160889e-01,4.086607396602630615e-01,4.086030721664428711e-01,4.085455536842346191e-01,4.084879159927368164e-01,4.084304571151733398e-01,4.083730280399322510e-01,4.083154201507568359e-01,4.082579016685485840e-01,4.082005620002746582e-01,4.081429839134216309e-01,4.080856740474700928e-01,4.080282151699066162e-01,4.079716503620147705e-01,4.079137444496154785e-01,4.078591465950012207e-01,4.078088700771331787e-01,4.077778756618499756e-01,4.077584445476531982e-01,4.077785015106201172e-01,4.076848030090332031e-01,4.073041081428527832e-01,4.064702391624450684e-01,4.056291878223419189e-01,4.045429229736328125e-01,4.051945209503173828e-01,4.014989435672760010e-01,3.856332600116729736e-01,3.876439630985260010e-01,4.134649336338043213e-01,4.176866114139556885e-01,4.559955298900604248e-01,4.460434913635253906e-01
4.513972103595733643e-01,3.938283324241638184e-01,3.929919004440307617e-01,3.573023080825805664e-01,3.413682878017425537e-01,3.406592309474945068e-01,3.481050133705139160e-01,3.498257398605346680e-01,3.515205383300781250e-01,3.519412577152252197e-01,3.524578809738159180e-01,3.529207706451416016e-01,3.534018695354461670e-01,3.537679314613342285e-01,3.540444672107696533e-01,3.542902469635009766e-01,3.547647297382354736e-01,3.546501398086547852e-01,3.541516661643981934e-01,3.508392870426177979e-01,3.444204032421112061e-01,3.394006490707397461e-01,3.388349711894989014e-01,3.370674848556518555e-01,3.379824757575988770e-01,3.286577761173248291e-01,3.268118500709533691e-01,3.212021589279174805e-01,3.206049799919128418e-01,3.165709674358367920e-01,3.224920630455017090e-01,3.300762772560119629e-01,3.355019688606262207e-01,3.422566652297973633e-01,3.450754284858703613e-01,3.484572768211364746e-01,3.511059582233428955e-01,3.519672751426696777e-01,3.531116247177124023e-01,3.530888259410858154e-01,3.531034886837005615e-01,3.530504107475280762e-01,3.530051112174987793e-01,3.529639840126037598e-01,3.529229164123535156e-01,3.528816699981689453e-01,3.528407812118530273e-01,3.527994155883789062e-01,3.527585268020629883e-01,3.527174592018127441e-01,3.526764214038848877e-01,3.526353538036346436e-01,3.525941967964172363e-01,3.525532782077789307e-01,3.525121808052062988e-01,3.524712324142456055e-01,3.524304628372192383e-01,3.523894548416137695e-01,3.523483574390411377e-01,3.523074984550476074e-01,3.522668480873107910e-01,3.522260189056396484e-01,3.521828651428222656e-01,3.521541357040405273e-01,3.521151542663574219e-01,3.520597815513610840e-01,3.520634174346923828e-01,3.521077632904052734e-01,3.520569205284118652e-01,3.519794344902038574e-01,3.517202138900756836e-01,3.512642979621887207e-01,3.521004915237426758e-01,3.494713008403778076e-01,3.362847268581390381e-01,3.391535878181457520e-01,3.653053939342498779e-01,3.756708502769470215e-01,4.224329292774200439e-01,4.258127212524414062e-01
4.349682331085205078e-01,3.689455389976501465e-01,3.612757921218872070e-01,3.251667618751525879e-01,3.061312437057495117e-01,3.047574758529663086e-01,3.108630180358886719e-01,3.122482895851135254e-01,3.134067058563232422e-01,3.134195804595947266e-01,3.134014904499053955e-01,3.133929967880249023e-01,3.134748935699462891e-01,3.135284185409545898e-01,3.134636878967285156e-01,3.135747909545898438e-01,3.138329684734344482e-01,3.135922849178314209e-01,3.135792016983032227e-01,3.130293488502502441e-01,3.098472356796264648e-01,3.069329559803009033e-01,3.080687522888183594e-01,3.057823181152343750e-01,3.051996231079101562e-01,2.993627786636352539e-01,2.978548109531402588e-01,2.942461371421813965e-01,2.937336266040802002e-01,2.929770350456237793e-01,2.973923385143280029e-01,3.001241683959960938e-01,3.049093484878540039e-01,3.063178062438964844e-01,3.092948198318481445e-01,3.106844127178192139e-01,3.121621012687683105e-01,3.124531805515289307e-01,3.126816153526306152e-01,3.127727210521697998e-01,3.128306567668914795e-01,3.128052949905395508e-01,3.127771914005279541e-01,3.127471208572387695e-01,3.127173781394958496e-01,3.126874566078186035e-01,3.126574754714965820e-01,3.126278519630432129e-01,3.125980198383331299e-01,3.125680685043334961e-01,3.125382959842681885e-01,3.125083446502685547e-01,3.124785423278808594e-01,3.124486804008483887e-01,3.124189376831054688e-01,3.123891353607177734e-01,3.123593926429748535e-01,3.123295009136199951e-01,3.122999966144561768e-01,3.122702836990356445e-01,3.122406005859375000e-01,3.122109174728393555e-01,3.121815919876098633e-01,3.121498823165893555e-01,3.121191263198852539e-01,3.120891451835632324e-01,3.120484948158264160e-01,3.119969964027404785e-01,3.119720220565795898e-01,3.118555545806884766e-01,3.117194771766662598e-01,3.115012645721435547e-01,3.122439086437225342e-01,3.104164600372314453e-01,2.992250919342041016e-01,3.025834262371063232e-01,3.288148641586303711e-01,3.441845774650573730e-01,3.968225121498107910e-01,4.100998044013977051e-01
4.212126135826110840e-01,3.491297960281372070e-01,3.364082872867584229e-01,2.999938130378723145e-01,2.791705429553985596e-01,2.769944071769714355e-01,2.819466292858123779e-01,2.831124067306518555e-01,2.839958071708679199e-01,2.838852107524871826e-01,2.838465869426727295e-01,2.838444113731384277e-01,2.838354706764221191e-01,2.838051319122314453e-01,2.837786674499511719e-01,2.837426066398620605e-01,2.837949991226196289e-01,2.835903167724609375e-01,2.840108871459960938e-01,2.835209369659423828e-01,2.826324701309204102e-01,2.802786231040954590e-01,2.806945443153381348e-01,2.807960510253906250e-01,2.818609774112701416e-01,2.787964344024658203e-01,2.765958309173583984e-01,2.735903263092041016e-01,2.740570306777954102e-01,2.712121605873107910e-01,2.743584811687469482e-01,2.742969393730163574e-01,2.788707017898559570e-01,2.804470062255859375e-01,2.814514636993408203e-01,2.829115092754364014e-01,2.831286787986755371e-01,2.831173837184906006e-01,2.831550538539886475e-01,2.830870747566223145e-01,2.831492722034454346e-01,2.831432819366455078e-01,2.831218838691711426e-01,2.831002473831176758e-01,2.830784916877746582e-01,2.830568552017211914e-01,2.830352187156677246e-01,2.830135226249694824e-01,2.829920649528503418e-01,2.829701900482177734e-01,2.829486727714538574e-01,2.829270958900451660e-01,2.829053103923797607e-01,2.828837931156158447e-01,2.828620374202728271e-01,2.828406691551208496e-01,2.828188836574554443e-01,2.827976346015930176e-01,2.827758789062500000e-01,2.827540636062622070e-01,2.827326059341430664e-01,2.827112376689910889e-01,2.826893329620361328e-01,2.826684713363647461e-01,2.826468348503112793e-01,2.826218605041503906e-01,2.825984954833984375e-01,2.825890183448791504e-01,2.825797200202941895e-01,2.825786471366882324e-01,2.825597226619720459e-01,2.824510931968688965e-01,2.830913066864013672e-01,2.817806303501129150e-01,2.718569338321685791e-01,2.751324176788330078e-01,3.007355034351348877e-01,3.195588588714599609e-01,3.762948215007781982e-01,3.975770473480224609e-01
4.091756939888000488e-01,3.324909806251525879e-01,3.159784674644470215e-01,2.799494862556457520e-01,2.584229707717895508e-01,2.558318972587585449e-01,2.600260376930236816e-01,2.610188722610473633e-01,2.617917656898498535e-01,2.617064714431762695e-01,2.616660594940185547e-01,2.616435289382934570e-01,2.616272568702697754e-01,2.616107463836669922e-01,2.615681886672973633e-01,2.616260051727294922e-01,2.615042328834533691e-01,2.613594830036163330e-01,2.617133259773254395e-01,2.617489099502563477e-01,2.614056468009948730e-01,2.610765695571899414e-01,2.601411938667297363e-01,2.599602341651916504e-01,2.607535421848297119e-01,2.593480348587036133e-01,2.582851052284240723e-01,2.563309073448181152e-01,2.559294998645782471e-01,2.563984692096710205e-01,2.565115094184875488e-01,2.574418187141418457e-01,2.589679658412933350e-01,2.589238882064819336e-01,2.599275112152099609e-01,2.606223523616790771e-01,2.611582279205322266e-01,2.613019347190856934e-01,2.611961662769317627e-01,2.611867785453796387e-01,2.611427903175354004e-01,2.611455917358398438e-01,2.611289024353027344e-01,2.611123919486999512e-01,2.610959410667419434e-01,2.610793113708496094e-01,2.610629200935363770e-01,2.610464394092559814e-01,2.610300481319427490e-01,2.610135972499847412e-01,2.609970271587371826e-01,2.609805762767791748e-01,2.609642446041107178e-01,2.609476745128631592e-01,2.609310746192932129e-01,2.609147131443023682e-01,2.608984112739562988e-01,2.608816623687744141e-01,2.608652710914611816e-01,2.608489394187927246e-01,2.608323991298675537e-01,2.608160376548767090e-01,2.607997655868530273e-01,2.607830166816711426e-01,2.607664763927459717e-01,2.607496976852416992e-01,2.607323527336120605e-01,2.607168257236480713e-01,2.607014775276184082e-01,2.606860995292663574e-01,2.606705129146575928e-01,2.605921626091003418e-01,2.611103057861328125e-01,2.600645422935485840e-01,2.511669993400573730e-01,2.544451653957366943e-01,2.794564366340637207e-01,3.009921908378601074e-01,3.605816364288330078e-01,3.876313567161560059e-01
3.991097211837768555e-01,3.188912272453308105e-01,2.997268140316009521e-01,2.643874287605285645e-01,2.423042953014373779e-01,2.394166290760040283e-01,2.430769801139831543e-01,2.439673840999603271e-01,2.446587085723876953e-01,2.445951104164123535e-01,2.445626556873321533e-01,2.445477843284606934e-01,2.445351779460906982e-01,2.445196509361267090e-01,2.445072233676910400e-01,2.444740831851959229e-01,2.444755733013153076e-01,2.444586157798767090e-01,2.443464696407318115e-01,2.443937361240386963e-01,2.447199523448944092e-01,2.440146207809448242e-01,2.440902590751647949e-01,2.440845370292663574e-01,2.441574037075042725e-01,2.442561388015747070e-01,2.432673871517181396e-01,2.418012619018554688e-01,2.424520850181579590e-01,2.416409850120544434e-01,2.422813773155212402e-01,2.423546016216278076e-01,2.425651252269744873e-01,2.430605292320251465e-01,2.439266145229339600e-01,2.438520491123199463e-01,2.440892755985260010e-01,2.442257702350616455e-01,2.441767156124114990e-01,2.441929578781127930e-01,2.441596686840057373e-01,2.441518902778625488e-01,2.441385686397552490e-01,2.441258132457733154e-01,2.441127896308898926e-01,2.440997958183288574e-01,2.440870106220245361e-01,2.440740466117858887e-01,2.440613210201263428e-01,2.440481781959533691e-01,2.440353035926818848e-01,2.440226674079895020e-01,2.440094947814941406e-01,2.439965307712554932e-01,2.439838349819183350e-01,2.439709603786468506e-01,2.439579069614410400e-01,2.439452409744262695e-01,2.439322769641876221e-01,2.439193427562713623e-01,2.439064383506774902e-01,2.438934743404388428e-01,2.438806295394897461e-01,2.438680231571197510e-01,2.438548505306243896e-01,2.438417077064514160e-01,2.438284158706665039e-01,2.438148260116577148e-01,2.438018321990966797e-01,2.437886893749237061e-01,2.437757253646850586e-01,2.437117397785186768e-01,2.441362440586090088e-01,2.433007359504699707e-01,2.352217435836791992e-01,2.385336160659790039e-01,2.629306316375732422e-01,2.863649725914001465e-01,3.479783535003662109e-01,3.796810805797576904e-01
3.908084034919738770e-01,3.077777028083801270e-01,2.866269946098327637e-01,2.519674301147460938e-01,2.295316755771636963e-01,2.264043092727661133e-01,2.296702563762664795e-01,2.304601073265075684e-01,2.310816943645477295e-01,2.310270369052886963e-01,2.309999167919158936e-01,2.309892773628234863e-01,2.309797108173370361e-01,2.309695780277252197e-01,2.309564948081970215e-01,2.309507727622985840e-01,2.309353947639465332e-01,2.309100329875946045e-01,2.309218347072601318e-01,2.310023307800292969e-01,2.309173643589019775e-01,2.309472560882568359e-01,2.308349013328552246e-01,2.306842207908630371e-01,2.308976948261260986e-01,2.307361662387847900e-01,2.302989065647125244e-01,2.297190129756927490e-01,2.295313477516174316e-01,2.297627031803131104e-01,2.303063571453094482e-01,2.303242981433868408e-01,2.302177250385284424e-01,2.305426299571990967e-01,2.304132878780364990e-01,2.306046783924102783e-01,2.305883169174194336e-01,2.307450473308563232e-01,2.307441830635070801e-01,2.307098805904388428e-01,2.306964993476867676e-01,2.306767702102661133e-01,2.306670248508453369e-01,2.306563258171081543e-01,2.306458652019500732e-01,2.306355535984039307e-01,2.306250929832458496e-01,2.306147515773773193e-01,2.306044101715087891e-01,2.305941581726074219e-01,2.305836379528045654e-01,2.305733859539031982e-01,2.305631041526794434e-01,2.305526733398437500e-01,2.305423617362976074e-01,2.305319607257843018e-01,2.305216789245605469e-01,2.305112779140472412e-01,2.305007278919219971e-01,2.304904758930206299e-01,2.304802238941192627e-01,2.304698824882507324e-01,2.304593920707702637e-01,2.304491996765136719e-01,2.304388284683227539e-01,2.304283678531646729e-01,2.304180860519409180e-01,2.304077744483947754e-01,2.303973734378814697e-01,2.303871214389801025e-01,2.303764522075653076e-01,2.303230166435241699e-01,2.306786477565765381e-01,2.300024628639221191e-01,2.225876450538635254e-01,2.259107828140258789e-01,2.498057186603546143e-01,2.745895385742187500e-01,3.377253413200378418e-01,3.731974959373474121e-01
3.838097453117370605e-01,2.985772192478179932e-01,2.758285999298095703e-01,2.418442964553833008e-01,2.191891074180603027e-01,2.158565223217010498e-01,2.188119888305664062e-01,2.195133268833160400e-01,2.200795412063598633e-01,2.200319170951843262e-01,2.200087606906890869e-01,2.200004756450653076e-01,2.199917733669281006e-01,2.199837565422058105e-01,2.199751436710357666e-01,2.199633419513702393e-01,2.199567258358001709e-01,2.199470996856689453e-01,2.199338972568511963e-01,2.199419438838958740e-01,2.199323475360870361e-01,2.199275791645050049e-01,2.198682725429534912e-01,2.198662459850311279e-01,2.199108898639678955e-01,2.198897600173950195e-01,2.197894155979156494e-01,2.195986509323120117e-01,2.193522155284881592e-01,2.194533646106719971e-01,2.195160686969757080e-01,2.196330428123474121e-01,2.197429537773132324e-01,2.197633385658264160e-01,2.197763025760650635e-01,2.198492288589477539e-01,2.197919785976409912e-01,2.197476029396057129e-01,2.197762131690979004e-01,2.197629213333129883e-01,2.197591364383697510e-01,2.197446525096893311e-01,2.197357714176177979e-01,2.197275459766387939e-01,2.197188436985015869e-01,2.197103500366210938e-01,2.197018563747406006e-01,2.196932435035705566e-01,2.196847796440124512e-01,2.196762859821319580e-01,2.196678221225738525e-01,2.196592688560485840e-01,2.196508646011352539e-01,2.196422219276428223e-01,2.196337878704071045e-01,2.196254432201385498e-01,2.196169793605804443e-01,2.196081578731536865e-01,2.195999622344970703e-01,2.195914387702941895e-01,2.195829451084136963e-01,2.195744514465332031e-01,2.195660769939422607e-01,2.195574939250946045e-01,2.195489108562469482e-01,2.195404171943664551e-01,2.195320725440979004e-01,2.195235490798950195e-01,2.195150852203369141e-01,2.195065915584564209e-01,2.194974720478057861e-01,2.194523513317108154e-01,2.197575271129608154e-01,2.192085385322570801e-01,2.123397588729858398e-01,2.156685888767242432e-01,2.391524314880371094e-01,2.649228572845458984e-01,3.292255401611328125e-01,3.678054213523864746e-01
3.778366446495056152e-01,2.908431887626647949e-01,2.668061256408691406e-01,2.334576249122619629e-01,2.106575667858123779e-01,2.071475982666015625e-01,2.098514437675476074e-01,2.104750275611877441e-01,2.109924256801605225e-01,2.109505534172058105e-01,2.109305858612060547e-01,2.109234929084777832e-01,2.109164297580718994e-01,2.109091877937316895e-01,2.109021842479705811e-01,2.108948528766632080e-01,2.108870446681976318e-01,2.108793854713439941e-01,2.108731865882873535e-01,2.108652591705322266e-01,2.108622491359710693e-01,2.108495235443115234e-01,2.108395993709564209e-01,2.108556330204010010e-01,2.108241915702819824e-01,2.108230590820312500e-01,2.108345329761505127e-01,2.106978595256805420e-01,2.106386125087738037e-01,2.105983495712280273e-01,2.106364667415618896e-01,2.107167840003967285e-01,2.107593119144439697e-01,2.107606530189514160e-01,2.107535004615783691e-01,2.107415199279785156e-01,2.107657492160797119e-01,2.107385993003845215e-01,2.107374966144561768e-01,2.107202112674713135e-01,2.107156217098236084e-01,2.107103466987609863e-01,2.107031643390655518e-01,2.106958925724029541e-01,2.106887996196746826e-01,2.106819450855255127e-01,2.106747329235076904e-01,2.106676101684570312e-01,2.106606066226959229e-01,2.106533348560333252e-01,2.106463313102722168e-01,2.106393277645111084e-01,2.106321454048156738e-01,2.106249928474426270e-01,2.106181681156158447e-01,2.106109559535980225e-01,2.106039822101593018e-01,2.105967104434967041e-01,2.105898559093475342e-01,2.105824053287506104e-01,2.105755805969238281e-01,2.105684578418731689e-01,2.105613350868225098e-01,2.105543017387390137e-01,2.105472087860107422e-01,2.105401456356048584e-01,2.105331718921661377e-01,2.105262577533721924e-01,2.105189561843872070e-01,2.105119824409484863e-01,2.105041444301605225e-01,2.104654908180236816e-01,2.107315361499786377e-01,2.102846205234527588e-01,2.038691043853759766e-01,2.071990072727203369e-01,2.303342521190643311e-01,2.568471133708953857e-01,3.220586478710174561e-01,3.632431626319885254e-01
3.726795315742492676e-01,2.842502295970916748e-01,2.591607570648193359e-01,2.263984680175781250e-01,2.035062015056610107e-01,1.998412311077117920e-01,2.023385167121887207e-01,2.028934955596923828e-01,2.033697366714477539e-01,2.033323049545288086e-01,2.033147215843200684e-01,2.033087611198425293e-01,2.033029198646545410e-01,2.032967507839202881e-01,2.032908499240875244e-01,2.032847106456756592e-01,2.032788395881652832e-01,2.032724916934967041e-01,2.032668292522430420e-01,2.032609283924102783e-01,2.032544314861297607e-01,2.032494843006134033e-01,2.032439410686492920e-01,2.032361328601837158e-01,2.032195627689361572e-01,2.032399177551269531e-01,2.032157182693481445e-01,2.032145857810974121e-01,2.031755745410919189e-01,2.031599581241607666e-01,2.031329572200775146e-01,2.031691074371337891e-01,2.031602561473846436e-01,2.031742930412292480e-01,2.031712234020233154e-01,2.031590342521667480e-01,2.031587660312652588e-01,2.031556069850921631e-01,2.031522989273071289e-01,2.031432688236236572e-01,2.031331360340118408e-01,2.031286358833312988e-01,2.031225264072418213e-01,2.031165361404418945e-01,2.031105756759643555e-01,2.031044661998748779e-01,2.030983865261077881e-01,2.030926048755645752e-01,2.030868232250213623e-01,2.030805647373199463e-01,2.030744254589080811e-01,2.030685544013977051e-01,2.030625045299530029e-01,2.030566334724426270e-01,2.030508220195770264e-01,2.030447423458099365e-01,2.030387818813323975e-01,2.030327916145324707e-01,2.030269205570220947e-01,2.030207216739654541e-01,2.030148506164550781e-01,2.030088007450103760e-01,2.030028104782104492e-01,2.029968202114105225e-01,2.029908001422882080e-01,2.029849886894226074e-01,2.029790878295898438e-01,2.029730081558227539e-01,2.029670476913452148e-01,2.029608786106109619e-01,2.029542624950408936e-01,2.029206156730651855e-01,2.031561136245727539e-01,2.027914226055145264e-01,1.967580318450927734e-01,2.000862061977386475e-01,2.229199111461639404e-01,2.500026524066925049e-01,3.159319758415222168e-01,3.593317270278930664e-01
3.681830763816833496e-01,2.785645127296447754e-01,2.526051998138427734e-01,2.203786075115203857e-01,1.974305510520935059e-01,1.936291456222534180e-01,1.959543824195861816e-01,1.964493095874786377e-01,1.968899071216583252e-01,1.968566179275512695e-01,1.968409419059753418e-01,1.968359351158142090e-01,1.968307793140411377e-01,1.968255937099456787e-01,1.968204081058502197e-01,1.968151628971099854e-01,1.968101561069488525e-01,1.968051493167877197e-01,1.967999041080474854e-01,1.967945992946624756e-01,1.967893838882446289e-01,1.967843472957611084e-01,1.967788338661193848e-01,1.967725753784179688e-01,1.967658400535583496e-01,1.967674493789672852e-01,1.967618465423583984e-01,1.967629194259643555e-01,1.967465579509735107e-01,1.967361271381378174e-01,1.967337429523468018e-01,1.967178881168365479e-01,1.967220008373260498e-01,1.967215240001678467e-01,1.967180073261260986e-01,1.967156231403350830e-01,1.967076659202575684e-01,1.967017054557800293e-01,1.966979801654815674e-01,1.966920793056488037e-01,1.966871917247772217e-01,1.966814696788787842e-01,1.966766417026519775e-01,1.966713666915893555e-01,1.966661810874938965e-01,1.966611444950103760e-01,1.966559588909149170e-01,1.966508924961090088e-01,1.966456770896911621e-01,1.966405808925628662e-01,1.966356039047241211e-01,1.966304779052734375e-01,1.966254413127899170e-01,1.966201364994049072e-01,1.966149210929870605e-01,1.966100037097930908e-01,1.966046094894409180e-01,1.965995430946350098e-01,1.965945065021514893e-01,1.965893805027008057e-01,1.965841650962829590e-01,1.965791285037994385e-01,1.965739428997039795e-01,1.965687572956085205e-01,1.965638399124145508e-01,1.965587437152862549e-01,1.965534985065460205e-01,1.965484917163848877e-01,1.965436339378356934e-01,1.965383887290954590e-01,1.965324878692626953e-01,1.965027749538421631e-01,1.967134773731231689e-01,1.964169144630432129e-01,1.907085776329040527e-01,1.940329670906066895e-01,2.166028916835784912e-01,2.441290915012359619e-01,3.106339573860168457e-01,3.559396266937255859e-01
3.642283082008361816e-01,2.736121714115142822e-01,2.469257414340972900e-01,2.151871621608734131e-01,1.922084987163543701e-01,1.882869303226470947e-01,1.904666721820831299e-01,1.909086406230926514e-01,1.913186013698577881e-01,1.912884116172790527e-01,1.912743449211120605e-01,1.912699043750762939e-01,1.912655830383300781e-01,1.912611722946166992e-01,1.912565827369689941e-01,1.912522614002227783e-01,1.912476420402526855e-01,1.912431418895721436e-01,1.912387311458587646e-01,1.912344694137573242e-01,1.912299692630767822e-01,1.912254095077514648e-01,1.912207305431365967e-01,1.912161707878112793e-01,1.912117004394531250e-01,1.912072598934173584e-01,1.912036240100860596e-01,1.911987960338592529e-01,1.911946833133697510e-01,1.911902725696563721e-01,1.911870241165161133e-01,1.911824047565460205e-01,1.911768913269042969e-01,1.911721527576446533e-01,1.911684572696685791e-01,1.911637187004089355e-01,1.911591291427612305e-01,1.911539435386657715e-01,1.911497712135314941e-01,1.911453306674957275e-01,1.911411881446838379e-01,1.911367774009704590e-01,1.911322772502899170e-01,1.911278665065765381e-01,1.911233365535736084e-01,1.911189556121826172e-01,1.911144852638244629e-01,1.911101639270782471e-01,1.911057829856872559e-01,1.911013424396514893e-01,1.910969018936157227e-01,1.910923421382904053e-01,1.910881102085113525e-01,1.910834312438964844e-01,1.910790503025054932e-01,1.910745799541473389e-01,1.910702288150787354e-01,1.910658180713653564e-01,1.910612583160400391e-01,1.910567879676818848e-01,1.910525262355804443e-01,1.910479962825775146e-01,1.910435855388641357e-01,1.910392940044403076e-01,1.910349428653717041e-01,1.910302340984344482e-01,1.910260021686553955e-01,1.910215318202972412e-01,1.910170912742614746e-01,1.910127401351928711e-01,1.910075247287750244e-01,1.909811496734619141e-01,1.911716759204864502e-01,1.909317076206207275e-01,1.855026781558990479e-01,1.888225376605987549e-01,2.111587226390838623e-01,2.390352785587310791e-01,3.060062825679779053e-01,3.529695272445678711e-01
3.607218265533447266e-01,2.692633867263793945e-01,2.419597804546356201e-01,2.106666564941406250e-01,1.876747012138366699e-01,1.836438477039337158e-01,1.856961548328399658e-01,1.860910058021545410e-01,1.864744126796722412e-01,1.864471733570098877e-01,1.864343583583831787e-01,1.864303350448608398e-01,1.864265501499176025e-01,1.864226162433624268e-01,1.864188611507415771e-01,1.864148080348968506e-01,1.864110529422760010e-01,1.864072084426879883e-01,1.864034533500671387e-01,1.863993704319000244e-01,1.863956153392791748e-01,1.863916218280792236e-01,1.863877177238464355e-01,1.863838136196136475e-01,1.863799393177032471e-01,1.863760948181152344e-01,1.863721907138824463e-01,1.863681972026824951e-01,1.863644421100616455e-01,1.863606572151184082e-01,1.863566339015960693e-01,1.863527595996856689e-01,1.863489449024200439e-01,1.863451302051544189e-01,1.863411068916320801e-01,1.863373517990112305e-01,1.863333582878112793e-01,1.863295137882232666e-01,1.863257586956024170e-01,1.863217353820800781e-01,1.863180696964263916e-01,1.863140761852264404e-01,1.863100826740264893e-01,1.863064169883728027e-01,1.863023936748504639e-01,1.862985193729400635e-01,1.862947642803192139e-01,1.862910091876983643e-01,1.862869262695312500e-01,1.862831413745880127e-01,1.862790584564208984e-01,1.862755119800567627e-01,1.862716078758239746e-01,1.862676739692687988e-01,1.862637996673583984e-01,1.862599551677703857e-01,1.862560808658599854e-01,1.862522959709167480e-01,1.862484514713287354e-01,1.862444281578063965e-01,1.862405836582183838e-01,1.862367689609527588e-01,1.862329542636871338e-01,1.862291097640991211e-01,1.862252652645111084e-01,1.862212717533111572e-01,1.862176656723022461e-01,1.862136125564575195e-01,1.862096786499023438e-01,1.862057447433471680e-01,1.862010061740875244e-01,1.861780285835266113e-01,1.863516867160797119e-01,1.861594319343566895e-01,1.809746325016021729e-01,1.842892169952392578e-01,2.064180076122283936e-01,2.345691919326782227e-01,3.019180893898010254e-01,3.503371775150299072e-01
3.576369285583496094e-01,2.654598951339721680e-01,2.376323938369750977e-01,2.067413330078125000e-01,1.837365627288818359e-01,1.796097159385681152e-01,1.815574765205383301e-01,1.819106340408325195e-01,1.822711229324340820e-01,1.822459697723388672e-01,1.822338998317718506e-01,1.822305619716644287e-01,1.822270154953002930e-01,1.822236776351928711e-01,1.822202503681182861e-01,1.822166740894317627e-01,1.822131872177124023e-01,1.822100281715393066e-01,1.822064816951751709e-01,1.822030842304229736e-01,1.821997463703155518e-01,1.821963489055633545e-01,1.821928918361663818e-01,1.821894645690917969e-01,1.821861565113067627e-01,1.821826398372650146e-01,1.821792721748352051e-01,1.821758449077606201e-01,1.821724474430084229e-01,1.821691095829010010e-01,1.821655631065368652e-01,1.821622848510742188e-01,1.821587383747100830e-01,1.821552813053131104e-01,1.821519434452056885e-01,1.821485757827758789e-01,1.821450293064117432e-01,1.821416914463043213e-01,1.821382641792297363e-01,1.821350157260894775e-01,1.821314692497253418e-01,1.821281313896179199e-01,1.821247935295104980e-01,1.821211576461791992e-01,1.821178197860717773e-01,1.821144223213195801e-01,1.821111142635345459e-01,1.821075379848480225e-01,1.821042597293853760e-01,1.821008622646331787e-01,1.820975244045257568e-01,1.820941865444183350e-01,1.820908784866333008e-01,1.820872426033020020e-01,1.820838451385498047e-01,1.820803880691528320e-01,1.820770204067230225e-01,1.820736825466156006e-01,1.820701658725738525e-01,1.820665597915649414e-01,1.820632815361022949e-01,1.820598840713500977e-01,1.820566058158874512e-01,1.820532679557800293e-01,1.820496916770935059e-01,1.820464432239532471e-01,1.820428967475891113e-01,1.820395290851593018e-01,1.820363104343414307e-01,1.820330321788787842e-01,1.820286512374877930e-01,1.820075809955596924e-01,1.821663975715637207e-01,1.820145249366760254e-01,1.770395040512084961e-01,1.803421378135681152e-01,2.022813558578491211e-01,2.306680977344512939e-01,2.983104586601257324e-01,3.479937016963958740e-01
