5.856290459632873535e-01,6.095345616340637207e-01,6.510716080665588379e-01,6.518869400024414062e-01,6.743693351745605469e-01,6.974387764930725098e-01,7.324485778808593750e-01,7.537954449653625488e-01,7.752488851547241211e-01,7.940108776092529297e-01,8.125059008598327637e-01,8.297258615493774414e-01,8.440299034118652344e-01,8.575044870376586914e-01,8.692822456359863281e-01,8.801767826080322266e-01,8.816251754760742188e-01,8.756059408187866211e-01,8.636737465858459473e-01,8.389495611190795898e-01,8.016844987869262695e-01,7.410537600517272949e-01,6.247547864913940430e-01,4.922974705696105957e-01,4.185006022453308105e-01,3.743220865726470947e-01,3.291415870189666748e-01,2.953194975852966309e-01,2.758792340755462646e-01,2.718211412429809570e-01,2.709119915962219238e-01,2.755210399627685547e-01,2.886130213737487793e-01,3.135669231414794922e-01,3.307836353778839111e-01,4.004474580287933350e-01,4.636892676353454590e-01,5.335190892219543457e-01,6.329268217086791992e-01,7.121269702911376953e-01,7.821453213691711426e-01,8.324165940284729004e-01,8.596255779266357422e-01,8.774048089981079102e-01,8.855993747711181641e-01,8.908424377441406250e-01,8.954323530197143555e-01,8.967979550361633301e-01,8.971538543701171875e-01,8.974611163139343262e-01,8.975127935409545898e-01,8.974846601486206055e-01,8.974806666374206543e-01,8.974796533584594727e-01,8.974796533584594727e-01,8.974796533584594727e-01,8.974796533584594727e-01,8.974796533584594727e-01,8.974796533584594727e-01,8.974796533584594727e-01,8.974802494049072266e-01,8.974833488464355469e-01,8.974843025207519531e-01,8.975172042846679688e-01,8.973144292831420898e-01,8.965841531753540039e-01,8.951638936996459961e-01,8.932743072509765625e-01,8.911126852035522461e-01,8.871735334396362305e-01,8.810299634933471680e-01,8.720040321350097656e-01,8.622958660125732422e-01,8.480080962181091309e-01,8.182260394096374512e-01,7.959268689155578613e-01,7.857898473739624023e-01,7.580462098121643066e-01,7.063727378845214844e-01,6.076331138610839844e-01
5.862386226654052734e-01,6.089720726013183594e-01,6.536799073219299316e-01,6.547656655311584473e-01,6.780838966369628906e-01,7.019334435462951660e-01,7.384440302848815918e-01,7.597756981849670410e-01,7.806830406188964844e-01,7.996260523796081543e-01,8.179718255996704102e-01,8.352571129798889160e-01,8.500397205352783203e-01,8.632792234420776367e-01,8.757181167602539062e-01,8.864523768424987793e-01,8.892979621887207031e-01,8.869485259056091309e-01,8.758383989334106445e-01,8.515310287475585938e-01,8.158860206604003906e-01,7.589533329010009766e-01,6.493780612945556641e-01,5.184788703918457031e-01,4.420657455921173096e-01,3.836509585380554199e-01,3.363437056541442871e-01,2.980068922042846680e-01,2.816525101661682129e-01,2.727925181388854980e-01,2.716781795024871826e-01,2.756450176239013672e-01,2.918196320533752441e-01,3.103676736354827881e-01,3.290500044822692871e-01,3.946178555488586426e-01,4.436878263950347900e-01,5.271352529525756836e-01,6.177700757980346680e-01,7.067844271659851074e-01,7.752341628074645996e-01,8.290555477142333984e-01,8.566575050354003906e-01,8.767706155776977539e-01,8.899956941604614258e-01,8.962746858596801758e-01,9.008339643478393555e-01,9.020320177078247070e-01,9.027858972549438477e-01,9.030921459197998047e-01,9.032206535339355469e-01,9.031448364257812500e-01,9.031379222869873047e-01,9.031499028205871582e-01,9.031499028205871582e-01,9.031499028205871582e-01,9.031499028205871582e-01,9.031499028205871582e-01,9.031499028205871582e-01,9.031499028205871582e-01,9.031505584716796875e-01,9.031525850296020508e-01,9.031727313995361328e-01,9.031926393508911133e-01,9.029681682586669922e-01,9.022151231765747070e-01,9.009348154067993164e-01,8.995032906532287598e-01,8.969997167587280273e-01,8.931800127029418945e-01,8.870208263397216797e-01,8.788362741470336914e-01,8.685364723205566406e-01,8.554227948188781738e-01,8.276208639144897461e-01,8.058081865310668945e-01,7.977412343025207520e-01,7.731668949127197266e-01,7.197265625000000000e-01,6.134564280509948730e-01
5.892088413238525391e-01,6.141215562820434570e-01,6.574165225028991699e-01,6.579458713531494141e-01,6.818144917488098145e-01,7.059258818626403809e-01,7.424401044845581055e-01,7.638150453567504883e-01,7.844154834747314453e-01,8.029772043228149414e-01,8.210768103599548340e-01,8.377180099487304688e-01,8.528491854667663574e-01,8.658478260040283203e-01,8.779584765434265137e-01,8.881990909576416016e-01,8.909831047058105469e-01,8.905417919158935547e-01,8.823443651199340820e-01,8.588891029357910156e-01,8.331375718116760254e-01,7.705221176147460938e-01,6.786835789680480957e-01,5.359349250793457031e-01,4.497937858104705811e-01,3.843470811843872070e-01,3.467209041118621826e-01,3.070611357688903809e-01,2.847267985343933105e-01,2.693943977355957031e-01,2.719532251358032227e-01,2.792342305183410645e-01,2.887899279594421387e-01,3.024207651615142822e-01,3.447240293025970459e-01,3.845238387584686279e-01,4.487797021865844727e-01,5.318004488945007324e-01,6.243498325347900391e-01,7.039806246757507324e-01,7.565945982933044434e-01,8.163374662399291992e-01,8.564645051956176758e-01,8.781692981719970703e-01,8.923385143280029297e-01,8.960930109024047852e-01,9.005452990531921387e-01,9.042183160781860352e-01,9.051583409309387207e-01,9.052734375000000000e-01,9.055197238922119141e-01,9.055964350700378418e-01,9.055895209312438965e-01,9.055932760238647461e-01,9.055932760238647461e-01,9.055932760238647461e-01,9.055932760238647461e-01,9.055932760238647461e-01,9.055932760238647461e-01,9.055932760238647461e-01,9.055936336517333984e-01,9.055963754653930664e-01,9.056216478347778320e-01,9.056230783462524414e-01,9.053970575332641602e-01,9.047082662582397461e-01,9.036166667938232422e-01,9.019733667373657227e-01,8.994528651237487793e-01,8.957053422927856445e-01,8.895952701568603516e-01,8.807392716407775879e-01,8.713248968124389648e-01,8.590172529220581055e-01,8.305093050003051758e-01,8.089796304702758789e-01,8.007302284240722656e-01,7.750726938247680664e-01,7.215907573699951172e-01,6.156187653541564941e-01
5.887278318405151367e-01,6.143665313720703125e-01,6.568009257316589355e-01,6.576659679412841797e-01,6.813173294067382812e-01,7.055895328521728516e-01,7.419076561927795410e-01,7.633270025253295898e-01,7.840607166290283203e-01,8.025950193405151367e-01,8.203086256980895996e-01,8.370773792266845703e-01,8.520721793174743652e-01,8.652451634407043457e-01,8.773285746574401855e-01,8.871893882751464844e-01,8.915129899978637695e-01,8.901107311248779297e-01,8.819485306739807129e-01,8.618081808090209961e-01,8.389807939529418945e-01,7.900201082229614258e-01,6.913461089134216309e-01,5.415586233139038086e-01,4.529313445091247559e-01,3.971229195594787598e-01,3.537378907203674316e-01,3.236566781997680664e-01,2.812876105308532715e-01,2.726846933364868164e-01,2.697748839855194092e-01,2.832531332969665527e-01,2.928732037544250488e-01,3.051293194293975830e-01,3.427519202232360840e-01,3.737798333168029785e-01,4.522463083267211914e-01,5.279759168624877930e-01,6.117164492607116699e-01,6.785566210746765137e-01,7.501158714294433594e-01,8.090623617172241211e-01,8.482756614685058594e-01,8.705254793167114258e-01,8.884733915328979492e-01,8.958188295364379883e-01,8.992600440979003906e-01,9.024797081947326660e-01,9.048624038696289062e-01,9.049857854843139648e-01,9.052981138229370117e-01,9.054080843925476074e-01,9.053198099136352539e-01,9.053092002868652344e-01,9.053092002868652344e-01,9.053092002868652344e-01,9.053092002868652344e-01,9.053092002868652344e-01,9.053092002868652344e-01,9.053092002868652344e-01,9.053095579147338867e-01,9.053115844726562500e-01,9.053359031677246094e-01,9.053479433059692383e-01,9.051188230514526367e-01,9.044790267944335938e-01,9.033901691436767578e-01,9.015982747077941895e-01,8.991197943687438965e-01,8.952253460884094238e-01,8.887363672256469727e-01,8.801137804985046387e-01,8.711247444152832031e-01,8.580775260925292969e-01,8.291854262351989746e-01,8.083139657974243164e-01,8.007336854934692383e-01,7.745556235313415527e-01,7.219367623329162598e-01,6.160219907760620117e-01
5.887535214424133301e-01,6.143559217453002930e-01,6.569752097129821777e-01,6.578218340873718262e-01,6.813718080520629883e-01,7.055993080139160156e-01,7.419756054878234863e-01,7.633657455444335938e-01,7.841252088546752930e-01,8.027312159538269043e-01,8.204540610313415527e-01,8.368877172470092773e-01,8.519523143768310547e-01,8.651901483535766602e-01,8.771677017211914062e-01,8.868768215179443359e-01,8.926038742065429688e-01,8.922641277313232422e-01,8.827139735221862793e-01,8.650434017181396484e-01,8.414788842201232910e-01,7.935936450958251953e-01,7.158233523368835449e-01,5.503147840499877930e-01,4.736432433128356934e-01,4.227273464202880859e-01,3.556419610977172852e-01,3.270862698554992676e-01,2.859877943992614746e-01,2.752094268798828125e-01,2.724797427654266357e-01,2.761421203613281250e-01,2.873601317405700684e-01,3.092814087867736816e-01,3.502668738365173340e-01,3.924923241138458252e-01,4.430384039878845215e-01,5.319102406501770020e-01,6.032563447952270508e-01,6.879871487617492676e-01,7.459919452667236328e-01,8.087412714958190918e-01,8.480770587921142578e-01,8.670265674591064453e-01,8.802656531333923340e-01,8.968178033828735352e-01,8.981742858886718750e-01,9.015935063362121582e-01,9.040347337722778320e-01,9.046025872230529785e-01,9.050568342208862305e-01,9.053750038146972656e-01,9.053254127502441406e-01,9.053338766098022461e-01,9.053338766098022461e-01,9.053338766098022461e-01,9.053338766098022461e-01,9.053338766098022461e-01,9.053338766098022461e-01,9.053338766098022461e-01,9.053341150283813477e-01,9.053356647491455078e-01,9.053573608398437500e-01,9.053782224655151367e-01,9.051487445831298828e-01,9.045405387878417969e-01,9.034007787704467773e-01,9.016119837760925293e-01,8.991035223007202148e-01,8.950778245925903320e-01,8.886003494262695312e-01,8.802766203880310059e-01,8.708729743957519531e-01,8.577384948730468750e-01,8.292543292045593262e-01,8.083463907241821289e-01,8.006073236465454102e-01,7.745698690414428711e-01,7.219303846359252930e-01,6.160483956336975098e-01
5.887327790260314941e-01,6.143195033073425293e-01,6.569502353668212891e-01,6.577833294868469238e-01,6.813430786132812500e-01,7.055718898773193359e-01,7.419344782829284668e-01,7.633387446403503418e-01,7.841008901596069336e-01,8.027130365371704102e-01,8.204678297042846680e-01,8.369163274765014648e-01,8.518153429031372070e-01,8.651390671730041504e-01,8.768247365951538086e-01,8.870686888694763184e-01,8.929513692855834961e-01,8.923720121383666992e-01,8.829700946807861328e-01,8.664461374282836914e-01,8.446873426437377930e-01,8.045845031738281250e-01,7.350369691848754883e-01,5.735748410224914551e-01,4.832949042320251465e-01,4.182215929031372070e-01,3.734797835350036621e-01,3.292257189750671387e-01,3.094716072082519531e-01,2.773144841194152832e-01,2.749195694923400879e-01,2.881976366043090820e-01,3.046966195106506348e-01,3.266561031341552734e-01,3.465594947338104248e-01,3.853399753570556641e-01,4.578411579132080078e-01,5.551243424415588379e-01,6.027617454528808594e-01,6.935653090476989746e-01,7.425575256347656250e-01,7.911707162857055664e-01,8.387312889099121094e-01,8.643642663955688477e-01,8.747361898422241211e-01,8.917599916458129883e-01,8.980780243873596191e-01,8.999968767166137695e-01,9.032848477363586426e-01,9.043273925781250000e-01,9.049335718154907227e-01,9.051839113235473633e-01,9.052842855453491211e-01,9.053283333778381348e-01,9.053283333778381348e-01,9.053283333778381348e-01,9.053283333778381348e-01,9.053283333778381348e-01,9.053283333778381348e-01,9.053283333778381348e-01,9.053285717964172363e-01,9.053298234939575195e-01,9.053541421890258789e-01,9.053707122802734375e-01,9.051675796508789062e-01,9.045493602752685547e-01,9.033930897712707520e-01,9.016164541244506836e-01,8.990688323974609375e-01,8.949472308158874512e-01,8.886448740959167480e-01,8.801651597023010254e-01,8.707162141799926758e-01,8.578235507011413574e-01,8.292675614356994629e-01,8.081752061843872070e-01,8.005639314651489258e-01,7.745736837387084961e-01,7.219691276550292969e-01,6.160028576850891113e-01
5.887260437011718750e-01,6.143086552619934082e-01,6.569376587867736816e-01,6.577689647674560547e-01,6.813266277313232422e-01,7.055540084838867188e-01,7.419203519821166992e-01,7.633179426193237305e-01,7.840822339057922363e-01,8.027039766311645508e-01,8.204586505889892578e-01,8.369138836860656738e-01,8.518265485763549805e-01,8.650697469711303711e-01,8.766699433326721191e-01,8.871766328811645508e-01,8.941042423248291016e-01,8.927470445632934570e-01,8.852230310440063477e-01,8.734229803085327148e-01,8.511828184127807617e-01,8.146797418594360352e-01,7.423819303512573242e-01,6.050611138343811035e-01,4.955688416957855225e-01,4.478695690631866455e-01,4.106934070587158203e-01,3.638349175453186035e-01,3.004098236560821533e-01,2.789026498794555664e-01,2.817158997058868408e-01,2.921361923217773438e-01,3.038786053657531738e-01,3.309490084648132324e-01,3.513342142105102539e-01,3.852720856666564941e-01,4.951151311397552490e-01,5.580274462699890137e-01,6.325042247772216797e-01,6.924540996551513672e-01,7.409884929656982422e-01,7.833440303802490234e-01,8.333446979522705078e-01,8.678118586540222168e-01,8.750033378601074219e-01,8.852331042289733887e-01,8.973288536071777344e-01,9.005420207977294922e-01,9.026962518692016602e-01,9.035170078277587891e-01,9.046968817710876465e-01,9.050383567810058594e-01,9.052872657775878906e-01,9.053283333778381348e-01,9.053283333778381348e-01,9.053283333778381348e-01,9.053283333778381348e-01,9.053283333778381348e-01,9.053283333778381348e-01,9.053283333778381348e-01,9.053285121917724609e-01,9.053297042846679688e-01,9.053524732589721680e-01,9.053744077682495117e-01,9.051620960235595703e-01,9.045385122299194336e-01,9.033941030502319336e-01,9.016329050064086914e-01,8.990533351898193359e-01,8.949611186981201172e-01,8.886350989341735840e-01,8.801287412643432617e-01,8.707867860794067383e-01,8.578428030014038086e-01,8.292040824890136719e-01,8.081853389739990234e-01,8.005917072296142578e-01,7.745996713638305664e-01,7.219775319099426270e-01,6.160143613815307617e-01
5.887190699577331543e-01,6.142975091934204102e-01,6.569248437881469727e-01,6.577541232109069824e-01,6.813107728958129883e-01,7.055371999740600586e-01,7.419029474258422852e-01,7.633033990859985352e-01,7.840654850006103516e-01,8.026869297027587891e-01,8.204486370086669922e-01,8.369042873382568359e-01,8.518162965774536133e-01,8.650749325752258301e-01,8.766511678695678711e-01,8.867490291595458984e-01,8.940891027450561523e-01,8.924672007560729980e-01,8.851692676544189453e-01,8.762063980102539062e-01,8.567523360252380371e-01,8.240565061569213867e-01,7.674813270568847656e-01,6.295608282089233398e-01,5.324934720993041992e-01,4.861649572849273682e-01,4.269419908523559570e-01,3.874820768833160400e-01,3.205729126930236816e-01,3.126378655433654785e-01,2.982413172721862793e-01,3.031945526599884033e-01,3.196090757846832275e-01,3.560832142829895020e-01,3.496917188167572021e-01,4.087985455989837646e-01,4.923090934753417969e-01,5.984553098678588867e-01,6.554311513900756836e-01,6.954085826873779297e-01,7.628250122070312500e-01,7.956858873367309570e-01,8.355780243873596191e-01,8.678762912750244141e-01,8.775740861892700195e-01,8.784886598587036133e-01,8.926594853401184082e-01,8.982850313186645508e-01,9.015617370605468750e-01,9.036734104156494141e-01,9.043758511543273926e-01,9.050632715225219727e-01,9.052653312683105469e-01,9.053283333778381348e-01,9.053283333778381348e-01,9.053283333778381348e-01,9.053283333778381348e-01,9.053283333778381348e-01,9.053283333778381348e-01,9.053283333778381348e-01,9.053285121917724609e-01,9.053297042846679688e-01,9.053524732589721680e-01,9.053735136985778809e-01,9.051607847213745117e-01,9.045398235321044922e-01,9.033987522125244141e-01,9.016398787498474121e-01,8.990610241889953613e-01,8.949521780014038086e-01,8.886380195617675781e-01,8.801606297492980957e-01,8.707982301712036133e-01,8.578365445137023926e-01,8.292232155799865723e-01,8.082067966461181641e-01,8.006074428558349609e-01,7.746146321296691895e-01,7.219915986061096191e-01,6.160251498222351074e-01
5.887122154235839844e-01,6.142863631248474121e-01,6.569120287895202637e-01,6.577394008636474609e-01,6.812946200370788574e-01,7.055208683013916016e-01,7.418866157531738281e-01,7.632868885993957520e-01,7.840502262115478516e-01,8.026716709136962891e-01,8.204344511032104492e-01,8.368926048278808594e-01,8.518106937408447266e-01,8.650804758071899414e-01,8.767119646072387695e-01,8.868137598037719727e-01,8.942006826400756836e-01,8.931673765182495117e-01,8.892385959625244141e-01,8.839057087898254395e-01,8.628181219100952148e-01,8.384506702423095703e-01,7.848354578018188477e-01,6.638022661209106445e-01,5.942019224166870117e-01,5.277434587478637695e-01,4.810361862182617188e-01,4.356712698936462402e-01,3.838337063789367676e-01,3.372918963432312012e-01,3.148212432861328125e-01,3.067267537117004395e-01,3.426569104194641113e-01,3.582309484481811523e-01,3.608482480049133301e-01,4.262657463550567627e-01,5.194162726402282715e-01,6.334495544433593750e-01,6.806132197380065918e-01,7.144694328308105469e-01,7.832818031311035156e-01,8.053305149078369141e-01,8.293536305427551270e-01,8.621357083320617676e-01,8.781454563140869141e-01,8.838986158370971680e-01,8.918878436088562012e-01,8.979749679565429688e-01,9.024012088775634766e-01,9.037182331085205078e-01,9.044014215469360352e-01,9.051520824432373047e-01,9.052742719650268555e-01,9.053283333778381348e-01,9.053283333778381348e-01,9.053283333778381348e-01,9.053283333778381348e-01,9.053283333778381348e-01,9.053283333778381348e-01,9.053283333778381348e-01,9.053285121917724609e-01,9.053297042846679688e-01,9.053523540496826172e-01,9.053736329078674316e-01,9.051607847213745117e-01,9.045403599739074707e-01,9.034001827239990234e-01,9.016417264938354492e-01,8.990640044212341309e-01,8.949552774429321289e-01,8.886443376541137695e-01,8.801692128181457520e-01,8.708068132400512695e-01,8.578470945358276367e-01,8.292402029037475586e-01,8.082246780395507812e-01,8.006237149238586426e-01,7.746311426162719727e-01,7.220053076744079590e-01,6.160335540771484375e-01
5.887053012847900391e-01,6.142750978469848633e-01,6.568989753723144531e-01,6.577243804931640625e-01,6.812783479690551758e-01,7.055042386054992676e-01,7.418699264526367188e-01,7.632706165313720703e-01,7.840343713760375977e-01,8.026565313339233398e-01,8.204203248023986816e-01,8.368796110153198242e-01,8.517984151840209961e-01,8.650684356689453125e-01,8.766280412673950195e-01,8.867154121398925781e-01,8.937097787857055664e-01,8.943737149238586426e-01,8.914465904235839844e-01,8.873965144157409668e-01,8.759869337081909180e-01,8.549228906631469727e-01,8.098533153533935547e-01,7.097697854042053223e-01,6.289086341857910156e-01,5.887479186058044434e-01,5.487266778945922852e-01,5.138689875602722168e-01,4.428535401821136475e-01,3.732247650623321533e-01,3.397820591926574707e-01,3.439951837062835693e-01,3.727905154228210449e-01,3.761526644229888916e-01,3.956468105316162109e-01,4.421782791614532471e-01,5.329534411430358887e-01,6.519837975502014160e-01,7.436443567276000977e-01,7.467822432518005371e-01,7.711440324783325195e-01,8.271777629852294922e-01,8.433474302291870117e-01,8.613618016242980957e-01,8.802384138107299805e-01,8.904055356979370117e-01,8.896305561065673828e-01,8.965749740600585938e-01,9.018193483352661133e-01,9.036087989807128906e-01,9.048896431922912598e-01,9.052187204360961914e-01,9.053478240966796875e-01,9.053283333778381348e-01,9.053283333778381348e-01,9.053283333778381348e-01,9.053283333778381348e-01,9.053283333778381348e-01,9.053283333778381348e-01,9.053283333778381348e-01,9.053285121917724609e-01,9.053297042846679688e-01,9.053521752357482910e-01,9.053735136985778809e-01,9.051610231399536133e-01,9.045408964157104492e-01,9.034014940261840820e-01,9.016437530517578125e-01,8.990665078163146973e-01,8.949597477912902832e-01,8.886511325836181641e-01,8.801780343055725098e-01,8.708165884017944336e-01,8.578596115112304688e-01,8.292555809020996094e-01,8.082414865493774414e-01,8.006403446197509766e-01,7.746473550796508789e-01,7.220184206962585449e-01,6.160429716110229492e-01
5.886982679367065430e-01,6.142635941505432129e-01,6.568858027458190918e-01,6.577092409133911133e-01,6.812617778778076172e-01,7.054876089096069336e-01,7.418534755706787109e-01,7.632542848587036133e-01,7.840182781219482422e-01,8.026411533355712891e-01,8.204060792922973633e-01,8.368668556213378906e-01,8.517881631851196289e-01,8.650611639022827148e-01,8.766535520553588867e-01,8.868842124938964844e-01,8.948572874069213867e-01,8.958907127380371094e-01,8.956514596939086914e-01,8.908415436744689941e-01,8.818589448928833008e-01,8.680108785629272461e-01,8.310276269912719727e-01,7.526646256446838379e-01,7.026268839836120605e-01,7.024948000907897949e-01,6.478225588798522949e-01,5.762946009635925293e-01,4.920584857463836670e-01,4.339514970779418945e-01,3.711678981781005859e-01,3.798809051513671875e-01,3.930456638336181641e-01,3.894258141517639160e-01,4.223869740962982178e-01,4.780333042144775391e-01,5.738748311996459961e-01,6.844235658645629883e-01,7.635011672973632812e-01,7.733274698257446289e-01,8.040693998336791992e-01,8.304847478866577148e-01,8.638168573379516602e-01,8.720213770866394043e-01,8.815937638282775879e-01,8.901269435882568359e-01,8.939627408981323242e-01,8.996265530586242676e-01,9.037511348724365234e-01,9.045414924621582031e-01,9.050843119621276855e-01,9.052748680114746094e-01,9.053076505661010742e-01,9.053283333778381348e-01,9.053283333778381348e-01,9.053283333778381348e-01,9.053283333778381348e-01,9.053283333778381348e-01,9.053283333778381348e-01,9.053283333778381348e-01,9.053285121917724609e-01,9.053297042846679688e-01,9.053522348403930664e-01,9.053734540939331055e-01,9.051612615585327148e-01,9.045416116714477539e-01,9.034025073051452637e-01,9.016455411911010742e-01,8.990690708160400391e-01,8.949639797210693359e-01,8.886578083038330078e-01,8.801867961883544922e-01,8.708269000053405762e-01,8.578720688819885254e-01,8.292708396911621094e-01,8.082581758499145508e-01,8.006570935249328613e-01,7.746635675430297852e-01,7.220317721366882324e-01,6.160523295402526855e-01
5.886908769607543945e-01,6.142517924308776855e-01,6.568725109100341797e-01,6.576939225196838379e-01,6.812449693679809570e-01,7.054705619812011719e-01,7.418366074562072754e-01,7.632377743721008301e-01,7.840021848678588867e-01,8.026255369186401367e-01,8.203916549682617188e-01,8.368537425994873047e-01,8.517755270004272461e-01,8.650542497634887695e-01,8.766306638717651367e-01,8.869130611419677734e-01,8.947547674179077148e-01,8.953631520271301270e-01,8.960413932800292969e-01,8.989250659942626953e-01,8.907998204231262207e-01,8.832328319549560547e-01,8.566092252731323242e-01,8.133186101913452148e-01,7.874500751495361328e-01,7.426412105560302734e-01,7.192124724388122559e-01,6.372819542884826660e-01,5.715730190277099609e-01,4.756207764148712158e-01,4.402337372303009033e-01,4.125526547431945801e-01,4.131641089916229248e-01,4.072661399841308594e-01,4.591050148010253906e-01,5.149984955787658691e-01,5.925727486610412598e-01,6.994332671165466309e-01,7.845093011856079102e-01,8.225445151329040527e-01,8.237942457199096680e-01,8.455397486686706543e-01,8.766713142395019531e-01,8.822523355484008789e-01,8.865297436714172363e-01,8.961322307586669922e-01,8.977401256561279297e-01,9.018554091453552246e-01,9.046643972396850586e-01,9.046397805213928223e-01,9.050192832946777344e-01,9.053469300270080566e-01,9.052615165710449219e-01,9.053283333778381348e-01,9.053283333778381348e-01,9.053283333778381348e-01,9.053283333778381348e-01,9.053283333778381348e-01,9.053283333778381348e-01,9.053283333778381348e-01,9.053285121917724609e-01,9.053297042846679688e-01,9.053521156311035156e-01,9.053735136985778809e-01,9.051613807678222656e-01,9.045423865318298340e-01,9.034037590026855469e-01,9.016474485397338867e-01,8.990716934204101562e-01,8.949681520462036133e-01,8.886644244194030762e-01,8.801955580711364746e-01,8.708373904228210449e-01,8.578847646713256836e-01,8.292858004570007324e-01,8.082747459411621094e-01,8.006739020347595215e-01,7.746797800064086914e-01,7.220453023910522461e-01,6.160615682601928711e-01
5.886827707290649414e-01,6.142392158508300781e-01,6.568582057952880859e-01,6.576781272888183594e-01,6.812278032302856445e-01,7.054533958435058594e-01,7.418193817138671875e-01,7.632209062576293945e-01,7.839856147766113281e-01,8.026098012924194336e-01,8.203770518302917480e-01,8.368403911590576172e-01,8.517633676528930664e-01,8.650516271591186523e-01,8.766233921051025391e-01,8.868113160133361816e-01,8.939343690872192383e-01,8.958460688591003418e-01,8.958618640899658203e-01,8.994030356407165527e-01,8.954322934150695801e-01,8.926698565483093262e-01,8.797216415405273438e-01,8.492457270622253418e-01,8.183849453926086426e-01,7.946050167083740234e-01,7.730207443237304688e-01,7.342706918716430664e-01,6.331517696380615234e-01,5.300381183624267578e-01,4.785925149917602539e-01,4.480721354484558105e-01,4.300499558448791504e-01,4.217154681682586670e-01,4.825852811336517334e-01,5.483065843582153320e-01,6.307979822158813477e-01,7.194505929946899414e-01,7.845004796981811523e-01,8.336565494537353516e-01,8.549664616584777832e-01,8.635766506195068359e-01,8.821521997451782227e-01,8.914159536361694336e-01,8.943054676055908203e-01,9.002867341041564941e-01,9.022790193557739258e-01,9.039601087570190430e-01,9.049391746520996094e-01,9.051323533058166504e-01,9.051876664161682129e-01,9.053264260292053223e-01,9.053180217742919922e-01,9.053283333778381348e-01,9.053283333778381348e-01,9.053283333778381348e-01,9.053283333778381348e-01,9.053283333778381348e-01,9.053283333778381348e-01,9.053283333778381348e-01,9.053285121917724609e-01,9.053297042846679688e-01,9.053521156311035156e-01,9.053735136985778809e-01,9.051617383956909180e-01,9.045430421829223633e-01,9.034049510955810547e-01,9.016492366790771484e-01,8.990744352340698242e-01,8.949723243713378906e-01,8.886710405349731445e-01,8.802046775817871094e-01,8.708478212356567383e-01,8.578972816467285156e-01,8.293011188507080078e-01,8.082917928695678711e-01,8.006905317306518555e-01,7.746962308883666992e-01,7.220585346221923828e-01,6.160709261894226074e-01
5.886744260787963867e-01,6.142260432243347168e-01,6.568431854248046875e-01,6.576611995697021484e-01,6.812098026275634766e-01,7.054352760314941406e-01,7.418015599250793457e-01,7.632038593292236328e-01,7.839691638946533203e-01,8.025935888290405273e-01,8.203618526458740234e-01,8.368268013000488281e-01,8.517512083053588867e-01,8.650346994400024414e-01,8.765987157821655273e-01,8.866080641746520996e-01,8.934702873229980469e-01,8.966666460037231445e-01,9.003988504409790039e-01,9.035063982009887695e-01,9.018518924713134766e-01,8.981226086616516113e-01,8.852533102035522461e-01,8.750702142715454102e-01,8.476294875144958496e-01,8.344542384147644043e-01,8.075156211853027344e-01,7.670351862907409668e-01,6.802808046340942383e-01,5.644795894622802734e-01,4.985656142234802246e-01,4.656186699867248535e-01,4.470379352569580078e-01,4.509546756744384766e-01,4.967353641986846924e-01,5.563620924949645996e-01,6.605933904647827148e-01,7.396506071090698242e-01,7.942332029342651367e-01,8.428996801376342773e-01,8.693441152572631836e-01,8.757714033126831055e-01,8.879814147949218750e-01,8.968312740325927734e-01,8.976959586143493652e-01,9.049179553985595703e-01,9.046387076377868652e-01,9.034671187400817871e-01,9.047753214836120605e-01,9.050330519676208496e-01,9.053858518600463867e-01,9.053167104721069336e-01,9.053422212600708008e-01,9.053283333778381348e-01,9.053283333778381348e-01,9.053283333778381348e-01,9.053283333778381348e-01,9.053283333778381348e-01,9.053283333778381348e-01,9.053283333778381348e-01,9.053285121917724609e-01,9.053297042846679688e-01,9.053521156311035156e-01,9.053735733032226562e-01,9.051619768142700195e-01,9.045435786247253418e-01,9.034061431884765625e-01,9.016509652137756348e-01,8.990770578384399414e-01,8.949766159057617188e-01,8.886778354644775391e-01,8.802134990692138672e-01,8.708583712577819824e-01,8.579099178314208984e-01,8.293163776397705078e-01,8.083087205886840820e-01,8.007075190544128418e-01,7.747123241424560547e-01,7.220721840858459473e-01,6.160803437232971191e-01
5.886659026145935059e-01,6.142122149467468262e-01,6.568275094032287598e-01,6.576429605484008789e-01,6.811903715133666992e-01,7.054159641265869141e-01,7.417826652526855469e-01,7.631856203079223633e-01,7.839516401290893555e-01,8.025770187377929688e-01,8.203464746475219727e-01,8.368127346038818359e-01,8.517385125160217285e-01,8.650206327438354492e-01,8.765848278999328613e-01,8.862042427062988281e-01,8.933527469635009766e-01,8.970321416854858398e-01,9.018307924270629883e-01,9.048429727554321289e-01,9.010905027389526367e-01,8.956289291381835938e-01,8.903865814208984375e-01,8.875750899314880371e-01,8.714141845703125000e-01,8.416757583618164062e-01,8.291848897933959961e-01,7.856811285018920898e-01,7.353307604789733887e-01,5.908915996551513672e-01,5.179678797721862793e-01,4.721517562866210938e-01,4.592925906181335449e-01,4.642553627490997314e-01,5.064479112625122070e-01,5.751989483833312988e-01,6.847912073135375977e-01,7.604972124099731445e-01,7.967458963394165039e-01,8.454710841178894043e-01,8.692716360092163086e-01,8.885175585746765137e-01,8.949124813079833984e-01,8.985146284103393555e-01,9.001956582069396973e-01,9.028261899948120117e-01,9.052528142929077148e-01,9.040431976318359375e-01,9.049181342124938965e-01,9.051277637481689453e-01,9.054143428802490234e-01,9.053491950035095215e-01,9.053401947021484375e-01,9.053283333778381348e-01,9.053283333778381348e-01,9.053283333778381348e-01,9.053283333778381348e-01,9.053283333778381348e-01,9.053283333778381348e-01,9.053283333778381348e-01,9.053285121917724609e-01,9.053297042846679688e-01,9.053520560264587402e-01,9.053734540939331055e-01,9.051622748374938965e-01,9.045442342758178711e-01,9.034073352813720703e-01,9.016526937484741211e-01,8.990797400474548340e-01,8.949807882308959961e-01,8.886844515800476074e-01,8.802222013473510742e-01,8.708688020706176758e-01,8.579225540161132812e-01,8.293317556381225586e-01,8.083255290985107422e-01,8.007244467735290527e-01,7.747286558151245117e-01,7.220855355262756348e-01,6.160897016525268555e-01
5.886571407318115234e-01,6.141979694366455078e-01,6.568113565444946289e-01,6.576242446899414062e-01,6.811699867248535156e-01,7.053952217102050781e-01,7.417626380920410156e-01,7.631663084030151367e-01,7.839331626892089844e-01,8.025596141815185547e-01,8.203306198120117188e-01,8.367985486984252930e-01,8.517260551452636719e-01,8.650165796279907227e-01,8.765708804130554199e-01,8.860005140304565430e-01,8.934539556503295898e-01,8.986108899116516113e-01,9.025268554687500000e-01,9.043967723846435547e-01,9.038136005401611328e-01,9.012073278427124023e-01,8.971033692359924316e-01,8.921467661857604980e-01,8.803301453590393066e-01,8.669469952583312988e-01,8.371423482894897461e-01,7.885934114456176758e-01,7.256237268447875977e-01,6.115216016769409180e-01,5.269058942794799805e-01,4.848044216632843018e-01,4.750224053859710693e-01,4.716751575469970703e-01,5.059472918510437012e-01,5.983283519744873047e-01,6.950202584266662598e-01,7.714195251464843750e-01,8.147674798965454102e-01,8.521571755409240723e-01,8.783247470855712891e-01,8.911767005920410156e-01,8.987768888473510742e-01,8.998178839683532715e-01,9.007769227027893066e-01,9.017274379730224609e-01,9.051949381828308105e-01,9.054632186889648438e-01,9.048511981964111328e-01,9.052513837814331055e-01,9.053013324737548828e-01,9.053227901458740234e-01,9.053342342376708984e-01,9.053283333778381348e-01,9.053283333778381348e-01,9.053283333778381348e-01,9.053283333778381348e-01,9.053283333778381348e-01,9.053283333778381348e-01,9.053283333778381348e-01,9.053285121917724609e-01,9.053297042846679688e-01,9.053520560264587402e-01,9.053734540939331055e-01,9.051624536514282227e-01,9.045448899269104004e-01,9.034085273742675781e-01,9.016544818878173828e-01,8.990823030471801758e-01,8.949851393699645996e-01,8.886908292770385742e-01,8.802312612533569336e-01,8.708792924880981445e-01,8.579349517822265625e-01,8.293469548225402832e-01,8.083423972129821777e-01,8.007410764694213867e-01,7.747449874877929688e-01,7.220988273620605469e-01,6.160989999771118164e-01
5.886485576629638672e-01,6.141839623451232910e-01,6.567949652671813965e-01,6.576050519943237305e-01,6.811490058898925781e-01,7.053740620613098145e-01,7.417417168617248535e-01,7.631456851959228516e-01,7.839134335517883301e-01,8.025410175323486328e-01,8.203134536743164062e-01,8.367835283279418945e-01,8.517126441001892090e-01,8.650031089782714844e-01,8.765722513198852539e-01,8.860168457031250000e-01,8.931273221969604492e-01,8.983579874038696289e-01,9.017146825790405273e-01,9.029115438461303711e-01,9.041357040405273438e-01,9.020735025405883789e-01,8.987269401550292969e-01,8.944384455680847168e-01,8.852887153625488281e-01,8.672341108322143555e-01,8.390015363693237305e-01,7.990120053291320801e-01,7.266445159912109375e-01,6.317754387855529785e-01,5.402743220329284668e-01,5.009216666221618652e-01,4.707753956317901611e-01,4.715865552425384521e-01,5.235633254051208496e-01,6.031534075736999512e-01,7.053099870681762695e-01,7.742665410041809082e-01,8.267041444778442383e-01,8.598098158836364746e-01,8.818441629409790039e-01,8.954070210456848145e-01,9.004993438720703125e-01,9.024977684020996094e-01,9.034034013748168945e-01,9.032649993896484375e-01,9.043034315109252930e-01,9.054185748100280762e-01,9.053094387054443359e-01,9.053174257278442383e-01,9.053586721420288086e-01,9.053435325622558594e-01,9.053207635879516602e-01,9.053283333778381348e-01,9.053283333778381348e-01,9.053283333778381348e-01,9.053283333778381348e-01,9.053283333778381348e-01,9.053283333778381348e-01,9.053283333778381348e-01,9.053285121917724609e-01,9.053297042846679688e-01,9.053521156311035156e-01,9.053734540939331055e-01,9.051626920700073242e-01,9.045455455780029297e-01,9.034096002578735352e-01,9.016563892364501953e-01,8.990849852561950684e-01,8.949893712997436523e-01,8.886975049972534180e-01,8.802400827407836914e-01,8.708896636962890625e-01,8.579474687576293945e-01,8.293620347976684570e-01,8.083589673042297363e-01,8.007578253746032715e-01,7.747611403465270996e-01,7.221122384071350098e-01,6.161081790924072266e-01
5.886403322219848633e-01,6.141703724861145020e-01,6.567786335945129395e-01,6.575862765312194824e-01,6.811282038688659668e-01,7.053525447845458984e-01,7.417203187942504883e-01,7.631246447563171387e-01,7.838928699493408203e-01,8.025211095809936523e-01,8.202950954437255859e-01,8.367671966552734375e-01,8.516986966133117676e-01,8.649957776069641113e-01,8.765859007835388184e-01,8.861050605773925781e-01,8.931930065155029297e-01,8.980689048767089844e-01,9.017385244369506836e-01,9.038606882095336914e-01,9.051111340522766113e-01,9.038303494453430176e-01,9.007921218872070312e-01,8.963121771812438965e-01,8.840275406837463379e-01,8.664429783821105957e-01,8.470163345336914062e-01,8.051397800445556641e-01,7.299582958221435547e-01,6.012616157531738281e-01,5.518872737884521484e-01,5.057326555252075195e-01,4.686092734336853027e-01,4.939310550689697266e-01,5.424950718879699707e-01,6.210792064666748047e-01,7.134605646133422852e-01,7.902654409408569336e-01,8.366833925247192383e-01,8.665351867675781250e-01,8.848537206649780273e-01,8.977459669113159180e-01,9.028789401054382324e-01,9.038172960281372070e-01,9.047074913978576660e-01,9.049539566040039062e-01,9.049295186996459961e-01,9.052100181579589844e-01,9.052360653877258301e-01,9.053742289543151855e-01,9.053403139114379883e-01,9.053342938423156738e-01,9.053286910057067871e-01,9.053283333778381348e-01,9.053283333778381348e-01,9.053283333778381348e-01,9.053283333778381348e-01,9.053283333778381348e-01,9.053283333778381348e-01,9.053283333778381348e-01,9.053285121917724609e-01,9.053297042846679688e-01,9.053519964218139648e-01,9.053733348846435547e-01,9.051628112792968750e-01,9.045462608337402344e-01,9.034109115600585938e-01,9.016581773757934570e-01,8.990876674652099609e-01,8.949936628341674805e-01,8.887041807174682617e-01,8.802490234375000000e-01,8.709001541137695312e-01,8.579599857330322266e-01,8.293769955635070801e-01,8.083757162094116211e-01,8.007743358612060547e-01,7.747772336006164551e-01,7.221254110336303711e-01,6.161175370216369629e-01
5.886322855949401855e-01,6.141573786735534668e-01,6.567636132240295410e-01,6.575684547424316406e-01,6.811081171035766602e-01,7.053318023681640625e-01,7.416990399360656738e-01,7.631032466888427734e-01,7.838715910911560059e-01,8.025003075599670410e-01,8.202757835388183594e-01,8.367493152618408203e-01,8.516825437545776367e-01,8.649812340736389160e-01,8.765790462493896484e-01,8.860346078872680664e-01,8.931024074554443359e-01,8.976929187774658203e-01,9.006904959678649902e-01,9.030019640922546387e-01,9.046717882156372070e-01,9.043240547180175781e-01,9.021199345588684082e-01,8.943234086036682129e-01,8.801738023757934570e-01,8.682795763015747070e-01,8.445731401443481445e-01,8.001026511192321777e-01,7.101444005966186523e-01,6.036532521247863770e-01,5.438011288642883301e-01,5.083866119384765625e-01,4.794378280639648438e-01,5.094571709632873535e-01,5.682528614997863770e-01,6.479282975196838379e-01,7.360552549362182617e-01,8.044126033782958984e-01,8.414435386657714844e-01,8.718981742858886719e-01,8.888620138168334961e-01,9.003823399543762207e-01,9.043142795562744141e-01,9.048345088958740234e-01,9.052753448486328125e-01,9.050891399383544922e-01,9.051827192306518555e-01,9.052853584289550781e-01,9.053757786750793457e-01,9.053141474723815918e-01,9.053254127502441406e-01,9.053286314010620117e-01,9.053260684013366699e-01,9.053260684013366699e-01,9.053260684013366699e-01,9.053260684013366699e-01,9.053261280059814453e-01,9.053261280059814453e-01,9.053261280059814453e-01,9.053260684013366699e-01,9.053263664245605469e-01,9.053274393081665039e-01,9.053497314453125000e-01,9.053711295127868652e-01,9.051607847213745117e-01,9.045447707176208496e-01,9.034101366996765137e-01,9.016582965850830078e-01,8.990885019302368164e-01,8.949960470199584961e-01,8.887086510658264160e-01,8.802565336227416992e-01,8.709095120429992676e-01,8.579717874526977539e-01,8.293915987014770508e-01,8.083921074867248535e-01,8.007909655570983887e-01,7.747930288314819336e-01,7.221384644508361816e-01,6.161265373229980469e-01
5.886243581771850586e-01,6.141443848609924316e-01,6.567476987838745117e-01,6.575500965118408203e-01,6.810865998268127441e-01,7.053082585334777832e-01,7.416745424270629883e-01,7.630778551101684570e-01,7.838455438613891602e-01,8.024736046791076660e-01,8.202497959136962891e-01,8.367245197296142578e-01,8.516592979431152344e-01,8.649607896804809570e-01,8.765660524368286133e-01,8.860619664192199707e-01,8.930307626724243164e-01,8.976922035217285156e-01,9.010062217712402344e-01,9.032855033874511719e-01,9.045366048812866211e-01,9.047729969024658203e-01,9.029752016067504883e-01,8.918749094009399414e-01,8.772484064102172852e-01,8.658448457717895508e-01,8.348312973976135254e-01,7.945595979690551758e-01,6.923713088035583496e-01,5.898659825325012207e-01,5.415598750114440918e-01,4.951722323894500732e-01,4.941214621067047119e-01,5.343859195709228516e-01,6.073102951049804688e-01,6.701527237892150879e-01,7.600492238998413086e-01,8.183266520500183105e-01,8.499577045440673828e-01,8.769512176513671875e-01,8.948257565498352051e-01,9.021114110946655273e-01,9.050384759902954102e-01,9.049725532531738281e-01,9.052059650421142578e-01,9.054250717163085938e-01,9.053323268890380859e-01,9.052913188934326172e-01,9.053259491920471191e-01,9.053220152854919434e-01,9.053199291229248047e-01,9.053213596343994141e-01,9.053214192390441895e-01,9.053215384483337402e-01,9.053215980529785156e-01,9.053215980529785156e-01,9.053217172622680664e-01,9.053217172622680664e-01,9.053217768669128418e-01,9.053217768669128418e-01,9.053220152854919434e-01,9.053232073783874512e-01,9.053455591201782227e-01,9.053670167922973633e-01,9.051569700241088867e-01,9.045403003692626953e-01,9.034065008163452148e-01,9.016551971435546875e-01,8.990852832794189453e-01,8.949921727180480957e-01,8.887054920196533203e-01,8.802539110183715820e-01,8.709071874618530273e-01,8.579739332199096680e-01,8.293974399566650391e-01,8.084006309509277344e-01,8.007998466491699219e-01,7.748010754585266113e-01,7.221428155899047852e-01,6.161289811134338379e-01
5.886119604110717773e-01,6.141281127929687500e-01,6.567283868789672852e-01,6.575316786766052246e-01,6.810677051544189453e-01,7.052879333496093750e-01,7.416557669639587402e-01,7.630640864372253418e-01,7.838376760482788086e-01,8.024727702140808105e-01,8.202592730522155762e-01,8.367476463317871094e-01,8.517023324966430664e-01,8.650203943252563477e-01,8.766273260116577148e-01,8.861135840415954590e-01,8.930896520614624023e-01,8.977880477905273438e-01,9.010538458824157715e-01,9.032360315322875977e-01,9.044479727745056152e-01,9.050651788711547852e-01,9.022879600524902344e-01,8.915734291076660156e-01,8.757168650627136230e-01,8.610262870788574219e-01,8.272656798362731934e-01,7.750189900398254395e-01,6.788030862808227539e-01,5.896240472793579102e-01,5.389641523361206055e-01,4.904637336730957031e-01,5.088331699371337891e-01,5.606653690338134766e-01,6.233617663383483887e-01,6.879878044128417969e-01,7.791390419006347656e-01,8.328016996383666992e-01,8.573624491691589355e-01,8.857274055480957031e-01,8.991222381591796875e-01,9.024583101272583008e-01,9.051094055175781250e-01,9.049535989761352539e-01,9.054350256919860840e-01,9.054250121116638184e-01,9.054035544395446777e-01,9.053899049758911133e-01,9.053995609283447266e-01,9.053940773010253906e-01,9.053934812545776367e-01,9.053946733474731445e-01,9.053955078125000000e-01,9.053957462310791016e-01,9.053959250450134277e-01,9.053962230682373047e-01,9.053964614868164062e-01,9.053966999053955078e-01,9.053970575332641602e-01,9.053974151611328125e-01,9.053978323936462402e-01,9.053995013236999512e-01,9.054224491119384766e-01,9.054448008537292480e-01,9.052376151084899902e-01,9.046196937561035156e-01,9.034806489944458008e-01,9.017143249511718750e-01,8.991349935531616211e-01,8.950437307357788086e-01,8.887716531753540039e-01,8.803318738937377930e-01,8.709969520568847656e-01,8.580465912818908691e-01,8.294653892517089844e-01,8.084492683410644531e-01,8.008324503898620605e-01,7.748217582702636719e-01,7.221429347991943359e-01,6.161297559738159180e-01
5.886182188987731934e-01,6.141351461410522461e-01,6.567326784133911133e-01,6.575462222099304199e-01,6.810928583145141602e-01,7.053465843200683594e-01,7.417653799057006836e-01,7.632213830947875977e-01,7.840206027030944824e-01,8.026673793792724609e-01,8.204545974731445312e-01,8.369393348693847656e-01,8.518710136413574219e-01,8.651572465896606445e-01,8.767383694648742676e-01,8.861936330795288086e-01,8.931573629379272461e-01,8.978876471519470215e-01,9.011880159378051758e-01,9.033609628677368164e-01,9.046088457107543945e-01,9.054200053215026855e-01,9.012931585311889648e-01,8.891053795814514160e-01,8.739641904830932617e-01,8.583523035049438477e-01,8.248454332351684570e-01,7.712897062301635742e-01,6.657360196113586426e-01,5.843309164047241211e-01,5.290434360504150391e-01,4.921745061874389648e-01,5.171072483062744141e-01,5.849586725234985352e-01,6.430307030677795410e-01,7.319622039794921875e-01,7.927730083465576172e-01,8.415640592575073242e-01,8.693531751632690430e-01,8.886374235153198242e-01,9.007331132888793945e-01,9.030181765556335449e-01,9.051114320755004883e-01,9.052691459655761719e-01,9.054875373840332031e-01,9.054838418960571289e-01,9.054732322692871094e-01,9.054728746414184570e-01,9.054717421531677246e-01,9.054685831069946289e-01,9.054693579673767090e-01,9.054683446884155273e-01,9.054672718048095703e-01,9.054664373397827148e-01,9.054656028747558594e-01,9.054646492004394531e-01,9.054638147354125977e-01,9.054629802703857422e-01,9.054621458053588867e-01,9.054612517356872559e-01,9.054607152938842773e-01,9.054613113403320312e-01,9.054841995239257812e-01,9.055074453353881836e-01,9.053024053573608398e-01,9.046819210052490234e-01,9.035504460334777832e-01,9.017894268035888672e-01,8.992092609405517578e-01,8.951140642166137695e-01,8.888948559761047363e-01,8.804669380187988281e-01,8.711240291595458984e-01,8.582105636596679688e-01,8.296965956687927246e-01,8.086974620819091797e-01,8.010903596878051758e-01,7.750712633132934570e-01,7.224284410476684570e-01,6.165235638618469238e-01
5.888017416000366211e-01,6.143118739128112793e-01,6.569858789443969727e-01,6.578015685081481934e-01,6.813395023345947266e-01,7.055067420005798340e-01,7.418477535247802734e-01,7.632277011871337891e-01,7.838845252990722656e-01,8.024020195007324219e-01,8.200703859329223633e-01,8.364226222038269043e-01,8.512641191482543945e-01,8.644672036170959473e-01,8.759491443634033203e-01,8.853862285614013672e-01,8.923841714859008789e-01,8.970944285392761230e-01,9.003691673278808594e-01,9.025551080703735352e-01,9.040412902832031250e-01,9.044254422187805176e-01,9.001373052597045898e-01,8.871494531631469727e-01,8.716286420822143555e-01,8.565659523010253906e-01,8.199782967567443848e-01,7.689200043678283691e-01,6.447210907936096191e-01,5.884447097778320312e-01,5.191214084625244141e-01,5.174381136894226074e-01,5.524644255638122559e-01,5.987083911895751953e-01,6.829756498336791992e-01,7.527685165405273438e-01,8.033639192581176758e-01,8.459475040435791016e-01,8.713799715042114258e-01,8.905610442161560059e-01,9.000747203826904297e-01,9.027506113052368164e-01,9.039716124534606934e-01,9.045184850692749023e-01,9.046396017074584961e-01,9.046264886856079102e-01,9.046196937561035156e-01,9.046187996864318848e-01,9.046179652214050293e-01,9.046169519424438477e-01,9.046161174774169922e-01,9.046152830123901367e-01,9.046141505241394043e-01,9.046133756637573242e-01,9.046124219894409180e-01,9.046115875244140625e-01,9.046107530593872070e-01,9.046097993850708008e-01,9.046088457107543945e-01,9.046080112457275391e-01,9.046074151992797852e-01,9.046080708503723145e-01,9.046280980110168457e-01,9.046612977981567383e-01,9.044570326805114746e-01,9.038795232772827148e-01,9.027751684188842773e-01,9.010080099105834961e-01,8.984284996986389160e-01,8.943622112274169922e-01,8.880730271339416504e-01,8.796490430831909180e-01,8.703297376632690430e-01,8.574479818344116211e-01,8.288403749465942383e-01,8.078471422195434570e-01,8.004537820816040039e-01,7.742134332656860352e-01,7.216149568557739258e-01,6.159958839416503906e-01
5.891578197479248047e-01,6.141806840896606445e-01,6.566540002822875977e-01,6.571523547172546387e-01,6.804440617561340332e-01,7.042947411537170410e-01,7.404222488403320312e-01,7.615302205085754395e-01,7.820333242416381836e-01,8.004192113876342773e-01,8.180030584335327148e-01,8.343555927276611328e-01,8.493289947509765625e-01,8.627448081970214844e-01,8.744825124740600586e-01,8.841432332992553711e-01,8.912277221679687500e-01,8.960012197494506836e-01,8.993700742721557617e-01,9.016544818878173828e-01,9.032061100006103516e-01,9.035052061080932617e-01,8.979533314704895020e-01,8.861556053161621094e-01,8.709874153137207031e-01,8.504375219345092773e-01,8.148417472839355469e-01,7.617684602737426758e-01,6.541723608970642090e-01,5.763677358627319336e-01,5.191177129745483398e-01,5.458363890647888184e-01,5.842027068138122559e-01,6.177461147308349609e-01,6.898808479309082031e-01,7.740967273712158203e-01,8.183331489562988281e-01,8.487223386764526367e-01,8.749659061431884766e-01,8.928009271621704102e-01,8.991600275039672852e-01,9.013137817382812500e-01,9.034870862960815430e-01,9.036351442337036133e-01,9.037158489227294922e-01,9.037060737609863281e-01,9.037027359008789062e-01,9.037016630172729492e-01,9.037005901336669922e-01,9.036996960639953613e-01,9.036985039710998535e-01,9.036973714828491211e-01,9.036964178085327148e-01,9.036952853202819824e-01,9.036942720413208008e-01,9.036931991577148438e-01,9.036921262741088867e-01,9.036910533905029297e-01,9.036899209022521973e-01,9.036889672279357910e-01,9.036883115768432617e-01,9.036881923675537109e-01,9.037041664123535156e-01,9.037336707115173340e-01,9.035478830337524414e-01,9.029996395111083984e-01,9.019624590873718262e-01,9.002497196197509766e-01,8.976999521255493164e-01,8.936425447463989258e-01,8.874093294143676758e-01,8.790725469589233398e-01,8.698117733001708984e-01,8.568370342254638672e-01,8.282484412193298340e-01,8.071012496948242188e-01,7.996392250061035156e-01,7.733832597732543945e-01,7.204573750495910645e-01,6.144742965698242188e-01
5.884085893630981445e-01,6.125024557113647461e-01,6.548578739166259766e-01,6.552622318267822266e-01,6.780970692634582520e-01,7.014939785003662109e-01,7.376154661178588867e-01,7.587726116180419922e-01,7.793223857879638672e-01,7.977057695388793945e-01,8.152713179588317871e-01,8.317428827285766602e-01,8.468425273895263672e-01,8.603429198265075684e-01,8.721718788146972656e-01,8.818718791007995605e-01,8.891125917434692383e-01,8.941258192062377930e-01,8.975818157196044922e-01,8.998352885246276855e-01,9.014201164245605469e-01,9.019409418106079102e-01,8.957661986351013184e-01,8.852496147155761719e-01,8.706846237182617188e-01,8.481828570365905762e-01,8.149625062942504883e-01,7.616199254989624023e-01,6.439731121063232422e-01,5.677616596221923828e-01,5.261901021003723145e-01,5.508870482444763184e-01,5.930858850479125977e-01,6.449260711669921875e-01,7.192576527595520020e-01,7.782835960388183594e-01,8.221555948257446289e-01,8.571560382843017578e-01,8.782383799552917480e-01,8.918561935424804688e-01,8.978143930435180664e-01,8.992729783058166504e-01,9.015006422996520996e-01,9.017909169197082520e-01,9.018788337707519531e-01,9.018634557723999023e-01,9.018521904945373535e-01,9.018461704254150391e-01,9.018400907516479492e-01,9.018341302871704102e-01,9.018279314041137695e-01,9.018219709396362305e-01,9.018158912658691406e-01,9.018100500106811523e-01,9.018039703369140625e-01,9.017977714538574219e-01,9.017918705940246582e-01,9.017857909202575684e-01,9.017798900604248047e-01,9.017738103866577148e-01,9.017678499221801758e-01,9.017626047134399414e-01,9.017763137817382812e-01,9.018013477325439453e-01,9.016276597976684570e-01,9.011584520339965820e-01,9.001982808113098145e-01,8.986006379127502441e-01,8.961445093154907227e-01,8.921538591384887695e-01,8.860816955566406250e-01,8.775868415832519531e-01,8.682925701141357422e-01,8.554400205612182617e-01,8.269663453102111816e-01,8.060632944107055664e-01,7.985032796859741211e-01,7.719305753707885742e-01,7.191747426986694336e-01,6.127011775970458984e-01
5.864674448966979980e-01,6.097787618637084961e-01,6.518783569335937500e-01,6.520067453384399414e-01,6.745833158493041992e-01,6.974262595176696777e-01,7.329927682876586914e-01,7.536325454711914062e-01,7.735053300857543945e-01,7.914437055587768555e-01,8.087503910064697266e-01,8.249945640563964844e-01,8.399567008018493652e-01,8.535119295120239258e-01,8.654175996780395508e-01,8.752077817916870117e-01,8.825149536132812500e-01,8.875596523284912109e-01,8.911079168319702148e-01,8.933457732200622559e-01,8.949221372604370117e-01,8.953270912170410156e-01,8.895188570022583008e-01,8.781956434249877930e-01,8.632916808128356934e-01,8.394188284873962402e-01,8.038051128387451172e-01,7.506272792816162109e-01,6.382147669792175293e-01,5.553403496742248535e-01,5.369811058044433594e-01,5.500169396400451660e-01,6.048069000244140625e-01,6.626732349395751953e-01,7.229276299476623535e-01,7.714748382568359375e-01,8.202419281005859375e-01,8.531130552291870117e-01,8.748458623886108398e-01,8.858677148818969727e-01,8.908483982086181641e-01,8.928148150444030762e-01,8.951031565666198730e-01,8.952088356018066406e-01,8.953447341918945312e-01,8.953332304954528809e-01,8.953211307525634766e-01,8.953122496604919434e-01,8.953030109405517578e-01,8.952939510345458984e-01,8.952848911285400391e-01,8.952758312225341797e-01,8.952668905258178711e-01,8.952578306198120117e-01,8.952486515045166016e-01,8.952397108078002930e-01,8.952306509017944336e-01,8.952215909957885742e-01,8.952125906944274902e-01,8.952035903930664062e-01,8.951944112777709961e-01,8.951854705810546875e-01,8.951942920684814453e-01,8.952115774154663086e-01,8.950763344764709473e-01,8.946269750595092773e-01,8.938171863555908203e-01,8.923503160476684570e-01,8.900266289710998535e-01,8.861807584762573242e-01,8.802868127822875977e-01,8.720742464065551758e-01,8.626451492309570312e-01,8.496483564376831055e-01,8.213601112365722656e-01,8.010424375534057617e-01,7.939176559448242188e-01,7.675396203994750977e-01,7.151745557785034180e-01,6.077097654342651367e-01
5.825384855270385742e-01,6.038836240768432617e-01,6.454459428787231445e-01,6.448025703430175781e-01,6.661992669105529785e-01,6.881855726242065430e-01,7.229028940200805664e-01,7.430797219276428223e-01,7.622810602188110352e-01,7.793459892272949219e-01,7.960633039474487305e-01,8.119992017745971680e-01,8.270359039306640625e-01,8.408902883529663086e-01,8.531100749969482422e-01,8.633377552032470703e-01,8.711304664611816406e-01,8.765047192573547363e-01,8.802421689033508301e-01,8.825342655181884766e-01,8.842378854751586914e-01,8.843425512313842773e-01,8.784332275390625000e-01,8.676528930664062500e-01,8.546535372734069824e-01,8.279619812965393066e-01,7.915643453598022461e-01,7.328090071678161621e-01,6.217980384826660156e-01,5.346804261207580566e-01,5.461636185646057129e-01,5.669877529144287109e-01,5.955399870872497559e-01,6.607052087783813477e-01,7.161691188812255859e-01,7.661123275756835938e-01,8.081789612770080566e-01,8.441566228866577148e-01,8.648225665092468262e-01,8.754401206970214844e-01,8.791180849075317383e-01,8.819376230239868164e-01,8.839446306228637695e-01,8.842039108276367188e-01,8.843228816986083984e-01,8.843005895614624023e-01,8.842805027961730957e-01,8.842602372169494629e-01,8.842402696609497070e-01,8.842201232910156250e-01,8.842000961303710938e-01,8.841798305511474609e-01,8.841598033905029297e-01,8.841396570205688477e-01,8.841195702552795410e-01,8.840993642807006836e-01,8.840794563293457031e-01,8.840593099594116211e-01,8.840391635894775391e-01,8.840190172195434570e-01,8.839988708496093750e-01,8.839788436889648438e-01,8.839896917343139648e-01,8.840349912643432617e-01,8.839080333709716797e-01,8.835583925247192383e-01,8.828755617141723633e-01,8.814082145690917969e-01,8.790555596351623535e-01,8.753653764724731445e-01,8.695335984230041504e-01,8.616491556167602539e-01,8.525974154472351074e-01,8.395740985870361328e-01,8.107922673225402832e-01,7.916824817657470703e-01,7.853891849517822266e-01,7.605805993080139160e-01,7.071957588195800781e-01,6.017393469810485840e-01
5.753744840621948242e-01,5.940448641777038574e-01,6.345360875129699707e-01,6.318082213401794434e-01,6.512080430984497070e-01,6.719585061073303223e-01,7.057654261589050293e-01,7.251166105270385742e-01,7.435650825500488281e-01,7.599295377731323242e-01,7.757333517074584961e-01,7.909008264541625977e-01,8.055467605590820312e-01,8.189418911933898926e-01,8.307900428771972656e-01,8.406717777252197266e-01,8.480900526046752930e-01,8.534112572669982910e-01,8.571425676345825195e-01,8.593970537185668945e-01,8.612759113311767578e-01,8.616390228271484375e-01,8.541900515556335449e-01,8.429210186004638672e-01,8.306561112403869629e-01,7.986368536949157715e-01,7.633115053176879883e-01,7.007020711898803711e-01,5.819493532180786133e-01,5.156192183494567871e-01,5.320413112640380859e-01,5.518127679824829102e-01,5.830737352371215820e-01,6.453532576560974121e-01,6.976017355918884277e-01,7.457749843597412109e-01,7.850563526153564453e-01,8.198392391204833984e-01,8.381776809692382812e-01,8.509960770606994629e-01,8.552616238594055176e-01,8.580597639083862305e-01,8.601462244987487793e-01,8.604319691658020020e-01,8.605458736419677734e-01,8.605127930641174316e-01,8.604767918586730957e-01,8.604398369789123535e-01,8.604029417037963867e-01,8.603663444519042969e-01,8.603295087814331055e-01,8.602925539016723633e-01,8.602558374404907227e-01,8.602189421653747559e-01,8.601821660995483398e-01,8.601453304290771484e-01,8.601085543632507324e-01,8.600717782974243164e-01,8.600349426269531250e-01,8.599981069564819336e-01,8.599610924720764160e-01,8.599234819412231445e-01,8.599284887313842773e-01,8.599616885185241699e-01,8.598111867904663086e-01,8.595440983772277832e-01,8.591418266296386719e-01,8.579580187797546387e-01,8.559044599533081055e-01,8.521401882171630859e-01,8.465182781219482422e-01,8.387243747711181641e-01,8.300054073333740234e-01,8.169943690299987793e-01,7.877371311187744141e-01,7.700078487396240234e-01,7.670608758926391602e-01,7.439057230949401855e-01,6.925613880157470703e-01,5.922748446464538574e-01
5.643820166587829590e-01,5.786238908767700195e-01,6.173477172851562500e-01,6.113596558570861816e-01,6.278079152107238770e-01,6.468156576156616211e-01,6.787390112876892090e-01,6.960906386375427246e-01,7.121279835700988770e-01,7.261320948600769043e-01,7.397806048393249512e-01,7.531934976577758789e-01,7.665106058120727539e-01,7.789316177368164062e-01,7.898142933845520020e-01,7.990663647651672363e-01,8.064042329788208008e-01,8.116909265518188477e-01,8.153777122497558594e-01,8.175889253616333008e-01,8.198317289352416992e-01,8.188766241073608398e-01,8.107334375381469727e-01,7.987389564514160156e-01,7.869631052017211914e-01,7.529075145721435547e-01,7.132318019866943359e-01,6.477669477462768555e-01,5.414827466011047363e-01,4.966470301151275635e-01,5.010478496551513672e-01,5.161483287811279297e-01,5.722633600234985352e-01,6.119670867919921875e-01,6.518716216087341309e-01,7.000233530998229980e-01,7.447438836097717285e-01,7.789587974548339844e-01,7.948966026306152344e-01,8.059974908828735352e-01,8.117517828941345215e-01,8.151463270187377930e-01,8.173468112945556641e-01,8.176172375679016113e-01,8.177244663238525391e-01,8.176668882369995117e-01,8.176099061965942383e-01,8.175510168075561523e-01,8.174923658370971680e-01,8.174338340759277344e-01,8.173750638961791992e-01,8.173164129257202148e-01,8.172578811645507812e-01,8.171992897987365723e-01,8.171406984329223633e-01,8.170820474624633789e-01,8.170235157012939453e-01,8.169648647308349609e-01,8.169062137603759766e-01,8.168477416038513184e-01,8.167891502380371094e-01,8.167294263839721680e-01,8.167220354080200195e-01,8.166946172714233398e-01,8.165004849433898926e-01,8.160938620567321777e-01,8.156372904777526855e-01,8.143261075019836426e-01,8.124580383300781250e-01,8.095103502273559570e-01,8.042885065078735352e-01,7.970299720764160156e-01,7.894243001937866211e-01,7.773882746696472168e-01,7.479168176651000977e-01,7.329974174499511719e-01,7.344228029251098633e-01,7.134246230125427246e-01,6.685344576835632324e-01,5.795636177062988281e-01
5.498371720314025879e-01,5.541200637817382812e-01,5.890461802482604980e-01,5.790395140647888184e-01,5.922499895095825195e-01,6.085603237152099609e-01,6.381762027740478516e-01,6.527680754661560059e-01,6.666629314422607422e-01,6.783976554870605469e-01,6.898062229156494141e-01,7.009388208389282227e-01,7.119241952896118164e-01,7.217628955841064453e-01,7.305965423583984375e-01,7.382102608680725098e-01,7.439083456993103027e-01,7.478689551353454590e-01,7.505440711975097656e-01,7.520226240158081055e-01,7.539609670639038086e-01,7.511686682701110840e-01,7.419052720069885254e-01,7.298731803894042969e-01,7.163289785385131836e-01,6.787737607955932617e-01,6.442548036575317383e-01,5.829213857650756836e-01,4.944974184036254883e-01,4.765280187129974365e-01,4.644485712051391602e-01,4.914121329784393311e-01,5.268200039863586426e-01,5.730665922164916992e-01,5.985351800918579102e-01,6.421113014221191406e-01,6.836744546890258789e-01,7.123454809188842773e-01,7.278162240982055664e-01,7.377506494522094727e-01,7.450364828109741211e-01,7.481025457382202148e-01,7.502715587615966797e-01,7.505759000778198242e-01,7.506635785102844238e-01,7.505892515182495117e-01,7.505065202713012695e-01,7.504286766052246094e-01,7.503465414047241211e-01,7.502644062042236328e-01,7.501822710037231445e-01,7.501005530357360840e-01,7.500183582305908203e-01,7.499364018440246582e-01,7.498544454574584961e-01,7.497723698616027832e-01,7.496904134750366211e-01,7.496084570884704590e-01,7.495266199111938477e-01,7.494446039199829102e-01,7.493618726730346680e-01,7.492762207984924316e-01,7.492517828941345215e-01,7.491738796234130859e-01,7.490200996398925781e-01,7.487387657165527344e-01,7.482242584228515625e-01,7.468361854553222656e-01,7.445719242095947266e-01,7.412070035934448242e-01,7.365126013755798340e-01,7.301568388938903809e-01,7.241623997688293457e-01,7.128944396972656250e-01,6.834548115730285645e-01,6.727217435836791992e-01,6.816205382347106934e-01,6.628518104553222656e-01,6.335982084274291992e-01,5.563743710517883301e-01
5.325881838798522949e-01,5.238324403762817383e-01,5.546808838844299316e-01,5.387891530990600586e-01,5.466854572296142578e-01,5.595396161079406738e-01,5.837658047676086426e-01,5.949407815933227539e-01,6.054045557975769043e-01,6.135277152061462402e-01,6.215410828590393066e-01,6.294664144515991211e-01,6.371163129806518555e-01,6.439393758773803711e-01,6.501010656356811523e-01,6.548346877098083496e-01,6.580595374107360840e-01,6.604629755020141602e-01,6.619797945022583008e-01,6.628786921501159668e-01,6.640011072158813477e-01,6.610522270202636719e-01,6.511805057525634766e-01,6.415132284164428711e-01,6.285618543624877930e-01,5.916564464569091797e-01,5.567812323570251465e-01,4.975596070289611816e-01,4.370124638080596924e-01,4.332603514194488525e-01,4.312093853950500488e-01,4.459164738655090332e-01,4.823123514652252197e-01,5.186312198638916016e-01,5.398257970809936523e-01,5.709754228591918945e-01,6.104402542114257812e-01,6.293430328369140625e-01,6.399392485618591309e-01,6.487417817115783691e-01,6.558865308761596680e-01,6.588627696037292480e-01,6.608806252479553223e-01,6.608103513717651367e-01,6.609787344932556152e-01,6.608918309211730957e-01,6.608029603958129883e-01,6.607164740562438965e-01,6.606293916702270508e-01,6.605421900749206543e-01,6.604552268981933594e-01,6.603680849075317383e-01,6.602811217308044434e-01,6.601940989494323730e-01,6.601070165634155273e-01,6.600199937820434570e-01,6.599328517913818359e-01,6.598458886146545410e-01,6.597590446472167969e-01,6.596721410751342773e-01,6.595845222473144531e-01,6.594922542572021484e-01,6.594268083572387695e-01,6.593663692474365234e-01,6.591552495956420898e-01,6.589455008506774902e-01,6.586251258850097656e-01,6.574668884277343750e-01,6.554694771766662598e-01,6.522881388664245605e-01,6.490690708160400391e-01,6.442400813102722168e-01,6.403729319572448730e-01,6.306815147399902344e-01,6.032077074050903320e-01,5.958352684974670410e-01,6.114426851272583008e-01,5.966905951499938965e-01,5.878837704658508301e-01,5.268115997314453125e-01
5.116020441055297852e-01,4.894239902496337891e-01,5.142423510551452637e-01,4.909942746162414551e-01,4.925781190395355225e-01,5.011595487594604492e-01,5.197625160217285156e-01,5.277130007743835449e-01,5.348497629165649414e-01,5.396870970726013184e-01,5.445579886436462402e-01,5.496654510498046875e-01,5.546197295188903809e-01,5.589500665664672852e-01,5.625700950622558594e-01,5.652661919593811035e-01,5.675498247146606445e-01,5.691521167755126953e-01,5.701992511749267578e-01,5.709027051925659180e-01,5.715796351432800293e-01,5.680221915245056152e-01,5.589335560798645020e-01,5.526387095451354980e-01,5.395914316177368164e-01,5.079333186149597168e-01,4.787215292453765869e-01,4.329432547092437744e-01,4.015665054321289062e-01,3.880752027034759521e-01,3.972893357276916504e-01,4.024628996849060059e-01,4.342640638351440430e-01,4.551412463188171387e-01,4.813988208770751953e-01,5.067120790481567383e-01,5.320100784301757812e-01,5.440250039100646973e-01,5.520205497741699219e-01,5.578046441078186035e-01,5.636672377586364746e-01,5.671337842941284180e-01,5.685309171676635742e-01,5.686089396476745605e-01,5.686666965484619141e-01,5.686203241348266602e-01,5.685084462165832520e-01,5.684219598770141602e-01,5.683355927467346191e-01,5.682491660118103027e-01,5.681628584861755371e-01,5.680763721466064453e-01,5.679900646209716797e-01,5.679037570953369141e-01,5.678174495697021484e-01,5.677313804626464844e-01,5.676449537277221680e-01,5.675587654113769531e-01,5.674725174903869629e-01,5.673862695693969727e-01,5.672997832298278809e-01,5.672073364257812500e-01,5.671221017837524414e-01,5.670815706253051758e-01,5.670500397682189941e-01,5.669738650321960449e-01,5.667344331741333008e-01,5.661923289299011230e-01,5.646811723709106445e-01,5.622501969337463379e-01,5.591882467269897461e-01,5.555737614631652832e-01,5.536312460899353027e-01,5.454544425010681152e-01,5.213941335678100586e-01,5.172849893569946289e-01,5.383093357086181641e-01,5.279842615127563477e-01,5.396186113357543945e-01,4.964754879474639893e-01
4.905973076820373535e-01,4.557310342788696289e-01,4.713650643825531006e-01,4.409476220607757568e-01,4.362830817699432373e-01,4.406398534774780273e-01,4.540628194808959961e-01,4.581429362297058105e-01,4.624695181846618652e-01,4.647939801216125488e-01,4.673523604869842529e-01,4.701676368713378906e-01,4.729292988777160645e-01,4.755589962005615234e-01,4.778522253036499023e-01,4.795544445514678955e-01,4.808311462402343750e-01,4.817875921726226807e-01,4.823863506317138672e-01,4.829060137271881104e-01,4.830921292304992676e-01,4.807352423667907715e-01,4.764110743999481201e-01,4.734493792057037354e-01,4.623967111110687256e-01,4.343295991420745850e-01,4.145292639732360840e-01,3.825716972351074219e-01,3.662064969539642334e-01,3.520727157592773438e-01,3.532847762107849121e-01,3.763166069984436035e-01,3.796667456626892090e-01,3.993812799453735352e-01,4.176995158195495605e-01,4.353689551353454590e-01,4.500670731067657471e-01,4.612307846546173096e-01,4.680085778236389160e-01,4.733703136444091797e-01,4.771499633789062500e-01,4.794436693191528320e-01,4.807112812995910645e-01,4.808211326599121094e-01,4.809639155864715576e-01,4.808839559555053711e-01,4.808136820793151855e-01,4.807443618774414062e-01,4.806720316410064697e-01,4.805994927883148193e-01,4.805268943309783936e-01,4.804546833038330078e-01,4.803822636604309082e-01,4.803098738193511963e-01,4.802377521991729736e-01,4.801651835441589355e-01,4.800930917263031006e-01,4.800206422805786133e-01,4.799484312534332275e-01,4.798761606216430664e-01,4.798038005828857422e-01,4.797279238700866699e-01,4.796449542045593262e-01,4.795803427696228027e-01,4.795670807361602783e-01,4.795744121074676514e-01,4.794973134994506836e-01,4.794077873229980469e-01,4.788368940353393555e-01,4.778103232383728027e-01,4.768880903720855713e-01,4.753257036209106445e-01,4.752955138683319092e-01,4.694469571113586426e-01,4.494495093822479248e-01,4.482095241546630859e-01,4.717555046081542969e-01,4.687516391277313232e-01,4.949553608894348145e-01,4.690771698951721191e-01
4.694186449050903320e-01,4.224300682544708252e-01,4.285625815391540527e-01,3.950853943824768066e-01,3.841214776039123535e-01,3.856865763664245605e-01,3.961014449596405029e-01,3.990396261215209961e-01,4.020613729953765869e-01,4.032526016235351562e-01,4.044642746448516846e-01,4.056736230850219727e-01,4.066911935806274414e-01,4.076354801654815674e-01,4.084311425685882568e-01,4.090133309364318848e-01,4.096237421035766602e-01,4.101097285747528076e-01,4.103149473667144775e-01,4.104674458503723145e-01,4.103752374649047852e-01,4.077714681625366211e-01,4.058516919612884521e-01,4.033323228359222412e-01,3.961153328418731689e-01,3.780165910720825195e-01,3.645507097244262695e-01,3.458268642425537109e-01,3.366990089416503906e-01,3.255065381526947021e-01,3.288444578647613525e-01,3.382546305656433105e-01,3.411644697189331055e-01,3.555067181587219238e-01,3.646476268768310547e-01,3.793410658836364746e-01,3.858894109725952148e-01,3.955086171627044678e-01,3.976965546607971191e-01,4.039356410503387451e-01,4.058139026165008545e-01,4.073997437953948975e-01,4.083681106567382812e-01,4.087480902671813965e-01,4.088307619094848633e-01,4.088238477706909180e-01,4.087813496589660645e-01,4.087341427803039551e-01,4.086765050888061523e-01,4.086191654205322266e-01,4.085618853569030762e-01,4.085045456886291504e-01,4.084473252296447754e-01,4.083901643753051758e-01,4.083327054977416992e-01,4.082757234573364258e-01,4.082184433937072754e-01,4.081612229347229004e-01,4.081041216850280762e-01,4.080471098423004150e-01,4.079905450344085693e-01,4.079331159591674805e-01,4.078784883022308350e-01,4.078284204006195068e-01,4.077979922294616699e-01,4.077790081501007080e-01,4.077992141246795654e-01,4.077051877975463867e-01,4.073242545127868652e-01,4.064897894859313965e-01,4.056486487388610840e-01,4.045629501342773438e-01,4.052147269248962402e-01,4.015190005302429199e-01,3.856523334980010986e-01,3.876627981662750244e-01,4.134827256202697754e-01,4.177023172378540039e-01,4.560068845748901367e-01,4.460493326187133789e-01
4.513982832431793213e-01,3.938299417495727539e-01,3.929938077926635742e-01,3.573045134544372559e-01,3.413705825805664062e-01,3.406617641448974609e-01,3.481081128120422363e-01,3.498288989067077637e-01,3.515239357948303223e-01,3.519450724124908447e-01,3.524617552757263184e-01,3.529248237609863281e-01,3.534086942672729492e-01,3.538440465927124023e-01,3.541300892829895020e-01,3.542278409004211426e-01,3.542978465557098389e-01,3.541677892208099365e-01,3.540548086166381836e-01,3.541176617145538330e-01,3.539021015167236328e-01,3.528602719306945801e-01,3.520832061767578125e-01,3.498466908931732178e-01,3.440253734588623047e-01,3.351451158523559570e-01,3.248118162155151367e-01,3.115904927253723145e-01,3.073873817920684814e-01,2.995459437370300293e-01,3.050718307495117188e-01,3.090500831604003906e-01,3.177409768104553223e-01,3.229432702064514160e-01,3.261408805847167969e-01,3.353490829467773438e-01,3.367587327957153320e-01,3.426587581634521484e-01,3.451877832412719727e-01,3.485968112945556641e-01,3.504335284233093262e-01,3.513786196708679199e-01,3.522762656211853027e-01,3.525518476963043213e-01,3.528368473052978516e-01,3.528349995613098145e-01,3.528411984443664551e-01,3.528107404708862305e-01,3.527696728706359863e-01,3.527288138866424561e-01,3.526878952980041504e-01,3.526470363140106201e-01,3.526062667369842529e-01,3.525654375553131104e-01,3.525245189666748047e-01,3.524838089942932129e-01,3.524428606033325195e-01,3.524022698402404785e-01,3.523612916469573975e-01,3.523205220699310303e-01,3.522800803184509277e-01,3.522395789623260498e-01,3.521967828273773193e-01,3.521680533885955811e-01,3.521295189857482910e-01,3.520743250846862793e-01,3.520784378051757812e-01,3.521230220794677734e-01,3.520722091197967529e-01,3.519949316978454590e-01,3.517354726791381836e-01,3.512794375419616699e-01,3.521154820919036865e-01,3.494863510131835938e-01,3.362993597984313965e-01,3.391680121421813965e-01,3.653196692466735840e-01,3.756824433803558350e-01,4.224416017532348633e-01,4.258175492286682129e-01
4.349692463874816895e-01,3.689468502998352051e-01,3.612775802612304688e-01,3.251684904098510742e-01,3.061330914497375488e-01,3.047594428062438965e-01,3.108654022216796875e-01,3.122507035732269287e-01,3.134093880653381348e-01,3.134221732616424561e-01,3.134046792984008789e-01,3.133960366249084473e-01,3.134741783142089844e-01,3.135619163513183594e-01,3.135938644409179688e-01,3.136071562767028809e-01,3.135659694671630859e-01,3.135156333446502686e-01,3.135535717010498047e-01,3.135894536972045898e-01,3.130893111228942871e-01,3.127028346061706543e-01,3.123628497123718262e-01,3.102930188179016113e-01,3.058545291423797607e-01,3.016078770160675049e-01,2.952176928520202637e-01,2.891851663589477539e-01,2.850834131240844727e-01,2.826959490776062012e-01,2.816427946090698242e-01,2.866668701171875000e-01,2.910817861557006836e-01,2.960109114646911621e-01,2.982125878334045410e-01,2.999637722969055176e-01,3.047317862510681152e-01,3.052945137023925781e-01,3.079427480697631836e-01,3.094481825828552246e-01,3.105807304382324219e-01,3.118613362312316895e-01,3.118176758289337158e-01,3.123153746128082275e-01,3.125580251216888428e-01,3.126878738403320312e-01,3.126542568206787109e-01,3.126358985900878906e-01,3.126060962677001953e-01,3.125764727592468262e-01,3.125467896461486816e-01,3.125170171260833740e-01,3.124872446060180664e-01,3.124577999114990234e-01,3.124279081821441650e-01,3.123983740806579590e-01,3.123685717582702637e-01,3.123390674591064453e-01,3.123093247413635254e-01,3.122797012329101562e-01,3.122504353523254395e-01,3.122209906578063965e-01,3.121916949748992920e-01,3.121597766876220703e-01,3.121295869350433350e-01,3.120996952056884766e-01,3.120591640472412109e-01,3.120076954364776611e-01,3.119831085205078125e-01,3.118661940097808838e-01,3.117303848266601562e-01,3.115121722221374512e-01,3.122549653053283691e-01,3.104275763034820557e-01,2.992360591888427734e-01,3.025940656661987305e-01,3.288258314132690430e-01,3.441940248012542725e-01,3.968294858932495117e-01,4.101033806800842285e-01
4.212133288383483887e-01,3.491309285163879395e-01,3.364097774028778076e-01,2.999953627586364746e-01,2.791720330715179443e-01,2.769959568977355957e-01,2.819484472274780273e-01,2.831143736839294434e-01,2.839978635311126709e-01,2.838873863220214844e-01,2.838488221168518066e-01,2.838466763496398926e-01,2.838290631771087646e-01,2.838122844696044922e-01,2.837966680526733398e-01,2.837591469287872314e-01,2.837197482585906982e-01,2.836892306804656982e-01,2.836732268333435059e-01,2.836776375770568848e-01,2.834693789482116699e-01,2.834402322769165039e-01,2.835052609443664551e-01,2.826064527034759521e-01,2.801320850849151611e-01,2.776614725589752197e-01,2.725405693054199219e-01,2.694107890129089355e-01,2.665574550628662109e-01,2.651399075984954834e-01,2.659484744071960449e-01,2.662486433982849121e-01,2.691147923469543457e-01,2.728477120399475098e-01,2.737925350666046143e-01,2.752863466739654541e-01,2.780680656433105469e-01,2.791204452514648438e-01,2.801982462406158447e-01,2.808941304683685303e-01,2.814487516880035400e-01,2.822200059890747070e-01,2.825544476509094238e-01,2.826473712921142578e-01,2.829085588455200195e-01,2.830317318439483643e-01,2.830452322959899902e-01,2.830193638801574707e-01,2.829979956150054932e-01,2.829761803150177002e-01,2.829548418521881104e-01,2.829332649707794189e-01,2.829116582870483398e-01,2.828902006149291992e-01,2.828686833381652832e-01,2.828471064567565918e-01,2.828255295753479004e-01,2.828040122985839844e-01,2.827826738357543945e-01,2.827610969543457031e-01,2.827395796775817871e-01,2.827183008193969727e-01,2.826967239379882812e-01,2.826759219169616699e-01,2.826542258262634277e-01,2.826294302940368652e-01,2.826060056686401367e-01,2.825968861579895020e-01,2.825876474380493164e-01,2.825867831707000732e-01,2.825677990913391113e-01,2.824591398239135742e-01,2.830995917320251465e-01,2.817888259887695312e-01,2.718649506568908691e-01,2.751403748989105225e-01,3.007436394691467285e-01,3.195657432079315186e-01,3.763001561164855957e-01,3.975800573825836182e-01
4.091762602329254150e-01,3.324919342994689941e-01,3.159795999526977539e-01,2.799507081508636475e-01,2.584242224693298340e-01,2.558332085609436035e-01,2.600274682044982910e-01,2.610201835632324219e-01,2.617931962013244629e-01,2.617081403732299805e-01,2.616678476333618164e-01,2.616452574729919434e-01,2.616257071495056152e-01,2.616100907325744629e-01,2.615935206413269043e-01,2.615759968757629395e-01,2.615604102611541748e-01,2.615413069725036621e-01,2.615181207656860352e-01,2.614862620830535889e-01,2.614093422889709473e-01,2.615294456481933594e-01,2.614226341247558594e-01,2.607794702053070068e-01,2.599985599517822266e-01,2.589108347892761230e-01,2.566215991973876953e-01,2.537013888359069824e-01,2.521389722824096680e-01,2.506549954414367676e-01,2.516115307807922363e-01,2.516519725322723389e-01,2.532237172126770020e-01,2.539553642272949219e-01,2.552254796028137207e-01,2.566360235214233398e-01,2.575012147426605225e-01,2.586320042610168457e-01,2.595900893211364746e-01,2.597359418869018555e-01,2.601813375949859619e-01,2.604690790176391602e-01,2.606436014175415039e-01,2.608352601528167725e-01,2.609539628028869629e-01,2.610161006450653076e-01,2.610669136047363281e-01,2.610509395599365234e-01,2.610344886779785156e-01,2.610179781913757324e-01,2.610015869140625000e-01,2.609853148460388184e-01,2.609688043594360352e-01,2.609524726867675781e-01,2.609361410140991211e-01,2.609196603298187256e-01,2.609033584594726562e-01,2.608868479728698730e-01,2.608706057071685791e-01,2.608541846275329590e-01,2.608377933502197266e-01,2.608215808868408203e-01,2.608052492141723633e-01,2.607885301113128662e-01,2.607720494270324707e-01,2.607554495334625244e-01,2.607381045818328857e-01,2.607226371765136719e-01,2.607074081897735596e-01,2.606921792030334473e-01,2.606766223907470703e-01,2.605982422828674316e-01,2.611167132854461670e-01,2.600707113742828369e-01,2.511730492115020752e-01,2.544512748718261719e-01,2.794625759124755859e-01,3.009975850582122803e-01,3.605858683586120605e-01,3.876337409019470215e-01
3.991102576255798340e-01,3.188920617103576660e-01,2.997275590896606445e-01,2.643883228302001953e-01,2.423053085803985596e-01,2.394177317619323730e-01,2.430780827999114990e-01,2.439686954021453857e-01,2.446598708629608154e-01,2.445965111255645752e-01,2.445638477802276611e-01,2.445490360260009766e-01,2.445345222949981689e-01,2.445206046104431152e-01,2.445060014724731445e-01,2.444916069507598877e-01,2.444780170917510986e-01,2.444652318954467773e-01,2.444505393505096436e-01,2.444213926792144775e-01,2.443873882293701172e-01,2.445108890533447266e-01,2.443800270557403564e-01,2.439937293529510498e-01,2.440437674522399902e-01,2.436069548130035400e-01,2.419471740722656250e-01,2.409585118293762207e-01,2.401525676250457764e-01,2.395237088203430176e-01,2.392531037330627441e-01,2.396473586559295654e-01,2.392254471778869629e-01,2.390499114990234375e-01,2.406516969203948975e-01,2.411834597587585449e-01,2.412719130516052246e-01,2.426648437976837158e-01,2.424801290035247803e-01,2.434397041797637939e-01,2.433497905731201172e-01,2.438019216060638428e-01,2.439446449279785156e-01,2.439747154712677002e-01,2.440798878669738770e-01,2.440492510795593262e-01,2.440765202045440674e-01,2.440775930881500244e-01,2.440647184848785400e-01,2.440518140792846680e-01,2.440389692783355713e-01,2.440263032913208008e-01,2.440134286880493164e-01,2.440005540847778320e-01,2.439876496791839600e-01,2.439748346805572510e-01,2.439620792865753174e-01,2.439491450786590576e-01,2.439361214637756348e-01,2.439233660697937012e-01,2.439105808734893799e-01,2.438980042934417725e-01,2.438848912715911865e-01,2.438721954822540283e-01,2.438592910766601562e-01,2.438460886478424072e-01,2.438329458236694336e-01,2.438195347785949707e-01,2.438067197799682617e-01,2.437934577465057373e-01,2.437806725502014160e-01,2.437165975570678711e-01,2.441412210464477539e-01,2.433054149150848389e-01,2.352264821529388428e-01,2.385382950305938721e-01,2.629354000091552734e-01,2.863692939281463623e-01,3.479819297790527344e-01,3.796828985214233398e-01
3.908089995384216309e-01,3.077784776687622070e-01,2.866278290748596191e-01,2.519681453704833984e-01,2.295323014259338379e-01,2.264049351215362549e-01,2.296710908412933350e-01,2.304611504077911377e-01,2.310828864574432373e-01,2.310282588005065918e-01,2.310012280941009521e-01,2.309904396533966064e-01,2.309798896312713623e-01,2.309698164463043213e-01,2.309594452381134033e-01,2.309491634368896484e-01,2.309387922286987305e-01,2.309293150901794434e-01,2.309195697307586670e-01,2.309089601039886475e-01,2.308954000473022461e-01,2.309047281742095947e-01,2.307755053043365479e-01,2.308322489261627197e-01,2.309991717338562012e-01,2.307330667972564697e-01,2.298608124256134033e-01,2.294728457927703857e-01,2.290152907371520996e-01,2.284236550331115723e-01,2.285346090793609619e-01,2.283998727798461914e-01,2.279627025127410889e-01,2.286462783813476562e-01,2.282385528087615967e-01,2.289089262485504150e-01,2.291497588157653809e-01,2.291908860206604004e-01,2.297714650630950928e-01,2.300907075405120850e-01,2.303916513919830322e-01,2.303619384765625000e-01,2.305321991443634033e-01,2.306362390518188477e-01,2.306118011474609375e-01,2.306510806083679199e-01,2.306117117404937744e-01,2.306177914142608643e-01,2.306074500083923340e-01,2.305971086025238037e-01,2.305868566036224365e-01,2.305765748023986816e-01,2.305660843849182129e-01,2.305560111999511719e-01,2.305454611778259277e-01,2.305352687835693359e-01,2.305247783660888672e-01,2.305145859718322754e-01,2.305041253566741943e-01,2.304938137531280518e-01,2.304835021495819092e-01,2.304732799530029297e-01,2.304627895355224609e-01,2.304527163505554199e-01,2.304425239562988281e-01,2.304320335388183594e-01,2.304218411445617676e-01,2.304114997386932373e-01,2.304010987281799316e-01,2.303909361362457275e-01,2.303803861141204834e-01,2.303268909454345703e-01,2.306824624538421631e-01,2.300064563751220703e-01,2.225914895534515381e-01,2.259145677089691162e-01,2.498098015785217285e-01,2.745928764343261719e-01,3.377282619476318359e-01,3.731989264488220215e-01
3.838101923465728760e-01,2.985775470733642578e-01,2.758291363716125488e-01,2.418448328971862793e-01,2.191897332668304443e-01,2.158573269844055176e-01,2.188127636909484863e-01,2.195142209529876709e-01,2.200803756713867188e-01,2.200328111648559570e-01,2.200098931789398193e-01,2.200012803077697754e-01,2.199929356575012207e-01,2.199843525886535645e-01,2.199755609035491943e-01,2.199672460556030273e-01,2.199587225914001465e-01,2.199503779411315918e-01,2.199427485466003418e-01,2.199299037456512451e-01,2.199272811412811279e-01,2.198944389820098877e-01,2.198105454444885254e-01,2.198909819126129150e-01,2.199211418628692627e-01,2.197235822677612305e-01,2.195955216884613037e-01,2.193932831287384033e-01,2.188543081283569336e-01,2.190806567668914795e-01,2.190486788749694824e-01,2.188340723514556885e-01,2.188926637172698975e-01,2.189844548702239990e-01,2.187377512454986572e-01,2.188069224357604980e-01,2.192157804965972900e-01,2.189805805683135986e-01,2.190649211406707764e-01,2.193209230899810791e-01,2.195139825344085693e-01,2.195914089679718018e-01,2.195907533168792725e-01,2.197451889514923096e-01,2.197158038616180420e-01,2.197242379188537598e-01,2.197005450725555420e-01,2.196957170963287354e-01,2.196871936321258545e-01,2.196788787841796875e-01,2.196703255176544189e-01,2.196618020534515381e-01,2.196533083915710449e-01,2.196449935436248779e-01,2.196366190910339355e-01,2.196280062198638916e-01,2.196194827556610107e-01,2.196110188961029053e-01,2.196025252342224121e-01,2.195941209793090820e-01,2.195855975151062012e-01,2.195773720741271973e-01,2.195687294006347656e-01,2.195604741573333740e-01,2.195519208908081055e-01,2.195435166358947754e-01,2.195351719856262207e-01,2.195266485214233398e-01,2.195183336734771729e-01,2.195097506046295166e-01,2.195006310939788818e-01,2.194555997848510742e-01,2.197608947753906250e-01,2.192117869853973389e-01,2.123427093029022217e-01,2.156717479228973389e-01,2.391557395458221436e-01,2.649258971214294434e-01,3.292278647422790527e-01,3.678067326545715332e-01
3.778369426727294922e-01,2.908437252044677734e-01,2.668065726757049561e-01,2.334581613540649414e-01,2.106579542160034180e-01,2.071481049060821533e-01,2.098519802093505859e-01,2.104757130146026611e-01,2.109931707382202148e-01,2.109512686729431152e-01,2.109312117099761963e-01,2.109240889549255371e-01,2.109170556068420410e-01,2.109100818634033203e-01,2.109027206897735596e-01,2.108959257602691650e-01,2.108888328075408936e-01,2.108819484710693359e-01,2.108748853206634521e-01,2.108694314956665039e-01,2.108619213104248047e-01,2.108499407768249512e-01,2.108435332775115967e-01,2.108872532844543457e-01,2.108220160007476807e-01,2.108952105045318604e-01,2.108587920665740967e-01,2.107312381267547607e-01,2.104921042919158936e-01,2.105114459991455078e-01,2.102214097976684570e-01,2.104016840457916260e-01,2.104653716087341309e-01,2.104362547397613525e-01,2.104271948337554932e-01,2.104239761829376221e-01,2.103547453880310059e-01,2.105422616004943848e-01,2.104136347770690918e-01,2.105372548103332520e-01,2.106040418148040771e-01,2.106586992740631104e-01,2.106871902942657471e-01,2.106772959232330322e-01,2.106992304325103760e-01,2.106885910034179688e-01,2.106825709342956543e-01,2.106696665287017822e-01,2.106623053550720215e-01,2.106553018093109131e-01,2.106483578681945801e-01,2.106412947177886963e-01,2.106342017650604248e-01,2.106272280216217041e-01,2.106201648712158203e-01,2.106130421161651611e-01,2.106060087680816650e-01,2.105989754199981689e-01,2.105921208858489990e-01,2.105848491191864014e-01,2.105777263641357422e-01,2.105706930160522461e-01,2.105637788772583008e-01,2.105567753314971924e-01,2.105498015880584717e-01,2.105427086353302002e-01,2.105355560779571533e-01,2.105286717414855957e-01,2.105216085910797119e-01,2.105146050453186035e-01,2.105068564414978027e-01,2.104679644107818604e-01,2.107345163822174072e-01,2.102873623371124268e-01,2.038718163967132568e-01,2.072014808654785156e-01,2.303371131420135498e-01,2.568497061729431152e-01,3.220607340335845947e-01,3.632444739341735840e-01
3.726798295974731445e-01,2.842506170272827148e-01,2.591611742973327637e-01,2.263987064361572266e-01,2.035065293312072754e-01,1.998416781425476074e-01,2.023389041423797607e-01,2.028941512107849121e-01,2.033701837062835693e-01,2.033329010009765625e-01,2.033153474330902100e-01,2.033094167709350586e-01,2.033034265041351318e-01,2.032973766326904297e-01,2.032915949821472168e-01,2.032856047153472900e-01,2.032795250415802002e-01,2.032738327980041504e-01,2.032677829265594482e-01,2.032616138458251953e-01,2.032556235790252686e-01,2.032455503940582275e-01,2.032454013824462891e-01,2.032298743724822998e-01,2.031871378421783447e-01,2.032223045825958252e-01,2.032166719436645508e-01,2.031651437282562256e-01,2.031544744968414307e-01,2.030895352363586426e-01,2.030044794082641602e-01,2.031156718730926514e-01,2.030241787433624268e-01,2.029745578765869141e-01,2.030495703220367432e-01,2.029808163642883301e-01,2.030657231807708740e-01,2.030865252017974854e-01,2.031261026859283447e-01,2.030933201313018799e-01,2.030753493309020996e-01,2.031152248382568359e-01,2.031476497650146484e-01,2.030992209911346436e-01,2.031239867210388184e-01,2.031022012233734131e-01,2.031037509441375732e-01,2.030943036079406738e-01,2.030882239341735840e-01,2.030822634696960449e-01,2.030762135982513428e-01,2.030704021453857422e-01,2.030643820762634277e-01,2.030584216117858887e-01,2.030526697635650635e-01,2.030466496944427490e-01,2.030407190322875977e-01,2.030348181724548340e-01,2.030287683010101318e-01,2.030228078365325928e-01,2.030166685581207275e-01,2.030109763145446777e-01,2.030048370361328125e-01,2.029988169670104980e-01,2.029931843280792236e-01,2.029870152473449707e-01,2.029811739921569824e-01,2.029752433300018311e-01,2.029691040515899658e-01,2.029630243778228760e-01,2.029564678668975830e-01,2.029228806495666504e-01,2.031583487987518311e-01,2.027940452098846436e-01,1.967601776123046875e-01,2.000881731510162354e-01,2.229222357273101807e-01,2.500047385692596436e-01,3.159338235855102539e-01,3.593328595161437988e-01
3.681833446025848389e-01,2.785650789737701416e-01,2.526055574417114258e-01,2.203788459300994873e-01,1.974309086799621582e-01,1.936297118663787842e-01,1.959547400474548340e-01,1.964498162269592285e-01,1.968904137611389160e-01,1.968571543693542480e-01,1.968415379524230957e-01,1.968367099761962891e-01,1.968311965465545654e-01,1.968260109424591064e-01,1.968209743499755859e-01,1.968159675598144531e-01,1.968109309673309326e-01,1.968056559562683105e-01,1.968007087707519531e-01,1.967958211898803711e-01,1.967901885509490967e-01,1.967853903770446777e-01,1.967804431915283203e-01,1.967718899250030518e-01,1.967695355415344238e-01,1.967838704586029053e-01,1.967699825763702393e-01,1.967856287956237793e-01,1.967473626136779785e-01,1.967312693595886230e-01,1.967286467552185059e-01,1.966963112354278564e-01,1.967043876647949219e-01,1.966437399387359619e-01,1.966475546360015869e-01,1.966506838798522949e-01,1.966316998004913330e-01,1.966602802276611328e-01,1.966896653175354004e-01,1.966876983642578125e-01,1.967064440250396729e-01,1.966800391674041748e-01,1.966777443885803223e-01,1.966712772846221924e-01,1.966670155525207520e-01,1.966619789600372314e-01,1.966556012630462646e-01,1.966523230075836182e-01,1.966471076011657715e-01,1.966420710086822510e-01,1.966370642185211182e-01,1.966318488121032715e-01,1.966267526149749756e-01,1.966215074062347412e-01,1.966166198253631592e-01,1.966117024421691895e-01,1.966063678264617920e-01,1.966012418270111084e-01,1.965960860252380371e-01,1.965910792350769043e-01,1.965861618518829346e-01,1.965809762477874756e-01,1.965758502483367920e-01,1.965706050395965576e-01,1.965655982494354248e-01,1.965607106685638428e-01,1.965554058551788330e-01,1.965503990650177002e-01,1.965452432632446289e-01,1.965402364730834961e-01,1.965342462062835693e-01,1.965049505233764648e-01,1.967154145240783691e-01,1.964190602302551270e-01,1.907105743885040283e-01,1.940349042415618896e-01,2.166050374507904053e-01,2.441309988498687744e-01,3.106355071067810059e-01,3.559404611587524414e-01
3.642286062240600586e-01,2.736124992370605469e-01,2.469259500503540039e-01,2.151875793933868408e-01,1.922087669372558594e-01,1.882871985435485840e-01,1.904670000076293945e-01,1.909089386463165283e-01,1.913190782070159912e-01,1.912888586521148682e-01,1.912751495838165283e-01,1.912703514099121094e-01,1.912660896778106689e-01,1.912617385387420654e-01,1.912570893764495850e-01,1.912527978420257568e-01,1.912485659122467041e-01,1.912437677383422852e-01,1.912395060062408447e-01,1.912352442741394043e-01,1.912307143211364746e-01,1.912259459495544434e-01,1.912218630313873291e-01,1.912168562412261963e-01,1.912115514278411865e-01,1.912088096141815186e-01,1.912066638469696045e-01,1.912002563476562500e-01,1.911961436271667480e-01,1.911897957324981689e-01,1.911811828613281250e-01,1.911818981170654297e-01,1.911567449569702148e-01,1.911511123180389404e-01,1.911470293998718262e-01,1.911295652389526367e-01,1.911421716213226318e-01,1.911345720291137695e-01,1.911309063434600830e-01,1.911415159702301025e-01,1.911418437957763672e-01,1.911311149597167969e-01,1.911323964595794678e-01,1.911307275295257568e-01,1.911284923553466797e-01,1.911208927631378174e-01,1.911150217056274414e-01,1.911112368106842041e-01,1.911069750785827637e-01,1.911025941371917725e-01,1.910981833934783936e-01,1.910935938358306885e-01,1.910893321037292480e-01,1.910847723484039307e-01,1.910804808139801025e-01,1.910759806632995605e-01,1.910717189311981201e-01,1.910672187805175781e-01,1.910629272460937500e-01,1.910583674907684326e-01,1.910540163516998291e-01,1.910497248172760010e-01,1.910451948642730713e-01,1.910407245159149170e-01,1.910364329814910889e-01,1.910319030284881592e-01,1.910275518894195557e-01,1.910232901573181152e-01,1.910187005996704102e-01,1.910142004489898682e-01,1.910093426704406738e-01,1.909830272197723389e-01,1.911733150482177734e-01,1.909334659576416016e-01,1.855044662952423096e-01,1.888245046138763428e-01,2.111606299877166748e-01,2.390370070934295654e-01,3.060075044631958008e-01,3.529702723026275635e-01
3.607220053672790527e-01,2.692635655403137207e-01,2.419600784778594971e-01,2.106668651103973389e-01,1.876749992370605469e-01,1.836438477039337158e-01,1.856965422630310059e-01,1.860913932323455811e-01,1.864748895168304443e-01,1.864474713802337646e-01,1.864346563816070557e-01,1.864307522773742676e-01,1.864269077777862549e-01,1.864231228828430176e-01,1.864192187786102295e-01,1.864154040813446045e-01,1.864116191864013672e-01,1.864079535007476807e-01,1.864039897918701172e-01,1.864001154899597168e-01,1.863959729671478271e-01,1.863923370838165283e-01,1.863881647586822510e-01,1.863842308521270752e-01,1.863800287246704102e-01,1.863760352134704590e-01,1.863734722137451172e-01,1.863686740398406982e-01,1.863648891448974609e-01,1.863616108894348145e-01,1.863602995872497559e-01,1.863557994365692139e-01,1.863556206226348877e-01,1.863464117050170898e-01,1.863403022289276123e-01,1.863336563110351562e-01,1.863294541835784912e-01,1.863205432891845703e-01,1.863243877887725830e-01,1.863212883472442627e-01,1.863189339637756348e-01,1.863169074058532715e-01,1.863124072551727295e-01,1.863075792789459229e-01,1.863045692443847656e-01,1.862995922565460205e-01,1.862959563732147217e-01,1.862919032573699951e-01,1.862881183624267578e-01,1.862844228744506836e-01,1.862805485725402832e-01,1.862766742706298828e-01,1.862727403640747070e-01,1.862687766551971436e-01,1.862650811672210693e-01,1.862610280513763428e-01,1.862570643424987793e-01,1.862533688545227051e-01,1.862496137619018555e-01,1.862458288669586182e-01,1.862419843673706055e-01,1.862380504608154297e-01,1.862342655658721924e-01,1.862304210662841797e-01,1.862265467643737793e-01,1.862227320671081543e-01,1.862190067768096924e-01,1.862151920795440674e-01,1.862112879753112793e-01,1.862070560455322266e-01,1.862026453018188477e-01,1.861794888973236084e-01,1.863532066345214844e-01,1.861608922481536865e-01,1.809763014316558838e-01,1.842906475067138672e-01,2.064194083213806152e-01,2.345705926418304443e-01,3.019192218780517578e-01,3.503378033638000488e-01
3.576372265815734863e-01,2.654600441455841064e-01,2.376326620578765869e-01,2.067413628101348877e-01,1.837368011474609375e-01,1.796099543571472168e-01,1.815579235553741455e-01,1.819111108779907227e-01,1.822713911533355713e-01,1.822461783885955811e-01,1.822342574596405029e-01,1.822308897972106934e-01,1.822273731231689453e-01,1.822241246700286865e-01,1.822208166122436523e-01,1.822172105312347412e-01,1.822137534618377686e-01,1.822105050086975098e-01,1.822069585323333740e-01,1.822036206722259521e-01,1.822002232074737549e-01,1.821967661380767822e-01,1.821934580802917480e-01,1.821901500225067139e-01,1.821867227554321289e-01,1.821832060813903809e-01,1.821798384189605713e-01,1.821765899658203125e-01,1.821731328964233398e-01,1.821695864200592041e-01,1.821663975715637207e-01,1.821627318859100342e-01,1.821594536304473877e-01,1.821560561656951904e-01,1.821528375148773193e-01,1.821492612361907959e-01,1.821457743644714355e-01,1.821425855159759521e-01,1.821391284465789795e-01,1.821357309818267822e-01,1.821323335170745850e-01,1.821289658546447754e-01,1.821255385875701904e-01,1.821220815181732178e-01,1.821185648441314697e-01,1.821153461933135986e-01,1.821120083332061768e-01,1.821084618568420410e-01,1.821052134037017822e-01,1.821018457412719727e-01,1.820984482765197754e-01,1.820951402187347412e-01,1.820916533470153809e-01,1.820884346961975098e-01,1.820848882198333740e-01,1.820814907550811768e-01,1.820780336856842041e-01,1.820746660232543945e-01,1.820714473724365234e-01,1.820679306983947754e-01,1.820645630359649658e-01,1.820611655712127686e-01,1.820578873157501221e-01,1.820543408393859863e-01,1.820510029792785645e-01,1.820477247238159180e-01,1.820442974567413330e-01,1.820409893989562988e-01,1.820375621318817139e-01,1.820341646671295166e-01,1.820300221443176270e-01,1.820091009140014648e-01,1.821677386760711670e-01,1.820160448551177979e-01,1.770406961441040039e-01,1.803435385227203369e-01,2.022829651832580566e-01,2.306694984436035156e-01,2.983116805553436279e-01,3.479943871498107910e-01
