5.856296420097351074e-01,6.095353364944458008e-01,6.510723233222961426e-01,6.518877744674682617e-01,6.743701696395874023e-01,6.974396109580993652e-01,7.324494123458862305e-01,7.537962198257446289e-01,7.752497792243957520e-01,7.940114736557006836e-01,8.125064969062805176e-01,8.297318816184997559e-01,8.440438508987426758e-01,8.575291037559509277e-01,8.689197301864624023e-01,8.797467947006225586e-01,8.856211900711059570e-01,8.847078084945678711e-01,8.753252029418945312e-01,8.547649979591369629e-01,8.338155746459960938e-01,7.889378070831298828e-01,7.294103503227233887e-01,5.714529752731323242e-01,4.690045714378356934e-01,4.128855764865875244e-01,3.461582660675048828e-01,3.160816133022308350e-01,2.789086103439331055e-01,2.682150602340698242e-01,2.563006877899169922e-01,2.622454762458801270e-01,2.681652307510375977e-01,2.825692594051361084e-01,2.991915345191955566e-01,3.181825280189514160e-01,3.505769968032836914e-01,4.296618700027465820e-01,4.803323149681091309e-01,5.476775765419006348e-01,6.207923293113708496e-01,7.143578529357910156e-01,7.613036632537841797e-01,8.034068346023559570e-01,8.391784429550170898e-01,8.585875034332275391e-01,8.718860149383544922e-01,8.871218562126159668e-01,8.914198279380798340e-01,8.932275772094726562e-01,8.943035602569580078e-01,8.961327075958251953e-01,8.974711894989013672e-01,8.972150087356567383e-01,8.973541259765625000e-01,8.974860906600952148e-01,8.974641561508178711e-01,8.974654078483581543e-01,8.974796533584594727e-01,8.974796533584594727e-01,8.974802494049072266e-01,8.974833488464355469e-01,8.974843025207519531e-01,8.975172042846679688e-01,8.973144888877868652e-01,8.965841531753540039e-01,8.951637148857116699e-01,8.932741880416870117e-01,8.911123871803283691e-01,8.871732950210571289e-01,8.810296058654785156e-01,8.720034360885620117e-01,8.622949123382568359e-01,8.480069637298583984e-01,8.182246088981628418e-01,7.959252595901489258e-01,7.857882976531982422e-01,7.580445408821105957e-01,7.063711881637573242e-01,6.076322793960571289e-01
5.862390398979187012e-01,6.089727282524108887e-01,6.536808013916015625e-01,6.547666192054748535e-01,6.780848503112792969e-01,7.019344568252563477e-01,7.384447455406188965e-01,7.597765326499938965e-01,7.806837558746337891e-01,7.996267080307006836e-01,8.179721832275390625e-01,8.352568149566650391e-01,8.500496149063110352e-01,8.631598949432373047e-01,8.749922513961791992e-01,8.853219151496887207e-01,8.925663828849792480e-01,8.922271728515625000e-01,8.836120367050170898e-01,8.695063591003417969e-01,8.451721072196960449e-01,8.068131208419799805e-01,7.307527065277099609e-01,5.917314887046813965e-01,4.821619093418121338e-01,4.143612980842590332e-01,3.632665872573852539e-01,3.160654604434967041e-01,2.885085344314575195e-01,2.675299048423767090e-01,2.607945203781127930e-01,2.624245285987854004e-01,2.722033262252807617e-01,2.924112677574157715e-01,2.955778837203979492e-01,3.276519179344177246e-01,3.625999987125396729e-01,4.269121587276458740e-01,4.973024725914001465e-01,5.717148780822753906e-01,6.387538909912109375e-01,6.909412145614624023e-01,7.626655101776123047e-01,8.122823834419250488e-01,8.348028063774108887e-01,8.597118854522705078e-01,8.758744001388549805e-01,8.897162675857543945e-01,8.954849243164062500e-01,8.996907472610473633e-01,9.000874161720275879e-01,9.003039002418518066e-01,9.018254280090332031e-01,9.025141596794128418e-01,9.027991294860839844e-01,9.031471014022827148e-01,9.031783342361450195e-01,9.031592011451721191e-01,9.031499028205871582e-01,9.031499028205871582e-01,9.031504988670349121e-01,9.031525850296020508e-01,9.031727313995361328e-01,9.031926393508911133e-01,9.029681682586669922e-01,9.022151231765747070e-01,9.009346961975097656e-01,8.995032310485839844e-01,8.969995975494384766e-01,8.931798934936523438e-01,8.870203495025634766e-01,8.788356184959411621e-01,8.685353994369506836e-01,8.554215431213378906e-01,8.276196718215942383e-01,8.058066964149475098e-01,7.977397441864013672e-01,7.731653451919555664e-01,7.197253704071044922e-01,6.134555339813232422e-01
5.892093777656555176e-01,6.141223311424255371e-01,6.574173569679260254e-01,6.579468846321105957e-01,6.818155050277709961e-01,7.059266567230224609e-01,7.424408793449401855e-01,7.638158798217773438e-01,7.844161987304687500e-01,8.029776215553283691e-01,8.210771083831787109e-01,8.377197980880737305e-01,8.528566360473632812e-01,8.658672571182250977e-01,8.771852254867553711e-01,8.874369859695434570e-01,8.948202133178710938e-01,8.938030004501342773e-01,8.862033486366271973e-01,8.728018999099731445e-01,8.509580492973327637e-01,8.105235099792480469e-01,7.472498416900634766e-01,6.117994785308837891e-01,4.835646748542785645e-01,4.365385174751281738e-01,3.737937211990356445e-01,3.334659636020660400e-01,2.895166873931884766e-01,2.631045579910278320e-01,2.682672739028930664e-01,2.622701525688171387e-01,2.785091102123260498e-01,2.931630611419677734e-01,3.049187064170837402e-01,3.536657989025115967e-01,3.939000964164733887e-01,4.494661688804626465e-01,5.290257930755615234e-01,5.953844785690307617e-01,6.416118741035461426e-01,7.015724182128906250e-01,7.706053853034973145e-01,8.095773458480834961e-01,8.493557572364807129e-01,8.647279739379882812e-01,8.685500025749206543e-01,8.807172775268554688e-01,8.951290845870971680e-01,8.996583223342895508e-01,9.012265205383300781e-01,9.025327563285827637e-01,9.037877321243286133e-01,9.049185514450073242e-01,9.053667187690734863e-01,9.055620431900024414e-01,9.056552648544311523e-01,9.055955410003662109e-01,9.055932760238647461e-01,9.055932760238647461e-01,9.055936336517333984e-01,9.055963754653930664e-01,9.056216478347778320e-01,9.056230783462524414e-01,9.053970575332641602e-01,9.047081470489501953e-01,9.036165475845336914e-01,9.019732475280761719e-01,8.994528055191040039e-01,8.957049846649169922e-01,8.895947933197021484e-01,8.807387351989746094e-01,8.713241815567016602e-01,8.590161800384521484e-01,8.305082321166992188e-01,8.089780807495117188e-01,8.007289171218872070e-01,7.750713229179382324e-01,7.215895056724548340e-01,6.156179308891296387e-01
5.887281894683837891e-01,6.143672466278076172e-01,6.568017005920410156e-01,6.576668024063110352e-01,6.813181638717651367e-01,7.055904269218444824e-01,7.419083714485168457e-01,7.633277177810668945e-01,7.840614318847656250e-01,8.025954961776733398e-01,8.203091621398925781e-01,8.370764255523681641e-01,8.520730733871459961e-01,8.652557134628295898e-01,8.767881393432617188e-01,8.869144320487976074e-01,8.939981460571289062e-01,8.932383656501770020e-01,8.856381177902221680e-01,8.726701736450195312e-01,8.525619506835937500e-01,8.179425001144409180e-01,7.508497834205627441e-01,6.200837492942810059e-01,4.966318011283874512e-01,4.454180598258972168e-01,3.660857677459716797e-01,3.405355811119079590e-01,2.998641133308410645e-01,2.785343527793884277e-01,2.596247494220733643e-01,2.695859670639038086e-01,2.843367755413055420e-01,2.971488833427429199e-01,3.125411570072174072e-01,3.501376509666442871e-01,4.056271314620971680e-01,4.714882075786590576e-01,5.453748703002929688e-01,6.054022908210754395e-01,6.673144102096557617e-01,7.223910689353942871e-01,7.614066600799560547e-01,8.119630813598632812e-01,8.489272594451904297e-01,8.575521111488342285e-01,8.665133714675903320e-01,8.761625289916992188e-01,8.909868001937866211e-01,8.956335783004760742e-01,9.014543294906616211e-01,9.008189439773559570e-01,9.011343717575073242e-01,9.028970003128051758e-01,9.043825864791870117e-01,9.048606157302856445e-01,9.052424430847167969e-01,9.052981138229370117e-01,9.053092002868652344e-01,9.053092002868652344e-01,9.053095579147338867e-01,9.053115844726562500e-01,9.053359031677246094e-01,9.053479433059692383e-01,9.051187634468078613e-01,9.044790267944335938e-01,9.033898711204528809e-01,9.015980958938598633e-01,8.991197347640991211e-01,8.952250480651855469e-01,8.887359499931335449e-01,8.801131248474121094e-01,8.711241483688354492e-01,8.580768108367919922e-01,8.291842937469482422e-01,8.083125352859497070e-01,8.007320165634155273e-01,7.745543718338012695e-01,7.219356894493103027e-01,6.160211563110351562e-01
5.887539982795715332e-01,6.143566966056823730e-01,6.569760441780090332e-01,6.578226089477539062e-01,6.813725829124450684e-01,7.056001424789428711e-01,7.419762611389160156e-01,7.633664608001708984e-01,7.841256856918334961e-01,8.027318120002746582e-01,8.204545378684997559e-01,8.368877172470092773e-01,8.519617319107055664e-01,8.652240037918090820e-01,8.766950368881225586e-01,8.868203163146972656e-01,8.936366438865661621e-01,8.925671577453613281e-01,8.849173784255981445e-01,8.735316991806030273e-01,8.512337207794189453e-01,8.186955451965332031e-01,7.565623521804809570e-01,6.303012371063232422e-01,5.301324129104614258e-01,4.370810389518737793e-01,3.921918869018554688e-01,3.515256047248840332e-01,3.070183694362640381e-01,2.786234021186828613e-01,2.681370973587036133e-01,2.764739096164703369e-01,2.849556803703308105e-01,3.016363978385925293e-01,3.379320502281188965e-01,3.597300052642822266e-01,4.039226174354553223e-01,5.139442682266235352e-01,5.766124725341796875e-01,6.298286914825439453e-01,6.734017133712768555e-01,7.319471836090087891e-01,7.785403728485107422e-01,8.027037382125854492e-01,8.338962793350219727e-01,8.677891492843627930e-01,8.636189699172973633e-01,8.747748732566833496e-01,8.791680335998535156e-01,8.907036781311035156e-01,8.976455926895141602e-01,9.023278951644897461e-01,9.026563167572021484e-01,9.034427404403686523e-01,9.045910239219665527e-01,9.050174951553344727e-01,9.052034616470336914e-01,9.052995443344116211e-01,9.053338766098022461e-01,9.053338766098022461e-01,9.053341150283813477e-01,9.053356647491455078e-01,9.053573608398437500e-01,9.053783416748046875e-01,9.051487445831298828e-01,9.045405387878417969e-01,9.034007787704467773e-01,9.016119241714477539e-01,8.991032838821411133e-01,8.950774669647216797e-01,8.885998725891113281e-01,8.802759647369384766e-01,8.708722591400146484e-01,8.577376604080200195e-01,8.292531967163085938e-01,8.083452582359313965e-01,8.006061315536499023e-01,7.745687961578369141e-01,7.219294309616088867e-01,6.160477399826049805e-01
5.887331962585449219e-01,6.143202781677246094e-01,6.569509506225585938e-01,6.577841043472290039e-01,6.813440322875976562e-01,7.055728435516357422e-01,7.419351935386657715e-01,7.633392810821533203e-01,7.841014266014099121e-01,8.027133941650390625e-01,8.204681277275085449e-01,8.369163274765014648e-01,8.518277406692504883e-01,8.651760816574096680e-01,8.767615556716918945e-01,8.866975307464599609e-01,8.936675786972045898e-01,8.926306366920471191e-01,8.853262662887573242e-01,8.738827705383300781e-01,8.581788539886474609e-01,8.258306980133056641e-01,7.670241594314575195e-01,6.483098268508911133e-01,5.247185230255126953e-01,4.468104541301727295e-01,4.253431260585784912e-01,3.609619736671447754e-01,3.255569934844970703e-01,2.918384671211242676e-01,2.848067283630371094e-01,2.755154371261596680e-01,2.944355607032775879e-01,3.203712105751037598e-01,3.628818392753601074e-01,3.647204041481018066e-01,4.216094017028808594e-01,5.283145308494567871e-01,6.106975078582763672e-01,6.483685970306396484e-01,6.962428689002990723e-01,7.378336787223815918e-01,7.788542509078979492e-01,8.050372004508972168e-01,8.291398286819458008e-01,8.624734878540039062e-01,8.731085062026977539e-01,8.698937892913818359e-01,8.768154382705688477e-01,8.888608813285827637e-01,8.946801424026489258e-01,8.994202613830566406e-01,9.013578295707702637e-01,9.021748304367065430e-01,9.032450914382934570e-01,9.046159386634826660e-01,9.050918817520141602e-01,9.053192138671875000e-01,9.053283333778381348e-01,9.053283333778381348e-01,9.053285717964172363e-01,9.053298234939575195e-01,9.053540825843811035e-01,9.053707122802734375e-01,9.051676392555236816e-01,9.045493602752685547e-01,9.033930897712707520e-01,9.016163349151611328e-01,8.990687131881713867e-01,8.949469923973083496e-01,8.886445760726928711e-01,8.801645636558532715e-01,8.707154989242553711e-01,8.578228950500488281e-01,8.292665481567382812e-01,8.081740140914916992e-01,8.005628585815429688e-01,7.745725512504577637e-01,7.219682931900024414e-01,6.160024404525756836e-01
5.887264609336853027e-01,6.143092513084411621e-01,6.569384932518005371e-01,6.577695608139038086e-01,6.813274621963500977e-01,7.055547833442687988e-01,7.419208884239196777e-01,7.633185386657714844e-01,7.840825915336608887e-01,8.027043342590332031e-01,8.204588890075683594e-01,8.369141817092895508e-01,8.518298268318176270e-01,8.651164770126342773e-01,8.767458200454711914e-01,8.866561651229858398e-01,8.938078880310058594e-01,8.924959897994995117e-01,8.871057033538818359e-01,8.755378723144531250e-01,8.607587814331054688e-01,8.310835361480712891e-01,7.839397192001342773e-01,6.561467647552490234e-01,5.406195521354675293e-01,5.008898377418518066e-01,4.374587833881378174e-01,4.175433516502380371e-01,3.379767537117004395e-01,3.152997493743896484e-01,2.992953062057495117e-01,2.778896689414978027e-01,2.964209020137786865e-01,3.239260911941528320e-01,3.680470287799835205e-01,3.847191631793975830e-01,4.349905550479888916e-01,5.509324669837951660e-01,6.356279850006103516e-01,7.148629426956176758e-01,7.215521335601806641e-01,7.505680918693542480e-01,7.767971754074096680e-01,8.193441033363342285e-01,8.332997560501098633e-01,8.564807176589965820e-01,8.686231374740600586e-01,8.731271028518676758e-01,8.774492144584655762e-01,8.854192495346069336e-01,8.937077522277832031e-01,8.994591832160949707e-01,9.026871323585510254e-01,9.033035635948181152e-01,9.047068357467651367e-01,9.047811627388000488e-01,9.052265882492065430e-01,9.052717685699462891e-01,9.053283333778381348e-01,9.053283333778381348e-01,9.053285121917724609e-01,9.053297042846679688e-01,9.053525924682617188e-01,9.053744077682495117e-01,9.051620960235595703e-01,9.045385122299194336e-01,9.033941030502319336e-01,9.016328454017639160e-01,8.990532755851745605e-01,8.949608802795410156e-01,8.886346817016601562e-01,8.801281452178955078e-01,8.707860708236694336e-01,8.578420281410217285e-01,8.292031288146972656e-01,8.081843256950378418e-01,8.005907535552978516e-01,7.745986580848693848e-01,7.219766378402709961e-01,6.160137653350830078e-01
5.887194871902465820e-01,6.142981052398681641e-01,6.569254994392395020e-01,6.577547788619995117e-01,6.813114881515502930e-01,7.055377960205078125e-01,7.419034838676452637e-01,7.633037567138671875e-01,7.840659022331237793e-01,8.026872873306274414e-01,8.204488158226013184e-01,8.369044065475463867e-01,8.518211841583251953e-01,8.651081919670104980e-01,8.767157793045043945e-01,8.865795731544494629e-01,8.937805891036987305e-01,8.933766484260559082e-01,8.886370062828063965e-01,8.795043230056762695e-01,8.647118210792541504e-01,8.364759087562561035e-01,8.036878705024719238e-01,6.765439510345458984e-01,5.896381735801696777e-01,5.308580398559570312e-01,4.871151149272918701e-01,4.683006703853607178e-01,3.992069363594055176e-01,3.529904186725616455e-01,3.127142786979675293e-01,3.077885508537292480e-01,3.109180927276611328e-01,3.450112342834472656e-01,3.652940988540649414e-01,4.075739979743957520e-01,4.658118784427642822e-01,5.490720868110656738e-01,6.582919359207153320e-01,7.357373237609863281e-01,7.712523937225341797e-01,7.768288850784301758e-01,7.937921285629272461e-01,8.291882872581481934e-01,8.422946929931640625e-01,8.534420728683471680e-01,8.682467937469482422e-01,8.763941526412963867e-01,8.811360597610473633e-01,8.877224922180175781e-01,8.939465284347534180e-01,8.990885615348815918e-01,9.023678302764892578e-01,9.029166698455810547e-01,9.037690162658691406e-01,9.047568440437316895e-01,9.052498936653137207e-01,9.053279161453247070e-01,9.053283333778381348e-01,9.053283333778381348e-01,9.053285121917724609e-01,9.053297042846679688e-01,9.053524732589721680e-01,9.053735136985778809e-01,9.051607847213745117e-01,9.045397639274597168e-01,9.033986926078796387e-01,9.016396999359130859e-01,8.990608453750610352e-01,8.949520587921142578e-01,8.886377215385437012e-01,8.801602125167846680e-01,8.707975149154663086e-01,8.578357100486755371e-01,8.292224407196044922e-01,8.082057833671569824e-01,8.006064295768737793e-01,7.746136188507080078e-01,7.219907045364379883e-01,6.160244941711425781e-01
5.887126922607421875e-01,6.142867803573608398e-01,6.569125652313232422e-01,6.577401161193847656e-01,6.812952756881713867e-01,7.055214047431945801e-01,7.418870329856872559e-01,7.632873058319091797e-01,7.840505242347717285e-01,8.026719689369201660e-01,8.204346895217895508e-01,8.368924856185913086e-01,8.518096208572387695e-01,8.650921583175659180e-01,8.766982555389404297e-01,8.866298794746398926e-01,8.940624594688415527e-01,8.941495418548583984e-01,8.905843496322631836e-01,8.832093477249145508e-01,8.681830167770385742e-01,8.517904877662658691e-01,8.132472038269042969e-01,7.053217291831970215e-01,6.317112445831298828e-01,5.940120220184326172e-01,5.764435529708862305e-01,5.099421143531799316e-01,4.804174005985260010e-01,4.091685116291046143e-01,3.461011648178100586e-01,3.345065116882324219e-01,3.308468163013458252e-01,3.566818237304687500e-01,3.590190410614013672e-01,4.279274344444274902e-01,5.080281496047973633e-01,5.672271251678466797e-01,6.794947981834411621e-01,7.511912584304809570e-01,8.063244819641113281e-01,8.198654651641845703e-01,8.240588903427124023e-01,8.235588073730468750e-01,8.510376811027526855e-01,8.697816729545593262e-01,8.786586523056030273e-01,8.843228816986083984e-01,8.883244991302490234e-01,8.890746831893920898e-01,8.951199054718017578e-01,9.006659984588623047e-01,9.032489061355590820e-01,9.043419361114501953e-01,9.048053026199340820e-01,9.053701162338256836e-01,9.052562117576599121e-01,9.053496122360229492e-01,9.053283333778381348e-01,9.053283333778381348e-01,9.053285121917724609e-01,9.053297042846679688e-01,9.053523540496826172e-01,9.053736329078674316e-01,9.051607847213745117e-01,9.045403003692626953e-01,9.034001827239990234e-01,9.016417264938354492e-01,8.990638852119445801e-01,8.949551582336425781e-01,8.886441588401794434e-01,8.801686763763427734e-01,8.708063364028930664e-01,8.578462600708007812e-01,8.292393684387207031e-01,8.082236051559448242e-01,8.006225824356079102e-01,7.746300697326660156e-01,7.220045328140258789e-01,6.160329580307006836e-01
5.887056589126586914e-01,6.142754554748535156e-01,6.568995118141174316e-01,6.577249765396118164e-01,6.812788844108581543e-01,7.055048942565917969e-01,7.418704628944396973e-01,7.632710337638854980e-01,7.840346097946166992e-01,8.026567697525024414e-01,8.204203844070434570e-01,8.368797898292541504e-01,8.517981767654418945e-01,8.650743961334228516e-01,8.766703605651855469e-01,8.865717053413391113e-01,8.939466476440429688e-01,8.955615758895874023e-01,8.931012153625488281e-01,8.860603570938110352e-01,8.799141049385070801e-01,8.651861548423767090e-01,8.246591091156005859e-01,7.542460560798645020e-01,6.847252249717712402e-01,6.620080471038818359e-01,6.363862752914428711e-01,5.922793149948120117e-01,5.480831861495971680e-01,4.577502012252807617e-01,3.960141539573669434e-01,3.799816668033599854e-01,3.800471723079681396e-01,3.688773512840270996e-01,3.801901638507843018e-01,4.424134492874145508e-01,5.192628502845764160e-01,6.008310914039611816e-01,6.919122338294982910e-01,7.655718326568603516e-01,8.136032819747924805e-01,8.491066098213195801e-01,8.447068333625793457e-01,8.526110649108886719e-01,8.648276329040527344e-01,8.796504735946655273e-01,8.846517801284790039e-01,8.899760246276855469e-01,8.888639211654663086e-01,8.926807045936584473e-01,8.999631404876708984e-01,9.028273820877075195e-01,9.041619896888732910e-01,9.049917459487915039e-01,9.046969413757324219e-01,9.050374031066894531e-01,9.052636623382568359e-01,9.052867293357849121e-01,9.053283333778381348e-01,9.053283333778381348e-01,9.053285121917724609e-01,9.053297042846679688e-01,9.053521752357482910e-01,9.053735136985778809e-01,9.051610231399536133e-01,9.045408964157104492e-01,9.034013748168945312e-01,9.016437530517578125e-01,8.990662693977355957e-01,8.949595093727111816e-01,8.886510133743286133e-01,8.801776170730590820e-01,8.708160519599914551e-01,8.578590154647827148e-01,8.292548060417175293e-01,8.082405328750610352e-01,8.006395101547241211e-01,7.746462821960449219e-01,7.220176458358764648e-01,6.160423755645751953e-01
5.886985063552856445e-01,6.142640113830566406e-01,6.568863987922668457e-01,6.577098965644836426e-01,6.812623739242553711e-01,7.054880261421203613e-01,7.418539524078369141e-01,7.632547020912170410e-01,7.840185761451721191e-01,8.026412725448608398e-01,8.204061985015869141e-01,8.368669748306274414e-01,8.517868518829345703e-01,8.650622367858886719e-01,8.766577839851379395e-01,8.867348432540893555e-01,8.948326706886291504e-01,8.967665433883666992e-01,8.958443999290466309e-01,8.906598091125488281e-01,8.851412534713745117e-01,8.741575479507446289e-01,8.445394635200500488e-01,7.902136445045471191e-01,7.493746280670166016e-01,7.407928705215454102e-01,7.172949910163879395e-01,6.859607100486755371e-01,6.003168225288391113e-01,5.346463918685913086e-01,4.618443548679351807e-01,4.223251044750213623e-01,4.017518162727355957e-01,3.842388391494750977e-01,3.999953269958496094e-01,4.479215145111083984e-01,5.232481956481933594e-01,6.368173360824584961e-01,7.171879410743713379e-01,7.676733136177062988e-01,8.229416608810424805e-01,8.547612428665161133e-01,8.768206834793090820e-01,8.700109720230102539e-01,8.642935156822204590e-01,8.834759593009948730e-01,8.904519081115722656e-01,8.951890468597412109e-01,8.982586860656738281e-01,9.015235900878906250e-01,9.021683931350708008e-01,9.029342532157897949e-01,9.044549465179443359e-01,9.051792621612548828e-01,9.053360819816589355e-01,9.051868915557861328e-01,9.054024219512939453e-01,9.052999019622802734e-01,9.053283333778381348e-01,9.053283333778381348e-01,9.053285121917724609e-01,9.053297042846679688e-01,9.053522348403930664e-01,9.053734540939331055e-01,9.051612019538879395e-01,9.045416116714477539e-01,9.034025669097900391e-01,9.016454815864562988e-01,8.990690112113952637e-01,8.949637413024902344e-01,8.886575698852539062e-01,8.801864385604858398e-01,8.708262443542480469e-01,8.578717112541198730e-01,8.292700648307800293e-01,8.082572221755981445e-01,8.006561994552612305e-01,7.746627330780029297e-01,7.220310568809509277e-01,6.160516738891601562e-01
5.886909961700439453e-01,6.142522096633911133e-01,6.568728089332580566e-01,6.576944589614868164e-01,6.812455058097839355e-01,7.054710388183593750e-01,7.418370246887207031e-01,7.632381916046142578e-01,7.840024828910827637e-01,8.026256561279296875e-01,8.203917741775512695e-01,8.368536233901977539e-01,8.517749309539794922e-01,8.650559186935424805e-01,8.766355514526367188e-01,8.867114782333374023e-01,8.946676254272460938e-01,8.963416814804077148e-01,8.958162069320678711e-01,8.983029127120971680e-01,8.943557739257812500e-01,8.859859704971313477e-01,8.628193140029907227e-01,8.367168903350830078e-01,8.205360770225524902e-01,7.900780439376831055e-01,7.831838726997375488e-01,7.375865578651428223e-01,6.659982204437255859e-01,6.000408530235290527e-01,5.273143053054809570e-01,4.616271555423736572e-01,4.196654856204986572e-01,4.198215603828430176e-01,4.234997034072875977e-01,4.656034111976623535e-01,5.402959585189819336e-01,6.444231271743774414e-01,7.346088290214538574e-01,7.825863361358642578e-01,8.296180963516235352e-01,8.587346673011779785e-01,8.795875310897827148e-01,8.839380741119384766e-01,8.828035593032836914e-01,8.897176384925842285e-01,8.939318656921386719e-01,8.987978100776672363e-01,9.051033258438110352e-01,9.034760594367980957e-01,9.036998748779296875e-01,9.038577079772949219e-01,9.038284420967102051e-01,9.051392078399658203e-01,9.054416418075561523e-01,9.052688479423522949e-01,9.052630662918090820e-01,9.053455591201782227e-01,9.053283333778381348e-01,9.053283333778381348e-01,9.053285121917724609e-01,9.053297042846679688e-01,9.053521156311035156e-01,9.053735136985778809e-01,9.051613807678222656e-01,9.045423269271850586e-01,9.034036993980407715e-01,9.016472697257995605e-01,8.990715742111206055e-01,8.949679136276245117e-01,8.886639475822448730e-01,8.801952004432678223e-01,8.708367347717285156e-01,8.578840494155883789e-01,8.292850852012634277e-01,8.082740902900695801e-01,8.006729483604431152e-01,7.746791243553161621e-01,7.220445275306701660e-01,6.160610318183898926e-01
5.886831283569335938e-01,6.142396330833435059e-01,6.568586826324462891e-01,6.576786041259765625e-01,6.812283396720886230e-01,7.054536938667297363e-01,7.418198585510253906e-01,7.632212638854980469e-01,7.839858531951904297e-01,8.026100397109985352e-01,8.203770518302917480e-01,8.368403911590576172e-01,8.517631292343139648e-01,8.650517463684082031e-01,8.766235113143920898e-01,8.866413831710815430e-01,8.939998149871826172e-01,8.964043855667114258e-01,8.968673944473266602e-01,8.994044065475463867e-01,8.985226750373840332e-01,8.935800194740295410e-01,8.836806416511535645e-01,8.699998855590820312e-01,8.432012200355529785e-01,8.296939134597778320e-01,8.160846233367919922e-01,7.962879538536071777e-01,7.463090419769287109e-01,6.626080870628356934e-01,5.931931734085083008e-01,4.835919439792633057e-01,4.525764584541320801e-01,4.281260073184967041e-01,4.381939172744750977e-01,4.806427359580993652e-01,5.567665100097656250e-01,6.670026183128356934e-01,7.331305146217346191e-01,7.995247244834899902e-01,8.366607427597045898e-01,8.563489913940429688e-01,8.814753293991088867e-01,8.922845721244812012e-01,8.929654359817504883e-01,8.947151899337768555e-01,8.970411419868469238e-01,9.007217884063720703e-01,9.055190086364746094e-01,9.062992334365844727e-01,9.044947028160095215e-01,9.039946198463439941e-01,9.039777517318725586e-01,9.047304391860961914e-01,9.053115844726562500e-01,9.054567217826843262e-01,9.053854942321777344e-01,9.053258895874023438e-01,9.053283333778381348e-01,9.053283333778381348e-01,9.053285121917724609e-01,9.053297042846679688e-01,9.053521156311035156e-01,9.053735136985778809e-01,9.051617383956909180e-01,9.045429229736328125e-01,9.034049510955810547e-01,9.016491174697875977e-01,8.990743160247802734e-01,8.949720859527587891e-01,8.886707425117492676e-01,8.802042007446289062e-01,8.708474040031433105e-01,8.578965663909912109e-01,8.293004631996154785e-01,8.082908391952514648e-01,8.006898164749145508e-01,7.746952772140502930e-01,7.220578193664550781e-01,6.160703897476196289e-01
5.886746644973754883e-01,6.142264604568481445e-01,6.568436622619628906e-01,6.576616764068603516e-01,6.812101602554321289e-01,7.054355740547180176e-01,7.418018579483032227e-01,7.632039785385131836e-01,7.839692831039428711e-01,8.025936484336853027e-01,8.203618526458740234e-01,8.368268013000488281e-01,8.517511487007141113e-01,8.650346994400024414e-01,8.765982389450073242e-01,8.864914178848266602e-01,8.935635089874267578e-01,8.969094157218933105e-01,9.006758928298950195e-01,9.034012556076049805e-01,9.021905660629272461e-01,8.968813419342041016e-01,8.890320062637329102e-01,8.838313817977905273e-01,8.677995204925537109e-01,8.672668337821960449e-01,8.506282567977905273e-01,8.221589326858520508e-01,7.833497524261474609e-01,7.117313146591186523e-01,6.310728788375854492e-01,5.058349967002868652e-01,4.759700894355773926e-01,4.471798539161682129e-01,4.628074467182159424e-01,4.916010499000549316e-01,5.711866021156311035e-01,6.770910620689392090e-01,7.524323463439941406e-01,8.032532930374145508e-01,8.468365669250488281e-01,8.684903979301452637e-01,8.860306143760681152e-01,8.947524428367614746e-01,8.974484205245971680e-01,9.005080461502075195e-01,8.989192247390747070e-01,8.996390700340270996e-01,9.026133418083190918e-01,9.053426384925842285e-01,9.049549102783203125e-01,9.047052860260009766e-01,9.049175381660461426e-01,9.051237106323242188e-01,9.052591323852539062e-01,9.052894711494445801e-01,9.052979350090026855e-01,9.053429365158081055e-01,9.053283333778381348e-01,9.053283333778381348e-01,9.053285121917724609e-01,9.053297042846679688e-01,9.053521156311035156e-01,9.053735733032226562e-01,9.051619768142700195e-01,9.045436382293701172e-01,9.034060835838317871e-01,9.016508460044860840e-01,8.990769982337951660e-01,8.949763774871826172e-01,8.886774182319641113e-01,8.802130818367004395e-01,8.708578348159790039e-01,8.579093813896179199e-01,8.293154239654541016e-01,8.083078265190124512e-01,8.007067441940307617e-01,7.747116088867187500e-01,7.220714688301086426e-01,6.160798072814941406e-01
5.886660814285278320e-01,6.142125129699707031e-01,6.568278074264526367e-01,6.576434373855590820e-01,6.811908483505249023e-01,7.054163813591003418e-01,7.417830228805541992e-01,7.631857395172119141e-01,7.839516997337341309e-01,8.025770187377929688e-01,8.203465342521667480e-01,8.368127346038818359e-01,8.517385125160217285e-01,8.650203943252563477e-01,8.765841722488403320e-01,8.861399888992309570e-01,8.933814764022827148e-01,8.973958492279052734e-01,9.017146825790405273e-01,9.051564931869506836e-01,9.020065069198608398e-01,8.962560892105102539e-01,8.945166468620300293e-01,8.923583030700683594e-01,8.888205289840698242e-01,8.764182329177856445e-01,8.596236109733581543e-01,8.306772708892822266e-01,8.056562542915344238e-01,7.564556598663330078e-01,6.361948251724243164e-01,5.367398262023925781e-01,4.857389330863952637e-01,4.567826092243194580e-01,4.732052087783813477e-01,5.121644139289855957e-01,5.977426767349243164e-01,6.828991174697875977e-01,7.592954635620117188e-01,8.074944019317626953e-01,8.511810302734375000e-01,8.720781207084655762e-01,8.889272809028625488e-01,8.993239998817443848e-01,9.032030105590820312e-01,9.021325707435607910e-01,9.010055065155029297e-01,9.019626975059509277e-01,9.031130075454711914e-01,9.049012660980224609e-01,9.053984880447387695e-01,9.052681922912597656e-01,9.052804708480834961e-01,9.051901102066040039e-01,9.052771329879760742e-01,9.053453207015991211e-01,9.053416252136230469e-01,9.053199291229248047e-01,9.053283333778381348e-01,9.053283333778381348e-01,9.053285121917724609e-01,9.053297042846679688e-01,9.053521156311035156e-01,9.053734540939331055e-01,9.051622152328491211e-01,9.045442342758178711e-01,9.034072160720825195e-01,9.016526937484741211e-01,8.990795612335205078e-01,8.949805498123168945e-01,8.886841535568237305e-01,8.802219033241271973e-01,8.708683252334594727e-01,8.579218387603759766e-01,8.293310403823852539e-01,8.083245754241943359e-01,8.007234930992126465e-01,7.747278213500976562e-01,7.220849394798278809e-01,6.160892248153686523e-01
5.886572599411010742e-01,6.141982674598693848e-01,6.568117141723632812e-01,6.576246619224548340e-01,6.811704039573669434e-01,7.053955793380737305e-01,7.417628765106201172e-01,7.631664276123046875e-01,7.839331626892089844e-01,8.025596141815185547e-01,8.203305006027221680e-01,8.367984890937805176e-01,8.517259359359741211e-01,8.650165796279907227e-01,8.765703439712524414e-01,8.859825730323791504e-01,8.934011459350585938e-01,8.986114263534545898e-01,9.024200439453125000e-01,9.046363830566406250e-01,9.036465883255004883e-01,9.012359380722045898e-01,8.982384204864501953e-01,8.954457044601440430e-01,8.937354087829589844e-01,8.896631598472595215e-01,8.672297596931457520e-01,8.378781080245971680e-01,8.140745759010314941e-01,7.520489692687988281e-01,6.461297869682312012e-01,5.392382740974426270e-01,4.985009431838989258e-01,4.622953534126281738e-01,4.848686456680297852e-01,5.431560873985290527e-01,6.037303209304809570e-01,6.947661042213439941e-01,7.676255702972412109e-01,8.174638748168945312e-01,8.562672138214111328e-01,8.790109157562255859e-01,8.930093646049499512e-01,9.003964662551879883e-01,9.021257162094116211e-01,9.024131298065185547e-01,9.038780927658081055e-01,9.045565724372863770e-01,9.045674800872802734e-01,9.049525260925292969e-01,9.051619768142700195e-01,9.052354097366333008e-01,9.053584337234497070e-01,9.053562879562377930e-01,9.053252935409545898e-01,9.053250551223754883e-01,9.053287506103515625e-01,9.053287506103515625e-01,9.053283333778381348e-01,9.053283333778381348e-01,9.053285121917724609e-01,9.053297042846679688e-01,9.053520560264587402e-01,9.053734540939331055e-01,9.051623344421386719e-01,9.045448303222656250e-01,9.034084677696228027e-01,9.016544222831726074e-01,8.990822434425354004e-01,8.949849605560302734e-01,8.886905312538146973e-01,8.802309036254882812e-01,8.708788752555847168e-01,8.579344153404235840e-01,8.293461799621582031e-01,8.083414435386657715e-01,8.007403612136840820e-01,7.747442722320556641e-01,7.220982909202575684e-01,6.160985231399536133e-01
5.886487364768981934e-01,6.141841411590576172e-01,6.567950248718261719e-01,6.576053500175476074e-01,6.811494231224060059e-01,7.053743600845336914e-01,7.417420148849487305e-01,7.631458044052124023e-01,7.839133739471435547e-01,8.025408983230590820e-01,8.203133940696716309e-01,8.367832899093627930e-01,8.517125844955444336e-01,8.650029897689819336e-01,8.765717744827270508e-01,8.860077857971191406e-01,8.930903673171997070e-01,8.983106613159179688e-01,9.017381668090820312e-01,9.030314683914184570e-01,9.041440486907958984e-01,9.029197692871093750e-01,8.986171483993530273e-01,9.004331231117248535e-01,8.985806107521057129e-01,8.861688375473022461e-01,8.662310838699340820e-01,8.458131551742553711e-01,8.086804151535034180e-01,7.445611953735351562e-01,6.575832962989807129e-01,5.317852497100830078e-01,4.866665005683898926e-01,4.609166085720062256e-01,4.910329580307006836e-01,5.408068299293518066e-01,6.101801991462707520e-01,7.044329643249511719e-01,7.728925943374633789e-01,8.226699829101562500e-01,8.609275221824645996e-01,8.814259171485900879e-01,8.955265283584594727e-01,9.012380838394165039e-01,9.027919769287109375e-01,9.049229621887207031e-01,9.051437377929687500e-01,9.048557877540588379e-01,9.049299955368041992e-01,9.051667451858520508e-01,9.053371548652648926e-01,9.053583741188049316e-01,9.053154587745666504e-01,9.053323268890380859e-01,9.053316116333007812e-01,9.053283333778381348e-01,9.053283333778381348e-01,9.053283333778381348e-01,9.053283333778381348e-01,9.053283333778381348e-01,9.053285121917724609e-01,9.053297042846679688e-01,9.053521156311035156e-01,9.053734540939331055e-01,9.051626920700073242e-01,9.045454859733581543e-01,9.034095406532287598e-01,9.016562700271606445e-01,8.990848064422607422e-01,8.949892520904541016e-01,8.886973857879638672e-01,8.802396655082702637e-01,8.708893060684204102e-01,8.579469323158264160e-01,8.293613791465759277e-01,8.083583116531372070e-01,8.007570505142211914e-01,7.747604846954345703e-01,7.221115231513977051e-01,6.161077618598937988e-01
5.886404514312744141e-01,6.141705513000488281e-01,6.567790508270263672e-01,6.575868129730224609e-01,6.811285018920898438e-01,7.053527832031250000e-01,7.417204380035400391e-01,7.631247639656066895e-01,7.838928699493408203e-01,8.025209903717041016e-01,8.202949762344360352e-01,8.367670774459838867e-01,8.516983985900878906e-01,8.649956583976745605e-01,8.765856623649597168e-01,8.860926628112792969e-01,8.931633234024047852e-01,8.980356454849243164e-01,9.016442298889160156e-01,9.038140773773193359e-01,9.051752090454101562e-01,9.039162397384643555e-01,9.014058113098144531e-01,9.002327919006347656e-01,8.975716829299926758e-01,8.829456567764282227e-01,8.652387261390686035e-01,8.499974012374877930e-01,7.989766597747802734e-01,7.319842576980590820e-01,6.171836853027343750e-01,5.286305546760559082e-01,4.793886542320251465e-01,4.573287963867187500e-01,4.910963475704193115e-01,5.252882242202758789e-01,6.303914785385131836e-01,7.096180915832519531e-01,7.745087146759033203e-01,8.261423110961914062e-01,8.618235588073730469e-01,8.827265501022338867e-01,8.962123394012451172e-01,9.008030891418457031e-01,9.033255577087402344e-01,9.052418470382690430e-01,9.049977064132690430e-01,9.052308797836303711e-01,9.054354429244995117e-01,9.053093194961547852e-01,9.052932858467102051e-01,9.053356647491455078e-01,9.053311347961425781e-01,9.053269028663635254e-01,9.053280353546142578e-01,9.053283333778381348e-01,9.053283333778381348e-01,9.053283333778381348e-01,9.053283333778381348e-01,9.053283333778381348e-01,9.053285121917724609e-01,9.053297042846679688e-01,9.053519964218139648e-01,9.053733348846435547e-01,9.051627516746520996e-01,9.045462608337402344e-01,9.034106731414794922e-01,9.016580581665039062e-01,8.990875482559204102e-01,8.949934244155883789e-01,8.887039422988891602e-01,8.802487850189208984e-01,8.708996176719665527e-01,8.579595685005187988e-01,8.293764591217041016e-01,8.083748817443847656e-01,8.007736206054687500e-01,7.747765183448791504e-01,7.221245765686035156e-01,6.161170005798339844e-01
5.886324644088745117e-01,6.141576170921325684e-01,6.567636728286743164e-01,6.575687527656555176e-01,6.811082959175109863e-01,7.053319215774536133e-01,7.416992187500000000e-01,7.631033658981323242e-01,7.838716506958007812e-01,8.025002479553222656e-01,8.202756643295288086e-01,8.367491364479064941e-01,8.516822457313537598e-01,8.649809360504150391e-01,8.765788078308105469e-01,8.860362768173217773e-01,8.930803537368774414e-01,8.977144956588745117e-01,9.007335901260375977e-01,9.030212163925170898e-01,9.047908186912536621e-01,9.043645858764648438e-01,9.028753042221069336e-01,9.012057781219482422e-01,8.928793668746948242e-01,8.801655769348144531e-01,8.644655942916870117e-01,8.453075885772705078e-01,7.851158380508422852e-01,6.843085885047912598e-01,5.910825133323669434e-01,5.129290223121643066e-01,4.703830480575561523e-01,4.625658690929412842e-01,4.835846722126007080e-01,5.129610300064086914e-01,6.266844868659973145e-01,7.137539386749267578e-01,7.757073640823364258e-01,8.278005123138427734e-01,8.614776134490966797e-01,8.821793198585510254e-01,8.968442678451538086e-01,9.007206559181213379e-01,9.031693935394287109e-01,9.048168063163757324e-01,9.051702618598937988e-01,9.053471684455871582e-01,9.053572416305541992e-01,9.053289890289306641e-01,9.053270816802978516e-01,9.053317308425903320e-01,9.053234457969665527e-01,9.053238034248352051e-01,9.053254723548889160e-01,9.053261280059814453e-01,9.053260684013366699e-01,9.053261280059814453e-01,9.053260684013366699e-01,9.053260087966918945e-01,9.053262472152709961e-01,9.053274393081665039e-01,9.053497314453125000e-01,9.053711295127868652e-01,9.051607847213745117e-01,9.045447707176208496e-01,9.034100770950317383e-01,9.016582369804382324e-01,8.990885019302368164e-01,8.949958086013793945e-01,8.887084722518920898e-01,8.802560567855834961e-01,8.709089756011962891e-01,8.579713702201843262e-01,8.293911218643188477e-01,8.083913326263427734e-01,8.007901906967163086e-01,7.747923135757446289e-01,7.221379876136779785e-01,6.161261200904846191e-01
5.886243581771850586e-01,6.141446232795715332e-01,6.567479372024536133e-01,6.575502753257751465e-01,6.810866594314575195e-01,7.053084373474121094e-01,7.416746020317077637e-01,7.630778551101684570e-01,7.838454842567443848e-01,8.024735450744628906e-01,8.202497363090515137e-01,8.367242813110351562e-01,8.516589403152465820e-01,8.649606108665466309e-01,8.765658140182495117e-01,8.860614895820617676e-01,8.930298686027526855e-01,8.977054357528686523e-01,9.010154008865356445e-01,9.032577872276306152e-01,9.044901132583618164e-01,9.045988917350769043e-01,9.032304286956787109e-01,8.990372419357299805e-01,8.893268108367919922e-01,8.721674680709838867e-01,8.600013256072998047e-01,8.304711580276489258e-01,7.636319398880004883e-01,6.534224152565002441e-01,5.483465194702148438e-01,4.890759885311126709e-01,4.532443583011627197e-01,4.538786411285400391e-01,4.657123088836669922e-01,5.087447762489318848e-01,6.343032121658325195e-01,7.171517610549926758e-01,7.786858677864074707e-01,8.286947607994079590e-01,8.626661300659179688e-01,8.809800148010253906e-01,8.968636989593505859e-01,9.011816978454589844e-01,9.033591747283935547e-01,9.048607349395751953e-01,9.053006172180175781e-01,9.053266644477844238e-01,9.053257107734680176e-01,9.053235650062561035e-01,9.053238630294799805e-01,9.053212404251098633e-01,9.053204655647277832e-01,9.053220152854919434e-01,9.053217172622680664e-01,9.053215980529785156e-01,9.053217172622680664e-01,9.053217172622680664e-01,9.053217768669128418e-01,9.053217768669128418e-01,9.053220748901367188e-01,9.053232073783874512e-01,9.053454995155334473e-01,9.053670167922973633e-01,9.051569700241088867e-01,9.045403003692626953e-01,9.034063816070556641e-01,9.016551971435546875e-01,8.990851640701293945e-01,8.949920535087585449e-01,8.887052536010742188e-01,8.802535533905029297e-01,8.709068894386291504e-01,8.579734563827514648e-01,8.293967247009277344e-01,8.083999156951904297e-01,8.007993698120117188e-01,7.748003005981445312e-01,7.221422791481018066e-01,6.161286234855651855e-01
5.886119604110717773e-01,6.141281127929687500e-01,6.567283868789672852e-01,6.575316190719604492e-01,6.810677647590637207e-01,7.052880525588989258e-01,7.416558265686035156e-01,7.630640268325805664e-01,7.838374376296997070e-01,8.024725914001464844e-01,8.202590942382812500e-01,8.367474675178527832e-01,8.517020940780639648e-01,8.650201559066772461e-01,8.766270875930786133e-01,8.861134052276611328e-01,8.930894136428833008e-01,8.977872133255004883e-01,9.010542631149291992e-01,9.032545089721679688e-01,9.043822884559631348e-01,9.044477939605712891e-01,9.033532142639160156e-01,8.972520828247070312e-01,8.842771053314208984e-01,8.669769763946533203e-01,8.547640442848205566e-01,8.168609738349914551e-01,7.287886142730712891e-01,6.269653439521789551e-01,5.139033198356628418e-01,4.709696769714355469e-01,4.351491630077362061e-01,4.428927004337310791e-01,4.545642137527465820e-01,5.073146224021911621e-01,6.297247409820556641e-01,7.167903184890747070e-01,7.797793149948120117e-01,8.302938938140869141e-01,8.652647733688354492e-01,8.811433911323547363e-01,8.959710001945495605e-01,9.006780982017517090e-01,9.033119678497314453e-01,9.048154950141906738e-01,9.053702950477600098e-01,9.053815007209777832e-01,9.053946137428283691e-01,9.053948521614074707e-01,9.053950309753417969e-01,9.053952693939208984e-01,9.053956270217895508e-01,9.053958654403686523e-01,9.053961038589477539e-01,9.053963422775268555e-01,9.053966403007507324e-01,9.053969383239746094e-01,9.053971767425537109e-01,9.053974151611328125e-01,9.053979516029357910e-01,9.053995609283447266e-01,9.054225683212280273e-01,9.054449200630187988e-01,9.052376747131347656e-01,9.046200513839721680e-01,9.034807682037353516e-01,9.017143249511718750e-01,8.991349339485168457e-01,8.950436115264892578e-01,8.887715339660644531e-01,8.803316354751586914e-01,8.709968328475952148e-01,8.580465316772460938e-01,8.294650316238403320e-01,8.084487915039062500e-01,8.008317351341247559e-01,7.748211622238159180e-01,7.221423983573913574e-01,6.161293387413024902e-01
5.886181592941284180e-01,6.141353249549865723e-01,6.567325592041015625e-01,6.575464010238647461e-01,6.810928583145141602e-01,7.053465843200683594e-01,7.417652010917663574e-01,7.632212638854980469e-01,7.840203046798706055e-01,8.026669025421142578e-01,8.204542398452758789e-01,8.369389176368713379e-01,8.518707752227783203e-01,8.651569485664367676e-01,8.767380118370056152e-01,8.861935138702392578e-01,8.931571245193481445e-01,8.978847265243530273e-01,9.011859893798828125e-01,9.033486843109130859e-01,9.043709039688110352e-01,9.042341709136962891e-01,9.029483199119567871e-01,8.935348987579345703e-01,8.783845901489257812e-01,8.653252720832824707e-01,8.479081392288208008e-01,7.936260700225830078e-01,7.079349160194396973e-01,5.739287137985229492e-01,4.951674342155456543e-01,4.489011764526367188e-01,4.273704290390014648e-01,4.279494583606719971e-01,4.423870146274566650e-01,5.131714344024658203e-01,6.286103725433349609e-01,7.202842235565185547e-01,7.789649367332458496e-01,8.303513526916503906e-01,8.640482425689697266e-01,8.824712038040161133e-01,8.965206146240234375e-01,9.003542661666870117e-01,9.035447835922241211e-01,9.048907160758972168e-01,9.054114818572998047e-01,9.054218530654907227e-01,9.054703712463378906e-01,9.054694175720214844e-01,9.054686427116394043e-01,9.054678678512573242e-01,9.054669141769409180e-01,9.054660797119140625e-01,9.054651260375976562e-01,9.054643511772155762e-01,9.054633378982543945e-01,9.054625630378723145e-01,9.054616689682006836e-01,9.054607748985290527e-01,9.054604172706604004e-01,9.054609537124633789e-01,9.054839015007019043e-01,9.055070877075195312e-01,9.053019285202026367e-01,9.046815633773803711e-01,9.035499691963195801e-01,9.017888903617858887e-01,8.992087841033935547e-01,8.951135873794555664e-01,8.888942003250122070e-01,8.804663419723510742e-01,8.711234927177429199e-01,8.582097887992858887e-01,8.296957612037658691e-01,8.086968660354614258e-01,8.010895848274230957e-01,7.750706076622009277e-01,7.224279046058654785e-01,6.165236234664916992e-01
5.888017416000366211e-01,6.143118143081665039e-01,6.569858193397521973e-01,6.578013896942138672e-01,6.813393831253051758e-01,7.055065035820007324e-01,7.418475747108459473e-01,7.632272243499755859e-01,7.838841676712036133e-01,8.024016618728637695e-01,8.200700283050537109e-01,8.364220857620239258e-01,8.512636423110961914e-01,8.644666671752929688e-01,8.759484291076660156e-01,8.853856325149536133e-01,8.923836350440979004e-01,8.970938920974731445e-01,9.003618955612182617e-01,9.026144742965698242e-01,9.034261703491210938e-01,9.038569927215576172e-01,9.006749391555786133e-01,8.893099427223205566e-01,8.723271489143371582e-01,8.607548475265502930e-01,8.357352018356323242e-01,7.847999334335327148e-01,6.779936552047729492e-01,5.395025014877319336e-01,4.679850935935974121e-01,4.335049390792846680e-01,4.179276227951049805e-01,4.206045567989349365e-01,4.429372251033782959e-01,5.110464692115783691e-01,6.289821267127990723e-01,7.212014198303222656e-01,7.752991318702697754e-01,8.306908607482910156e-01,8.618059158325195312e-01,8.810044527053833008e-01,8.950703144073486328e-01,8.989402055740356445e-01,9.020423293113708496e-01,9.036710262298583984e-01,9.043803215026855469e-01,9.045613408088684082e-01,9.046175479888916016e-01,9.046165943145751953e-01,9.046156406402587891e-01,9.046147465705871582e-01,9.046138525009155273e-01,9.046130776405334473e-01,9.046120047569274902e-01,9.046111106872558594e-01,9.046102166175842285e-01,9.046093225479125977e-01,9.046083688735961914e-01,9.046075344085693359e-01,9.046068191528320312e-01,9.046076536178588867e-01,9.046276807785034180e-01,9.046608209609985352e-01,9.044564962387084961e-01,9.038789272308349609e-01,9.027748107910156250e-01,9.010077714920043945e-01,8.984279632568359375e-01,8.943619728088378906e-01,8.880728483200073242e-01,8.796483278274536133e-01,8.703292012214660645e-01,8.574470281600952148e-01,8.288395404815673828e-01,8.078458905220031738e-01,8.004524707794189453e-01,7.742123603820800781e-01,7.216135263442993164e-01,6.159946918487548828e-01
5.891578197479248047e-01,6.141805648803710938e-01,6.566537618637084961e-01,6.571519374847412109e-01,6.804436445236206055e-01,7.042943239212036133e-01,7.404217720031738281e-01,7.615296840667724609e-01,7.820327281951904297e-01,8.004184961318969727e-01,8.180022239685058594e-01,8.343546986579895020e-01,8.493283987045288086e-01,8.627439737319946289e-01,8.744819164276123047e-01,8.841426372528076172e-01,8.912271261215209961e-01,8.960024714469909668e-01,8.993743658065795898e-01,9.016382098197937012e-01,9.024778604507446289e-01,9.030519127845764160e-01,8.977513313293457031e-01,8.860245943069458008e-01,8.724425435066223145e-01,8.594166040420532227e-01,8.210093975067138672e-01,7.630922198295593262e-01,6.410298943519592285e-01,5.208358168601989746e-01,4.697842001914978027e-01,4.254082143306732178e-01,4.116839468479156494e-01,4.016086459159851074e-01,4.482975602149963379e-01,5.101307034492492676e-01,6.310435533523559570e-01,7.168150544166564941e-01,7.748349905014038086e-01,8.261052966117858887e-01,8.582416772842407227e-01,8.789527416229248047e-01,8.935315012931823730e-01,8.976914882659912109e-01,9.013317823410034180e-01,9.024109840393066406e-01,9.033808708190917969e-01,9.035838842391967773e-01,9.036999940872192383e-01,9.036991000175476074e-01,9.036978483200073242e-01,9.036968350410461426e-01,9.036959409713745117e-01,9.036946296691894531e-01,9.036936759948730469e-01,9.036926031112670898e-01,9.036915302276611328e-01,9.036904573440551758e-01,9.036893844604492188e-01,9.036884307861328125e-01,9.036875963211059570e-01,9.036874771118164062e-01,9.037035107612609863e-01,9.037330150604248047e-01,9.035471677780151367e-01,9.029991626739501953e-01,9.019616842269897461e-01,9.002494215965270996e-01,8.976994752883911133e-01,8.936419486999511719e-01,8.874083757400512695e-01,8.790716528892517090e-01,8.698111772537231445e-01,8.568364381790161133e-01,8.282475471496582031e-01,8.071005344390869141e-01,7.996382117271423340e-01,7.733825445175170898e-01,7.204564809799194336e-01,6.144734025001525879e-01
5.884084105491638184e-01,6.125020980834960938e-01,6.548572778701782227e-01,6.552617549896240234e-01,6.780966520309448242e-01,7.014932632446289062e-01,7.376147508621215820e-01,7.587718367576599121e-01,7.793216109275817871e-01,7.977046966552734375e-01,8.152700066566467285e-01,8.317415714263916016e-01,8.468411564826965332e-01,8.603417873382568359e-01,8.721708059310913086e-01,8.818704485893249512e-01,8.891112208366394043e-01,8.941302299499511719e-01,8.975974321365356445e-01,8.997073173522949219e-01,9.006624817848205566e-01,9.013051986694335938e-01,8.937701582908630371e-01,8.815572261810302734e-01,8.688441514968872070e-01,8.543596267700195312e-01,8.156968355178833008e-01,7.428392171859741211e-01,6.199662089347839355e-01,5.029637217521667480e-01,4.603004455566406250e-01,4.167697429656982422e-01,4.044317305088043213e-01,4.046503305435180664e-01,4.482471048831939697e-01,5.092144012451171875e-01,6.293043494224548340e-01,7.136524915695190430e-01,7.663078308105468750e-01,8.215671777725219727e-01,8.529997467994689941e-01,8.742945194244384766e-01,8.894646167755126953e-01,8.950403332710266113e-01,8.983720541000366211e-01,8.999752998352050781e-01,9.014335870742797852e-01,9.017217159271240234e-01,9.018375277519226074e-01,9.018313884735107422e-01,9.018253087997436523e-01,9.018192291259765625e-01,9.018132090568542480e-01,9.018070697784423828e-01,9.018011093139648438e-01,9.017949104309082031e-01,9.017888903617858887e-01,9.017828702926635742e-01,9.017767906188964844e-01,9.017706513404846191e-01,9.017648100852966309e-01,9.017593860626220703e-01,9.017731547355651855e-01,9.017980694770812988e-01,9.016243219375610352e-01,9.011549949645996094e-01,9.001954197883605957e-01,8.985977172851562500e-01,8.961418867111206055e-01,8.921513557434082031e-01,8.860791921615600586e-01,8.775850534439086914e-01,8.682898283004760742e-01,8.554375171661376953e-01,8.269641399383544922e-01,8.060616850852966309e-01,7.985014915466308594e-01,7.719287276268005371e-01,7.191729545593261719e-01,6.126988530158996582e-01
5.864671468734741211e-01,6.097784042358398438e-01,6.518777012825012207e-01,6.520058512687683105e-01,6.745824813842773438e-01,6.974250674247741699e-01,7.329915165901184082e-01,7.536311149597167969e-01,7.735036611557006836e-01,7.914419770240783691e-01,8.087484836578369141e-01,8.249922990798950195e-01,8.399544954299926758e-01,8.535097241401672363e-01,8.654153347015380859e-01,8.752054572105407715e-01,8.825120925903320312e-01,8.875678181648254395e-01,8.911461830139160156e-01,8.932589292526245117e-01,8.946788311004638672e-01,8.936567306518554688e-01,8.874354362487792969e-01,8.731396198272705078e-01,8.619586229324340820e-01,8.432210683822631836e-01,8.008626103401184082e-01,7.276757955551147461e-01,5.732054710388183594e-01,5.064422488212585449e-01,4.452246725559234619e-01,4.211324751377105713e-01,4.086754918098449707e-01,4.056841731071472168e-01,4.419342875480651855e-01,5.080668926239013672e-01,6.201068162918090820e-01,7.031151056289672852e-01,7.561950683593750000e-01,8.090754747390747070e-01,8.420928716659545898e-01,8.645533323287963867e-01,8.804969787597656250e-01,8.875990509986877441e-01,8.914408683776855469e-01,8.934352993965148926e-01,8.948646187782287598e-01,8.952159881591796875e-01,8.952991366386413574e-01,8.952899575233459473e-01,8.952809572219848633e-01,8.952716588973999023e-01,8.952625989913940430e-01,8.952535390853881836e-01,8.952443599700927734e-01,8.952353000640869141e-01,8.952261805534362793e-01,8.952169418334960938e-01,8.952079415321350098e-01,8.951988220214843750e-01,8.951895236968994141e-01,8.951806426048278809e-01,8.951894044876098633e-01,8.952066302299499512e-01,8.950712680816650391e-01,8.946220874786376953e-01,8.938122987747192383e-01,8.923459053039550781e-01,8.900220394134521484e-01,8.861765861511230469e-01,8.802826404571533203e-01,8.720709085464477539e-01,8.626418113708496094e-01,8.496438264846801758e-01,8.213552832603454590e-01,8.010385632514953613e-01,7.939139604568481445e-01,7.675355672836303711e-01,7.151708602905273438e-01,6.077069044113159180e-01
5.825378894805908203e-01,6.038826107978820801e-01,6.454447507858276367e-01,6.448013782501220703e-01,6.661976575851440430e-01,6.881839036941528320e-01,7.229010462760925293e-01,7.430776357650756836e-01,7.622786760330200195e-01,7.793432474136352539e-01,7.960604429244995117e-01,8.119961023330688477e-01,8.270328640937805176e-01,8.408870697021484375e-01,8.531067371368408203e-01,8.633344769477844238e-01,8.711271286010742188e-01,8.765103816986083984e-01,8.802618980407714844e-01,8.823772072792053223e-01,8.834395408630371094e-01,8.818469047546386719e-01,8.735793232917785645e-01,8.610812425613403320e-01,8.523101806640625000e-01,8.281735181808471680e-01,7.804465293884277344e-01,6.949410438537597656e-01,5.545396208763122559e-01,4.826349020004272461e-01,4.489450454711914062e-01,4.201850295066833496e-01,4.030925929546356201e-01,4.052401781082153320e-01,4.342736601829528809e-01,5.039424896240234375e-01,6.003769636154174805e-01,6.855981349945068359e-01,7.397581934928894043e-01,7.867432832717895508e-01,8.247426748275756836e-01,8.499531745910644531e-01,8.666347265243530273e-01,8.760055303573608398e-01,8.797076940536499023e-01,8.819075822830200195e-01,8.837673664093017578e-01,8.841212987899780273e-01,8.842319250106811523e-01,8.842114210128784180e-01,8.841911554336547852e-01,8.841708898544311523e-01,8.841505646705627441e-01,8.841302394866943359e-01,8.841100931167602539e-01,8.840897083282470703e-01,8.840696811676025391e-01,8.840494155883789062e-01,8.840290307998657227e-01,8.840089440345764160e-01,8.839884996414184570e-01,8.839682340621948242e-01,8.839789628982543945e-01,8.840242624282836914e-01,8.838971853256225586e-01,8.835474252700805664e-01,8.828650712966918945e-01,8.813979625701904297e-01,8.790452480316162109e-01,8.753544092178344727e-01,8.695232272148132324e-01,8.616389036178588867e-01,8.525887131690979004e-01,8.395656347274780273e-01,8.107836842536926270e-01,7.916745543479919434e-01,7.853827476501464844e-01,7.605754733085632324e-01,7.071897387504577637e-01,6.017357707023620605e-01
5.753736495971679688e-01,5.940434932708740234e-01,6.345343589782714844e-01,6.318063139915466309e-01,6.512057781219482422e-01,6.719560623168945312e-01,7.057626843452453613e-01,7.251135706901550293e-01,7.435618638992309570e-01,7.599258422851562500e-01,7.757290005683898926e-01,7.908960580825805664e-01,8.055419325828552246e-01,8.189362287521362305e-01,8.307844400405883789e-01,8.406654596328735352e-01,8.480836153030395508e-01,8.534139394760131836e-01,8.571798801422119141e-01,8.594379425048828125e-01,8.607559800148010254e-01,8.592015504837036133e-01,8.476489782333374023e-01,8.353176116943359375e-01,8.269397616386413574e-01,7.918059825897216797e-01,7.547051906585693359e-01,6.366825103759765625e-01,5.291917920112609863e-01,4.647815823554992676e-01,4.394354522228240967e-01,4.192634224891662598e-01,3.902818560600280762e-01,3.983002305030822754e-01,4.271702170372009277e-01,4.889418184757232666e-01,5.791406035423278809e-01,6.514302492141723633e-01,7.042004466056823730e-01,7.543219923973083496e-01,7.944784164428710938e-01,8.223152160644531250e-01,8.401609659194946289e-01,8.506993651390075684e-01,8.554484844207763672e-01,8.576472997665405273e-01,8.600660562515258789e-01,8.602241277694702148e-01,8.603850603103637695e-01,8.603504896163940430e-01,8.603132963180541992e-01,8.602762818336486816e-01,8.602392673492431641e-01,8.602020740509033203e-01,8.601651191711425781e-01,8.601278066635131836e-01,8.600908517837524414e-01,8.600537776947021484e-01,8.600168228149414062e-01,8.599796295166015625e-01,8.599422574043273926e-01,8.599044084548950195e-01,8.599090576171875000e-01,8.599421977996826172e-01,8.597913384437561035e-01,8.595239520072937012e-01,8.591217994689941406e-01,8.579384088516235352e-01,8.558850884437561035e-01,8.521219491958618164e-01,8.464999198913574219e-01,8.387082815170288086e-01,8.299900293350219727e-01,8.169792890548706055e-01,7.877219915390014648e-01,7.699931859970092773e-01,7.670472860336303711e-01,7.438930869102478027e-01,6.925510764122009277e-01,5.922688245773315430e-01
5.643807649612426758e-01,5.786221027374267578e-01,6.173454523086547852e-01,6.113568544387817383e-01,6.278047561645507812e-01,6.468121409416198730e-01,6.787347793579101562e-01,6.960861682891845703e-01,7.121229171752929688e-01,7.261265516281127930e-01,7.397746443748474121e-01,7.531870603561401367e-01,7.665041685104370117e-01,7.789244651794433594e-01,7.898058891296386719e-01,7.990575432777404785e-01,8.063961267471313477e-01,8.116807937622070312e-01,8.153290152549743652e-01,8.177161216735839844e-01,8.192412853240966797e-01,8.145049810409545898e-01,8.042497038841247559e-01,7.931665182113647461e-01,7.838237285614013672e-01,7.400987744331359863e-01,6.821988821029663086e-01,5.894750356674194336e-01,4.987384080886840820e-01,4.548725783824920654e-01,4.244167208671569824e-01,4.101145565509796143e-01,3.859279751777648926e-01,3.866652548313140869e-01,4.160465896129608154e-01,4.692125320434570312e-01,5.462070703506469727e-01,6.102792620658874512e-01,6.553266048431396484e-01,7.025181055068969727e-01,7.460017800331115723e-01,7.753232717514038086e-01,7.945112586021423340e-01,8.056929111480712891e-01,8.120133280754089355e-01,8.144536018371582031e-01,8.169426321983337402e-01,8.173241615295410156e-01,8.174731731414794922e-01,8.174070119857788086e-01,8.173531293869018555e-01,8.172912001609802246e-01,8.172320127487182617e-01,8.171728849411010742e-01,8.171139359474182129e-01,8.170548081398010254e-01,8.169957995414733887e-01,8.169367909431457520e-01,8.168777823448181152e-01,8.168188333511352539e-01,8.167599439620971680e-01,8.166998624801635742e-01,8.166918158531188965e-01,8.166638016700744629e-01,8.164691925048828125e-01,8.160624504089355469e-01,8.156054019927978516e-01,8.142935633659362793e-01,8.124246001243591309e-01,8.094776868820190430e-01,8.042588233947753906e-01,7.970007658004760742e-01,7.893959879875183105e-01,7.773600816726684570e-01,7.478889822959899902e-01,7.329714298248291016e-01,7.343997955322265625e-01,7.134041190147399902e-01,6.685191392898559570e-01,5.795544981956481934e-01
5.498356223106384277e-01,5.541173815727233887e-01,5.890431404113769531e-01,5.790361166000366211e-01,5.922461748123168945e-01,6.085563898086547852e-01,6.381713151931762695e-01,6.527622938156127930e-01,6.666566133499145508e-01,6.783904433250427246e-01,6.897980570793151855e-01,7.009301185607910156e-01,7.119147181510925293e-01,7.217524051666259766e-01,7.305857539176940918e-01,7.381979823112487793e-01,7.438967227935791016e-01,7.478653788566589355e-01,7.505386471748352051e-01,7.524415254592895508e-01,7.533984780311584473e-01,7.447324395179748535e-01,7.325879335403442383e-01,7.261071205139160156e-01,7.080966830253601074e-01,6.683541536331176758e-01,6.154223084449768066e-01,5.262349247932434082e-01,4.665172696113586426e-01,4.297178387641906738e-01,4.054750502109527588e-01,3.935343325138092041e-01,3.691660761833190918e-01,3.830520808696746826e-01,3.997161984443664551e-01,4.479660391807556152e-01,5.091590285301208496e-01,5.596457719802856445e-01,5.942669510841369629e-01,6.405718922615051270e-01,6.812233924865722656e-01,7.082310318946838379e-01,7.245904803276062012e-01,7.367417812347412109e-01,7.441934943199157715e-01,7.476875782012939453e-01,7.498776912689208984e-01,7.501275539398193359e-01,7.503081560134887695e-01,7.502292990684509277e-01,7.501513957977294922e-01,7.500704526901245117e-01,7.499863505363464355e-01,7.499035596847534180e-01,7.498173713684082031e-01,7.497347593307495117e-01,7.496523857116699219e-01,7.495698332786560059e-01,7.494872808456420898e-01,7.494047880172729492e-01,7.493214011192321777e-01,7.492351531982421875e-01,7.492100000381469727e-01,7.491312623023986816e-01,7.489771842956542969e-01,7.486957907676696777e-01,7.481818795204162598e-01,7.467930316925048828e-01,7.445297241210937500e-01,7.411645650863647461e-01,7.364703416824340820e-01,7.301166653633117676e-01,7.241239547729492188e-01,7.128569483757019043e-01,6.834174394607543945e-01,6.726862788200378418e-01,6.815880537033081055e-01,6.628211140632629395e-01,6.335772275924682617e-01,5.563607811927795410e-01
5.325865745544433594e-01,5.238297581672668457e-01,5.546774268150329590e-01,5.387848615646362305e-01,5.466805696487426758e-01,5.595341324806213379e-01,5.837595462799072266e-01,5.949341058731079102e-01,6.053967475891113281e-01,6.135191917419433594e-01,6.215317249298095703e-01,6.294564008712768555e-01,6.371053457260131836e-01,6.439276933670043945e-01,6.500890254974365234e-01,6.548206210136413574e-01,6.580465435981750488e-01,6.604483723640441895e-01,6.619715094566345215e-01,6.638795137405395508e-01,6.624072790145874023e-01,6.554423570632934570e-01,6.418656110763549805e-01,6.379813551902770996e-01,6.165218353271484375e-01,5.820662975311279297e-01,5.333657264709472656e-01,4.518028795719146729e-01,4.307346343994140625e-01,4.038134515285491943e-01,3.943086862564086914e-01,3.681545257568359375e-01,3.499400019645690918e-01,3.699107766151428223e-01,3.839766681194305420e-01,4.186192154884338379e-01,4.652622044086456299e-01,5.097718238830566406e-01,5.288292765617370605e-01,5.638205409049987793e-01,5.989034771919250488e-01,6.234766840934753418e-01,6.369099617004394531e-01,6.467638015747070312e-01,6.543309688568115234e-01,6.578616499900817871e-01,6.601851582527160645e-01,6.604565382003784180e-01,6.605841517448425293e-01,6.604211926460266113e-01,6.603773832321166992e-01,6.603038907051086426e-01,6.602132916450500488e-01,6.601442694664001465e-01,6.600620746612548828e-01,6.599799990653991699e-01,6.598924994468688965e-01,6.598048210144042969e-01,6.597172617912292480e-01,6.596297621726989746e-01,6.595414876937866211e-01,6.594485044479370117e-01,6.593826413154602051e-01,6.593214273452758789e-01,6.591098308563232422e-01,6.588994264602661133e-01,6.585788726806640625e-01,6.574200987815856934e-01,6.554229855537414551e-01,6.522411108016967773e-01,6.490207910537719727e-01,6.441964507102966309e-01,6.403298377990722656e-01,6.306393146514892578e-01,6.031662225723266602e-01,5.957944393157958984e-01,6.114040613174438477e-01,5.966531634330749512e-01,5.878570675849914551e-01,5.267943739891052246e-01
5.116001367568969727e-01,4.894210994243621826e-01,5.142387151718139648e-01,4.909898638725280762e-01,4.925730526447296143e-01,5.011537075042724609e-01,5.197561979293823242e-01,5.277061462402343750e-01,5.348414182662963867e-01,5.396779775619506836e-01,5.445479750633239746e-01,5.496549606323242188e-01,5.546075701713562012e-01,5.589373707771301270e-01,5.625561475753784180e-01,5.652518272399902344e-01,5.675350427627563477e-01,5.691368579864501953e-01,5.702360868453979492e-01,5.722771883010864258e-01,5.689015388488769531e-01,5.601522326469421387e-01,5.515924096107482910e-01,5.500450730323791504e-01,5.211285948753356934e-01,4.988840818405151367e-01,4.569586813449859619e-01,4.230946302413940430e-01,3.974430561065673828e-01,3.736360669136047363e-01,3.705877065658569336e-01,3.518109917640686035e-01,3.381739258766174316e-01,3.450604081153869629e-01,3.727360963821411133e-01,3.895356357097625732e-01,4.175115525722503662e-01,4.486292600631713867e-01,4.659328162670135498e-01,4.912405610084533691e-01,5.175477862358093262e-01,5.378408432006835938e-01,5.484700202941894531e-01,5.558157563209533691e-01,5.620883107185363770e-01,5.661683082580566406e-01,5.682904124259948730e-01,5.680683851242065430e-01,5.682805776596069336e-01,5.682283639907836914e-01,5.681891441345214844e-01,5.680227279663085938e-01,5.679315924644470215e-01,5.678695440292358398e-01,5.677805542945861816e-01,5.676918029785156250e-01,5.676050782203674316e-01,5.675181150436401367e-01,5.674313902854919434e-01,5.673444867134094238e-01,5.672573447227478027e-01,5.671641826629638672e-01,5.670782923698425293e-01,5.670372843742370605e-01,5.670053958892822266e-01,5.669292807579040527e-01,5.666898488998413086e-01,5.661474466323852539e-01,5.646387934684753418e-01,5.622081756591796875e-01,5.591482520103454590e-01,5.555325150489807129e-01,5.535913705825805664e-01,5.454139709472656250e-01,5.213550925254821777e-01,5.172463655471801758e-01,5.382723808288574219e-01,5.279503464698791504e-01,5.395918488502502441e-01,4.964603483676910400e-01
4.905955195426940918e-01,4.557280540466308594e-01,4.713614881038665771e-01,4.409435391426086426e-01,4.362783432006835938e-01,4.406341910362243652e-01,4.540565311908721924e-01,4.581356346607208252e-01,4.624621570110321045e-01,4.647857844829559326e-01,4.673438370227813721e-01,4.701585471630096436e-01,4.729197323322296143e-01,4.755489826202392578e-01,4.778414368629455566e-01,4.795427024364471436e-01,4.808178544044494629e-01,4.817616045475006104e-01,4.824689328670501709e-01,4.836613535881042480e-01,4.810928702354431152e-01,4.762342870235443115e-01,4.741331636905670166e-01,4.714295864105224609e-01,4.467842876911163330e-01,4.296941161155700684e-01,4.058461487293243408e-01,3.770263791084289551e-01,3.597264885902404785e-01,3.488197922706604004e-01,3.535527586936950684e-01,3.363990187644958496e-01,3.176112174987792969e-01,3.250447511672973633e-01,3.415176570415496826e-01,3.477243185043334961e-01,3.680235445499420166e-01,3.925837278366088867e-01,4.049073159694671631e-01,4.235619008541107178e-01,4.433302283287048340e-01,4.558660387992858887e-01,4.633967280387878418e-01,4.709919989109039307e-01,4.756074845790863037e-01,4.783761501312255859e-01,4.801164269447326660e-01,4.804667532444000244e-01,4.806373715400695801e-01,4.806823730468750000e-01,4.804154038429260254e-01,4.804023206233978271e-01,4.803647696971893311e-01,4.803032577037811279e-01,4.802028834819793701e-01,4.801322221755981445e-01,4.800595045089721680e-01,4.799866676330566406e-01,4.799139201641082764e-01,4.798412322998046875e-01,4.797683656215667725e-01,4.796918630599975586e-01,4.796085059642791748e-01,4.795431792736053467e-01,4.795294404029846191e-01,4.795360863208770752e-01,4.794581234455108643e-01,4.793675243854522705e-01,4.787968993186950684e-01,4.777700304985046387e-01,4.768480360507965088e-01,4.752871692180633545e-01,4.752582311630249023e-01,4.694108664989471436e-01,4.494148492813110352e-01,4.481765627861022949e-01,4.717245101928710938e-01,4.687231779098510742e-01,4.949345290660858154e-01,4.690638482570648193e-01
4.694169759750366211e-01,4.224274754524230957e-01,4.285594820976257324e-01,3.950820565223693848e-01,3.841174244880676270e-01,3.856820464134216309e-01,3.960963487625122070e-01,3.990342020988464355e-01,4.020555019378662109e-01,4.032458961009979248e-01,4.044570922851562500e-01,4.056659042835235596e-01,4.066829681396484375e-01,4.076265394687652588e-01,4.084217846393585205e-01,4.090037345886230469e-01,4.096160531044006348e-01,4.100791215896606445e-01,4.103466868400573730e-01,4.105402827262878418e-01,4.082909822463989258e-01,4.050651490688323975e-01,4.054715335369110107e-01,3.982583582401275635e-01,3.854678571224212646e-01,3.741445839405059814e-01,3.640942573547363281e-01,3.501734137535095215e-01,3.362078666687011719e-01,3.303867578506469727e-01,3.249990940093994141e-01,3.164499402046203613e-01,2.990338206291198730e-01,3.058789670467376709e-01,3.127799332141876221e-01,3.208708167076110840e-01,3.313475549221038818e-01,3.460419178009033203e-01,3.538609743118286133e-01,3.681311607360839844e-01,3.802106976509094238e-01,3.883336782455444336e-01,3.937925398349761963e-01,4.002124071121215820e-01,4.037486910820007324e-01,4.065837562084197998e-01,4.073767364025115967e-01,4.083579182624816895e-01,4.085386991500854492e-01,4.085513353347778320e-01,4.085260629653930664e-01,4.085074663162231445e-01,4.084546566009521484e-01,4.083541035652160645e-01,4.083053469657897949e-01,4.082492589950561523e-01,4.081917405128479004e-01,4.081341028213500977e-01,4.080765247344970703e-01,4.080190658569335938e-01,4.079622626304626465e-01,4.079042077064514160e-01,4.078492522239685059e-01,4.077990353107452393e-01,4.077680706977844238e-01,4.077485203742980957e-01,4.077683687210083008e-01,4.076748490333557129e-01,4.072943925857543945e-01,4.064602851867675781e-01,4.056189954280853271e-01,4.045326113700866699e-01,4.051839113235473633e-01,4.014883637428283691e-01,3.856232464313507080e-01,3.876340687274932861e-01,4.134552180767059326e-01,4.176775217056274414e-01,4.559879004955291748e-01,4.460388123989105225e-01
4.513967931270599365e-01,3.938277363777160645e-01,3.929910361766815186e-01,3.573014438152313232e-01,3.413673639297485352e-01,3.406579792499542236e-01,3.481038808822631836e-01,3.498241901397705078e-01,3.515190482139587402e-01,3.519397377967834473e-01,3.524564504623413086e-01,3.529189229011535645e-01,3.534025847911834717e-01,3.538378775119781494e-01,3.541231751441955566e-01,3.542206287384033203e-01,3.542886674404144287e-01,3.541518449783325195e-01,3.542140722274780273e-01,3.539710640907287598e-01,3.530320525169372559e-01,3.523203134536743164e-01,3.524528443813323975e-01,3.464221656322479248e-01,3.382694125175476074e-01,3.334440588951110840e-01,3.217098712921142578e-01,3.190218210220336914e-01,3.112320899963378906e-01,3.040774464607238770e-01,3.076101541519165039e-01,3.016709685325622559e-01,2.947229743003845215e-01,2.872497737407684326e-01,2.883637547492980957e-01,2.965762317180633545e-01,2.982601225376129150e-01,3.103187680244445801e-01,3.131980299949645996e-01,3.219961524009704590e-01,3.307174146175384521e-01,3.355909883975982666e-01,3.407052755355834961e-01,3.447249531745910645e-01,3.479947447776794434e-01,3.494789302349090576e-01,3.514367341995239258e-01,3.518216609954833984e-01,3.523262441158294678e-01,3.522463738918304443e-01,3.524757325649261475e-01,3.525760769844055176e-01,3.525618910789489746e-01,3.525287806987762451e-01,3.524960577487945557e-01,3.524649739265441895e-01,3.524238169193267822e-01,3.523828387260437012e-01,3.523416817188262939e-01,3.523008227348327637e-01,3.522598743438720703e-01,3.522191643714904785e-01,3.521757125854492188e-01,3.521469533443450928e-01,3.521080017089843750e-01,3.520525097846984863e-01,3.520560264587402344e-01,3.521001636981964111e-01,3.520493507385253906e-01,3.519715368747711182e-01,3.517128825187683105e-01,3.512565493583679199e-01,3.520927429199218750e-01,3.494637608528137207e-01,3.362775444984436035e-01,3.391462564468383789e-01,3.652978539466857910e-01,3.756641745567321777e-01,4.224270582199096680e-01,4.258086085319519043e-01
4.349679648876190186e-01,3.689448535442352295e-01,3.612752556800842285e-01,3.251660764217376709e-01,3.061305880546569824e-01,3.047565817832946777e-01,3.108619451522827148e-01,3.122472465038299561e-01,3.134057223796844482e-01,3.134183585643768311e-01,3.134002089500427246e-01,3.133915662765502930e-01,3.134693801403045654e-01,3.135571479797363281e-01,3.135888874530792236e-01,3.136020302772521973e-01,3.135600686073303223e-01,3.135042786598205566e-01,3.135929703712463379e-01,3.132754564285278320e-01,3.127556741237640381e-01,3.127882182598114014e-01,3.113729059696197510e-01,3.076218664646148682e-01,3.036392927169799805e-01,2.989309430122375488e-01,2.985131442546844482e-01,2.954324483871459961e-01,2.903406023979187012e-01,2.895675897598266602e-01,2.852436900138854980e-01,2.827383279800415039e-01,2.769403755664825439e-01,2.742062509059906006e-01,2.724124789237976074e-01,2.732677161693572998e-01,2.772459685802459717e-01,2.817233800888061523e-01,2.855306267738342285e-01,2.901884913444519043e-01,2.948178648948669434e-01,3.001899421215057373e-01,3.016213178634643555e-01,3.048459291458129883e-01,3.075890839099884033e-01,3.096696734428405762e-01,3.103661537170410156e-01,3.109265565872192383e-01,3.115175664424896240e-01,3.120766878128051758e-01,3.122440576553344727e-01,3.122503161430358887e-01,3.123567402362823486e-01,3.124004602432250977e-01,3.124085068702697754e-01,3.123844563961029053e-01,3.123546242713928223e-01,3.123248219490051270e-01,3.122949600219726562e-01,3.122650682926177979e-01,3.122355341911315918e-01,3.122057616710662842e-01,3.121764063835144043e-01,3.121444582939147949e-01,3.121138215065002441e-01,3.120838999748229980e-01,3.120433092117309570e-01,3.119914829730987549e-01,3.119665384292602539e-01,3.118498921394348145e-01,3.117139935493469238e-01,3.114954829216003418e-01,3.122382760047912598e-01,3.104105591773986816e-01,2.992194890975952148e-01,3.025777339935302734e-01,3.288092613220214844e-01,3.441793918609619141e-01,3.968180119991302490e-01,4.100965857505798340e-01
4.212122559547424316e-01,3.491295576095581055e-01,3.364078402519226074e-01,2.999932169914245605e-01,2.791699171066284180e-01,2.769937217235565186e-01,2.819458842277526855e-01,2.831115722656250000e-01,2.839948534965515137e-01,2.838842868804931641e-01,2.838457822799682617e-01,2.838433384895324707e-01,2.838255167007446289e-01,2.838085591793060303e-01,2.837930917739868164e-01,2.837553024291992188e-01,2.837141752243041992e-01,2.836772501468658447e-01,2.836999893188476562e-01,2.835927903652191162e-01,2.835524082183837891e-01,2.837943434715270996e-01,2.831823229789733887e-01,2.815931439399719238e-01,2.790390253067016602e-01,2.765341103076934814e-01,2.734085023403167725e-01,2.739426493644714355e-01,2.701057195663452148e-01,2.709302306175231934e-01,2.658077776432037354e-01,2.648781538009643555e-01,2.633624076843261719e-01,2.585757374763488770e-01,2.572643756866455078e-01,2.597441673278808594e-01,2.590771913528442383e-01,2.621723413467407227e-01,2.647380530834197998e-01,2.691655158996582031e-01,2.689865529537200928e-01,2.726531922817230225e-01,2.745638489723205566e-01,2.768297791481018066e-01,2.781171202659606934e-01,2.797989249229431152e-01,2.805562615394592285e-01,2.814704477787017822e-01,2.818170189857482910e-01,2.823684215545654297e-01,2.824490070343017578e-01,2.827184796333312988e-01,2.828112244606018066e-01,2.828799784183502197e-01,2.828504443168640137e-01,2.828369140625000000e-01,2.828155159950256348e-01,2.827939391136169434e-01,2.827721238136291504e-01,2.827503681182861328e-01,2.827289104461669922e-01,2.827075123786926270e-01,2.826855778694152832e-01,2.826648354530334473e-01,2.826429605484008789e-01,2.826177477836608887e-01,2.825944423675537109e-01,2.825849652290344238e-01,2.825756669044494629e-01,2.825745940208435059e-01,2.825553417205810547e-01,2.824468314647674561e-01,2.830866277217864990e-01,2.817762494087219238e-01,2.718528807163238525e-01,2.751283049583435059e-01,3.007310032844543457e-01,3.195547759532928467e-01,3.762912154197692871e-01,3.975745737552642822e-01
4.091753363609313965e-01,3.324906826019287109e-01,3.159780502319335938e-01,2.799490392208099365e-01,2.584224343299865723e-01,2.558313310146331787e-01,2.600255012512207031e-01,2.610181272029876709e-01,2.617910504341125488e-01,2.617058753967285156e-01,2.616653740406036377e-01,2.616426348686218262e-01,2.616231143474578857e-01,2.616071701049804688e-01,2.615905404090881348e-01,2.615732550621032715e-01,2.615547180175781250e-01,2.615372538566589355e-01,2.614904642105102539e-01,2.614564895629882812e-01,2.615034282207489014e-01,2.614409327507019043e-01,2.609045505523681641e-01,2.604467868804931641e-01,2.592262625694274902e-01,2.584071457386016846e-01,2.568707764148712158e-01,2.557877898216247559e-01,2.567182481288909912e-01,2.552047371864318848e-01,2.525399625301361084e-01,2.503818273544311523e-01,2.483595013618469238e-01,2.447689473628997803e-01,2.440079450607299805e-01,2.451563775539398193e-01,2.451600432395935059e-01,2.458707690238952637e-01,2.491715252399444580e-01,2.503663003444671631e-01,2.531282305717468262e-01,2.531629204750061035e-01,2.549486160278320312e-01,2.558574080467224121e-01,2.570731937885284424e-01,2.582349181175231934e-01,2.591496706008911133e-01,2.595851421356201172e-01,2.600651979446411133e-01,2.603200078010559082e-01,2.605922222137451172e-01,2.606788873672485352e-01,2.608944475650787354e-01,2.609127759933471680e-01,2.609377503395080566e-01,2.609118223190307617e-01,2.608955502510070801e-01,2.608790099620819092e-01,2.608625888824462891e-01,2.608461976051330566e-01,2.608296573162078857e-01,2.608132064342498779e-01,2.607967257499694824e-01,2.607800960540771484e-01,2.607633471488952637e-01,2.607466578483581543e-01,2.607292234897613525e-01,2.607134878635406494e-01,2.606983482837677002e-01,2.606829404830932617e-01,2.606673836708068848e-01,2.605887949466705322e-01,2.611070871353149414e-01,2.600611448287963867e-01,2.511636912822723389e-01,2.544419169425964355e-01,2.794529795646667480e-01,3.009890913963317871e-01,3.605787158012390137e-01,3.876294791698455811e-01
3.991094827651977539e-01,3.188908994197845459e-01,2.997263073921203613e-01,2.643871307373046875e-01,2.423037886619567871e-01,2.394161224365234375e-01,2.430765330791473389e-01,2.439669072628021240e-01,2.446580827236175537e-01,2.445947825908660889e-01,2.445619404315948486e-01,2.445470988750457764e-01,2.445325851440429688e-01,2.445183992385864258e-01,2.445037961006164551e-01,2.444894015789031982e-01,2.444773614406585693e-01,2.444634437561035156e-01,2.444589734077453613e-01,2.443876564502716064e-01,2.445202171802520752e-01,2.444989681243896484e-01,2.442315220832824707e-01,2.442710697650909424e-01,2.442544996738433838e-01,2.426777482032775879e-01,2.419933378696441650e-01,2.422206103801727295e-01,2.420561909675598145e-01,2.417668998241424561e-01,2.390334904193878174e-01,2.380490303039550781e-01,2.361172437667846680e-01,2.339797616004943848e-01,2.337890267372131348e-01,2.335506975650787354e-01,2.332766950130462646e-01,2.346149384975433350e-01,2.340965270996093750e-01,2.372447848320007324e-01,2.374284863471984863e-01,2.392087280750274658e-01,2.398109138011932373e-01,2.406868636608123779e-01,2.414947748184204102e-01,2.420715093612670898e-01,2.425608336925506592e-01,2.429907321929931641e-01,2.433201968669891357e-01,2.433946430683135986e-01,2.435934841632843018e-01,2.438068985939025879e-01,2.439206838607788086e-01,2.439573705196380615e-01,2.439756393432617188e-01,2.439687550067901611e-01,2.439557611942291260e-01,2.439427971839904785e-01,2.439301311969757080e-01,2.439170181751251221e-01,2.439042925834655762e-01,2.438913285732269287e-01,2.438784539699554443e-01,2.438655793666839600e-01,2.438526153564453125e-01,2.438391447067260742e-01,2.438260018825531006e-01,2.438123822212219238e-01,2.437992393970489502e-01,2.437863051891326904e-01,2.437733113765716553e-01,2.437091171741485596e-01,2.441335916519165039e-01,2.432979643344879150e-01,2.352193593978881836e-01,2.385309338569641113e-01,2.629279792308807373e-01,2.863625884056091309e-01,3.479761183261871338e-01,3.796795010566711426e-01
3.908083438873291016e-01,3.077775239944458008e-01,2.866266369819641113e-01,2.519670128822326660e-01,2.295311689376831055e-01,2.264039814472198486e-01,2.296699285507202148e-01,2.304597198963165283e-01,2.310814559459686279e-01,2.310265600681304932e-01,2.309994697570800781e-01,2.309888899326324463e-01,2.309783697128295898e-01,2.309679388999938965e-01,2.309574484825134277e-01,2.309471666812896729e-01,2.309367656707763672e-01,2.309284508228302002e-01,2.309065163135528564e-01,2.309205830097198486e-01,2.308873832225799561e-01,2.307562530040740967e-01,2.308403849601745605e-01,2.309180200099945068e-01,2.305251657962799072e-01,2.303829193115234375e-01,2.297195792198181152e-01,2.295554578304290771e-01,2.302772700786590576e-01,2.300989925861358643e-01,2.290506958961486816e-01,2.276611030101776123e-01,2.262457311153411865e-01,2.258976399898529053e-01,2.232630848884582520e-01,2.238163948059082031e-01,2.243760526180267334e-01,2.237230837345123291e-01,2.244068086147308350e-01,2.259540557861328125e-01,2.264918684959411621e-01,2.265400886535644531e-01,2.278314828872680664e-01,2.283462285995483398e-01,2.287295758724212646e-01,2.291409373283386230e-01,2.293225824832916260e-01,2.298812270164489746e-01,2.301401793956756592e-01,2.303438782691955566e-01,2.304449081420898438e-01,2.304761707782745361e-01,2.305046916007995605e-01,2.305286824703216553e-01,2.305289804935455322e-01,2.305303215980529785e-01,2.305196821689605713e-01,2.305094897747039795e-01,2.304989993572235107e-01,2.304887473583221436e-01,2.304784357547760010e-01,2.304680943489074707e-01,2.304576039314270020e-01,2.304472923278808594e-01,2.304368019104003906e-01,2.304264903068542480e-01,2.304161489009857178e-01,2.304055690765380859e-01,2.303952872753143311e-01,2.303849160671234131e-01,2.303743958473205566e-01,2.303209900856018066e-01,2.306764721870422363e-01,2.300003468990325928e-01,2.225854694843292236e-01,2.259089648723602295e-01,2.498036324977874756e-01,2.745875120162963867e-01,3.377236127853393555e-01,3.731961548328399658e-01
3.838096857070922852e-01,2.985767126083374023e-01,2.758283615112304688e-01,2.418439686298370361e-01,2.191887199878692627e-01,2.158561646938323975e-01,2.188115417957305908e-01,2.195128798484802246e-01,2.200793325901031494e-01,2.200316190719604492e-01,2.200083136558532715e-01,2.200001180171966553e-01,2.199913263320922852e-01,2.199829220771789551e-01,2.199742496013641357e-01,2.199656069278717041e-01,2.199572920799255371e-01,2.199490368366241455e-01,2.199440002441406250e-01,2.199276387691497803e-01,2.199264466762542725e-01,2.198946177959442139e-01,2.198946177959442139e-01,2.198806107044219971e-01,2.199833989143371582e-01,2.197178006172180176e-01,2.195433974266052246e-01,2.193932235240936279e-01,2.195029854774475098e-01,2.196695804595947266e-01,2.193108499050140381e-01,2.185946106910705566e-01,2.179142236709594727e-01,2.170927822589874268e-01,2.163434922695159912e-01,2.157534658908843994e-01,2.163146138191223145e-01,2.158837616443634033e-01,2.156606018543243408e-01,2.161089181900024414e-01,2.168283164501190186e-01,2.170287072658538818e-01,2.170856893062591553e-01,2.179512083530426025e-01,2.183317840099334717e-01,2.185629904270172119e-01,2.189610004425048828e-01,2.191416323184967041e-01,2.194227278232574463e-01,2.193874120712280273e-01,2.194846868515014648e-01,2.196270227432250977e-01,2.196142077445983887e-01,2.196555435657501221e-01,2.196213901042938232e-01,2.196238040924072266e-01,2.196154296398162842e-01,2.196066975593566895e-01,2.195983231067657471e-01,2.195900380611419678e-01,2.195813059806823730e-01,2.195729613304138184e-01,2.195643484592437744e-01,2.195559144020080566e-01,2.195473313331604004e-01,2.195390462875366211e-01,2.195305526256561279e-01,2.195220291614532471e-01,2.195134758949279785e-01,2.195048034191131592e-01,2.194957733154296875e-01,2.194505333900451660e-01,2.197557985782623291e-01,2.192068696022033691e-01,2.123380303382873535e-01,2.156668603420257568e-01,2.391506433486938477e-01,2.649211883544921875e-01,3.292239904403686523e-01,3.678043186664581299e-01
3.778365254402160645e-01,2.908430099487304688e-01,2.668057382106781006e-01,2.334575057029724121e-01,2.106573879718780518e-01,2.071473002433776855e-01,2.098512053489685059e-01,2.104746699333190918e-01,2.109920084476470947e-01,2.109501957893371582e-01,2.109302580356597900e-01,2.109231352806091309e-01,2.109160423278808594e-01,2.109088301658630371e-01,2.109015583992004395e-01,2.108944356441497803e-01,2.108877003192901611e-01,2.108806967735290527e-01,2.108730673789978027e-01,2.108679413795471191e-01,2.108553051948547363e-01,2.108492851257324219e-01,2.108434438705444336e-01,2.108342945575714111e-01,2.108269035816192627e-01,2.108158171176910400e-01,2.106928825378417969e-01,2.106946110725402832e-01,2.105608284473419189e-01,2.107610404491424561e-01,2.107188105583190918e-01,2.104042768478393555e-01,2.100645005702972412e-01,2.099021375179290771e-01,2.089963853359222412e-01,2.089467048645019531e-01,2.086400389671325684e-01,2.088606953620910645e-01,2.085247635841369629e-01,2.087770700454711914e-01,2.089650630950927734e-01,2.092832326889038086e-01,2.092489004135131836e-01,2.095095813274383545e-01,2.097742557525634766e-01,2.098768353462219238e-01,2.099400758743286133e-01,2.103269696235656738e-01,2.103475630283355713e-01,2.105458676815032959e-01,2.105986475944519043e-01,2.106449604034423828e-01,2.106364965438842773e-01,2.106109857559204102e-01,2.106191217899322510e-01,2.106095850467681885e-01,2.106027305126190186e-01,2.105954885482788086e-01,2.105885148048400879e-01,2.105813026428222656e-01,2.105741798877716064e-01,2.105672657489776611e-01,2.105600833892822266e-01,2.105530202388763428e-01,2.105461061000823975e-01,2.105388045310974121e-01,2.105317711830139160e-01,2.105247974395751953e-01,2.105175554752349854e-01,2.105105221271514893e-01,2.105027735233306885e-01,2.104639410972595215e-01,2.107302248477935791e-01,2.102831304073333740e-01,2.038677334785461426e-01,2.071975767612457275e-01,2.303327322006225586e-01,2.568458020687103271e-01,3.220571577548980713e-01,3.632422983646392822e-01
3.726794719696044922e-01,2.842500805854797363e-01,2.591603398323059082e-01,2.263981103897094727e-01,2.035058140754699707e-01,1.998408436775207520e-01,2.023380696773529053e-01,2.028930783271789551e-01,2.033693194389343262e-01,2.033320367336273193e-01,2.033145129680633545e-01,2.033084630966186523e-01,2.033024132251739502e-01,2.032964527606964111e-01,2.032904028892517090e-01,2.032842040061950684e-01,2.032783627510070801e-01,2.032724320888519287e-01,2.032662630081176758e-01,2.032597362995147705e-01,2.032542228698730469e-01,2.032460272312164307e-01,2.032393813133239746e-01,2.032382786273956299e-01,2.032304406166076660e-01,2.032304704189300537e-01,2.032281458377838135e-01,2.031656503677368164e-01,2.031312882900238037e-01,2.031896114349365234e-01,2.031790614128112793e-01,2.030664682388305664e-01,2.027686834335327148e-01,2.026936411857604980e-01,2.025022804737091064e-01,2.024284899234771729e-01,2.025452554225921631e-01,2.023578286170959473e-01,2.024934887886047363e-01,2.022980749607086182e-01,2.022871077060699463e-01,2.023973762989044189e-01,2.025028169155120850e-01,2.025449275970458984e-01,2.026256322860717773e-01,2.027214467525482178e-01,2.028761804103851318e-01,2.029458880424499512e-01,2.029504179954528809e-01,2.029960155487060547e-01,2.030816972255706787e-01,2.030386030673980713e-01,2.030850052833557129e-01,2.030648291110992432e-01,2.030551433563232422e-01,2.030439078807830811e-01,2.030378282070159912e-01,2.030316591262817383e-01,2.030256986618041992e-01,2.030198276042938232e-01,2.030137181282043457e-01,2.030076980590820312e-01,2.030018270015716553e-01,2.029955983161926270e-01,2.029898762702941895e-01,2.029838263988494873e-01,2.029777765274047852e-01,2.029718160629272461e-01,2.029658257961273193e-01,2.029596567153930664e-01,2.029529511928558350e-01,2.029194533824920654e-01,2.031547427177429199e-01,2.027903795242309570e-01,1.967567503452301025e-01,2.000849545001983643e-01,2.229188382625579834e-01,2.500011026859283447e-01,3.159307241439819336e-01,3.593308925628662109e-01
3.681829273700714111e-01,2.785642743110656738e-01,2.526051104068756104e-01,2.203783690929412842e-01,1.974303722381591797e-01,1.936289072036743164e-01,1.959539949893951416e-01,1.964489519596099854e-01,1.968896687030792236e-01,1.968564689159393311e-01,1.968406736850738525e-01,1.968356072902679443e-01,1.968304216861724854e-01,1.968252360820770264e-01,1.968200504779815674e-01,1.968149840831756592e-01,1.968098282814025879e-01,1.968046426773071289e-01,1.967997252941131592e-01,1.967943906784057617e-01,1.967886984348297119e-01,1.967840790748596191e-01,1.967777311801910400e-01,1.967713832855224609e-01,1.967724263668060303e-01,1.967684030532836914e-01,1.967687308788299561e-01,1.967448592185974121e-01,1.967096626758575439e-01,1.967643499374389648e-01,1.967698931694030762e-01,1.967215538024902344e-01,1.967020034790039062e-01,1.965521574020385742e-01,1.964621245861053467e-01,1.964761316776275635e-01,1.962777972221374512e-01,1.963462531566619873e-01,1.964479982852935791e-01,1.964520514011383057e-01,1.964519023895263672e-01,1.963759660720825195e-01,1.963688433170318604e-01,1.964752078056335449e-01,1.965282857418060303e-01,1.965462565422058105e-01,1.965686678886413574e-01,1.965876817703247070e-01,1.966276168823242188e-01,1.966713070869445801e-01,1.966378092765808105e-01,1.966321170330047607e-01,1.966234147548675537e-01,1.966166198253631592e-01,1.966149210929870605e-01,1.966090202331542969e-01,1.966038942337036133e-01,1.965988576412200928e-01,1.965935826301574707e-01,1.965884268283843994e-01,1.965833604335784912e-01,1.965781450271606445e-01,1.965729892253875732e-01,1.965678334236145020e-01,1.965628564357757568e-01,1.965578198432922363e-01,1.965525150299072266e-01,1.965473592281341553e-01,1.965425312519073486e-01,1.965372264385223389e-01,1.965314447879791260e-01,1.965016722679138184e-01,1.967123746871948242e-01,1.964159607887268066e-01,1.907075643539428711e-01,1.940318644046783447e-01,2.166017591953277588e-01,2.441281080245971680e-01,3.106328248977661133e-01,3.559389114379882812e-01
3.642281889915466309e-01,2.736120820045471191e-01,2.469255626201629639e-01,2.151869535446166992e-01,1.922083795070648193e-01,1.882865726947784424e-01,1.904664039611816406e-01,1.909083425998687744e-01,1.913182437419891357e-01,1.912882030010223389e-01,1.912741363048553467e-01,1.912696659564971924e-01,1.912652850151062012e-01,1.912607550621032715e-01,1.912562847137451172e-01,1.912518441677093506e-01,1.912473440170288086e-01,1.912429034709930420e-01,1.912384331226348877e-01,1.912342011928558350e-01,1.912296414375305176e-01,1.912247538566589355e-01,1.912204027175903320e-01,1.912161409854888916e-01,1.912110149860382080e-01,1.912088096141815186e-01,1.912016272544860840e-01,1.911986172199249268e-01,1.911913156509399414e-01,1.911753714084625244e-01,1.911709904670715332e-01,1.912063062191009521e-01,1.911067962646484375e-01,1.911213994026184082e-01,1.911343038082122803e-01,1.910486519336700439e-01,1.910307705402374268e-01,1.910428404808044434e-01,1.909960508346557617e-01,1.910382211208343506e-01,1.910589635372161865e-01,1.910243332386016846e-01,1.910149455070495605e-01,1.910360753536224365e-01,1.910320222377777100e-01,1.910893321037292480e-01,1.911003887653350830e-01,1.911039650440216064e-01,1.911332607269287109e-01,1.910913586616516113e-01,1.910825669765472412e-01,1.910906434059143066e-01,1.910867989063262939e-01,1.910852491855621338e-01,1.910760700702667236e-01,1.910738646984100342e-01,1.910695433616638184e-01,1.910649836063385010e-01,1.910605728626251221e-01,1.910562217235565186e-01,1.910517513751983643e-01,1.910473406314849854e-01,1.910429298877716064e-01,1.910385787487030029e-01,1.910341680049896240e-01,1.910296082496643066e-01,1.910251677036285400e-01,1.910205483436584473e-01,1.910161375999450684e-01,1.910116970539093018e-01,1.910065412521362305e-01,1.909803748130798340e-01,1.911706626415252686e-01,1.909308433532714844e-01,1.855018436908721924e-01,1.888217628002166748e-01,2.111579775810241699e-01,2.390344440937042236e-01,3.060052990913391113e-01,3.529690206050872803e-01
3.607215881347656250e-01,2.692632079124450684e-01,2.419596612453460693e-01,2.106664180755615234e-01,1.876745522022247314e-01,1.836435496807098389e-01,1.856960058212280273e-01,1.860908567905426025e-01,1.864742040634155273e-01,1.864469647407531738e-01,1.864341199398040771e-01,1.864301562309265137e-01,1.864263415336608887e-01,1.864221394062042236e-01,1.864185631275177002e-01,1.864145398139953613e-01,1.864106655120849609e-01,1.864069402217864990e-01,1.864030361175537109e-01,1.863991916179656982e-01,1.863952279090881348e-01,1.863913834095001221e-01,1.863873302936553955e-01,1.863836944103240967e-01,1.863796114921569824e-01,1.863754093647003174e-01,1.863727271556854248e-01,1.863681972026824951e-01,1.863622367382049561e-01,1.863612532615661621e-01,1.863712370395660400e-01,1.863563656806945801e-01,1.863600015640258789e-01,1.863470971584320068e-01,1.863409280776977539e-01,1.863217055797576904e-01,1.863213777542114258e-01,1.862796843051910400e-01,1.862844824790954590e-01,1.862601339817047119e-01,1.862667798995971680e-01,1.862547099590301514e-01,1.862857043743133545e-01,1.862666904926300049e-01,1.862901449203491211e-01,1.862783133983612061e-01,1.862957775592803955e-01,1.862820982933044434e-01,1.862713992595672607e-01,1.862792074680328369e-01,1.862838566303253174e-01,1.862774491310119629e-01,1.862739920616149902e-01,1.862652003765106201e-01,1.862637400627136230e-01,1.862592995166778564e-01,1.862553358078002930e-01,1.862513720989227295e-01,1.862476766109466553e-01,1.862439215183258057e-01,1.862399578094482422e-01,1.862359344959259033e-01,1.862322986125946045e-01,1.862284541130065918e-01,1.862245500087738037e-01,1.862207353115081787e-01,1.862168610095977783e-01,1.862128973007202148e-01,1.862087845802307129e-01,1.862050294876098633e-01,1.862002015113830566e-01,1.861771643161773682e-01,1.863507926464080811e-01,1.861585378646850586e-01,1.809738874435424805e-01,1.842883825302124023e-01,2.064171433448791504e-01,2.345681488513946533e-01,3.019173145294189453e-01,3.503365814685821533e-01
3.576368391513824463e-01,2.654596269130706787e-01,2.376321852207183838e-01,2.067410945892333984e-01,1.837362945079803467e-01,1.796095371246337891e-01,1.815572679042816162e-01,1.819106340408325195e-01,1.822709739208221436e-01,1.822458207607269287e-01,1.822337210178375244e-01,1.822302639484405518e-01,1.822268068790435791e-01,1.822233200073242188e-01,1.822200715541839600e-01,1.822165846824645996e-01,1.822130382061004639e-01,1.822097003459930420e-01,1.822062730789184570e-01,1.822027564048767090e-01,1.821993887424468994e-01,1.821959912776947021e-01,1.821925342082977295e-01,1.821891963481903076e-01,1.821860074996948242e-01,1.821822822093963623e-01,1.821786761283874512e-01,1.821755766868591309e-01,1.821716129779815674e-01,1.821675896644592285e-01,1.821659505367279053e-01,1.821627020835876465e-01,1.821575462818145752e-01,1.821576654911041260e-01,1.821557283401489258e-01,1.821500062942504883e-01,1.821378469467163086e-01,1.821321547031402588e-01,1.821264922618865967e-01,1.821212172508239746e-01,1.821122467517852783e-01,1.821165978908538818e-01,1.821126937866210938e-01,1.821141839027404785e-01,1.821058690547943115e-01,1.821013987064361572e-01,1.821057200431823730e-01,1.821096837520599365e-01,1.821073591709136963e-01,1.821029484272003174e-01,1.820963621139526367e-01,1.820947825908660889e-01,1.820901036262512207e-01,1.820871531963348389e-01,1.820832490921020508e-01,1.820798814296722412e-01,1.820764243602752686e-01,1.820729374885559082e-01,1.820695698261260986e-01,1.820661127567291260e-01,1.820625960826873779e-01,1.820593476295471191e-01,1.820561289787292480e-01,1.820526719093322754e-01,1.820490956306457520e-01,1.820458769798278809e-01,1.820421814918518066e-01,1.820389032363891602e-01,1.820355653762817383e-01,1.820321381092071533e-01,1.820279955863952637e-01,1.820068359375000000e-01,1.821657419204711914e-01,1.820138990879058838e-01,1.770386993885040283e-01,1.803416907787322998e-01,2.022808194160461426e-01,2.306672930717468262e-01,2.983098328113555908e-01,3.479931950569152832e-01
