5.887125134468078613e-01,6.142867207527160645e-01,6.569124460220336914e-01,6.577398777008056641e-01,6.812951564788818359e-01,7.055212855339050293e-01,7.418870329856872559e-01,7.632874250411987305e-01,7.840506434440612793e-01,8.026720285415649414e-01,8.204347491264343262e-01,8.368926048278808594e-01,8.518096208572387695e-01,8.650919198989868164e-01,8.766790628433227539e-01,8.861655592918395996e-01,8.936753869056701660e-01,8.988876938819885254e-01,8.974107503890991211e-01,8.932060003280639648e-01,8.885779380798339844e-01,8.790518045425415039e-01,8.554899692535400391e-01,8.210683465003967285e-01,7.542327642440795898e-01,6.973398327827453613e-01,6.854622960090637207e-01,6.416172981262207031e-01,6.561654210090637207e-01,5.519173741340637207e-01,4.767525196075439453e-01,4.122299551963806152e-01,3.519462347030639648e-01,3.430866599082946777e-01,3.364705443382263184e-01,3.423906564712524414e-01,3.738183379173278809e-01,4.395605325698852539e-01,5.359795093536376953e-01,6.570146083831787109e-01,7.612745761871337891e-01,8.021800518035888672e-01,8.396787643432617188e-01,8.589609861373901367e-01,8.700968623161315918e-01,8.776814937591552734e-01,8.860738873481750488e-01,8.714486956596374512e-01,8.668698072433471680e-01,8.675166368484497070e-01,8.774117231369018555e-01,8.844325542449951172e-01,8.939900398254394531e-01,8.987665176391601562e-01,9.020859003067016602e-01,9.050748348236083984e-01,9.039856791496276855e-01,9.050534963607788086e-01,9.052681922912597656e-01,9.052867293357849121e-01,9.053285121917724609e-01,9.053297042846679688e-01,9.053522944450378418e-01,9.053736329078674316e-01,9.051607847213745117e-01,9.045403003692626953e-01,9.034001827239990234e-01,9.016416072845458984e-01,8.990635871887207031e-01,8.949549198150634766e-01,8.886438608169555664e-01,8.801682591438293457e-01,8.708058595657348633e-01,8.578456640243530273e-01,8.292387723922729492e-01,8.082226514816284180e-01,8.006218075752258301e-01,7.746292352676391602e-01,7.220039367675781250e-01,6.160325407981872559e-01
5.887054800987243652e-01,6.142752766609191895e-01,6.568992733955383301e-01,6.577248573303222656e-01,6.812786459922790527e-01,7.055047750473022461e-01,7.418705224990844727e-01,7.632710933685302734e-01,7.840347290039062500e-01,8.026568889617919922e-01,8.204206228256225586e-01,8.368797302246093750e-01,8.517981171607971191e-01,8.650820255279541016e-01,8.766635656356811523e-01,8.861503601074218750e-01,8.936800956726074219e-01,8.989043831825256348e-01,8.983757495880126953e-01,8.938990831375122070e-01,8.928494453430175781e-01,8.858913183212280273e-01,8.692625761032104492e-01,8.455396890640258789e-01,7.860990762710571289e-01,7.668510675430297852e-01,7.352640628814697266e-01,7.241794466972351074e-01,7.018592953681945801e-01,6.264828443527221680e-01,5.484985113143920898e-01,4.447865188121795654e-01,3.974243104457855225e-01,3.565969169139862061e-01,3.428263664245605469e-01,3.455673158168792725e-01,3.877171874046325684e-01,4.550869166851043701e-01,5.174946784973144531e-01,6.516170501708984375e-01,7.579774856567382812e-01,8.098276853561401367e-01,8.468226194381713867e-01,8.748348951339721680e-01,8.800569772720336914e-01,8.882060647010803223e-01,8.885208964347839355e-01,8.855113983154296875e-01,8.768353462219238281e-01,8.785823583602905273e-01,8.877823948860168457e-01,8.961251974105834961e-01,8.988367319107055664e-01,9.033739566802978516e-01,9.035663008689880371e-01,9.048815965652465820e-01,9.051411151885986328e-01,9.050164222717285156e-01,9.054216146469116211e-01,9.053003787994384766e-01,9.053285121917724609e-01,9.053297042846679688e-01,9.053521752357482910e-01,9.053735136985778809e-01,9.051609635353088379e-01,9.045408964157104492e-01,9.034013748168945312e-01,9.016435146331787109e-01,8.990660905838012695e-01,8.949591517448425293e-01,8.886506557464599609e-01,8.801770210266113281e-01,8.708155751228332520e-01,8.578584194183349609e-01,8.292540311813354492e-01,8.082396984100341797e-01,8.006386756896972656e-01,7.746456265449523926e-01,7.220171093940734863e-01,6.160420179367065430e-01
5.886983871459960938e-01,6.142637729644775391e-01,6.568861603736877441e-01,6.577095985412597656e-01,6.812621355056762695e-01,7.054879069328308105e-01,7.418538331985473633e-01,7.632546424865722656e-01,7.840187549591064453e-01,8.026413917541503906e-01,8.204063177108764648e-01,8.368670940399169922e-01,8.517867326736450195e-01,8.650717735290527344e-01,8.766531348228454590e-01,8.861478567123413086e-01,8.938665986061096191e-01,8.995077610015869141e-01,8.977892398834228516e-01,8.978040218353271484e-01,8.970888257026672363e-01,8.884446620941162109e-01,8.775490522384643555e-01,8.590189218521118164e-01,8.247783184051513672e-01,8.183014392852783203e-01,8.011236190795898438e-01,7.624391317367553711e-01,7.513656616210937500e-01,7.074747681617736816e-01,6.042012572288513184e-01,4.834300875663757324e-01,4.177738428115844727e-01,3.751509785652160645e-01,3.527631163597106934e-01,3.650821447372436523e-01,3.833021521568298340e-01,4.359834194183349609e-01,5.243327617645263672e-01,6.486570835113525391e-01,7.489494085311889648e-01,8.057856559753417969e-01,8.508905172348022461e-01,8.730986118316650391e-01,8.795010447502136230e-01,8.893309831619262695e-01,8.887523412704467773e-01,8.939433097839355469e-01,8.916960358619689941e-01,8.950553536415100098e-01,8.931203484535217285e-01,8.964160680770874023e-01,9.014994502067565918e-01,9.044530391693115234e-01,9.049023389816284180e-01,9.048756957054138184e-01,9.057421684265136719e-01,9.051325321197509766e-01,9.052635431289672852e-01,9.053476452827453613e-01,9.053285121917724609e-01,9.053297042846679688e-01,9.053522348403930664e-01,9.053735136985778809e-01,9.051611423492431641e-01,9.045416116714477539e-01,9.034025073051452637e-01,9.016453623771667480e-01,8.990688323974609375e-01,8.949635028839111328e-01,8.886572718620300293e-01,8.801860213279724121e-01,8.708259463310241699e-01,8.578709363937377930e-01,8.292693495750427246e-01,8.082565069198608398e-01,8.006553649902343750e-01,7.746620178222656250e-01,7.220305800437927246e-01,6.160513162612915039e-01
5.886908173561096191e-01,6.142519712448120117e-01,6.568725109100341797e-01,6.576941609382629395e-01,6.812450885772705078e-01,7.054706811904907227e-01,7.418367862701416016e-01,7.632379531860351562e-01,7.840023636817932129e-01,8.026257157325744629e-01,8.203917741775512695e-01,8.368536233901977539e-01,8.517750501632690430e-01,8.650615811347961426e-01,8.766482472419738770e-01,8.861181139945983887e-01,8.938247561454772949e-01,8.989539146423339844e-01,8.974966406822204590e-01,9.004135131835937500e-01,9.037731289863586426e-01,8.953459262847900391e-01,8.900752067565917969e-01,8.750239610671997070e-01,8.543642759323120117e-01,8.491036891937255859e-01,8.374952077865600586e-01,8.045054078102111816e-01,7.856647968292236328e-01,7.375496029853820801e-01,6.538200378417968750e-01,5.216265916824340820e-01,4.352198243141174316e-01,3.852066397666931152e-01,3.638539910316467285e-01,3.723952472209930420e-01,3.828184008598327637e-01,4.248741567134857178e-01,5.370027422904968262e-01,6.393698453903198242e-01,7.343828082084655762e-01,8.013757467269897461e-01,8.496061563491821289e-01,8.742113113403320312e-01,8.882450461387634277e-01,8.945932388305664062e-01,8.946460485458374023e-01,8.962929844856262207e-01,8.977441787719726562e-01,8.961844444274902344e-01,8.974816203117370605e-01,8.980827331542968750e-01,9.007292985916137695e-01,9.032908678054809570e-01,9.050289392471313477e-01,9.044833183288574219e-01,9.050679206848144531e-01,9.054402112960815430e-01,9.053941965103149414e-01,9.053293466567993164e-01,9.053285121917724609e-01,9.053297042846679688e-01,9.053521752357482910e-01,9.053735136985778809e-01,9.051613807678222656e-01,9.045422673225402832e-01,9.034036993980407715e-01,9.016471505165100098e-01,8.990714550018310547e-01,8.949677348136901855e-01,8.886638283729553223e-01,8.801950216293334961e-01,8.708364963531494141e-01,8.578836321830749512e-01,8.292844295501708984e-01,8.082731962203979492e-01,8.006721735000610352e-01,7.746783494949340820e-01,7.220439910888671875e-01,6.160607337951660156e-01
5.886828303337097168e-01,6.142392754554748535e-01,6.568582057952880859e-01,6.576782464981079102e-01,6.812279820442199707e-01,7.054533362388610840e-01,7.418195009231567383e-01,7.632210254669189453e-01,7.839859127998352051e-01,8.026098012924194336e-01,8.203769922256469727e-01,8.368405699729919434e-01,8.517631292343139648e-01,8.650510907173156738e-01,8.766453266143798828e-01,8.861005306243896484e-01,8.937064409255981445e-01,8.979748487472534180e-01,8.989228010177612305e-01,9.012710452079772949e-01,9.050382375717163086e-01,8.972593545913696289e-01,8.960288166999816895e-01,8.888956308364868164e-01,8.662675619125366211e-01,8.701905012130737305e-01,8.590342402458190918e-01,8.392996788024902344e-01,8.022943735122680664e-01,7.669138312339782715e-01,7.001614570617675781e-01,5.268493294715881348e-01,4.452573657035827637e-01,3.911421000957489014e-01,3.651311397552490234e-01,3.728671371936798096e-01,3.764010667800903320e-01,4.350826144218444824e-01,5.061835646629333496e-01,6.344873905181884766e-01,7.309822440147399902e-01,7.959353327751159668e-01,8.460116386413574219e-01,8.716843128204345703e-01,8.886435031890869141e-01,8.956925868988037109e-01,8.969472646713256836e-01,9.017619490623474121e-01,9.035665988922119141e-01,9.024344682693481445e-01,9.011852145195007324e-01,9.002313017845153809e-01,9.004631042480468750e-01,9.028353691101074219e-01,9.047181606292724609e-01,9.056487083435058594e-01,9.054580926895141602e-01,9.052961468696594238e-01,9.052925109863281250e-01,9.053400158882141113e-01,9.053285121917724609e-01,9.053297042846679688e-01,9.053521156311035156e-01,9.053734540939331055e-01,9.051617383956909180e-01,9.045430421829223633e-01,9.034048914909362793e-01,9.016490578651428223e-01,8.990741968154907227e-01,8.949719667434692383e-01,8.886704444885253906e-01,8.802037835121154785e-01,8.708468675613403320e-01,8.578962087631225586e-01,8.292996883392333984e-01,8.082901835441589355e-01,8.006891012191772461e-01,7.746946215629577637e-01,7.220573425292968750e-01,6.160701513290405273e-01
5.886744856834411621e-01,6.142259836196899414e-01,6.568431854248046875e-01,6.576610803604125977e-01,6.812097430229187012e-01,7.054350972175598145e-01,7.418015599250793457e-01,7.632037401199340820e-01,7.839691638946533203e-01,8.025935888290405273e-01,8.203620314598083496e-01,8.368268013000488281e-01,8.517512083053588867e-01,8.650406002998352051e-01,8.766300678253173828e-01,8.860903978347778320e-01,8.935115933418273926e-01,8.976719379425048828e-01,9.002857208251953125e-01,9.042592048645019531e-01,9.060657024383544922e-01,9.000564813613891602e-01,9.016995429992675781e-01,8.930475711822509766e-01,8.879917860031127930e-01,8.791222572326660156e-01,8.724370002746582031e-01,8.491641879081726074e-01,8.190411329269409180e-01,7.806409597396850586e-01,6.851197481155395508e-01,5.520191192626953125e-01,4.418604969978332520e-01,3.972184658050537109e-01,3.637766838073730469e-01,3.602285981178283691e-01,3.734965324401855469e-01,4.260391592979431152e-01,5.129788517951965332e-01,6.344432830810546875e-01,7.313219308853149414e-01,7.931903600692749023e-01,8.476385474205017090e-01,8.722858428955078125e-01,8.905755877494812012e-01,8.993621468544006348e-01,8.999707698822021484e-01,9.031798839569091797e-01,9.029277563095092773e-01,9.032942056655883789e-01,9.028606414794921875e-01,9.033517241477966309e-01,9.040186405181884766e-01,9.046628475189208984e-01,9.047635793685913086e-01,9.050291776657104492e-01,9.052020311355590820e-01,9.054372310638427734e-01,9.053604602813720703e-01,9.053222537040710449e-01,9.053285121917724609e-01,9.053297042846679688e-01,9.053521156311035156e-01,9.053735733032226562e-01,9.051619768142700195e-01,9.045435786247253418e-01,9.034060239791870117e-01,9.016507863998413086e-01,8.990768194198608398e-01,8.949762582778930664e-01,8.886772394180297852e-01,8.802127242088317871e-01,8.708574175834655762e-01,8.579088449478149414e-01,8.293149471282958984e-01,8.083070516586303711e-01,8.007060289382934570e-01,7.747110128402709961e-01,7.220708131790161133e-01,6.160796284675598145e-01
5.886657238006591797e-01,6.142120957374572754e-01,6.568272709846496582e-01,6.576427817344665527e-01,6.811901926994323730e-01,7.054157257080078125e-01,7.417824864387512207e-01,7.631853818893432617e-01,7.839516401290893555e-01,8.025768995285034180e-01,8.203463554382324219e-01,8.368127346038818359e-01,8.517385721206665039e-01,8.650297522544860840e-01,8.766176700592041016e-01,8.860793113708496094e-01,8.931260704994201660e-01,8.979827165603637695e-01,9.005473852157592773e-01,9.046902656555175781e-01,9.046161174774169922e-01,9.005554914474487305e-01,9.008909463882446289e-01,8.926022052764892578e-01,8.975753784179687500e-01,8.873118162155151367e-01,8.737004995346069336e-01,8.592824935913085938e-01,8.282241225242614746e-01,7.821120023727416992e-01,6.841855645179748535e-01,5.525718331336975098e-01,4.456878602504730225e-01,3.903360962867736816e-01,3.613716661930084229e-01,3.542014956474304199e-01,3.801977038383483887e-01,4.219682514667510986e-01,4.997210204601287842e-01,6.311137080192565918e-01,7.314301133155822754e-01,7.972843647003173828e-01,8.449746370315551758e-01,8.719017505645751953e-01,8.888269662857055664e-01,8.991483449935913086e-01,9.023020863533020020e-01,9.043681621551513672e-01,9.050847291946411133e-01,9.053711891174316406e-01,9.046975970268249512e-01,9.050499200820922852e-01,9.049144983291625977e-01,9.047454595565795898e-01,9.051623344421386719e-01,9.053678512573242188e-01,9.053521156311035156e-01,9.053109288215637207e-01,9.053322076797485352e-01,9.053317904472351074e-01,9.053285121917724609e-01,9.053297042846679688e-01,9.053521156311035156e-01,9.053734540939331055e-01,9.051622152328491211e-01,9.045442342758178711e-01,9.034072160720825195e-01,9.016525745391845703e-01,8.990793824195861816e-01,8.949804306030273438e-01,8.886837959289550781e-01,8.802216649055480957e-01,8.708678483963012695e-01,8.579214811325073242e-01,8.293304443359375000e-01,8.083239793777465820e-01,8.007228374481201172e-01,7.747272253036499023e-01,7.220842838287353516e-01,6.160888671875000000e-01
5.886569619178771973e-01,6.141977906227111816e-01,6.568110585212707520e-01,6.576240658760070801e-01,6.811697483062744141e-01,7.053948044776916504e-01,7.417623996734619141e-01,7.631659507751464844e-01,7.839329242706298828e-01,8.025593757629394531e-01,8.203303813934326172e-01,8.367983102798461914e-01,8.517256975173950195e-01,8.650184869766235352e-01,8.766146302223205566e-01,8.860652446746826172e-01,8.929986953735351562e-01,8.982347249984741211e-01,9.015420079231262207e-01,9.043636322021484375e-01,9.043185710906982422e-01,9.051201343536376953e-01,9.023806452751159668e-01,8.967463970184326172e-01,8.973348736763000488e-01,8.878395557403564453e-01,8.700011968612670898e-01,8.581143021583557129e-01,8.262141346931457520e-01,7.642396688461303711e-01,6.787985563278198242e-01,5.200225710868835449e-01,4.342622756958007812e-01,3.855984508991241455e-01,3.575665354728698730e-01,3.501892089843750000e-01,3.699803352355957031e-01,4.233326613903045654e-01,5.050675272941589355e-01,6.344588994979858398e-01,7.308747768402099609e-01,7.976853847503662109e-01,8.442759513854980469e-01,8.719266057014465332e-01,8.900763988494873047e-01,9.007124900817871094e-01,9.030283689498901367e-01,9.049739837646484375e-01,9.053491950035095215e-01,9.056123495101928711e-01,9.054677486419677734e-01,9.052580595016479492e-01,9.052590131759643555e-01,9.053816199302673340e-01,9.053032398223876953e-01,9.053029417991638184e-01,9.053287506103515625e-01,9.053306579589843750e-01,9.053288698196411133e-01,9.053288698196411133e-01,9.053285121917724609e-01,9.053297042846679688e-01,9.053519964218139648e-01,9.053734540939331055e-01,9.051623344421386719e-01,9.045448303222656250e-01,9.034084677696228027e-01,9.016543626785278320e-01,8.990821838378906250e-01,8.949848413467407227e-01,8.886903524398803711e-01,8.802306652069091797e-01,8.708783388137817383e-01,8.579339981079101562e-01,8.293455839157104492e-01,8.083410263061523438e-01,8.007396459579467773e-01,7.747436761856079102e-01,7.220978140830993652e-01,6.160982251167297363e-01
5.886484384536743164e-01,6.141836643218994141e-01,6.567945480346679688e-01,6.576046943664550781e-01,6.811486482620239258e-01,7.053737640380859375e-01,7.417413592338562012e-01,7.631453275680541992e-01,7.839129567146301270e-01,8.025406599044799805e-01,8.203132748603820801e-01,8.367831110954284668e-01,8.517124652862548828e-01,8.650069236755371094e-01,8.766028285026550293e-01,8.860696554183959961e-01,8.930193781852722168e-01,8.978320956230163574e-01,9.015370011329650879e-01,9.032452106475830078e-01,9.040033817291259766e-01,9.050198793411254883e-01,9.014578461647033691e-01,8.973222970962524414e-01,8.996461629867553711e-01,8.835169076919555664e-01,8.678570985794067383e-01,8.555717468261718750e-01,8.169872760772705078e-01,7.434699535369873047e-01,6.340215802192687988e-01,5.131688117980957031e-01,4.198655188083648682e-01,3.689105510711669922e-01,3.472927808761596680e-01,3.447961807250976562e-01,3.676552772521972656e-01,4.189082086086273193e-01,5.060853958129882812e-01,6.340228319168090820e-01,7.335637211799621582e-01,8.002742528915405273e-01,8.474255800247192383e-01,8.725986480712890625e-01,8.901438713073730469e-01,9.000799655914306641e-01,9.035396575927734375e-01,9.052000045776367188e-01,9.052950143814086914e-01,9.052768945693969727e-01,9.052803516387939453e-01,9.053282141685485840e-01,9.053599834442138672e-01,9.053514003753662109e-01,9.053373336791992188e-01,9.053269624710083008e-01,9.053313136100769043e-01,9.053262472152709961e-01,9.053255319595336914e-01,9.053275585174560547e-01,9.053285121917724609e-01,9.053297042846679688e-01,9.053521156311035156e-01,9.053734540939331055e-01,9.051626920700073242e-01,9.045454859733581543e-01,9.034095406532287598e-01,9.016562700271606445e-01,8.990845680236816406e-01,8.949891328811645508e-01,8.886970281600952148e-01,8.802393078804016113e-01,8.708888292312622070e-01,8.579465746879577637e-01,8.293608427047729492e-01,8.083577156066894531e-01,8.007564544677734375e-01,7.747598886489868164e-01,7.221112251281738281e-01,6.161075830459594727e-01
5.886401534080505371e-01,6.141700744628906250e-01,6.567783951759338379e-01,6.575859785079956055e-01,6.811277866363525391e-01,7.053521871566772461e-01,7.417197823524475098e-01,7.631241679191589355e-01,7.838923335075378418e-01,8.025205731391906738e-01,8.202946782112121582e-01,8.367666006088256836e-01,8.516983985900878906e-01,8.649947643280029297e-01,8.765966892242431641e-01,8.860813975334167480e-01,8.930776119232177734e-01,8.978589773178100586e-01,9.012030363082885742e-01,9.033887982368469238e-01,9.048436880111694336e-01,9.050205945968627930e-01,9.020923376083374023e-01,8.982777595520019531e-01,8.940701484680175781e-01,8.788709044456481934e-01,8.674589395523071289e-01,8.508380651473999023e-01,7.943025827407836914e-01,7.120313048362731934e-01,5.847011208534240723e-01,4.780994355678558350e-01,4.065928161144256592e-01,3.629651069641113281e-01,3.354626595973968506e-01,3.303713798522949219e-01,3.566896915435791016e-01,4.169034659862518311e-01,5.095033049583435059e-01,6.360435485839843750e-01,7.362485527992248535e-01,8.026142120361328125e-01,8.484562635421752930e-01,8.735284805297851562e-01,8.903918266296386719e-01,9.007247686386108398e-01,9.039988517761230469e-01,9.052044153213500977e-01,9.053373336791992188e-01,9.053286314010620117e-01,9.053235054016113281e-01,9.053255319595336914e-01,9.053359031677246094e-01,9.053342342376708984e-01,9.053316712379455566e-01,9.053294658660888672e-01,9.053284525871276855e-01,9.053273797035217285e-01,9.053288102149963379e-01,9.053285121917724609e-01,9.053285121917724609e-01,9.053297042846679688e-01,9.053519964218139648e-01,9.053734540939331055e-01,9.051627516746520996e-01,9.045461416244506836e-01,9.034107327461242676e-01,9.016579985618591309e-01,8.990875482559204102e-01,8.949933052062988281e-01,8.887036442756652832e-01,8.802484273910522461e-01,8.708992004394531250e-01,8.579590320587158203e-01,8.293759226799011230e-01,8.083744049072265625e-01,8.007731437683105469e-01,7.747761011123657227e-01,7.221243977546691895e-01,6.161168217658996582e-01
5.886322259902954102e-01,6.141571402549743652e-01,6.567631959915161133e-01,6.575680375099182129e-01,6.811075806617736816e-01,7.053313851356506348e-01,7.416986227035522461e-01,7.631027698516845703e-01,7.838711738586425781e-01,8.024999499320983887e-01,8.202751874923706055e-01,8.367488384246826172e-01,8.516821265220642090e-01,8.649806976318359375e-01,8.765847682952880859e-01,8.860765695571899414e-01,8.930209875106811523e-01,8.978146314620971680e-01,9.008862972259521484e-01,9.029976129531860352e-01,9.045341014862060547e-01,9.047183990478515625e-01,9.021507501602172852e-01,8.991948366165161133e-01,8.875916004180908203e-01,8.717745542526245117e-01,8.589367866516113281e-01,8.318009376525878906e-01,7.732186317443847656e-01,6.698452234268188477e-01,5.566202998161315918e-01,4.489991962909698486e-01,3.863279223442077637e-01,3.472343087196350098e-01,3.201087713241577148e-01,3.205513656139373779e-01,3.570181727409362793e-01,4.119135141372680664e-01,5.092052817344665527e-01,6.402021050453186035e-01,7.406711578369140625e-01,8.043211102485656738e-01,8.500487804412841797e-01,8.765544891357421875e-01,8.909863233566284180e-01,9.004366993904113770e-01,9.039231538772583008e-01,9.052243232727050781e-01,9.053014516830444336e-01,9.053308963775634766e-01,9.053261280059814453e-01,9.053261280059814453e-01,9.053260684013366699e-01,9.053260684013366699e-01,9.053260684013366699e-01,9.053261280059814453e-01,9.053260684013366699e-01,9.053261280059814453e-01,9.053260684013366699e-01,9.053260087966918945e-01,9.053262472152709961e-01,9.053274393081665039e-01,9.053497314453125000e-01,9.053710699081420898e-01,9.051607847213745117e-01,9.045447111129760742e-01,9.034100770950317383e-01,9.016582369804382324e-01,8.990882635116577148e-01,8.949957489967346191e-01,8.887081146240234375e-01,8.802560567855834961e-01,8.709087371826171875e-01,8.579709529876708984e-01,8.293906450271606445e-01,8.083909749984741211e-01,8.007897138595581055e-01,7.747920751571655273e-01,7.221376299858093262e-01,6.161260008811950684e-01
5.886241197586059570e-01,6.141441464424133301e-01,6.567474603652954102e-01,6.575497388839721680e-01,6.810860633850097656e-01,7.053078413009643555e-01,7.416738271713256836e-01,7.630773782730102539e-01,7.838449478149414062e-01,8.024731874465942383e-01,8.202493190765380859e-01,8.367241621017456055e-01,8.516589403152465820e-01,8.649591207504272461e-01,8.765670061111450195e-01,8.860655426979064941e-01,8.930457234382629395e-01,8.977364301681518555e-01,9.009895324707031250e-01,9.032531976699829102e-01,9.041472673416137695e-01,9.040808677673339844e-01,9.022142887115478516e-01,8.951871991157531738e-01,8.838312029838562012e-01,8.688114881515502930e-01,8.538469076156616211e-01,8.182438015937805176e-01,7.360500097274780273e-01,6.330226063728332520e-01,4.951328933238983154e-01,4.406161606311798096e-01,3.736374676227569580e-01,3.418793678283691406e-01,3.096957802772521973e-01,3.078726828098297119e-01,3.608131110668182373e-01,4.187802672386169434e-01,5.151584148406982422e-01,6.386317610740661621e-01,7.425225377082824707e-01,8.045284748077392578e-01,8.514003753662109375e-01,8.773771524429321289e-01,8.911432027816772461e-01,9.006651639938354492e-01,9.047062397003173828e-01,9.052634239196777344e-01,9.053657054901123047e-01,9.053252339363098145e-01,9.053214192390441895e-01,9.053214192390441895e-01,9.053214192390441895e-01,9.053215384483337402e-01,9.053215980529785156e-01,9.053215980529785156e-01,9.053217172622680664e-01,9.053217172622680664e-01,9.053217768669128418e-01,9.053217768669128418e-01,9.053220748901367188e-01,9.053232073783874512e-01,9.053454995155334473e-01,9.053670167922973633e-01,9.051569104194641113e-01,9.045403003692626953e-01,9.034063220024108887e-01,9.016551971435546875e-01,8.990851640701293945e-01,8.949920535087585449e-01,8.887051343917846680e-01,8.802533149719238281e-01,8.709067106246948242e-01,8.579729795455932617e-01,8.293964862823486328e-01,8.083994388580322266e-01,8.007988333702087402e-01,7.747999429702758789e-01,7.221418619155883789e-01,6.161285042762756348e-01
5.886117815971374512e-01,6.141277551651000977e-01,6.567279696464538574e-01,6.575312018394470215e-01,6.810673475265502930e-01,7.052873969078063965e-01,7.416552901268005371e-01,7.630636692047119141e-01,7.838369011878967285e-01,8.024721145629882812e-01,8.202586174011230469e-01,8.367468714714050293e-01,8.517017364501953125e-01,8.650193214416503906e-01,8.766287565231323242e-01,8.861178159713745117e-01,8.930883407592773438e-01,8.977894783020019531e-01,9.010697603225708008e-01,9.033607840538024902e-01,9.040371775627136230e-01,9.038776159286499023e-01,9.018325805664062500e-01,8.905634880065917969e-01,8.762495517730712891e-01,8.633128404617309570e-01,8.439494371414184570e-01,8.069828152656555176e-01,7.037583589553833008e-01,5.982722640037536621e-01,4.846267700195312500e-01,4.177044928073883057e-01,3.662489652633666992e-01,3.204295635223388672e-01,3.095710873603820801e-01,3.120210766792297363e-01,3.492950499057769775e-01,4.259369671344757080e-01,5.169673562049865723e-01,6.327103376388549805e-01,7.447624206542968750e-01,8.040479421615600586e-01,8.494095206260681152e-01,8.757123351097106934e-01,8.910458087921142578e-01,9.003267288208007812e-01,9.047228693962097168e-01,9.052863121032714844e-01,9.054753184318542480e-01,9.054014682769775391e-01,9.053950309753417969e-01,9.053952693939208984e-01,9.053956270217895508e-01,9.053957462310791016e-01,9.053959846496582031e-01,9.053962826728820801e-01,9.053966403007507324e-01,9.053969383239746094e-01,9.053971767425537109e-01,9.053972959518432617e-01,9.053978919982910156e-01,9.053995013236999512e-01,9.054225683212280273e-01,9.054447412490844727e-01,9.052376151084899902e-01,9.046199321746826172e-01,9.034807682037353516e-01,9.017142057418823242e-01,8.991347551345825195e-01,8.950434923171997070e-01,8.887711763381958008e-01,8.803313970565795898e-01,8.709965944290161133e-01,8.580461740493774414e-01,8.294645547866821289e-01,8.084481954574584961e-01,8.008313179016113281e-01,7.748208045959472656e-01,7.221422195434570312e-01,6.161292791366577148e-01
5.886179804801940918e-01,6.141348481178283691e-01,6.567322611808776855e-01,6.575458645820617676e-01,6.810923814773559570e-01,7.053461074829101562e-01,7.417646646499633789e-01,7.632209062576293945e-01,7.840198874473571777e-01,8.026666045188903809e-01,8.204538822174072266e-01,8.369386792182922363e-01,8.518705368041992188e-01,8.651564121246337891e-01,8.767379522323608398e-01,8.861938714981079102e-01,8.931594491004943848e-01,8.978929519653320312e-01,9.011927843093872070e-01,9.034166336059570312e-01,9.040385484695434570e-01,9.043382406234741211e-01,8.990927934646606445e-01,8.886983394622802734e-01,8.711773753166198730e-01,8.616240024566650391e-01,8.389308452606201172e-01,7.780736684799194336e-01,6.977383494377136230e-01,5.477136373519897461e-01,4.746835529804229736e-01,4.120230674743652344e-01,3.803601562976837158e-01,3.345569372177124023e-01,2.989379763603210449e-01,3.253452181816101074e-01,3.573626577854156494e-01,4.368228614330291748e-01,5.075160861015319824e-01,6.275557875633239746e-01,7.397731542587280273e-01,8.115361928939819336e-01,8.473981618881225586e-01,8.733386993408203125e-01,8.917137384414672852e-01,9.003787040710449219e-01,9.045640230178833008e-01,9.052865505218505859e-01,9.054886102676391602e-01,9.054701328277587891e-01,9.054688811302185059e-01,9.054679870605468750e-01,9.054670333862304688e-01,9.054661989212036133e-01,9.054653644561767578e-01,9.054644703865051270e-01,9.054634571075439453e-01,9.054626226425170898e-01,9.054619073867797852e-01,9.054608941078186035e-01,9.054605960845947266e-01,9.054610729217529297e-01,9.054840803146362305e-01,9.055072069168090820e-01,9.053020477294921875e-01,9.046815633773803711e-01,9.035501480102539062e-01,9.017889499664306641e-01,8.992089033126831055e-01,8.951136469841003418e-01,8.888940811157226562e-01,8.804662823677062988e-01,8.711233735084533691e-01,8.582096099853515625e-01,8.296955227851867676e-01,8.086965084075927734e-01,8.010894060134887695e-01,7.750704288482666016e-01,7.224276661872863770e-01,6.165234446525573730e-01
5.888016223907470703e-01,6.143115758895874023e-01,6.569855213165283203e-01,6.578010320663452148e-01,6.813389062881469727e-01,7.055060863494873047e-01,7.418472766876220703e-01,7.632269859313964844e-01,7.838838696479797363e-01,8.024013042449951172e-01,8.200695514678955078e-01,8.364218473434448242e-01,8.512635231018066406e-01,8.644666671752929688e-01,8.759484291076660156e-01,8.853856325149536133e-01,8.923832774162292480e-01,8.971037864685058594e-01,9.003843665122985840e-01,9.026279449462890625e-01,9.033957123756408691e-01,9.029690027236938477e-01,8.961135149002075195e-01,8.821021318435668945e-01,8.666503429412841797e-01,8.578894734382629395e-01,8.242595195770263672e-01,7.622967958450317383e-01,6.786151528358459473e-01,5.530969500541687012e-01,4.684008657932281494e-01,4.120311737060546875e-01,3.920211791992187500e-01,3.466838598251342773e-01,3.197853565216064453e-01,3.201171159744262695e-01,3.641591072082519531e-01,4.400378763675689697e-01,5.105211138725280762e-01,6.181318163871765137e-01,7.262636423110961914e-01,7.990796566009521484e-01,8.460034132003784180e-01,8.722453117370605469e-01,8.883177042007446289e-01,8.981156349182128906e-01,9.027745127677917480e-01,9.044641256332397461e-01,9.045914411544799805e-01,9.046227335929870605e-01,9.046157598495483398e-01,9.046148061752319336e-01,9.046138525009155273e-01,9.046130180358886719e-01,9.046120643615722656e-01,9.046112298965454102e-01,9.046102762222290039e-01,9.046093225479125977e-01,9.046083688735961914e-01,9.046075344085693359e-01,9.046068191528320312e-01,9.046076536178588867e-01,9.046276211738586426e-01,9.046607017517089844e-01,9.044566154479980469e-01,9.038789272308349609e-01,9.027746915817260742e-01,9.010076522827148438e-01,8.984278440475463867e-01,8.943617343902587891e-01,8.880726695060729980e-01,8.796484470367431641e-01,8.703291416168212891e-01,8.574470281600952148e-01,8.288393616676330566e-01,8.078458309173583984e-01,8.004524111747741699e-01,7.742123603820800781e-01,7.216137647628784180e-01,6.159949302673339844e-01
5.891577005386352539e-01,6.141803860664367676e-01,6.566536426544189453e-01,6.571516990661621094e-01,6.804432868957519531e-01,7.042940258979797363e-01,7.404215335845947266e-01,7.615294456481933594e-01,7.820325493812561035e-01,8.004182577133178711e-01,8.180020451545715332e-01,8.343546390533447266e-01,8.493281602859497070e-01,8.627439737319946289e-01,8.744817972183227539e-01,8.841427564620971680e-01,8.912259340286254883e-01,8.960127830505371094e-01,8.993991613388061523e-01,9.014533162117004395e-01,9.021011590957641602e-01,9.013326764106750488e-01,8.922186493873596191e-01,8.777595162391662598e-01,8.679506182670593262e-01,8.564078807830810547e-01,8.149668574333190918e-01,7.611023783683776855e-01,6.370589137077331543e-01,5.212375521659851074e-01,4.880642890930175781e-01,4.419350326061248779e-01,4.238159060478210449e-01,3.661742806434631348e-01,3.497620224952697754e-01,3.405047655105590820e-01,3.786034584045410156e-01,4.301488995552062988e-01,5.093896985054016113e-01,6.004872918128967285e-01,7.168312668800354004e-01,7.847710847854614258e-01,8.397787809371948242e-01,8.691698312759399414e-01,8.861036896705627441e-01,8.947811126708984375e-01,9.011942148208618164e-01,9.032259583473205566e-01,9.036439061164855957e-01,9.037168025970458984e-01,9.036978483200073242e-01,9.036968946456909180e-01,9.036958217620849609e-01,9.036947488784790039e-01,9.036936163902282715e-01,9.036926031112670898e-01,9.036915302276611328e-01,9.036905765533447266e-01,9.036895036697387695e-01,9.036884903907775879e-01,9.036877155303955078e-01,9.036874771118164062e-01,9.037036895751953125e-01,9.037330746650695801e-01,9.035474061965942383e-01,9.029991626739501953e-01,9.019615650177001953e-01,9.002492427825927734e-01,8.976993560791015625e-01,8.936418294906616211e-01,8.874081373214721680e-01,8.790712952613830566e-01,8.698107600212097168e-01,8.568360209465026855e-01,8.282471299171447754e-01,8.071000576019287109e-01,7.996379733085632324e-01,7.733823060989379883e-01,7.204566001892089844e-01,6.144736409187316895e-01
5.884082913398742676e-01,6.125021576881408691e-01,6.548572778701782227e-01,6.552615165710449219e-01,6.780964136123657227e-01,7.014930844306945801e-01,7.376146316528320312e-01,7.587716579437255859e-01,7.793215513229370117e-01,7.977046966552734375e-01,8.152700066566467285e-01,8.317416906356811523e-01,8.468412756919860840e-01,8.603419065475463867e-01,8.721710443496704102e-01,8.818706274032592773e-01,8.891115188598632812e-01,8.941357135772705078e-01,8.976691961288452148e-01,8.995137810707092285e-01,9.005414247512817383e-01,8.990557789802551270e-01,8.879051804542541504e-01,8.721912503242492676e-01,8.649209141731262207e-01,8.411023020744323730e-01,8.144961595535278320e-01,7.408720850944519043e-01,6.194723844528198242e-01,5.298926234245300293e-01,5.117582082748413086e-01,4.890828430652618408e-01,4.429415166378021240e-01,4.145310819149017334e-01,3.600762486457824707e-01,3.647508919239044189e-01,3.918292522430419922e-01,4.338446855545043945e-01,4.936975538730621338e-01,5.937262177467346191e-01,6.939111948013305664e-01,7.674340009689331055e-01,8.244267702102661133e-01,8.631345629692077637e-01,8.786451816558837891e-01,8.903806805610656738e-01,8.986371755599975586e-01,9.012265205383300781e-01,9.017308950424194336e-01,9.018443822860717773e-01,9.018260240554809570e-01,9.018199443817138672e-01,9.018139839172363281e-01,9.018078446388244629e-01,9.018019437789916992e-01,9.017957448959350586e-01,9.017896056175231934e-01,9.017835855484008789e-01,9.017776250839233398e-01,9.017715454101562500e-01,9.017654657363891602e-01,9.017602205276489258e-01,9.017739892005920410e-01,9.017990231513977051e-01,9.016252756118774414e-01,9.011560082435607910e-01,9.001960158348083496e-01,8.985985517501831055e-01,8.961424827575683594e-01,8.921515941619873047e-01,8.860794305801391602e-01,8.775854110717773438e-01,8.682904243469238281e-01,8.554378747940063477e-01,8.269644975662231445e-01,8.060613870620727539e-01,7.985014915466308594e-01,7.719285488128662109e-01,7.191729545593261719e-01,6.126990318298339844e-01
5.864672064781188965e-01,6.097784638404846191e-01,6.518777608871459961e-01,6.520058512687683105e-01,6.745825409889221191e-01,6.974252462387084961e-01,7.329917550086975098e-01,7.536314129829406738e-01,7.735039591789245605e-01,7.914423942565917969e-01,8.087489008903503418e-01,8.249927759170532227e-01,8.399550914764404297e-01,8.535102009773254395e-01,8.654159307479858398e-01,8.752062320709228516e-01,8.825140595436096191e-01,8.875685930252075195e-01,8.912065625190734863e-01,8.930455446243286133e-01,8.945319652557373047e-01,8.915247917175292969e-01,8.811568021774291992e-01,8.668105602264404297e-01,8.600441217422485352e-01,8.243238925933837891e-01,7.979533076286315918e-01,7.301579713821411133e-01,5.916657447814941406e-01,5.451886057853698730e-01,5.234483480453491211e-01,5.384621024131774902e-01,4.678321182727813721e-01,4.432285428047180176e-01,3.840220272541046143e-01,3.714078664779663086e-01,4.010276496410369873e-01,4.381065070629119873e-01,4.922174811363220215e-01,5.687209963798522949e-01,6.669465303421020508e-01,7.442502379417419434e-01,8.045133948326110840e-01,8.470604419708251953e-01,8.690465688705444336e-01,8.826864361763000488e-01,8.909512758255004883e-01,8.946290016174316406e-01,8.951996564865112305e-01,8.953057527542114258e-01,8.952822089195251465e-01,8.952729701995849609e-01,8.952639698982238770e-01,8.952548503875732422e-01,8.952457308769226074e-01,8.952366113662719727e-01,8.952275514602661133e-01,8.952183723449707031e-01,8.952094316482543945e-01,8.952001929283142090e-01,8.951909542083740234e-01,8.951820135116577148e-01,8.951907753944396973e-01,8.952080011367797852e-01,8.950728178024291992e-01,8.946235179901123047e-01,8.938137292861938477e-01,8.923472166061401367e-01,8.900232315063476562e-01,8.861775398254394531e-01,8.802834749221801758e-01,8.720714449882507324e-01,8.626421093940734863e-01,8.496447801589965820e-01,8.213563561439514160e-01,8.010392785072326660e-01,7.939147949218750000e-01,7.675362825393676758e-01,7.151716947555541992e-01,6.077075600624084473e-01
5.825381278991699219e-01,6.038829088211059570e-01,6.454451680183410645e-01,6.448016166687011719e-01,6.661980152130126953e-01,6.881843209266662598e-01,7.229015827178955078e-01,7.430782914161682129e-01,7.622795104980468750e-01,7.793442606925964355e-01,7.960614562034606934e-01,8.119971156120300293e-01,8.270338177680969238e-01,8.408882021903991699e-01,8.531079888343811035e-01,8.633354902267456055e-01,8.711316585540771484e-01,8.765174150466918945e-01,8.802816867828369141e-01,8.823339939117431641e-01,8.839289546012878418e-01,8.788496255874633789e-01,8.677629828453063965e-01,8.550641536712646484e-01,8.444353342056274414e-01,8.123202919960021973e-01,7.750992774963378906e-01,6.938350796699523926e-01,5.856735110282897949e-01,5.574871301651000977e-01,5.528663396835327148e-01,5.326964855194091797e-01,5.151513814926147461e-01,4.642914533615112305e-01,3.893761634826660156e-01,3.757565617561340332e-01,4.070409536361694336e-01,4.360213279724121094e-01,4.897763729095458984e-01,5.243028402328491211e-01,6.393094062805175781e-01,7.195240855216979980e-01,7.797125577926635742e-01,8.281462788581848145e-01,8.537818193435668945e-01,8.699377179145812988e-01,8.798190951347351074e-01,8.833765983581542969e-01,8.842048048973083496e-01,8.842358589172363281e-01,8.841940164566040039e-01,8.841732740402221680e-01,8.841533660888671875e-01,8.841330409049987793e-01,8.841127157211303711e-01,8.840925097465515137e-01,8.840723037719726562e-01,8.840520977973937988e-01,8.840318918228149414e-01,8.840117454528808594e-01,8.839912414550781250e-01,8.839712142944335938e-01,8.839819431304931641e-01,8.840271830558776855e-01,8.839002847671508789e-01,8.835504055023193359e-01,8.828678131103515625e-01,8.814005851745605469e-01,8.790480494499206543e-01,8.753573894500732422e-01,8.695259690284729004e-01,8.616420626640319824e-01,8.525912165641784668e-01,8.395683765411376953e-01,8.107866048812866211e-01,7.916771173477172852e-01,7.853845357894897461e-01,7.605769634246826172e-01,7.071913480758666992e-01,6.017367243766784668e-01
5.753741264343261719e-01,5.940443277359008789e-01,6.345351934432983398e-01,6.318073868751525879e-01,6.512068510055541992e-01,6.719571948051452637e-01,7.057638764381408691e-01,7.251148819923400879e-01,7.435632944107055664e-01,7.599271535873413086e-01,7.757308483123779297e-01,7.908979654312133789e-01,8.055436611175537109e-01,8.189384937286376953e-01,8.307867050170898438e-01,8.406680226325988770e-01,8.480914235115051270e-01,8.534242510795593262e-01,8.571628332138061523e-01,8.597679138183593750e-01,8.603067994117736816e-01,8.547482490539550781e-01,8.419599533081054688e-01,8.324027061462402344e-01,8.157933354377746582e-01,7.884653210639953613e-01,7.519978284835815430e-01,6.260589361190795898e-01,5.843778252601623535e-01,5.670311450958251953e-01,5.722682476043701172e-01,5.487640500068664551e-01,5.265395045280456543e-01,4.820546507835388184e-01,4.010932743549346924e-01,3.865904211997985840e-01,4.087892770767211914e-01,4.120645225048065186e-01,4.574541151523590088e-01,5.006812810897827148e-01,6.013265848159790039e-01,6.862083077430725098e-01,7.431719303131103516e-01,7.968410253524780273e-01,8.276529312133789062e-01,8.440501689910888672e-01,8.560712337493896484e-01,8.591464757919311523e-01,8.603204488754272461e-01,8.603862524032592773e-01,8.603192567825317383e-01,8.602819442749023438e-01,8.602439761161804199e-01,8.602074384689331055e-01,8.601703643798828125e-01,8.601334691047668457e-01,8.600963354110717773e-01,8.600595593452453613e-01,8.600225448608398438e-01,8.599855899810791016e-01,8.599485158920288086e-01,8.599104285240173340e-01,8.599152565002441406e-01,8.599482774734497070e-01,8.597975969314575195e-01,8.595303893089294434e-01,8.591280579566955566e-01,8.579444885253906250e-01,8.558912277221679688e-01,8.521274328231811523e-01,8.465057611465454102e-01,8.387131094932556152e-01,8.299944400787353516e-01,8.169835805892944336e-01,7.877262830734252930e-01,7.699975371360778809e-01,7.670516967773437500e-01,7.438976168632507324e-01,6.925548315048217773e-01,5.922717452049255371e-01
5.643816590309143066e-01,5.786234140396118164e-01,6.173469424247741699e-01,6.113585233688354492e-01,6.278066635131835938e-01,6.468139290809631348e-01,6.787369847297668457e-01,6.960884332656860352e-01,7.121254205703735352e-01,7.261294126510620117e-01,7.397775650024414062e-01,7.531900405883789062e-01,7.665072679519653320e-01,7.789276838302612305e-01,7.898095846176147461e-01,7.990613579750061035e-01,8.064055442810058594e-01,8.116850852966308594e-01,8.152990341186523438e-01,8.180522918701171875e-01,8.173955678939819336e-01,8.080575466156005859e-01,7.951535582542419434e-01,7.890401482582092285e-01,7.650839090347290039e-01,7.362431287765502930e-01,6.806504130363464355e-01,5.772651433944702148e-01,5.564773082733154297e-01,5.772355198860168457e-01,5.525824427604675293e-01,5.507362484931945801e-01,5.372250080108642578e-01,4.740823209285736084e-01,4.184188246726989746e-01,3.818513154983520508e-01,3.929708302021026611e-01,3.921750783920288086e-01,4.242891073226928711e-01,4.678614437580108643e-01,5.540676116943359375e-01,6.339293122291564941e-01,6.918575763702392578e-01,7.441882491111755371e-01,7.823778390884399414e-01,7.999825477600097656e-01,8.119357824325561523e-01,8.161463141441345215e-01,8.173513412475585938e-01,8.174457550048828125e-01,8.173750638961791992e-01,8.173055648803710938e-01,8.172429203987121582e-01,8.171835541725158691e-01,8.171240091323852539e-01,8.170640468597412109e-01,8.170052766799926758e-01,8.169466257095336914e-01,8.168879151344299316e-01,8.168288469314575195e-01,8.167700767517089844e-01,8.167099356651306152e-01,8.167022466659545898e-01,8.166744709014892578e-01,8.164799213409423828e-01,8.160732984542846680e-01,8.156163692474365234e-01,8.143047094345092773e-01,8.124358654022216797e-01,8.094887733459472656e-01,8.042690753936767578e-01,7.970108389854431152e-01,7.894058823585510254e-01,7.773696184158325195e-01,7.478988170623779297e-01,7.329807281494140625e-01,7.344079017639160156e-01,7.134118080139160156e-01,6.685246825218200684e-01,5.795578956604003906e-01
5.498367547988891602e-01,5.541193485260009766e-01,5.890453457832336426e-01,5.790385007858276367e-01,5.922487974166870117e-01,6.085588932037353516e-01,6.381742358207702637e-01,6.527655124664306641e-01,6.666601896286010742e-01,6.783942580223083496e-01,6.898023486137390137e-01,7.009346485137939453e-01,7.119196653366088867e-01,7.217573523521423340e-01,7.305909991264343262e-01,7.382041215896606445e-01,7.439072728157043457e-01,7.478791475296020508e-01,7.504882216453552246e-01,7.533599138259887695e-01,7.509092688560485840e-01,7.389396429061889648e-01,7.244486808776855469e-01,7.223260402679443359e-01,6.887051463127136230e-01,6.733838915824890137e-01,6.036770343780517578e-01,5.295612812042236328e-01,5.288298726081848145e-01,5.308097004890441895e-01,5.367122888565063477e-01,5.137453675270080566e-01,5.166780948638916016e-01,4.734353125095367432e-01,4.114523530006408691e-01,3.823813199996948242e-01,3.584592938423156738e-01,3.772161602973937988e-01,3.918220698833465576e-01,4.401634931564331055e-01,5.085951685905456543e-01,5.778485536575317383e-01,6.248813271522521973e-01,6.737909317016601562e-01,7.126256227493286133e-01,7.349665164947509766e-01,7.449461817741394043e-01,7.483918666839599609e-01,7.500928044319152832e-01,7.502863407135009766e-01,7.501984238624572754e-01,7.501095533370971680e-01,7.500187754631042480e-01,7.499303221702575684e-01,7.498338818550109863e-01,7.497492432594299316e-01,7.496675252914428711e-01,7.495846748352050781e-01,7.495023012161254883e-01,7.494201660156250000e-01,7.493368387222290039e-01,7.492507100105285645e-01,7.492259144783020020e-01,7.491474151611328125e-01,7.489935159683227539e-01,7.487123012542724609e-01,7.481976151466369629e-01,7.468094825744628906e-01,7.445456385612487793e-01,7.411808371543884277e-01,7.364865541458129883e-01,7.301318645477294922e-01,7.241382598876953125e-01,7.128705978393554688e-01,6.834308505058288574e-01,6.726995706558227539e-01,6.816002130508422852e-01,6.628335714340209961e-01,6.335855722427368164e-01,5.563664436340332031e-01
5.325878262519836426e-01,5.238319635391235352e-01,5.546801686286926270e-01,5.387881398200988770e-01,5.466841459274291992e-01,5.595380067825317383e-01,5.837637186050415039e-01,5.949384570121765137e-01,6.054015159606933594e-01,6.135243773460388184e-01,6.215373873710632324e-01,6.294622421264648438e-01,6.371114850044250488e-01,6.439340114593505859e-01,6.500954627990722656e-01,6.548278927803039551e-01,6.580532789230346680e-01,6.604368686676025391e-01,6.620213985443115234e-01,6.646354198455810547e-01,6.593610644340515137e-01,6.494489312171936035e-01,6.368644237518310547e-01,6.337192058563232422e-01,5.926751494407653809e-01,5.684564709663391113e-01,5.174918770790100098e-01,4.787924587726593018e-01,4.874845147132873535e-01,4.730178117752075195e-01,5.070856809616088867e-01,4.843308329582214355e-01,4.656077325344085693e-01,4.335361719131469727e-01,3.998729884624481201e-01,3.558691143989562988e-01,3.318687677383422852e-01,3.447929620742797852e-01,3.647245764732360840e-01,4.021267294883728027e-01,4.549681544303894043e-01,5.142365097999572754e-01,5.507234334945678711e-01,5.921484231948852539e-01,6.245269179344177246e-01,6.448075175285339355e-01,6.554715037345886230e-01,6.592014431953430176e-01,6.603530645370483398e-01,6.601467132568359375e-01,6.602072715759277344e-01,6.602448225021362305e-01,6.601655483245849609e-01,6.601353287696838379e-01,6.600646972656250000e-01,6.599981784820556641e-01,6.599094271659851074e-01,6.598216891288757324e-01,6.597343087196350098e-01,6.596469283103942871e-01,6.595588922500610352e-01,6.594660282135009766e-01,6.594003438949584961e-01,6.593394279479980469e-01,6.591278314590454102e-01,6.589177846908569336e-01,6.585972309112548828e-01,6.574390530586242676e-01,6.554417014122009277e-01,6.522600650787353516e-01,6.490403413772583008e-01,6.442143321037292480e-01,6.403473019599914551e-01,6.306563615798950195e-01,6.031829118728637695e-01,5.958116054534912109e-01,6.114202737808227539e-01,5.966696143150329590e-01,5.878686904907226562e-01,5.268018841743469238e-01
5.116017460823059082e-01,4.894235432147979736e-01,5.142417550086975098e-01,4.909934699535369873e-01,4.925768971443176270e-01,5.011582374572753906e-01,5.197609066963195801e-01,5.277110338211059570e-01,5.348469614982604980e-01,5.396839380264282227e-01,5.445541739463806152e-01,5.496612787246704102e-01,5.546146631240844727e-01,5.589446425437927246e-01,5.625639557838439941e-01,5.652596950531005859e-01,5.675510168075561523e-01,5.691552162170410156e-01,5.703797936439514160e-01,5.721765756607055664e-01,5.660036802291870117e-01,5.568729043006896973e-01,5.519083738327026367e-01,5.455885529518127441e-01,5.148662924766540527e-01,4.887631833553314209e-01,4.463299810886383057e-01,4.441232979297637939e-01,4.302828609943389893e-01,4.426960349082946777e-01,4.526368081569671631e-01,4.432713091373443604e-01,4.186807870864868164e-01,3.918927311897277832e-01,3.829961419105529785e-01,3.337587118148803711e-01,3.179221153259277344e-01,3.139443397521972656e-01,3.355925381183624268e-01,3.614635765552520752e-01,4.046714603900909424e-01,4.494580626487731934e-01,4.802289009094238281e-01,5.089626312255859375e-01,5.363167524337768555e-01,5.547193288803100586e-01,5.644780993461608887e-01,5.661289095878601074e-01,5.678257942199707031e-01,5.681776404380798340e-01,5.683676004409790039e-01,5.679690837860107422e-01,5.678447484970092773e-01,5.678754448890686035e-01,5.678037405014038086e-01,5.677092671394348145e-01,5.676229596138000488e-01,5.675359368324279785e-01,5.674494504928588867e-01,5.673629641532897949e-01,5.672758221626281738e-01,5.671829581260681152e-01,5.670973062515258789e-01,5.670565962791442871e-01,5.670247673988342285e-01,5.669485330581665039e-01,5.667091608047485352e-01,5.661669373512268066e-01,5.646572113037109375e-01,5.622264742851257324e-01,5.591660141944885254e-01,5.555505156517028809e-01,5.536085963249206543e-01,5.454313755035400391e-01,5.213720798492431641e-01,5.172631740570068359e-01,5.382885336875915527e-01,5.279659628868103027e-01,5.396046042442321777e-01,4.964679181575775146e-01
4.905970692634582520e-01,4.557307362556457520e-01,4.713646173477172852e-01,4.409469962120056152e-01,4.362823367118835449e-01,4.406385421752929688e-01,4.540613889694213867e-01,4.581408202648162842e-01,4.624675214290618896e-01,4.647914767265319824e-01,4.673497080802917480e-01,4.701645672321319580e-01,4.729260802268981934e-01,4.755556285381317139e-01,4.778484404087066650e-01,4.795501828193664551e-01,4.808267056941986084e-01,4.817707240581512451e-01,4.829397201538085938e-01,4.829414188861846924e-01,4.789947569370269775e-01,4.725298583507537842e-01,4.712126553058624268e-01,4.607263803482055664e-01,4.410407543182373047e-01,4.179182350635528564e-01,3.890717625617980957e-01,3.962052762508392334e-01,3.850067853927612305e-01,4.046545624732971191e-01,4.136921465396881104e-01,4.084286987781524658e-01,3.795900642871856689e-01,3.677678108215332031e-01,3.474678397178649902e-01,3.107504844665527344e-01,2.930521965026855469e-01,2.980092167854309082e-01,3.100788593292236328e-01,3.243406414985656738e-01,3.544701337814331055e-01,3.893278837203979492e-01,4.110150635242462158e-01,4.351545572280883789e-01,4.556322693824768066e-01,4.682573080062866211e-01,4.753958582878112793e-01,4.785437881946563721e-01,4.802822172641754150e-01,4.806331396102905273e-01,4.799256622791290283e-01,4.802460968494415283e-01,4.803957939147949219e-01,4.803905785083770752e-01,4.802096188068389893e-01,4.801510572433471680e-01,4.800753295421600342e-01,4.800022840499877930e-01,4.799297451972961426e-01,4.798570573329925537e-01,4.797843396663665771e-01,4.797081351280212402e-01,4.796251356601715088e-01,4.795597493648529053e-01,4.795463979244232178e-01,4.795531630516052246e-01,4.794754683971405029e-01,4.793850779533386230e-01,4.788143336772918701e-01,4.777872562408447266e-01,4.768652915954589844e-01,4.753040075302124023e-01,4.752746820449829102e-01,4.694269895553588867e-01,4.494303762912750244e-01,4.481915533542633057e-01,4.717392027378082275e-01,4.687374234199523926e-01,4.949458837509155273e-01,4.690718650817871094e-01
4.694185256958007812e-01,4.224298894405364990e-01,4.285624027252197266e-01,3.950850963592529297e-01,3.841210901737213135e-01,3.856858611106872559e-01,3.961006999015808105e-01,3.990385532379150391e-01,4.020600914955139160e-01,4.032510519027709961e-01,4.044623374938964844e-01,4.056714475154876709e-01,4.066884815692901611e-01,4.076324701309204102e-01,4.084277749061584473e-01,4.090098738670349121e-01,4.096185863018035889e-01,4.100856184959411621e-01,4.108470976352691650e-01,4.097135066986083984e-01,4.067420363426208496e-01,4.039769172668457031e-01,4.042844474315643311e-01,3.912081122398376465e-01,3.812174201011657715e-01,3.634074330329895020e-01,3.568560183048248291e-01,3.538821339607238770e-01,3.544655442237854004e-01,3.601921796798706055e-01,3.636114895343780518e-01,3.625147044658660889e-01,3.445621132850646973e-01,3.363051414489746094e-01,3.257797360420227051e-01,2.949464917182922363e-01,2.807853221893310547e-01,2.797051668167114258e-01,2.904270291328430176e-01,2.956321239471435547e-01,3.199676871299743652e-01,3.422372639179229736e-01,3.544142842292785645e-01,3.715220987796783447e-01,3.871362507343292236e-01,3.971372544765472412e-01,4.012472331523895264e-01,4.064469337463378906e-01,4.078439176082611084e-01,4.081081151962280273e-01,4.081931710243225098e-01,4.084768891334533691e-01,4.084181189537048340e-01,4.082764983177185059e-01,4.083075523376464844e-01,4.082633256912231445e-01,4.082042276859283447e-01,4.081464707851409912e-01,4.080888628959655762e-01,4.080316424369812012e-01,4.079751074314117432e-01,4.079171419143676758e-01,4.078625738620758057e-01,4.078123271465301514e-01,4.077815115451812744e-01,4.077619910240173340e-01,4.077820479869842529e-01,4.076882600784301758e-01,4.073076546192169189e-01,4.064736366271972656e-01,4.056325852870941162e-01,4.045464396476745605e-01,4.051981568336486816e-01,4.015023410320281982e-01,3.856365680694580078e-01,3.876470625400543213e-01,4.134681820869445801e-01,4.176898300647735596e-01,4.559983611106872559e-01,4.460454285144805908e-01
4.513983130455017090e-01,3.938299119472503662e-01,3.929938673973083496e-01,3.573042154312133789e-01,3.413704037666320801e-01,3.406613469123840332e-01,3.481074869632720947e-01,3.498282432556152344e-01,3.515231609344482422e-01,3.519440591335296631e-01,3.524605929851531982e-01,3.529233038425445557e-01,3.534069657325744629e-01,3.538422882556915283e-01,3.541279435157775879e-01,3.542255461215972900e-01,3.542900681495666504e-01,3.541326522827148438e-01,3.544129729270935059e-01,3.535598516464233398e-01,3.521535992622375488e-01,3.513537645339965820e-01,3.506201505661010742e-01,3.408100605010986328e-01,3.351449966430664062e-01,3.261267840862274170e-01,3.195873498916625977e-01,3.176070451736450195e-01,3.157693743705749512e-01,3.309561610221862793e-01,3.310589194297790527e-01,3.322840332984924316e-01,3.182140886783599854e-01,3.065466880798339844e-01,2.977096140384674072e-01,2.794724404811859131e-01,2.656534314155578613e-01,2.655020356178283691e-01,2.697050571441650391e-01,2.752280235290527344e-01,2.905840277671813965e-01,3.053931593894958496e-01,3.136371374130249023e-01,3.225769996643066406e-01,3.334235548973083496e-01,3.391000032424926758e-01,3.458831906318664551e-01,3.492573499679565430e-01,3.506831526756286621e-01,3.508755564689636230e-01,3.518838882446289062e-01,3.524158596992492676e-01,3.524774312973022461e-01,3.524684906005859375e-01,3.524640202522277832e-01,3.524639606475830078e-01,3.524307012557983398e-01,3.523921072483062744e-01,3.523511290550231934e-01,3.523101806640625000e-01,3.522694706916809082e-01,3.522289395332336426e-01,3.521856069564819336e-01,3.521569967269897461e-01,3.521180152893066406e-01,3.520628213882446289e-01,3.520663380622863770e-01,3.521106243133544922e-01,3.520600795745849609e-01,3.519823253154754639e-01,3.517229855060577393e-01,3.512670993804931641e-01,3.521034717559814453e-01,3.494742512702941895e-01,3.362874388694763184e-01,3.391563296318054199e-01,3.653081953525543213e-01,3.756732642650604248e-01,4.224352240562438965e-01,4.258143305778503418e-01
4.349693059921264648e-01,3.689471185207366943e-01,3.612776994705200195e-01,3.251684904098510742e-01,3.061331510543823242e-01,3.047593832015991211e-01,3.108650743961334229e-01,3.122502565383911133e-01,3.134089112281799316e-01,3.134216070175170898e-01,3.134038448333740234e-01,3.133951425552368164e-01,3.134730756282806396e-01,3.135608732700347900e-01,3.135925531387329102e-01,3.136058747768402100e-01,3.135517239570617676e-01,3.134722411632537842e-01,3.136683702468872070e-01,3.131374120712280273e-01,3.128407001495361328e-01,3.126110434532165527e-01,3.102998733520507812e-01,3.042735159397125244e-01,3.006876111030578613e-01,2.987907230854034424e-01,2.958117723464965820e-01,2.928611338138580322e-01,2.923960685729980469e-01,2.978444397449493408e-01,3.027938008308410645e-01,3.027747869491577148e-01,2.928344011306762695e-01,2.860841155052185059e-01,2.778045535087585449e-01,2.692863643169403076e-01,2.546300292015075684e-01,2.533195912837982178e-01,2.523881494998931885e-01,2.578073740005493164e-01,2.666619420051574707e-01,2.777668237686157227e-01,2.820106148719787598e-01,2.882190644741058350e-01,2.942931652069091797e-01,2.987784147262573242e-01,3.024259209632873535e-01,3.058039247989654541e-01,3.083764314651489258e-01,3.108446896076202393e-01,3.117506206035614014e-01,3.115881383419036865e-01,3.120222091674804688e-01,3.122968673706054688e-01,3.124284744262695312e-01,3.123916685581207275e-01,3.123647570610046387e-01,3.123317956924438477e-01,3.123021721839904785e-01,3.122723698616027832e-01,3.122428357601165771e-01,3.122131526470184326e-01,3.121839165687561035e-01,3.121521472930908203e-01,3.121214807033538818e-01,3.120916783809661865e-01,3.120508790016174316e-01,3.119994401931762695e-01,3.119744658470153809e-01,3.118577599525451660e-01,3.117218613624572754e-01,3.115036189556121826e-01,3.122462928295135498e-01,3.104186654090881348e-01,2.992273867130279541e-01,3.025857210159301758e-01,3.288171887397766113e-01,3.441867530345916748e-01,3.968243300914764404e-01,4.101011157035827637e-01
4.212135374546051025e-01,3.491311669349670410e-01,3.364099860191345215e-01,2.999954521656036377e-01,2.791721820831298828e-01,2.769961357116699219e-01,2.819485068321228027e-01,2.831142544746398926e-01,2.839975357055664062e-01,2.838870286941528320e-01,2.838482856750488281e-01,2.838463187217712402e-01,2.838283479213714600e-01,2.838116288185119629e-01,2.837961912155151367e-01,2.837583720684051514e-01,2.837167382240295410e-01,2.836613655090332031e-01,2.837255001068115234e-01,2.834193706512451172e-01,2.836198508739471436e-01,2.835931777954101562e-01,2.821543216705322266e-01,2.790420055389404297e-01,2.766276597976684570e-01,2.742331624031066895e-01,2.741584479808807373e-01,2.717133164405822754e-01,2.732800841331481934e-01,2.753955721855163574e-01,2.796234786510467529e-01,2.785684466361999512e-01,2.748731076717376709e-01,2.680704593658447266e-01,2.626629471778869629e-01,2.534416317939758301e-01,2.469945847988128662e-01,2.412113249301910400e-01,2.430819571018218994e-01,2.450483143329620361e-01,2.463572323322296143e-01,2.544385790824890137e-01,2.573714852333068848e-01,2.643082737922668457e-01,2.658547163009643555e-01,2.696466445922851562e-01,2.730727791786193848e-01,2.766177654266357422e-01,2.779376804828643799e-01,2.801727056503295898e-01,2.807820439338684082e-01,2.818212509155273438e-01,2.824930548667907715e-01,2.828555107116699219e-01,2.828410863876342773e-01,2.828515172004699707e-01,2.828236818313598633e-01,2.827991843223571777e-01,2.827776968479156494e-01,2.827559709548950195e-01,2.827345132827758789e-01,2.827130854129791260e-01,2.826914787292480469e-01,2.826703786849975586e-01,2.826488316059112549e-01,2.826237380504608154e-01,2.826005816459655762e-01,2.825908064842224121e-01,2.825817465782165527e-01,2.825805544853210449e-01,2.825616002082824707e-01,2.824529409408569336e-01,2.830931544303894043e-01,2.817827463150024414e-01,2.718587219715118408e-01,2.751345038414001465e-01,3.007374405860900879e-01,3.195604979991912842e-01,3.762962520122528076e-01,3.975782096385955811e-01
4.091765284538269043e-01,3.324922025203704834e-01,3.159800171852111816e-01,2.799509167671203613e-01,2.584243416786193848e-01,2.558332979679107666e-01,2.600275874137878418e-01,2.610201835632324219e-01,2.617933154106140137e-01,2.617078423500061035e-01,2.616676390171051025e-01,2.616449594497680664e-01,2.616253495216369629e-01,2.616097331047058105e-01,2.615930736064910889e-01,2.615757584571838379e-01,2.615588903427124023e-01,2.615295648574829102e-01,2.615117132663726807e-01,2.614796757698059082e-01,2.615597844123840332e-01,2.612970471382141113e-01,2.609386444091796875e-01,2.599394023418426514e-01,2.579068541526794434e-01,2.565470337867736816e-01,2.556741237640380859e-01,2.559580206871032715e-01,2.561040520668029785e-01,2.577824294567108154e-01,2.589215040206909180e-01,2.585173547267913818e-01,2.574572563171386719e-01,2.538931965827941895e-01,2.480770945549011230e-01,2.441708147525787354e-01,2.368252575397491455e-01,2.328492403030395508e-01,2.316742241382598877e-01,2.351283133029937744e-01,2.352319061756134033e-01,2.383590042591094971e-01,2.425799369812011719e-01,2.438325881958007812e-01,2.472431957721710205e-01,2.505398094654083252e-01,2.534314393997192383e-01,2.543674111366271973e-01,2.563971579074859619e-01,2.576541900634765625e-01,2.586301863193511963e-01,2.594608664512634277e-01,2.605287432670593262e-01,2.608174681663513184e-01,2.609597742557525635e-01,2.609270215034484863e-01,2.608991563320159912e-01,2.608833909034729004e-01,2.608669698238372803e-01,2.608506083488464355e-01,2.608342170715332031e-01,2.608177065849304199e-01,2.608013749122619629e-01,2.607845664024353027e-01,2.607681751251220703e-01,2.607512176036834717e-01,2.607340812683105469e-01,2.607184350490570068e-01,2.607032358646392822e-01,2.606877684593200684e-01,2.606721222400665283e-01,2.605937123298645020e-01,2.611119151115417480e-01,2.600661218166351318e-01,2.511684894561767578e-01,2.544469237327575684e-01,2.794581353664398193e-01,3.009937107563018799e-01,3.605827987194061279e-01,3.876324295997619629e-01
3.991104960441589355e-01,3.188925981521606445e-01,2.997280061244964600e-01,2.643886208534240723e-01,2.423056364059448242e-01,2.394179701805114746e-01,2.430782914161682129e-01,2.439687848091125488e-01,2.446599900722503662e-01,2.445965707302093506e-01,2.445639073848724365e-01,2.445488870143890381e-01,2.445343732833862305e-01,2.445205152034759521e-01,2.445058524608612061e-01,2.444913685321807861e-01,2.444788217544555664e-01,2.444586157798767090e-01,2.444328367710113525e-01,2.444145679473876953e-01,2.444773614406585693e-01,2.442986369132995605e-01,2.443087399005889893e-01,2.439761161804199219e-01,2.432095706462860107e-01,2.419205009937286377e-01,2.419965565204620361e-01,2.416772842407226562e-01,2.424459755420684814e-01,2.421737015247344971e-01,2.430392205715179443e-01,2.426981627941131592e-01,2.424329221248626709e-01,2.407896518707275391e-01,2.352771759033203125e-01,2.332726418972015381e-01,2.296828329563140869e-01,2.255695462226867676e-01,2.238367795944213867e-01,2.246193289756774902e-01,2.249424457550048828e-01,2.261627614498138428e-01,2.285188734531402588e-01,2.308775484561920166e-01,2.341605424880981445e-01,2.368365526199340820e-01,2.380846738815307617e-01,2.391566336154937744e-01,2.406937181949615479e-01,2.409995198249816895e-01,2.418990433216094971e-01,2.430194914340972900e-01,2.436784803867340088e-01,2.438080906867980957e-01,2.439649701118469238e-01,2.439740002155303955e-01,2.439593374729156494e-01,2.439464330673217773e-01,2.439335584640502930e-01,2.439207136631011963e-01,2.439078390598297119e-01,2.438949942588806152e-01,2.438821196556091309e-01,2.438691258430480957e-01,2.438561618328094482e-01,2.438430786132812500e-01,2.438298463821411133e-01,2.438164055347442627e-01,2.438034415245056152e-01,2.437902688980102539e-01,2.437770664691925049e-01,2.437132596969604492e-01,2.441377639770507812e-01,2.433020770549774170e-01,2.352233529090881348e-01,2.385348081588745117e-01,2.629320919513702393e-01,2.863664031028747559e-01,3.479795455932617188e-01,3.796819448471069336e-01
3.908092379570007324e-01,3.077788352966308594e-01,2.866280674934387207e-01,2.519683837890625000e-01,2.295326590538024902e-01,2.264052629470825195e-01,2.296712100505828857e-01,2.304612398147583008e-01,2.310828864574432373e-01,2.310282289981842041e-01,2.310011386871337891e-01,2.309904098510742188e-01,2.309800088405609131e-01,2.309696972370147705e-01,2.309592962265014648e-01,2.309491634368896484e-01,2.309411466121673584e-01,2.309275269508361816e-01,2.309135496616363525e-01,2.308999300003051758e-01,2.309196591377258301e-01,2.307969331741333008e-01,2.309176027774810791e-01,2.307660281658172607e-01,2.305463552474975586e-01,2.296467125415802002e-01,2.297235727310180664e-01,2.296963930130004883e-01,2.304193973541259766e-01,2.300747334957122803e-01,2.300890684127807617e-01,2.302353382110595703e-01,2.300278544425964355e-01,2.289175093173980713e-01,2.258421182632446289e-01,2.233459949493408203e-01,2.216094434261322021e-01,2.188193798065185547e-01,2.167087495326995850e-01,2.163167297840118408e-01,2.160861790180206299e-01,2.173588871955871582e-01,2.190342247486114502e-01,2.214629054069519043e-01,2.230489850044250488e-01,2.242583036422729492e-01,2.256938517093658447e-01,2.279310524463653564e-01,2.288996875286102295e-01,2.296044826507568359e-01,2.299750447273254395e-01,2.303284108638763428e-01,2.304066717624664307e-01,2.305090725421905518e-01,2.305076718330383301e-01,2.305303215980529785e-01,2.305234670639038086e-01,2.305124700069427490e-01,2.305019795894622803e-01,2.304916381835937500e-01,2.304815649986267090e-01,2.304708957672119141e-01,2.304606139659881592e-01,2.304504513740539551e-01,2.304399609565734863e-01,2.304296195507049561e-01,2.304194867610931396e-01,2.304089069366455078e-01,2.303986251354217529e-01,2.303883135318756104e-01,2.303778231143951416e-01,2.303241193294525146e-01,2.306798994541168213e-01,2.300037443637847900e-01,2.225887179374694824e-01,2.259120047092437744e-01,2.498070597648620605e-01,2.745906710624694824e-01,3.377264440059661865e-01,3.731982707977294922e-01
3.838104605674743652e-01,2.985778450965881348e-01,2.758296132087707520e-01,2.418451607227325439e-01,2.191900908946990967e-01,2.158576846122741699e-01,2.188131809234619141e-01,2.195144593715667725e-01,2.200806140899658203e-01,2.200331389904022217e-01,2.200098037719726562e-01,2.200013697147369385e-01,2.199929952621459961e-01,2.199844121932983398e-01,2.199756205081939697e-01,2.199671864509582520e-01,2.199596166610717773e-01,2.199509143829345703e-01,2.199374735355377197e-01,2.199416160583496094e-01,2.199159860610961914e-01,2.198551297187805176e-01,2.199196517467498779e-01,2.199361324310302734e-01,2.198486030101776123e-01,2.195320427417755127e-01,2.193209826946258545e-01,2.194138169288635254e-01,2.195798754692077637e-01,2.197922468185424805e-01,2.196399569511413574e-01,2.195098102092742920e-01,2.197598218917846680e-01,2.193755209445953369e-01,2.169257402420043945e-01,2.159735262393951416e-01,2.142047882080078125e-01,2.121777236461639404e-01,2.111284732818603516e-01,2.102923989295959473e-01,2.102392017841339111e-01,2.105002105236053467e-01,2.108047306537628174e-01,2.120262086391448975e-01,2.143207490444183350e-01,2.152854502201080322e-01,2.174291908740997314e-01,2.181052565574645996e-01,2.189995050430297852e-01,2.187841236591339111e-01,2.193385064601898193e-01,2.196518182754516602e-01,2.196232378482818604e-01,2.196808755397796631e-01,2.196050882339477539e-01,2.196292877197265625e-01,2.196172773838043213e-01,2.196094393730163574e-01,2.196009457111358643e-01,2.195926010608673096e-01,2.195839285850524902e-01,2.195754945278167725e-01,2.195667922496795654e-01,2.195584475994110107e-01,2.195501327514648438e-01,2.195417582988739014e-01,2.195330262184143066e-01,2.195247709751129150e-01,2.195160984992980957e-01,2.195077538490295410e-01,2.194984853267669678e-01,2.194534838199615479e-01,2.197587490081787109e-01,2.192095518112182617e-01,2.123409509658813477e-01,2.156695723533630371e-01,2.391535937786102295e-01,2.649238407611846924e-01,3.292264640331268311e-01,3.678059875965118408e-01
3.778372704982757568e-01,2.908440232276916504e-01,2.668069005012512207e-01,2.334585785865783691e-01,2.106582224369049072e-01,2.071484029293060303e-01,2.098523974418640137e-01,2.104758322238922119e-01,2.109934985637664795e-01,2.109515368938446045e-01,2.109314203262329102e-01,2.109243273735046387e-01,2.109170854091644287e-01,2.109100222587585449e-01,2.109026908874511719e-01,2.108957469463348389e-01,2.108893394470214844e-01,2.108817100524902344e-01,2.108759582042694092e-01,2.108658254146575928e-01,2.108621597290039062e-01,2.108372151851654053e-01,2.108412981033325195e-01,2.108409702777862549e-01,2.108694911003112793e-01,2.107199728488922119e-01,2.106901109218597412e-01,2.105543017387390137e-01,2.106938362121582031e-01,2.107336223125457764e-01,2.106790542602539062e-01,2.107551693916320801e-01,2.107822597026824951e-01,2.104776203632354736e-01,2.098463177680969238e-01,2.087666690349578857e-01,2.078003585338592529e-01,2.067238092422485352e-01,2.053945362567901611e-01,2.053640782833099365e-01,2.048349976539611816e-01,2.050776779651641846e-01,2.052491307258605957e-01,2.065179646015167236e-01,2.071049213409423828e-01,2.077013254165649414e-01,2.076779901981353760e-01,2.092083990573883057e-01,2.094877958297729492e-01,2.103682160377502441e-01,2.104890048503875732e-01,2.107234597206115723e-01,2.106228470802307129e-01,2.105461061000823975e-01,2.106058895587921143e-01,2.106127142906188965e-01,2.106055319309234619e-01,2.105977237224578857e-01,2.105906307697296143e-01,2.105835378170013428e-01,2.105765640735626221e-01,2.105694711208343506e-01,2.105624675750732422e-01,2.105551958084106445e-01,2.105481922626495361e-01,2.105411887168884277e-01,2.105340957641601562e-01,2.105270624160766602e-01,2.105199396610260010e-01,2.105128467082977295e-01,2.105050981044769287e-01,2.104663848876953125e-01,2.107328176498413086e-01,2.102855145931243896e-01,2.038699090480804443e-01,2.071999907493591309e-01,2.303353250026702881e-01,2.568479180335998535e-01,3.220593333244323730e-01,3.632438182830810547e-01
3.726800978183746338e-01,2.842507958412170410e-01,2.591615021228790283e-01,2.263990938663482666e-01,2.035068273544311523e-01,1.998419761657714844e-01,2.023391127586364746e-01,2.028943002223968506e-01,2.033705711364746094e-01,2.033331096172332764e-01,2.033155858516693115e-01,2.033095955848693848e-01,2.033035457134246826e-01,2.032976746559143066e-01,2.032915651798248291e-01,2.032856345176696777e-01,2.032797336578369141e-01,2.032738327980041504e-01,2.032674551010131836e-01,2.032618224620819092e-01,2.032532989978790283e-01,2.032481133937835693e-01,2.032405734062194824e-01,2.032348215579986572e-01,2.032333314418792725e-01,2.032471597194671631e-01,2.031541764736175537e-01,2.031707167625427246e-01,2.031456828117370605e-01,2.031751871109008789e-01,2.031828165054321289e-01,2.032129466533660889e-01,2.031528651714324951e-01,2.031375467777252197e-01,2.028560936450958252e-01,2.024784982204437256e-01,2.018728256225585938e-01,2.012851536273956299e-01,2.005037069320678711e-01,2.001322805881500244e-01,2.001847028732299805e-01,2.000092566013336182e-01,1.999038159847259521e-01,2.002911567687988281e-01,2.005477547645568848e-01,2.011566162109375000e-01,2.019351124763488770e-01,2.023606896400451660e-01,2.025461494922637939e-01,2.027125358581542969e-01,2.030098438262939453e-01,2.029359340667724609e-01,2.031038105487823486e-01,2.030809819698333740e-01,2.030584216117858887e-01,2.030455172061920166e-01,2.030390799045562744e-01,2.030336856842041016e-01,2.030276060104370117e-01,2.030217647552490234e-01,2.030156850814819336e-01,2.030096948146820068e-01,2.030037939548492432e-01,2.029976546764373779e-01,2.029917538166046143e-01,2.029857635498046875e-01,2.029798626899719238e-01,2.029736936092376709e-01,2.029680609703063965e-01,2.029618620872497559e-01,2.029551267623901367e-01,2.029214501380920410e-01,2.031569778919219971e-01,2.027925848960876465e-01,1.967587471008300781e-01,2.000868618488311768e-01,2.229208648204803467e-01,2.500033378601074219e-01,3.159328103065490723e-01,3.593322634696960449e-01
3.681835830211639404e-01,2.785653471946716309e-01,2.526059150695800781e-01,2.203792333602905273e-01,1.974310874938964844e-01,1.936299800872802734e-01,1.959550380706787109e-01,1.964499950408935547e-01,1.968906521797180176e-01,1.968573033809661865e-01,1.968418061733245850e-01,1.968368589878082275e-01,1.968313455581665039e-01,1.968261599540710449e-01,1.968210637569427490e-01,1.968159675598144531e-01,1.968109607696533203e-01,1.968058943748474121e-01,1.968009173870086670e-01,1.967949271202087402e-01,1.967901587486267090e-01,1.967841386795043945e-01,1.967767775058746338e-01,1.967785358428955078e-01,1.967811882495880127e-01,1.967701017856597900e-01,1.967626512050628662e-01,1.967460513114929199e-01,1.967388689517974854e-01,1.967286765575408936e-01,1.967249214649200439e-01,1.967316865921020508e-01,1.966757178306579590e-01,1.966932415962219238e-01,1.966059505939483643e-01,1.964391171932220459e-01,1.961745023727416992e-01,1.959396004676818848e-01,1.955882012844085693e-01,1.955535411834716797e-01,1.952485144138336182e-01,1.950441002845764160e-01,1.951265931129455566e-01,1.954476535320281982e-01,1.956596672534942627e-01,1.958448588848114014e-01,1.960165798664093018e-01,1.962614655494689941e-01,1.965335607528686523e-01,1.966073215007781982e-01,1.965754330158233643e-01,1.966491341590881348e-01,1.966052353382110596e-01,1.966233849525451660e-01,1.966222524642944336e-01,1.966110765933990479e-01,1.966058909893035889e-01,1.966004371643066406e-01,1.965953111648559570e-01,1.965901553630828857e-01,1.965851485729217529e-01,1.965799629688262939e-01,1.965748071670532227e-01,1.965695619583129883e-01,1.965646445751190186e-01,1.965594887733459473e-01,1.965543329715728760e-01,1.965493559837341309e-01,1.965443193912506104e-01,1.965391933917999268e-01,1.965330541133880615e-01,1.965035796165466309e-01,1.967142522335052490e-01,1.964177191257476807e-01,1.907092034816741943e-01,1.940337419509887695e-01,2.166036367416381836e-01,2.441298365592956543e-01,3.106346428394317627e-01,3.559400439262390137e-01
3.642288148403167725e-01,2.736126780509948730e-01,2.469263970851898193e-01,2.151878476142883301e-01,1.922090947628021240e-01,1.882875561714172363e-01,1.904672384262084961e-01,1.909092068672180176e-01,1.913193166255950928e-01,1.912891268730163574e-01,1.912752091884613037e-01,1.912704706192016602e-01,1.912662386894226074e-01,1.912619173526763916e-01,1.912573277950286865e-01,1.912528276443481445e-01,1.912485063076019287e-01,1.912438869476318359e-01,1.912396550178527832e-01,1.912349760532379150e-01,1.912302970886230469e-01,1.912258565425872803e-01,1.912213563919067383e-01,1.912164986133575439e-01,1.912137866020202637e-01,1.912094950675964355e-01,1.912041306495666504e-01,1.911997795104980469e-01,1.911967396736145020e-01,1.911921203136444092e-01,1.911856532096862793e-01,1.911938786506652832e-01,1.911514401435852051e-01,1.911851465702056885e-01,1.911669671535491943e-01,1.911252737045288086e-01,1.909138262271881104e-01,1.908218562602996826e-01,1.906385719776153564e-01,1.906679272651672363e-01,1.905665397644042969e-01,1.906348466873168945e-01,1.906172335147857666e-01,1.905491054058074951e-01,1.906196773052215576e-01,1.908570528030395508e-01,1.909267306327819824e-01,1.909886896610260010e-01,1.911728978157043457e-01,1.910288929939270020e-01,1.910419762134552002e-01,1.910868585109710693e-01,1.910929977893829346e-01,1.910968422889709473e-01,1.910783350467681885e-01,1.910767555236816406e-01,1.910714209079742432e-01,1.910665333271026611e-01,1.910621821880340576e-01,1.910575032234191895e-01,1.910533010959625244e-01,1.910489201545715332e-01,1.910445690155029297e-01,1.910400390625000000e-01,1.910357177257537842e-01,1.910310685634613037e-01,1.910266578197479248e-01,1.910222470760345459e-01,1.910178065299987793e-01,1.910133361816406250e-01,1.910083293914794922e-01,1.909820139408111572e-01,1.911722421646118164e-01,1.909325420856475830e-01,1.855036020278930664e-01,1.888233125209808350e-01,2.111595869064331055e-01,2.390359044075012207e-01,3.060067296028137207e-01,3.529699146747589111e-01
3.607221841812133789e-01,2.692636847496032715e-01,2.419603765010833740e-01,2.106672525405883789e-01,1.876751780509948730e-01,1.836442053318023682e-01,1.856966912746429443e-01,1.860916316509246826e-01,1.864751279354095459e-01,1.864477694034576416e-01,1.864349842071533203e-01,1.864309608936309814e-01,1.864272058010101318e-01,1.864232420921325684e-01,1.864193379878997803e-01,1.864155232906341553e-01,1.864116191864013672e-01,1.864079833030700684e-01,1.864039003849029541e-01,1.864001750946044922e-01,1.863960623741149902e-01,1.863921880722045898e-01,1.863883435726165771e-01,1.863842606544494629e-01,1.863803267478942871e-01,1.863770484924316406e-01,1.863729059696197510e-01,1.863692104816436768e-01,1.863656044006347656e-01,1.863610148429870605e-01,1.863605082035064697e-01,1.863505542278289795e-01,1.863263249397277832e-01,1.863381564617156982e-01,1.863418519496917725e-01,1.863186657428741455e-01,1.862904131412506104e-01,1.862229406833648682e-01,1.861752569675445557e-01,1.860855221748352051e-01,1.860798001289367676e-01,1.860266923904418945e-01,1.861060559749603271e-01,1.860822737216949463e-01,1.862588822841644287e-01,1.862378418445587158e-01,1.862777769565582275e-01,1.862413585186004639e-01,1.862270832061767578e-01,1.862591207027435303e-01,1.863220930099487305e-01,1.862756609916687012e-01,1.862792968750000000e-01,1.862658858299255371e-01,1.862690746784210205e-01,1.862600743770599365e-01,1.862566769123077393e-01,1.862529814243316650e-01,1.862491071224212646e-01,1.862452030181884766e-01,1.862413585186004639e-01,1.862373352050781250e-01,1.862335205078125000e-01,1.862296462059020996e-01,1.862258613109588623e-01,1.862220466136932373e-01,1.862181425094604492e-01,1.862143278121948242e-01,1.862102746963500977e-01,1.862064898014068604e-01,1.862017512321472168e-01,1.861787140369415283e-01,1.863523423671722412e-01,1.861601173877716064e-01,1.809754073619842529e-01,1.842898428440093994e-01,2.064186334609985352e-01,2.345698773860931396e-01,3.019186854362487793e-01,3.503375947475433350e-01
3.576374053955078125e-01,2.654602527618408203e-01,2.376330494880676270e-01,2.067415714263916016e-01,1.837371289730072021e-01,1.796099841594696045e-01,1.815581023693084717e-01,1.819112002849578857e-01,1.822715103626251221e-01,1.822463274002075195e-01,1.822345256805419922e-01,1.822311580181121826e-01,1.822276115417480469e-01,1.822242438793182373e-01,1.822209358215332031e-01,1.822173893451690674e-01,1.822138428688049316e-01,1.822104752063751221e-01,1.822069883346557617e-01,1.822037696838378906e-01,1.822001636028289795e-01,1.821967959403991699e-01,1.821933984756469727e-01,1.821903288364410400e-01,1.821867227554321289e-01,1.821833550930023193e-01,1.821797490119934082e-01,1.821767091751098633e-01,1.821732223033905029e-01,1.821701526641845703e-01,1.821666359901428223e-01,1.821625530719757080e-01,1.821573376655578613e-01,1.821624338626861572e-01,1.821569502353668213e-01,1.821467578411102295e-01,1.821185350418090820e-01,1.821225583553314209e-01,1.820991039276123047e-01,1.820670664310455322e-01,1.820473968982696533e-01,1.820646822452545166e-01,1.820724904537200928e-01,1.820637583732604980e-01,1.820664405822753906e-01,1.820610165596008301e-01,1.820904612541198730e-01,1.821255981922149658e-01,1.821066737174987793e-01,1.821086108684539795e-01,1.821016967296600342e-01,1.820919811725616455e-01,1.820914149284362793e-01,1.820886135101318359e-01,1.820833981037139893e-01,1.820808947086334229e-01,1.820776164531707764e-01,1.820742487907409668e-01,1.820708513259887695e-01,1.820673942565917969e-01,1.820639967918395996e-01,1.820605695247650146e-01,1.820572018623352051e-01,1.820538341999053955e-01,1.820504665374755859e-01,1.820469796657562256e-01,1.820436120033264160e-01,1.820401847362518311e-01,1.820367276668548584e-01,1.820335090160369873e-01,1.820292770862579346e-01,1.820081472396850586e-01,1.821671724319458008e-01,1.820153594017028809e-01,1.770401895046234131e-01,1.803426742553710938e-01,2.022822499275207520e-01,2.306686341762542725e-01,2.983111143112182617e-01,3.479940295219421387e-01
3.552457094192504883e-01,2.622940540313720703e-01,2.341429591178894043e-01,2.035854756832122803e-01,1.805847287178039551e-01,1.763868629932403564e-01,1.782720088958740234e-01,1.786171793937683105e-01,1.789575517177581787e-01,1.789329648017883301e-01,1.789222657680511475e-01,1.789191365242004395e-01,1.789161264896392822e-01,1.789131462574005127e-01,1.789100766181945801e-01,1.789071261882781982e-01,1.789038777351379395e-01,1.789008975028991699e-01,1.788979768753051758e-01,1.788948774337768555e-01,1.788918673992156982e-01,1.788888871669769287e-01,1.788859069347381592e-01,1.788826584815979004e-01,1.788798272609710693e-01,1.788767278194427490e-01,1.788738071918487549e-01,1.788707077503204346e-01,1.788677275180816650e-01,1.788645088672637939e-01,1.788614690303802490e-01,1.788581013679504395e-01,1.788550019264221191e-01,1.788521707057952881e-01,1.788524985313415527e-01,1.788440942764282227e-01,1.788527071475982666e-01,1.788432598114013672e-01,1.788420975208282471e-01,1.788131296634674072e-01,1.788157522678375244e-01,1.787849366664886475e-01,1.788120269775390625e-01,1.788031458854675293e-01,1.788036227226257324e-01,1.788037121295928955e-01,1.788117587566375732e-01,1.788109540939331055e-01,1.788051724433898926e-01,1.787994205951690674e-01,1.788005828857421875e-01,1.787979900836944580e-01,1.787956953048706055e-01,1.787919700145721436e-01,1.787878572940826416e-01,1.787858903408050537e-01,1.787827610969543457e-01,1.787796318531036377e-01,1.787765622138977051e-01,1.787736415863037109e-01,1.787705719470977783e-01,1.787674129009246826e-01,1.787645220756530762e-01,1.787615716457366943e-01,1.787582933902740479e-01,1.787553727626800537e-01,1.787523329257965088e-01,1.787493228912353516e-01,1.787464022636413574e-01,1.787431836128234863e-01,1.787395477294921875e-01,1.787205934524536133e-01,1.788685321807861328e-01,1.787450909614562988e-01,1.739438474178314209e-01,1.772519648075103760e-01,1.989186704158782959e-01,2.273613512516021729e-01,2.952045798301696777e-01,3.462706208229064941e-01
3.522582054138183594e-01,2.585260868072509766e-01,2.300033569335937500e-01,1.997264325618743896e-01,1.766579151153564453e-01,1.722869873046875000e-01,1.739266216754913330e-01,1.741950809955596924e-01,1.744949817657470703e-01,1.744746267795562744e-01,1.744649708271026611e-01,1.744624078273773193e-01,1.744597852230072021e-01,1.744572222232818604e-01,1.744544506072998047e-01,1.744518280029296875e-01,1.744492948055267334e-01,1.744465529918670654e-01,1.744436025619506836e-01,1.744411289691925049e-01,1.744384467601776123e-01,1.744359433650970459e-01,1.744333803653717041e-01,1.744306087493896484e-01,1.744278371334075928e-01,1.744250953197479248e-01,1.744225919246673584e-01,1.744199097156524658e-01,1.744171679019927979e-01,1.744146347045898438e-01,1.744118630886077881e-01,1.744091212749481201e-01,1.744062006473541260e-01,1.744034588336944580e-01,1.744008362293243408e-01,1.743978857994079590e-01,1.743972897529602051e-01,1.743935048580169678e-01,1.743924915790557861e-01,1.743874251842498779e-01,1.743809282779693604e-01,1.743812263011932373e-01,1.743779182434082031e-01,1.743712127208709717e-01,1.743742227554321289e-01,1.743691861629486084e-01,1.743665039539337158e-01,1.743648052215576172e-01,1.743640899658203125e-01,1.743629276752471924e-01,1.743596494197845459e-01,1.743553876876831055e-01,1.743536889553070068e-01,1.743504106998443604e-01,1.743485033512115479e-01,1.743455529212951660e-01,1.743428707122802734e-01,1.743402779102325439e-01,1.743375658988952637e-01,1.743349134922027588e-01,1.743320822715759277e-01,1.743294596672058105e-01,1.743267476558685303e-01,1.743243336677551270e-01,1.743215620517730713e-01,1.743189692497253418e-01,1.743164062500000000e-01,1.743136942386627197e-01,1.743108034133911133e-01,1.743083298206329346e-01,1.743050813674926758e-01,1.742872893810272217e-01,1.744301617145538330e-01,1.743084788322448730e-01,1.696799695491790771e-01,1.730751097202301025e-01,1.948004961013793945e-01,2.234538793563842773e-01,2.916890382766723633e-01,3.432701528072357178e-01
3.534521460533142090e-01,2.556052803993225098e-01,2.290333509445190430e-01,1.991979777812957764e-01,1.747832596302032471e-01,1.703471541404724121e-01,1.715838313102722168e-01,1.718489825725555420e-01,1.721445322036743164e-01,1.721244156360626221e-01,1.721160411834716797e-01,1.721138358116149902e-01,1.721114218235015869e-01,1.721090674400329590e-01,1.721066832542419434e-01,1.721042990684509277e-01,1.721018850803375244e-01,1.720995008945465088e-01,1.720971167087554932e-01,1.720948219299316406e-01,1.720924079418182373e-01,1.720899939537048340e-01,1.720876097679138184e-01,1.720851659774780273e-01,1.720828711986541748e-01,1.720806658267974854e-01,1.720782816410064697e-01,1.720757186412811279e-01,1.720734238624572754e-01,1.720711290836334229e-01,1.720687747001647949e-01,1.720661818981170654e-01,1.720640063285827637e-01,1.720614433288574219e-01,1.720589399337768555e-01,1.720566451549530029e-01,1.720539927482604980e-01,1.720522046089172363e-01,1.720500886440277100e-01,1.720478534698486328e-01,1.720456480979919434e-01,1.720435619354248047e-01,1.720395088195800781e-01,1.720378398895263672e-01,1.720348894596099854e-01,1.720332801342010498e-01,1.720312237739562988e-01,1.720284521579742432e-01,1.720257103443145752e-01,1.720235347747802734e-01,1.720209717750549316e-01,1.720189452171325684e-01,1.720164716243743896e-01,1.720141470432281494e-01,1.720117032527923584e-01,1.720094680786132812e-01,1.720070242881774902e-01,1.720046103000640869e-01,1.720021963119506836e-01,1.719998419284820557e-01,1.719975173473358154e-01,1.719952523708343506e-01,1.719926893711090088e-01,1.719904243946075439e-01,1.719880700111389160e-01,1.719857752323150635e-01,1.719834804534912109e-01,1.719811260700225830e-01,1.719786822795867920e-01,1.719762086868286133e-01,1.719739735126495361e-01,1.719537377357482910e-01,1.720588207244873047e-01,1.720514297485351562e-01,1.679017245769500732e-01,1.713126301765441895e-01,1.922454833984375000e-01,2.205623388290405273e-01,2.916401624679565430e-01,3.415898382663726807e-01
3.557897806167602539e-01,2.536364197731018066e-01,2.169758379459381104e-01,1.914368569850921631e-01,1.698947548866271973e-01,1.649755835533142090e-01,1.661606132984161377e-01,1.664636731147766113e-01,1.667148768901824951e-01,1.666951477527618408e-01,1.666878163814544678e-01,1.666857898235321045e-01,1.666837632656097412e-01,1.666816771030426025e-01,1.666795909404754639e-01,1.666775345802307129e-01,1.666755676269531250e-01,1.666735708713531494e-01,1.666713953018188477e-01,1.666693687438964844e-01,1.666674613952636719e-01,1.666651964187622070e-01,1.666633188724517822e-01,1.666611135005950928e-01,1.666592657566070557e-01,1.666572391986846924e-01,1.666551530361175537e-01,1.666530668735504150e-01,1.666511595249176025e-01,1.666489839553833008e-01,1.666470170021057129e-01,1.666447222232818604e-01,1.666426956653594971e-01,1.666408181190490723e-01,1.666387617588043213e-01,1.666367053985595703e-01,1.666345894336700439e-01,1.666325628757476807e-01,1.666303277015686035e-01,1.666284203529357910e-01,1.666263639926910400e-01,1.666243672370910645e-01,1.666222214698791504e-01,1.666202545166015625e-01,1.666183471679687500e-01,1.666161715984344482e-01,1.666142642498016357e-01,1.666120290756225586e-01,1.666100323200225830e-01,1.666078865528106689e-01,1.666061580181121826e-01,1.666039824485778809e-01,1.666018962860107422e-01,1.665998399257659912e-01,1.665978729724884033e-01,1.665957868099212646e-01,1.665937006473541260e-01,1.665917038917541504e-01,1.665898263454437256e-01,1.665877103805541992e-01,1.665855348110198975e-01,1.665835678577423096e-01,1.665816009044647217e-01,1.665795147418975830e-01,1.665775775909423828e-01,1.665754616260528564e-01,1.665734052658081055e-01,1.665714979171752930e-01,1.665692627429962158e-01,1.665672957897186279e-01,1.665668487548828125e-01,1.665428876876831055e-01,1.666105091571807861e-01,1.667926907539367676e-01,1.623808443546295166e-01,1.654347479343414307e-01,1.886164546012878418e-01,2.108094990253448486e-01,2.860367298126220703e-01,3.337818980216979980e-01
3.380684256553649902e-01,2.402381598949432373e-01,2.027125954627990723e-01,1.804867386817932129e-01,1.658502817153930664e-01,1.592120826244354248e-01,1.592744886875152588e-01,1.594827771186828613e-01,1.597137451171875000e-01,1.596968472003936768e-01,1.596916913986206055e-01,1.596900224685668945e-01,1.596883237361907959e-01,1.596867144107818604e-01,1.596850156784057617e-01,1.596834063529968262e-01,1.596817672252655029e-01,1.596800386905670166e-01,1.596783995628356934e-01,1.596768796443939209e-01,1.596751213073730469e-01,1.596734821796417236e-01,1.596718430519104004e-01,1.596702337265014648e-01,1.596685647964477539e-01,1.596669554710388184e-01,1.596651673316955566e-01,1.596635282039642334e-01,1.596621572971343994e-01,1.596603095531463623e-01,1.596587002277374268e-01,1.596571207046508789e-01,1.596553623676300049e-01,1.596537530422210693e-01,1.596520245075225830e-01,1.596503257751464844e-01,1.596486568450927734e-01,1.596469879150390625e-01,1.596454381942749023e-01,1.596437692642211914e-01,1.596422195434570312e-01,1.596404314041137695e-01,1.596389114856719971e-01,1.596371531486511230e-01,1.596354246139526367e-01,1.596337556838989258e-01,1.596321761608123779e-01,1.596306264400482178e-01,1.596288979053497314e-01,1.596272885799407959e-01,1.596256792545318604e-01,1.596240699291229248e-01,1.596223413944244385e-01,1.596207320690155029e-01,1.596190035343170166e-01,1.596173942089080811e-01,1.596158444881439209e-01,1.596140861511230469e-01,1.596125066280364990e-01,1.596108675003051758e-01,1.596091687679290771e-01,1.596077084541320801e-01,1.596059799194335938e-01,1.596043407917022705e-01,1.596026122570037842e-01,1.596010923385620117e-01,1.595992743968963623e-01,1.595977544784545898e-01,1.595961153507232666e-01,1.595943570137023926e-01,1.595928668975830078e-01,1.595647335052490234e-01,1.596041321754455566e-01,1.598356962203979492e-01,1.557652950286865234e-01,1.533353030681610107e-01,1.688702702522277832e-01,2.049823701381683350e-01,2.839689850807189941e-01,3.553455471992492676e-01
3.297488689422607422e-01,2.279991507530212402e-01,1.979697644710540771e-01,1.790180802345275879e-01,1.636391580104827881e-01,1.572908759117126465e-01,1.598440110683441162e-01,1.601183712482452393e-01,1.602989733219146729e-01,1.602831184864044189e-01,1.602792143821716309e-01,1.602777838706970215e-01,1.602763235569000244e-01,1.602750420570373535e-01,1.602736711502075195e-01,1.602721810340881348e-01,1.602707207202911377e-01,1.602692008018493652e-01,1.602678894996643066e-01,1.602664291858673096e-01,1.602649390697479248e-01,1.602635979652404785e-01,1.602620482444763184e-01,1.602607071399688721e-01,1.602591574192047119e-01,1.602576971054077148e-01,1.602562963962554932e-01,1.602548956871032715e-01,1.602534651756286621e-01,1.602521836757659912e-01,1.602506041526794434e-01,1.602490842342376709e-01,1.602477133274078369e-01,1.602463424205780029e-01,1.602447330951690674e-01,1.602434515953063965e-01,1.602419614791870117e-01,1.602406203746795654e-01,1.602390408515930176e-01,1.602378785610198975e-01,1.602364480495452881e-01,1.602350175380706787e-01,1.602336168289184570e-01,1.602321565151214600e-01,1.602305769920349121e-01,1.602289974689483643e-01,1.602277457714080811e-01,1.602262854576110840e-01,1.602249741554260254e-01,1.602234542369842529e-01,1.602221429347991943e-01,1.602204740047454834e-01,1.602191030979156494e-01,1.602177619934082031e-01,1.602161228656768799e-01,1.602147817611694336e-01,1.602134108543395996e-01,1.602119207382202148e-01,1.602104604244232178e-01,1.602091193199157715e-01,1.602077782154083252e-01,1.602062880992889404e-01,1.602047979831695557e-01,1.602032482624053955e-01,1.602019369602203369e-01,1.602005064487457275e-01,1.601990163326263428e-01,1.601976454257965088e-01,1.601963937282562256e-01,1.601947546005249023e-01,1.601960361003875732e-01,1.601742506027221680e-01,1.602483093738555908e-01,1.604148447513580322e-01,1.554422378540039062e-01,1.561041176319122314e-01,1.747394204139709473e-01,1.962416768074035645e-01,3.100823760032653809e-01,3.704555928707122803e-01
3.673302531242370605e-01,2.730020880699157715e-01,2.366620302200317383e-01,1.968863904476165771e-01,1.776398718357086182e-01,1.728610992431640625e-01,1.740676164627075195e-01,1.743155121803283691e-01,1.744401156902313232e-01,1.744306981563568115e-01,1.744282245635986328e-01,1.744272708892822266e-01,1.744264960289001465e-01,1.744252741336822510e-01,1.744242012500762939e-01,1.744232475757598877e-01,1.744223237037658691e-01,1.744213700294494629e-01,1.744204461574554443e-01,1.744195222854614258e-01,1.744183897972106934e-01,1.744173169136047363e-01,1.744163036346435547e-01,1.744152903556823730e-01,1.744144856929779053e-01,1.744134128093719482e-01,1.744124889373779297e-01,1.744116246700286865e-01,1.744106113910675049e-01,1.744094491004943848e-01,1.744085252285003662e-01,1.744075715541839600e-01,1.744063496589660645e-01,1.744053661823272705e-01,1.744045019149780273e-01,1.744033396244049072e-01,1.744024455547332764e-01,1.744014024734497070e-01,1.744004786014556885e-01,1.743995845317840576e-01,1.743985414505004883e-01,1.743974685668945312e-01,1.743965744972229004e-01,1.743955314159393311e-01,1.743944883346557617e-01,1.743935048580169678e-01,1.743926107883453369e-01,1.743917167186737061e-01,1.743906438350677490e-01,1.743895411491394043e-01,1.743884980678558350e-01,1.743874251842498779e-01,1.743865609169006348e-01,1.743856668472290039e-01,1.743845343589782715e-01,1.743836402893066406e-01,1.743826866149902344e-01,1.743816435337066650e-01,1.743807494640350342e-01,1.743797659873962402e-01,1.743789017200469971e-01,1.743777692317962646e-01,1.743766665458679199e-01,1.743756234645843506e-01,1.743746697902679443e-01,1.743735969066619873e-01,1.743727624416351318e-01,1.743717193603515625e-01,1.743706464767456055e-01,1.743697226047515869e-01,1.743686795234680176e-01,1.743549704551696777e-01,1.744392216205596924e-01,1.744462251663208008e-01,1.704317331314086914e-01,1.741121709346771240e-01,1.803806126117706299e-01,1.959728002548217773e-01,2.897703945636749268e-01,3.657965064048767090e-01
3.785715401172637939e-01,3.069040775299072266e-01,2.609406709671020508e-01,2.302912473678588867e-01,2.096592783927917480e-01,2.076262831687927246e-01,2.071304023265838623e-01,2.072288990020751953e-01,2.073739767074584961e-01,2.073739767074584961e-01,2.073748707771301270e-01,2.073741853237152100e-01,2.073736786842346191e-01,2.073729634284973145e-01,2.073724269866943359e-01,2.073717415332794189e-01,2.073709666728973389e-01,2.073703110218048096e-01,2.073696851730346680e-01,2.073692083358764648e-01,2.073686122894287109e-01,2.073679864406585693e-01,2.073671817779541016e-01,2.073665559291839600e-01,2.073659002780914307e-01,2.073652744293212891e-01,2.073645889759063721e-01,2.073639035224914551e-01,2.073634266853332520e-01,2.073628008365631104e-01,2.073619961738586426e-01,2.073615193367004395e-01,2.073608934879302979e-01,2.073601782321929932e-01,2.073595821857452393e-01,2.073587775230407715e-01,2.073582112789154053e-01,2.073575556278228760e-01,2.073569297790527344e-01,2.073564529418945312e-01,2.073557972908020020e-01,2.073550820350646973e-01,2.073545455932617188e-01,2.073539793491363525e-01,2.073533833026885986e-01,2.073525786399841309e-01,2.073519825935363770e-01,2.073512971401214600e-01,2.073507308959960938e-01,2.073501050472259521e-01,2.073494493961334229e-01,2.073487043380737305e-01,2.073481380939483643e-01,2.073474526405334473e-01,2.073468863964080811e-01,2.073463797569274902e-01,2.073456346988677979e-01,2.073450386524200439e-01,2.073443531990051270e-01,2.073437571525573730e-01,2.073429226875305176e-01,2.073424458503723145e-01,2.073416709899902344e-01,2.073414027690887451e-01,2.073406279087066650e-01,2.073399424552917480e-01,2.073393762111663818e-01,2.073387503623962402e-01,2.073380351066589355e-01,2.073374092578887939e-01,2.073362171649932861e-01,2.073111534118652344e-01,2.072975635528564453e-01,2.073975205421447754e-01,2.048480510711669922e-01,2.087792158126831055e-01,2.079811096191406250e-01,2.248890101909637451e-01,2.848504185676574707e-01,3.590071201324462891e-01
