5.862376689910888672e-01,6.089704632759094238e-01,6.536779403686523438e-01,6.547632813453674316e-01,6.780813932418823242e-01,7.019310593605041504e-01,7.384414076805114746e-01,7.597732543945312500e-01,7.806803584098815918e-01,7.996233701705932617e-01,8.179692029953002930e-01,8.352541923522949219e-01,8.500512838363647461e-01,8.631891012191772461e-01,8.749968409538269043e-01,8.844569921493530273e-01,8.922525644302368164e-01,8.964614272117614746e-01,8.925624489784240723e-01,8.816682100296020508e-01,8.657360076904296875e-01,8.437391519546508789e-01,8.102959394454956055e-01,7.436170578002929688e-01,5.812132358551025391e-01,5.040081739425659180e-01,4.191484153270721436e-01,3.969245851039886475e-01,3.616530001163482666e-01,3.387203216552734375e-01,2.751296162605285645e-01,2.492808401584625244e-01,2.465509176254272461e-01,2.513251006603240967e-01,2.367639541625976562e-01,2.435152530670166016e-01,2.680330872535705566e-01,3.078693449497222900e-01,3.338745236396789551e-01,3.739995360374450684e-01,4.619659185409545898e-01,5.507417917251586914e-01,6.409484148025512695e-01,6.567160487174987793e-01,6.729565858840942383e-01,6.731719374656677246e-01,6.957406997680664062e-01,7.127328515052795410e-01,7.368319630622863770e-01,7.676455974578857422e-01,8.061532974243164062e-01,8.391355872154235840e-01,8.679380416870117188e-01,8.762179613113403320e-01,8.835164308547973633e-01,8.945106267929077148e-01,9.007818698883056641e-01,9.025214910507202148e-01,9.034622907638549805e-01,9.031118154525756836e-01,9.031628370285034180e-01,9.031517505645751953e-01,9.031727313995361328e-01,9.031926393508911133e-01,9.029681682586669922e-01,9.022150039672851562e-01,9.009348154067993164e-01,8.995032906532287598e-01,8.969997167587280273e-01,8.931798934936523438e-01,8.870204687118530273e-01,8.788359165191650391e-01,8.685359954833984375e-01,8.554221987724304199e-01,8.276202678680419922e-01,8.058074712753295898e-01,7.977404594421386719e-01,7.731661200523376465e-01,7.197260856628417969e-01,6.134558916091918945e-01
5.892079472541809082e-01,6.141200661659240723e-01,6.574147343635559082e-01,6.579439043998718262e-01,6.818121671676635742e-01,7.059234976768493652e-01,7.424376606941223145e-01,7.638125419616699219e-01,7.844129800796508789e-01,8.029745817184448242e-01,8.210743665695190430e-01,8.377172946929931641e-01,8.528613448143005371e-01,8.658920526504516602e-01,8.772082924842834473e-01,8.868275880813598633e-01,8.945387601852416992e-01,8.988183140754699707e-01,8.951911330223083496e-01,8.843452930450439453e-01,8.679237961769104004e-01,8.475681543350219727e-01,8.167940378189086914e-01,7.539007067680358887e-01,5.947160720825195312e-01,5.257217884063720703e-01,4.672684073448181152e-01,4.266601204872131348e-01,3.997102081775665283e-01,3.458496928215026855e-01,3.139005303382873535e-01,2.856844365596771240e-01,2.680071294307708740e-01,2.524805665016174316e-01,2.510436475276947021e-01,2.548688352108001709e-01,2.787267565727233887e-01,3.075407147407531738e-01,3.490011692047119141e-01,4.100744724273681641e-01,4.800053834915161133e-01,6.022925376892089844e-01,6.535263061523437500e-01,7.180325984954833984e-01,7.378371357917785645e-01,7.227120399475097656e-01,7.234172821044921875e-01,7.226092815399169922e-01,7.328165769577026367e-01,7.439874410629272461e-01,7.885985374450683594e-01,8.256607055664062500e-01,8.565344214439392090e-01,8.702976703643798828e-01,8.794471025466918945e-01,8.897174596786499023e-01,8.992979526519775391e-01,9.027456641197204590e-01,9.048798084259033203e-01,9.054476618766784668e-01,9.055997133255004883e-01,9.055991172790527344e-01,9.056216478347778320e-01,9.056230783462524414e-01,9.053969383239746094e-01,9.047081470489501953e-01,9.036165475845336914e-01,9.019733071327209473e-01,8.994528055191040039e-01,8.957051038742065430e-01,8.895949125289916992e-01,8.807387948036193848e-01,8.713244199752807617e-01,8.590165972709655762e-01,8.305085897445678711e-01,8.089787960052490234e-01,8.007293939590454102e-01,7.750718593597412109e-01,7.215901613235473633e-01,6.156182885169982910e-01
5.887269377708435059e-01,6.143651008605957031e-01,6.567991375923156738e-01,6.576638817787170410e-01,6.813151836395263672e-01,7.055873870849609375e-01,7.419052720069885254e-01,7.633248567581176758e-01,7.840583324432373047e-01,8.025925755500793457e-01,8.203063011169433594e-01,8.370741009712219238e-01,8.520705699920654297e-01,8.652569055557250977e-01,8.767377138137817383e-01,8.863148689270019531e-01,8.939524888992309570e-01,8.982751369476318359e-01,8.950867652893066406e-01,8.836888074874877930e-01,8.696768283843994141e-01,8.515018224716186523e-01,8.213777542114257812e-01,7.616624832153320312e-01,6.217405796051025391e-01,5.474140048027038574e-01,5.084150433540344238e-01,4.681260287761688232e-01,4.421357214450836182e-01,3.845889568328857422e-01,3.473423719406127930e-01,3.100377321243286133e-01,2.854224443435668945e-01,2.667379975318908691e-01,2.674040794372558594e-01,2.585650682449340820e-01,2.769684195518493652e-01,3.105517029762268066e-01,3.535873591899871826e-01,4.357181191444396973e-01,5.295546650886535645e-01,6.281330585479736328e-01,7.017578482627868652e-01,7.294869422912597656e-01,7.765552401542663574e-01,7.784661650657653809e-01,7.640607357025146484e-01,7.486677169799804688e-01,7.401064634323120117e-01,7.612375617027282715e-01,7.699983119964599609e-01,8.158870935440063477e-01,8.452355265617370605e-01,8.701603412628173828e-01,8.816782832145690918e-01,8.891341686248779297e-01,8.991829156875610352e-01,9.030941724777221680e-01,9.046626091003417969e-01,9.050208330154418945e-01,9.052922129631042480e-01,9.053062200546264648e-01,9.053359031677246094e-01,9.053479433059692383e-01,9.051188230514526367e-01,9.044790267944335938e-01,9.033899903297424316e-01,9.015981554985046387e-01,8.991197347640991211e-01,8.952249884605407715e-01,8.887358903884887695e-01,8.801133632659912109e-01,8.711242675781250000e-01,8.580769300460815430e-01,8.291845321655273438e-01,8.083127737045288086e-01,8.007324337959289551e-01,7.745547294616699219e-01,7.219360470771789551e-01,6.160214543342590332e-01
5.887525677680969238e-01,6.143543720245361328e-01,6.569733023643493652e-01,6.578198671340942383e-01,6.813696622848510742e-01,7.055969238281250000e-01,7.419731616973876953e-01,7.633634805679321289e-01,7.841227650642395020e-01,8.027289509773254395e-01,8.204519152641296387e-01,8.368854522705078125e-01,8.519594669342041016e-01,8.652201890945434570e-01,8.767021894454956055e-01,8.862336874008178711e-01,8.938791751861572266e-01,8.981591463088989258e-01,8.948647975921630859e-01,8.843809366226196289e-01,8.728144168853759766e-01,8.518151640892028809e-01,8.306045532226562500e-01,7.723538279533386230e-01,6.542502045631408691e-01,5.540115833282470703e-01,5.162806510925292969e-01,5.519808530807495117e-01,4.776875376701354980e-01,4.407089650630950928e-01,3.656929731369018555e-01,3.379324674606323242e-01,2.919579744338989258e-01,2.802028954029083252e-01,2.820690870285034180e-01,2.750514745712280273e-01,2.849566340446472168e-01,3.090159893035888672e-01,3.691373467445373535e-01,4.526491165161132812e-01,5.710300207138061523e-01,6.565531492233276367e-01,7.327894568443298340e-01,7.763944864273071289e-01,7.970365285873413086e-01,8.187611103057861328e-01,8.044540882110595703e-01,7.856426239013671875e-01,7.640237808227539062e-01,7.597516775131225586e-01,7.888720035552978516e-01,8.112473487854003906e-01,8.350484371185302734e-01,8.623896837234497070e-01,8.800908327102661133e-01,8.872252702713012695e-01,8.926997184753417969e-01,9.007521867752075195e-01,9.040777683258056641e-01,9.053859710693359375e-01,9.053388833999633789e-01,9.053418636322021484e-01,9.053573608398437500e-01,9.053783416748046875e-01,9.051487445831298828e-01,9.045405387878417969e-01,9.034007787704467773e-01,9.016119241714477539e-01,8.991032838821411133e-01,8.950774669647216797e-01,8.885999917984008789e-01,8.802761435508728027e-01,8.708723783493041992e-01,8.577377796173095703e-01,8.292533755302429199e-01,8.083455562591552734e-01,8.006063699722290039e-01,7.745690345764160156e-01,7.219296693801879883e-01,6.160479187965393066e-01
5.887318849563598633e-01,6.143179535865783691e-01,6.569484472274780273e-01,6.577814221382141113e-01,6.813407540321350098e-01,7.055698037147521973e-01,7.419320344924926758e-01,7.633365392684936523e-01,7.840987443923950195e-01,8.027107715606689453e-01,8.204657435417175293e-01,8.369140625000000000e-01,8.518241643905639648e-01,8.651635646820068359e-01,8.767249584197998047e-01,8.861784338951110840e-01,8.937008380889892578e-01,8.984751701354980469e-01,8.951810598373413086e-01,8.870942592620849609e-01,8.763845562934875488e-01,8.589269518852233887e-01,8.327102661132812500e-01,7.847208976745605469e-01,6.887791752815246582e-01,5.914288163185119629e-01,5.694451332092285156e-01,5.780995488166809082e-01,5.659135580062866211e-01,4.781650006771087646e-01,4.172664284706115723e-01,3.792949914932250977e-01,3.247201442718505859e-01,3.020718097686767578e-01,2.830853462219238281e-01,2.815417051315307617e-01,2.893347144126892090e-01,3.019742071628570557e-01,3.781531453132629395e-01,4.777859747409820557e-01,5.681462287902832031e-01,6.856342554092407227e-01,7.629144191741943359e-01,7.958869338035583496e-01,8.204853534698486328e-01,8.407108783721923828e-01,8.534738421440124512e-01,8.161208629608154297e-01,7.935143709182739258e-01,7.831546664237976074e-01,8.121646642684936523e-01,8.217246532440185547e-01,8.456153869628906250e-01,8.676137924194335938e-01,8.827629089355468750e-01,8.911633491516113281e-01,8.987479209899902344e-01,9.016884565353393555e-01,9.047266244888305664e-01,9.051616191864013672e-01,9.053395986557006836e-01,9.053419828414916992e-01,9.053540825843811035e-01,9.053707122802734375e-01,9.051675796508789062e-01,9.045493602752685547e-01,9.033930897712707520e-01,9.016163349151611328e-01,8.990687131881713867e-01,8.949469327926635742e-01,8.886444568634033203e-01,8.801645636558532715e-01,8.707157373428344727e-01,8.578228950500488281e-01,8.292667269706726074e-01,8.081742525100708008e-01,8.005629777908325195e-01,7.745729088783264160e-01,7.219684123992919922e-01,6.160025000572204590e-01
5.887250900268554688e-01,6.143071651458740234e-01,6.569359302520751953e-01,6.577669978141784668e-01,6.813246011734008789e-01,7.055517435073852539e-01,7.419179677963256836e-01,7.633159160614013672e-01,7.840800285339355469e-01,8.027019500732421875e-01,8.204566836357116699e-01,8.369120359420776367e-01,8.518272638320922852e-01,8.651076555252075195e-01,8.767084479331970215e-01,8.861862421035766602e-01,8.936309814453125000e-01,8.984838724136352539e-01,8.957502245903015137e-01,8.895483016967773438e-01,8.778749704360961914e-01,8.667343854904174805e-01,8.438124656677246094e-01,7.991089820861816406e-01,7.097380161285400391e-01,6.478602886199951172e-01,6.241667270660400391e-01,6.046538949012756348e-01,6.250432133674621582e-01,5.766796469688415527e-01,4.910837113857269287e-01,4.187791347503662109e-01,3.605800569057464600e-01,3.156410455703735352e-01,2.997779250144958496e-01,3.007953763008117676e-01,2.957191467285156250e-01,3.062417209148406982e-01,3.819161355495452881e-01,4.780330061912536621e-01,5.775718688964843750e-01,6.984097957611083984e-01,7.893778085708618164e-01,8.185089826583862305e-01,8.384990692138671875e-01,8.616613745689392090e-01,8.674274682998657227e-01,8.657349348068237305e-01,8.352009057998657227e-01,8.229604959487915039e-01,8.126626610755920410e-01,8.503270149230957031e-01,8.643305301666259766e-01,8.747272491455078125e-01,8.847563862800598145e-01,8.937821388244628906e-01,8.972736597061157227e-01,9.018164873123168945e-01,9.049529433250427246e-01,9.053265452384948730e-01,9.053388833999633789e-01,9.053245782852172852e-01,9.053525924682617188e-01,9.053744077682495117e-01,9.051620960235595703e-01,9.045383930206298828e-01,9.033941030502319336e-01,9.016329050064086914e-01,8.990531563758850098e-01,8.949608802795410156e-01,8.886347413063049316e-01,8.801282644271850586e-01,8.707861304283142090e-01,8.578420877456665039e-01,8.292032480239868164e-01,8.081845045089721680e-01,8.005909919738769531e-01,7.745988965034484863e-01,7.219768762588500977e-01,6.160139441490173340e-01
5.887182354927062988e-01,6.142960786819458008e-01,6.569232344627380371e-01,6.577522158622741699e-01,6.813085675239562988e-01,7.055350542068481445e-01,7.419009208679199219e-01,7.633012533187866211e-01,7.840633988380432129e-01,8.026849627494812012e-01,8.204466700553894043e-01,8.369025588035583496e-01,8.518191576004028320e-01,8.651000857353210449e-01,8.766862154006958008e-01,8.861715197563171387e-01,8.936907052993774414e-01,8.988267183303833008e-01,8.970137834548950195e-01,8.928267359733581543e-01,8.856076002120971680e-01,8.692005872726440430e-01,8.501747846603393555e-01,8.169738650321960449e-01,7.325333356857299805e-01,7.118979692459106445e-01,6.734632253646850586e-01,6.786843538284301758e-01,6.729533672332763672e-01,6.614743471145629883e-01,5.645713806152343750e-01,4.814077913761138916e-01,4.070157110691070557e-01,3.490170836448669434e-01,3.136447668075561523e-01,3.101249635219573975e-01,3.052905797958374023e-01,3.215835094451904297e-01,3.813293874263763428e-01,4.616544246673583984e-01,5.933802127838134766e-01,7.000819444656372070e-01,7.838231325149536133e-01,8.326585292816162109e-01,8.475611209869384766e-01,8.635751008987426758e-01,8.704487085342407227e-01,8.776613473892211914e-01,8.704490065574645996e-01,8.585321903228759766e-01,8.555232882499694824e-01,8.597922325134277344e-01,8.789367675781250000e-01,8.845196962356567383e-01,8.942053318023681641e-01,8.990811109542846680e-01,9.026648402214050293e-01,9.049368500709533691e-01,9.046419858932495117e-01,9.053041338920593262e-01,9.053344130516052246e-01,9.053311944007873535e-01,9.053524732589721680e-01,9.053735136985778809e-01,9.051607847213745117e-01,9.045397639274597168e-01,9.033986926078796387e-01,9.016396999359130859e-01,8.990608453750610352e-01,8.949520587921142578e-01,8.886378407478332520e-01,8.801603317260742188e-01,8.707975149154663086e-01,8.578357696533203125e-01,8.292226791381835938e-01,8.082058429718017578e-01,8.006067276000976562e-01,7.746139764785766602e-01,7.219910025596618652e-01,6.160247325897216797e-01
5.887113809585571289e-01,6.142849922180175781e-01,6.569103002548217773e-01,6.577374935150146484e-01,6.812924742698669434e-01,7.055187225341796875e-01,7.418844699859619141e-01,7.632849216461181641e-01,7.840481996536254883e-01,8.026697635650634766e-01,8.204325437545776367e-01,8.368906974792480469e-01,8.518078327178955078e-01,8.650903701782226562e-01,8.766705989837646484e-01,8.861560821533203125e-01,8.936861753463745117e-01,8.989498019218444824e-01,8.985497951507568359e-01,8.940376043319702148e-01,8.919528722763061523e-01,8.824326992034912109e-01,8.633028864860534668e-01,8.352293968200683594e-01,7.642397284507751465e-01,7.511811256408691406e-01,7.495886683464050293e-01,7.324849367141723633e-01,7.313054203987121582e-01,7.074358463287353516e-01,6.366953849792480469e-01,5.501283407211303711e-01,4.476635158061981201e-01,3.930684924125671387e-01,3.336074948310852051e-01,3.195924162864685059e-01,3.099998235702514648e-01,3.403559625148773193e-01,3.800217807292938232e-01,4.584012925624847412e-01,5.758144259452819824e-01,6.984016895294189453e-01,7.770949602127075195e-01,8.348542451858520508e-01,8.608462810516357422e-01,8.741701841354370117e-01,8.796937465667724609e-01,8.802676796913146973e-01,8.875145912170410156e-01,8.782522678375244141e-01,8.713796138763427734e-01,8.706629872322082520e-01,8.872008323669433594e-01,8.973971605300903320e-01,8.987093567848205566e-01,9.049932956695556641e-01,9.040307402610778809e-01,9.047082066535949707e-01,9.051229953765869141e-01,9.051045775413513184e-01,9.053462743759155273e-01,9.053310751914978027e-01,9.053522944450378418e-01,9.053736925125122070e-01,9.051607847213745117e-01,9.045403003692626953e-01,9.034001827239990234e-01,9.016417264938354492e-01,8.990639448165893555e-01,8.949551582336425781e-01,8.886442184448242188e-01,8.801687955856323242e-01,8.708065152168273926e-01,8.578464984893798828e-01,8.292396068572998047e-01,8.082239627838134766e-01,8.006230592727661133e-01,7.746304273605346680e-01,7.220048904418945312e-01,6.160331368446350098e-01
5.887044668197631836e-01,6.142736077308654785e-01,6.568973064422607422e-01,6.577227115631103516e-01,6.812763214111328125e-01,7.055024504661560059e-01,7.418678998947143555e-01,7.632686495780944824e-01,7.840322852134704590e-01,8.026548624038696289e-01,8.204187154769897461e-01,8.368779420852661133e-01,8.517966270446777344e-01,8.650804758071899414e-01,8.766602277755737305e-01,8.861539363861083984e-01,8.938865661621093750e-01,8.996324539184570312e-01,8.981304168701171875e-01,8.976238965988159180e-01,8.936265110969543457e-01,8.875664472579956055e-01,8.765127658843994141e-01,8.529332876205444336e-01,8.158280849456787109e-01,8.042863607406616211e-01,8.081343770027160645e-01,7.873655557632446289e-01,7.728902101516723633e-01,7.478228211402893066e-01,7.123225331306457520e-01,6.071749925613403320e-01,4.842421710491180420e-01,3.996609449386596680e-01,3.458350300788879395e-01,3.170696794986724854e-01,3.215551376342773438e-01,3.498795926570892334e-01,3.721449375152587891e-01,4.358963072299957275e-01,5.702587366104125977e-01,6.880659461021423340e-01,7.684001922607421875e-01,8.253608942031860352e-01,8.611166477203369141e-01,8.745862245559692383e-01,8.798775076866149902e-01,8.878290653228759766e-01,8.856582045555114746e-01,8.912843465805053711e-01,8.874948620796203613e-01,8.915687799453735352e-01,8.893562555313110352e-01,8.969591856002807617e-01,9.021708965301513672e-01,9.050914049148559570e-01,9.060344696044921875e-01,9.048631191253662109e-01,9.057104587554931641e-01,9.051753878593444824e-01,9.053308963775634766e-01,9.053313136100769043e-01,9.053521752357482910e-01,9.053735136985778809e-01,9.051609635353088379e-01,9.045408964157104492e-01,9.034013748168945312e-01,9.016436338424682617e-01,8.990663290023803711e-01,8.949595689773559570e-01,8.886511325836181641e-01,8.801776170730590820e-01,8.708162307739257812e-01,8.578591346740722656e-01,8.292551040649414062e-01,8.082408905029296875e-01,8.006398677825927734e-01,7.746468782424926758e-01,7.220181822776794434e-01,6.160426139831542969e-01
5.886974334716796875e-01,6.142621636390686035e-01,6.568843722343444824e-01,6.577075719833374023e-01,6.812599897384643555e-01,7.054858803749084473e-01,7.418516874313354492e-01,7.632523775100708008e-01,7.840164899826049805e-01,8.026393651962280273e-01,8.204042911529541016e-01,8.368653059005737305e-01,8.517853021621704102e-01,8.650705814361572266e-01,8.766558170318603516e-01,8.861236572265625000e-01,8.938520550727844238e-01,8.990921378135681152e-01,8.978003263473510742e-01,8.998484611511230469e-01,9.016137123107910156e-01,8.937495946884155273e-01,8.873075842857360840e-01,8.722472786903381348e-01,8.482766151428222656e-01,8.506842851638793945e-01,8.277773857116699219e-01,8.368843793869018555e-01,8.122712373733520508e-01,7.847144603729248047e-01,7.375685572624206543e-01,6.576224565505981445e-01,5.092287659645080566e-01,4.087519645690917969e-01,3.567863106727600098e-01,3.239689767360687256e-01,3.257690370082855225e-01,3.440097570419311523e-01,3.704776465892791748e-01,4.256515502929687500e-01,5.499390363693237305e-01,6.696917414665222168e-01,7.598099708557128906e-01,8.202085494995117188e-01,8.598676919937133789e-01,8.775464296340942383e-01,8.874475955963134766e-01,8.943541646003723145e-01,8.953557610511779785e-01,8.951404690742492676e-01,8.966082334518432617e-01,8.939037919044494629e-01,8.944254517555236816e-01,8.955731391906738281e-01,8.998109102249145508e-01,9.039434194564819336e-01,9.063227176666259766e-01,9.052262306213378906e-01,9.049811363220214844e-01,9.053381681442260742e-01,9.053365588188171387e-01,9.053335189819335938e-01,9.053522348403930664e-01,9.053735136985778809e-01,9.051612615585327148e-01,9.045416116714477539e-01,9.034026265144348145e-01,9.016455411911010742e-01,8.990691304206848145e-01,8.949638605117797852e-01,8.886576890945434570e-01,8.801866769790649414e-01,8.708264231681823730e-01,8.578718900680541992e-01,8.292704224586486816e-01,8.082576394081115723e-01,8.006566166877746582e-01,7.746632695198059082e-01,7.220315337181091309e-01,6.160519719123840332e-01
5.886901021003723145e-01,6.142505407333374023e-01,6.568709015846252441e-01,6.576924324035644531e-01,6.812431812286376953e-01,7.054690122604370117e-01,7.418346405029296875e-01,7.632361054420471191e-01,7.840005159378051758e-01,8.026238679885864258e-01,8.203901052474975586e-01,8.368524312973022461e-01,8.517735600471496582e-01,8.650604486465454102e-01,8.766533136367797852e-01,8.861060738563537598e-01,8.937193751335144043e-01,8.980882763862609863e-01,8.991953134536743164e-01,9.003788232803344727e-01,9.040076732635498047e-01,8.980617523193359375e-01,8.948212862014770508e-01,8.827071785926818848e-01,8.679609298706054688e-01,8.710150718688964844e-01,8.655006289482116699e-01,8.552842736244201660e-01,8.373082876205444336e-01,8.105525970458984375e-01,7.674343585968017578e-01,6.955711841583251953e-01,5.245544910430908203e-01,4.247294664382934570e-01,3.607676625251770020e-01,3.231872320175170898e-01,3.200338482856750488e-01,3.344135880470275879e-01,3.661109209060668945e-01,4.336047172546386719e-01,5.163564682006835938e-01,6.580178737640380859e-01,7.535427808761596680e-01,8.154269456863403320e-01,8.557464480400085449e-01,8.783820867538452148e-01,8.906500339508056641e-01,8.959279060363769531e-01,8.973344564437866211e-01,9.004746675491333008e-01,9.024287462234497070e-01,9.021791815757751465e-01,9.006574749946594238e-01,8.993405699729919434e-01,9.002947807312011719e-01,9.023885726928710938e-01,9.049012660980224609e-01,9.059054851531982422e-01,9.055933356285095215e-01,9.053399562835693359e-01,9.053236246109008789e-01,9.053264856338500977e-01,9.053521156311035156e-01,9.053735136985778809e-01,9.051614403724670410e-01,9.045423269271850586e-01,9.034037590026855469e-01,9.016473889350891113e-01,8.990716934204101562e-01,8.949680328369140625e-01,8.886641860008239746e-01,8.801954388618469238e-01,8.708370327949523926e-01,8.578845262527465820e-01,8.292855620384216309e-01,8.082745671272277832e-01,8.006736040115356445e-01,7.746796607971191406e-01,7.220450639724731445e-01,6.160614490509033203e-01
5.886820554733276367e-01,6.142380237579345703e-01,6.568569540977478027e-01,6.576765179634094238e-01,6.812261343002319336e-01,7.054516077041625977e-01,7.418177127838134766e-01,7.632192373275756836e-01,7.839840650558471680e-01,8.026080131530761719e-01,8.203754425048828125e-01,8.368389606475830078e-01,8.517616987228393555e-01,8.650501966476440430e-01,8.766379356384277344e-01,8.860958814620971680e-01,8.935204744338989258e-01,8.977225422859191895e-01,9.003493785858154297e-01,9.042567014694213867e-01,9.052966833114624023e-01,9.010714292526245117e-01,9.007025957107543945e-01,8.864139914512634277e-01,8.872735500335693359e-01,8.805049657821655273e-01,8.821091651916503906e-01,8.695590496063232422e-01,8.494320511817932129e-01,8.207807540893554688e-01,7.777425050735473633e-01,6.897400617599487305e-01,5.427567362785339355e-01,4.266001880168914795e-01,3.655258417129516602e-01,3.308144211769104004e-01,3.181865215301513672e-01,3.236920833587646484e-01,3.577951788902282715e-01,4.198690056800842285e-01,5.160337090492248535e-01,6.574166417121887207e-01,7.541553974151611328e-01,8.097025156021118164e-01,8.562436103820800781e-01,8.809964656829833984e-01,8.930742144584655762e-01,9.004049301147460938e-01,9.020009040832519531e-01,9.027271270751953125e-01,9.026310443878173828e-01,9.033154249191284180e-01,9.019417762756347656e-01,9.028588533401489258e-01,9.038379788398742676e-01,9.046227931976318359e-01,9.047822356224060059e-01,9.051522612571716309e-01,9.052283763885498047e-01,9.054287672042846680e-01,9.053476452827453613e-01,9.053324460983276367e-01,9.053521156311035156e-01,9.053735136985778809e-01,9.051617383956909180e-01,9.045430421829223633e-01,9.034049510955810547e-01,9.016492366790771484e-01,8.990743160247802734e-01,8.949722051620483398e-01,8.886708021163940430e-01,8.802044391632080078e-01,8.708476424217224121e-01,8.578971624374389648e-01,8.293008804321289062e-01,8.082915544509887695e-01,8.006905317306518555e-01,7.746962308883666992e-01,7.220585346221923828e-01,6.160708665847778320e-01
5.886737108230590820e-01,6.142249703407287598e-01,6.568418145179748535e-01,6.576595902442932129e-01,6.812081336975097656e-01,7.054334282875061035e-01,7.417998909950256348e-01,7.632020711898803711e-01,7.839673161506652832e-01,8.025919795036315918e-01,8.203603029251098633e-01,8.368253707885742188e-01,8.517498373985290527e-01,8.650394678115844727e-01,8.766256570816040039e-01,8.860850930213928223e-01,8.931293487548828125e-01,8.979638814926147461e-01,9.005280733108520508e-01,9.051530361175537109e-01,9.050633907318115234e-01,9.005502462387084961e-01,9.001778960227966309e-01,8.921626210212707520e-01,8.966609835624694824e-01,8.925737142562866211e-01,8.866189718246459961e-01,8.728607892990112305e-01,8.510742783546447754e-01,8.279417753219604492e-01,7.751965522766113281e-01,6.888604164123535156e-01,5.452437996864318848e-01,4.442125558853149414e-01,3.648754358291625977e-01,3.316503167152404785e-01,3.184365630149841309e-01,3.308096528053283691e-01,3.577820658683776855e-01,4.230099320411682129e-01,5.200585126876831055e-01,6.463673710823059082e-01,7.567749023437500000e-01,8.122596144676208496e-01,8.565264940261840820e-01,8.811016082763671875e-01,8.941152095794677734e-01,9.010881185531616211e-01,9.038375020027160645e-01,9.047703146934509277e-01,9.052978754043579102e-01,9.054182767868041992e-01,9.046180248260498047e-01,9.048876166343688965e-01,9.047991633415222168e-01,9.047182798385620117e-01,9.051109552383422852e-01,9.053567051887512207e-01,9.053839445114135742e-01,9.053055644035339355e-01,9.053322076797485352e-01,9.053328037261962891e-01,9.053521156311035156e-01,9.053735733032226562e-01,9.051619768142700195e-01,9.045436382293701172e-01,9.034061431884765625e-01,9.016509056091308594e-01,8.990770578384399414e-01,8.949766159057617188e-01,8.886775970458984375e-01,8.802133798599243164e-01,8.708581924438476562e-01,8.579098582267761230e-01,8.293162584304809570e-01,8.083086013793945312e-01,8.007076978683471680e-01,7.747125029563903809e-01,7.220721244812011719e-01,6.160804033279418945e-01
5.886651873588562012e-01,6.142109036445617676e-01,6.568261384963989258e-01,6.576412916183471680e-01,6.811888217926025391e-01,7.054141759872436523e-01,7.417811751365661621e-01,7.631837725639343262e-01,7.839500904083251953e-01,8.025754690170288086e-01,8.203451037406921387e-01,8.368115425109863281e-01,8.517374396324157715e-01,8.650287985801696777e-01,8.766235113143920898e-01,8.860707879066467285e-01,8.929970264434814453e-01,8.982351422309875488e-01,9.015728831291198730e-01,9.044113159179687500e-01,9.048506021499633789e-01,9.052137136459350586e-01,9.014114141464233398e-01,8.972301483154296875e-01,8.972320556640625000e-01,8.939658999443054199e-01,8.882268667221069336e-01,8.716359138488769531e-01,8.560501337051391602e-01,8.287360668182373047e-01,7.620108127593994141e-01,6.663210391998291016e-01,5.263338088989257812e-01,4.250453710556030273e-01,3.665953278541564941e-01,3.325018286705017090e-01,3.218014836311340332e-01,3.288097679615020752e-01,3.489623069763183594e-01,4.328274130821228027e-01,5.373873710632324219e-01,6.621293425559997559e-01,7.551296949386596680e-01,8.139914870262145996e-01,8.579610586166381836e-01,8.795793652534484863e-01,8.941161632537841797e-01,9.025161266326904297e-01,9.047457575798034668e-01,9.051940441131591797e-01,9.053223133087158203e-01,9.056194424629211426e-01,9.055966138839721680e-01,9.052430391311645508e-01,9.051991701126098633e-01,9.054050445556640625e-01,9.052981138229370117e-01,9.052959680557250977e-01,9.053279161453247070e-01,9.053310751914978027e-01,9.053292274475097656e-01,9.053301811218261719e-01,9.053521156311035156e-01,9.053734540939331055e-01,9.051622152328491211e-01,9.045442342758178711e-01,9.034073352813720703e-01,9.016526937484741211e-01,8.990796208381652832e-01,8.949807882308959961e-01,8.886843919754028320e-01,8.802223205566406250e-01,8.708688020706176758e-01,8.579225540161132812e-01,8.293317556381225586e-01,8.083256483078002930e-01,8.007244467735290527e-01,7.747289538383483887e-01,7.220857739448547363e-01,6.160898208618164062e-01
5.886563062667846680e-01,6.141967177391052246e-01,6.568100452423095703e-01,6.576228141784667969e-01,6.811684370040893555e-01,7.053936719894409180e-01,7.417610883712768555e-01,7.631646394729614258e-01,7.839316129684448242e-01,8.025580644607543945e-01,8.203290104866027832e-01,8.367972373962402344e-01,8.517247438430786133e-01,8.650176525115966797e-01,8.766118288040161133e-01,8.860762119293212891e-01,8.930218219757080078e-01,8.978391885757446289e-01,9.015939831733703613e-01,9.034142494201660156e-01,9.041287899017333984e-01,9.056203365325927734e-01,9.025295376777648926e-01,9.002292156219482422e-01,9.002588987350463867e-01,8.946994543075561523e-01,8.818697333335876465e-01,8.648387789726257324e-01,8.506893515586853027e-01,8.098731040954589844e-01,7.555067539215087891e-01,6.313267350196838379e-01,5.128021836280822754e-01,4.158272147178649902e-01,3.521701693534851074e-01,3.259194493293762207e-01,3.225755989551544189e-01,3.263054192066192627e-01,3.574173748493194580e-01,4.413485229015350342e-01,5.561066865921020508e-01,6.781907081604003906e-01,7.664799690246582031e-01,8.187743425369262695e-01,8.622028827667236328e-01,8.824381828308105469e-01,8.965392708778381348e-01,9.035920500755310059e-01,9.047814607620239258e-01,9.053725004196166992e-01,9.053096175193786621e-01,9.052761793136596680e-01,9.052829742431640625e-01,9.053292274475097656e-01,9.053623676300048828e-01,9.053532481193542480e-01,9.053360223770141602e-01,9.053273200988769531e-01,9.053316712379455566e-01,9.053262472152709961e-01,9.053256511688232422e-01,9.053288698196411133e-01,9.053520560264587402e-01,9.053734540939331055e-01,9.051623940467834473e-01,9.045448899269104004e-01,9.034086465835571289e-01,9.016544818878173828e-01,8.990823030471801758e-01,8.949851393699645996e-01,8.886909484863281250e-01,8.802313804626464844e-01,8.708794116973876953e-01,8.579351305961608887e-01,8.293471336364746094e-01,8.083425760269165039e-01,8.007414340972900391e-01,7.747453451156616211e-01,7.220989465713500977e-01,6.160991191864013672e-01
5.886477828025817871e-01,6.141828298568725586e-01,6.567936539649963379e-01,6.576036810874938965e-01,6.811476945877075195e-01,7.053724527359008789e-01,7.417401671409606934e-01,7.631442546844482422e-01,7.839117050170898438e-01,8.025394082069396973e-01,8.203119039535522461e-01,8.367819786071777344e-01,8.517115116119384766e-01,8.650062084197998047e-01,8.766064643859863281e-01,8.860887289047241211e-01,8.930826187133789062e-01,8.978578448295593262e-01,9.011981487274169922e-01,9.034232497215270996e-01,9.047033786773681641e-01,9.053521156311035156e-01,9.037052392959594727e-01,9.004288911819458008e-01,8.989932537078857422e-01,8.887803554534912109e-01,8.795559406280517578e-01,8.644358515739440918e-01,8.485622406005859375e-01,7.901524901390075684e-01,7.069569826126098633e-01,6.030704975128173828e-01,4.785731136798858643e-01,3.951920270919799805e-01,3.441146612167358398e-01,3.230397999286651611e-01,3.156995177268981934e-01,3.196360766887664795e-01,3.672456443309783936e-01,4.583550691604614258e-01,5.797554254531860352e-01,6.943977475166320801e-01,7.823382616043090820e-01,8.260687589645385742e-01,8.652638196945190430e-01,8.849759101867675781e-01,8.989293575286865234e-01,9.041305780410766602e-01,9.049898386001586914e-01,9.053437709808349609e-01,9.053416848182678223e-01,9.053248167037963867e-01,9.053233861923217773e-01,9.053255319595336914e-01,9.053362607955932617e-01,9.053344130516052246e-01,9.053317904472351074e-01,9.053294658660888672e-01,9.053283929824829102e-01,9.053273797035217285e-01,9.053291082382202148e-01,9.053298234939575195e-01,9.053521156311035156e-01,9.053733944892883301e-01,9.051626920700073242e-01,9.045455455780029297e-01,9.034097194671630859e-01,9.016563892364501953e-01,8.990850448608398438e-01,8.949893712997436523e-01,8.886976838111877441e-01,8.802402019500732422e-01,8.708898425102233887e-01,8.579477667808532715e-01,8.293623328208923340e-01,8.083595037460327148e-01,8.007581233978271484e-01,7.747615575790405273e-01,7.221127152442932129e-01,6.161084771156311035e-01
5.886397361755371094e-01,6.141694188117980957e-01,6.567774415016174316e-01,6.575849652290344238e-01,6.811265945434570312e-01,7.053510546684265137e-01,7.417186498641967773e-01,7.631231546401977539e-01,7.838914394378662109e-01,8.025196194648742676e-01,8.202939033508300781e-01,8.367658853530883789e-01,8.516975045204162598e-01,8.649940490722656250e-01,8.765959739685058594e-01,8.860850334167480469e-01,8.930271863937377930e-01,8.978221416473388672e-01,9.008767604827880859e-01,9.029849767684936523e-01,9.045149087905883789e-01,9.050745964050292969e-01,9.036555290222167969e-01,9.007890224456787109e-01,8.965367078781127930e-01,8.856924772262573242e-01,8.726364374160766602e-01,8.577327728271484375e-01,8.267803192138671875e-01,7.625601887702941895e-01,6.561670303344726562e-01,5.542765855789184570e-01,4.514473676681518555e-01,3.785291612148284912e-01,3.290055990219116211e-01,3.097358942031860352e-01,3.049569427967071533e-01,3.151579499244689941e-01,3.880465328693389893e-01,4.897254407405853271e-01,5.927819013595581055e-01,7.160881757736206055e-01,7.926565408706665039e-01,8.353440165519714355e-01,8.689978718757629395e-01,8.889634609222412109e-01,9.018657803535461426e-01,9.045655727386474609e-01,9.050791263580322266e-01,9.053752422332763672e-01,9.053422212600708008e-01,9.053283333778381348e-01,9.053283333778381348e-01,9.053283333778381348e-01,9.053283333778381348e-01,9.053283333778381348e-01,9.053283333778381348e-01,9.053283333778381348e-01,9.053283333778381348e-01,9.053283333778381348e-01,9.053285121917724609e-01,9.053297042846679688e-01,9.053519964218139648e-01,9.053733348846435547e-01,9.051628112792968750e-01,9.045462608337402344e-01,9.034107923507690430e-01,9.016582369804382324e-01,8.990877270698547363e-01,8.949937224388122559e-01,8.887042999267578125e-01,8.802492618560791016e-01,8.709003329277038574e-01,8.579604029655456543e-01,8.293773531913757324e-01,8.083761930465698242e-01,8.007748126983642578e-01,7.747778296470642090e-01,7.221257686614990234e-01,6.161178350448608398e-01
5.886317491531372070e-01,6.141564249992370605e-01,6.567624807357788086e-01,6.575672030448913574e-01,6.811066865921020508e-01,7.053303718566894531e-01,7.416977882385253906e-01,7.631019353866577148e-01,7.838701605796813965e-01,8.024990558624267578e-01,8.202743530273437500e-01,8.367481231689453125e-01,8.516812920570373535e-01,8.649801015853881836e-01,8.765852451324462891e-01,8.860808014869689941e-01,8.930585980415344238e-01,8.977419137954711914e-01,9.009885787963867188e-01,9.031738042831420898e-01,9.044529199600219727e-01,9.046816825866699219e-01,9.039248228073120117e-01,8.999794721603393555e-01,8.918863534927368164e-01,8.794025182723999023e-01,8.658730387687683105e-01,8.457720279693603516e-01,8.091154694557189941e-01,7.181198596954345703e-01,6.277564764022827148e-01,4.897156357765197754e-01,4.258610308170318604e-01,3.686187267303466797e-01,3.215171694755554199e-01,2.991545796394348145e-01,2.997727096080780029e-01,3.203574120998382568e-01,4.014219343662261963e-01,5.010595321655273438e-01,6.075211763381958008e-01,7.321677207946777344e-01,8.046773672103881836e-01,8.435290455818176270e-01,8.731584548950195312e-01,8.915694952011108398e-01,9.020537137985229492e-01,9.050961732864379883e-01,9.048705101013183594e-01,9.054059982299804688e-01,9.053393602371215820e-01,9.053261280059814453e-01,9.053261280059814453e-01,9.053260684013366699e-01,9.053260684013366699e-01,9.053260684013366699e-01,9.053261280059814453e-01,9.053260684013366699e-01,9.053260684013366699e-01,9.053261280059814453e-01,9.053262472152709961e-01,9.053274393081665039e-01,9.053497314453125000e-01,9.053710699081420898e-01,9.051607847213745117e-01,9.045448303222656250e-01,9.034101366996765137e-01,9.016583561897277832e-01,8.990886211395263672e-01,8.949961662292480469e-01,8.887088298797607422e-01,8.802567720413208008e-01,8.709098100662231445e-01,8.579722642898559570e-01,8.293919563293457031e-01,8.083927631378173828e-01,8.007915019989013672e-01,7.747937440872192383e-01,7.221389412879943848e-01,6.161269545555114746e-01
5.886238217353820801e-01,6.141434907913208008e-01,6.567468643188476562e-01,6.575489044189453125e-01,6.810852885246276855e-01,7.053068280220031738e-01,7.416731715202331543e-01,7.630766034126281738e-01,7.838443517684936523e-01,8.024725317955017090e-01,8.202486038208007812e-01,8.367234468460083008e-01,8.516582250595092773e-01,8.649585247039794922e-01,8.765656352043151855e-01,8.860643506050109863e-01,8.930450081825256348e-01,8.977509140968322754e-01,9.010192751884460449e-01,9.031973481178283691e-01,9.042446613311767578e-01,9.047133922576904297e-01,9.025421738624572754e-01,8.985320329666137695e-01,8.877681493759155273e-01,8.716825842857360840e-01,8.581104278564453125e-01,8.339208960533142090e-01,7.705535888671875000e-01,6.943837404251098633e-01,5.788323879241943359e-01,4.765831232070922852e-01,3.990358114242553711e-01,3.618419170379638672e-01,3.030615448951721191e-01,2.856461405754089355e-01,3.078137636184692383e-01,3.384386897087097168e-01,4.091361761093139648e-01,4.960997700691223145e-01,6.414570212364196777e-01,7.425123453140258789e-01,8.059868812561035156e-01,8.492686152458190918e-01,8.759936094284057617e-01,8.923857212066650391e-01,9.012255668640136719e-01,9.048029184341430664e-01,9.051479101181030273e-01,9.053789377212524414e-01,9.053342342376708984e-01,9.053213596343994141e-01,9.053214192390441895e-01,9.053214192390441895e-01,9.053215980529785156e-01,9.053215980529785156e-01,9.053215980529785156e-01,9.053217172622680664e-01,9.053217172622680664e-01,9.053218364715576172e-01,9.053220152854919434e-01,9.053231477737426758e-01,9.053455591201782227e-01,9.053670167922973633e-01,9.051569700241088867e-01,9.045404195785522461e-01,9.034065604209899902e-01,9.016553163528442383e-01,8.990852832794189453e-01,8.949923515319824219e-01,8.887058496475219727e-01,8.802542686462402344e-01,8.709076642990112305e-01,8.579745292663574219e-01,8.293979167938232422e-01,8.084014058113098145e-01,8.008008003234863281e-01,7.748017907142639160e-01,7.221434116363525391e-01,6.161293983459472656e-01
5.886114239692687988e-01,6.141275167465209961e-01,6.567274928092956543e-01,6.575306057929992676e-01,6.810665726661682129e-01,7.052869200706481934e-01,7.416546940803527832e-01,7.630628347396850586e-01,7.838364839553833008e-01,8.024716377258300781e-01,8.202580809593200684e-01,8.367465734481811523e-01,8.517013788223266602e-01,8.650188446044921875e-01,8.766281604766845703e-01,8.861192464828491211e-01,8.930923938751220703e-01,8.977876901626586914e-01,9.010730981826782227e-01,9.033072590827941895e-01,9.041687250137329102e-01,9.038771986961364746e-01,9.020410776138305664e-01,8.940589427947998047e-01,8.829163312911987305e-01,8.698569536209106445e-01,8.551602363586425781e-01,8.284498453140258789e-01,7.516986131668090820e-01,6.608418822288513184e-01,5.302498340606689453e-01,4.486549496650695801e-01,3.944829702377319336e-01,3.577652573585510254e-01,3.062156140804290771e-01,2.909446358680725098e-01,3.074826598167419434e-01,3.532987236976623535e-01,4.180175662040710449e-01,5.127345919609069824e-01,6.452261805534362793e-01,7.402741312980651855e-01,8.042422533035278320e-01,8.525348305702209473e-01,8.750907182693481445e-01,8.934607505798339844e-01,9.018782377243041992e-01,9.048283100128173828e-01,9.053095579147338867e-01,9.054701328277587891e-01,9.054052829742431641e-01,9.053951501846313477e-01,9.053953886032104492e-01,9.053957462310791016e-01,9.053958654403686523e-01,9.053961038589477539e-01,9.053964018821716309e-01,9.053966999053955078e-01,9.053969979286193848e-01,9.053972959518432617e-01,9.053977727890014648e-01,9.053993225097656250e-01,9.054223299026489258e-01,9.054446220397949219e-01,9.052374362945556641e-01,9.046196937561035156e-01,9.034806489944458008e-01,9.017143249511718750e-01,8.991349935531616211e-01,8.950438499450683594e-01,8.887718915939331055e-01,8.803321123123168945e-01,8.709973692893981934e-01,8.580470681190490723e-01,8.294659256935119629e-01,8.084499239921569824e-01,8.008332252502441406e-01,7.748222947120666504e-01,7.221435308456420898e-01,6.161302328109741211e-01
5.886178612709045410e-01,6.141346096992492676e-01,6.567318439483642578e-01,6.575453877449035645e-01,6.810919046401977539e-01,7.053453922271728516e-01,7.417642474174499512e-01,7.632201910018920898e-01,7.840194702148437500e-01,8.026662468910217285e-01,8.204534053802490234e-01,8.369381427764892578e-01,8.518700599670410156e-01,8.651561141014099121e-01,8.767375946044921875e-01,8.861938118934631348e-01,8.931593894958496094e-01,8.978911638259887695e-01,9.011946916580200195e-01,9.033683538436889648e-01,9.041502475738525391e-01,9.040102958679199219e-01,9.006555676460266113e-01,8.906745314598083496e-01,8.742362856864929199e-01,8.630927801132202148e-01,8.442538976669311523e-01,8.067265748977661133e-01,7.348700165748596191e-01,6.162816286087036133e-01,5.087552070617675781e-01,4.524495899677276611e-01,4.089648425579071045e-01,3.690250515937805176e-01,3.043922185897827148e-01,3.038252294063568115e-01,3.157564401626586914e-01,3.665136098861694336e-01,4.269851148128509521e-01,5.176888704299926758e-01,6.460248231887817383e-01,7.467671632766723633e-01,8.032789826393127441e-01,8.504872322082519531e-01,8.746631145477294922e-01,8.912276029586791992e-01,9.009782671928405762e-01,9.048377275466918945e-01,9.054241776466369629e-01,9.055260419845581055e-01,9.054780006408691406e-01,9.054684638977050781e-01,9.054675698280334473e-01,9.054666757583618164e-01,9.054657816886901855e-01,9.054648876190185547e-01,9.054640531539916992e-01,9.054630994796752930e-01,9.054623842239379883e-01,9.054615497589111328e-01,9.054609537124633789e-01,9.054617881774902344e-01,9.054846763610839844e-01,9.055076837539672852e-01,9.053026437759399414e-01,9.046822786331176758e-01,9.035509824752807617e-01,9.017898440361022949e-01,8.992097377777099609e-01,8.951145410537719727e-01,8.888953924179077148e-01,8.804674148559570312e-01,8.711245059967041016e-01,8.582111597061157227e-01,8.296971321105957031e-01,8.086982965469360352e-01,8.010910749435424805e-01,7.750720977783203125e-01,7.224289178848266602e-01,6.165237426757812500e-01
5.888014435768127441e-01,6.143112182617187500e-01,6.569851040840148926e-01,6.578005552291870117e-01,6.813386678695678711e-01,7.055058479309082031e-01,7.418468594551086426e-01,7.632267475128173828e-01,7.838836908340454102e-01,8.024012446403503418e-01,8.200696706771850586e-01,8.364217877388000488e-01,8.512637615203857422e-01,8.644667863845825195e-01,8.759486675262451172e-01,8.853857517242431641e-01,8.923821449279785156e-01,8.971038460731506348e-01,9.003704190254211426e-01,9.026038646697998047e-01,9.034143090248107910e-01,9.029483795166015625e-01,8.981382846832275391e-01,8.862860202789306641e-01,8.711555600166320801e-01,8.618063330650329590e-01,8.344646692276000977e-01,7.848553657531738281e-01,7.202023267745971680e-01,6.055752038955688477e-01,4.869289398193359375e-01,4.610179662704467773e-01,4.333550930023193359e-01,3.765030205249786377e-01,3.161216974258422852e-01,3.180412948131561279e-01,3.163974285125732422e-01,3.727034032344818115e-01,4.449391961097717285e-01,5.132532715797424316e-01,6.334658265113830566e-01,7.356052398681640625e-01,8.078401088714599609e-01,8.478885889053344727e-01,8.731517791748046875e-01,8.917002677917480469e-01,9.001452922821044922e-01,9.038366079330444336e-01,9.044033288955688477e-01,9.046549797058105469e-01,9.046217799186706543e-01,9.046155214309692383e-01,9.046145677566528320e-01,9.046137928962707520e-01,9.046127796173095703e-01,9.046119451522827148e-01,9.046109914779663086e-01,9.046101570129394531e-01,9.046092033386230469e-01,9.046083688735961914e-01,9.046077728271484375e-01,9.046083688735961914e-01,9.046285152435302734e-01,9.046615958213806152e-01,9.044573307037353516e-01,9.038797616958618164e-01,9.027755260467529297e-01,9.010081887245178223e-01,8.984287381172180176e-01,8.943626880645751953e-01,8.880732059478759766e-01,8.796497583389282227e-01,8.703302145004272461e-01,8.574486374855041504e-01,8.288412094116210938e-01,8.078485727310180664e-01,8.004549741744995117e-01,7.742145657539367676e-01,7.216160893440246582e-01,6.159968972206115723e-01
5.891575813293457031e-01,6.141802668571472168e-01,6.566534042358398438e-01,6.571516394615173340e-01,6.804433465003967285e-01,7.042939066886901855e-01,7.404216527938842773e-01,7.615294456481933594e-01,7.820325493812561035e-01,8.004184961318969727e-01,8.180021643638610840e-01,8.343551158905029297e-01,8.493285179138183594e-01,8.627442121505737305e-01,8.744820356369018555e-01,8.841429948806762695e-01,8.912274241447448730e-01,8.960125446319580078e-01,8.994313478469848633e-01,9.014208316802978516e-01,9.019286036491394043e-01,9.011186361312866211e-01,8.938541412353515625e-01,8.802971839904785156e-01,8.696861267089843750e-01,8.573702573776245117e-01,8.225799202919006348e-01,7.788830995559692383e-01,6.965077519416809082e-01,5.608429908752441406e-01,5.062873959541320801e-01,4.783945083618164062e-01,4.462308883666992188e-01,3.738515377044677734e-01,3.349777758121490479e-01,3.294257819652557373e-01,3.328693509101867676e-01,3.780273497104644775e-01,4.459461867809295654e-01,5.087144374847412109e-01,6.158423423767089844e-01,7.201316952705383301e-01,7.976061105728149414e-01,8.431316614151000977e-01,8.717106580734252930e-01,8.880026340484619141e-01,8.970603942871093750e-01,9.020729660987854004e-01,9.034634828567504883e-01,9.037077426910400391e-01,9.037071466445922852e-01,9.036979675292968750e-01,9.036968946456909180e-01,9.036957025527954102e-01,9.036946296691894531e-01,9.036936759948730469e-01,9.036926031112670898e-01,9.036915302276611328e-01,9.036903381347656250e-01,9.036892652511596680e-01,9.036887288093566895e-01,9.036886692047119141e-01,9.037046432495117188e-01,9.037342071533203125e-01,9.035483598709106445e-01,9.030002355575561523e-01,9.019626379013061523e-01,9.002501964569091797e-01,8.977004289627075195e-01,8.936430811882019043e-01,8.874099850654602051e-01,8.790736794471740723e-01,8.698123693466186523e-01,8.568378090858459473e-01,8.282493352890014648e-01,8.071023225784301758e-01,7.996404170989990234e-01,7.733844518661499023e-01,7.204583287239074707e-01,6.144753098487854004e-01
5.884083509445190430e-01,6.125020980834960938e-01,6.548573970794677734e-01,6.552616953849792480e-01,6.780965924263000488e-01,7.014934420585632324e-01,7.376149296760559082e-01,7.587720155715942383e-01,7.793217897415161133e-01,7.977052927017211914e-01,8.152709007263183594e-01,8.317425847053527832e-01,8.468421697616577148e-01,8.603430390357971191e-01,8.721721172332763672e-01,8.818722367286682129e-01,8.891137838363647461e-01,8.941456079483032227e-01,8.976882696151733398e-01,8.996135592460632324e-01,9.002745151519775391e-01,8.989349007606506348e-01,8.898879289627075195e-01,8.753013610839843750e-01,8.654786348342895508e-01,8.493984341621398926e-01,8.205689191818237305e-01,7.633985280990600586e-01,6.495748758316040039e-01,5.481146574020385742e-01,5.266341567039489746e-01,5.221503973007202148e-01,4.580363631248474121e-01,4.330774843692779541e-01,3.634485006332397461e-01,3.274155259132385254e-01,3.319295644760131836e-01,3.927183747291564941e-01,4.431909322738647461e-01,4.939183890819549561e-01,5.894023776054382324e-01,7.063136100769042969e-01,7.821398377418518066e-01,8.358355760574340820e-01,8.679667711257934570e-01,8.847813606262207031e-01,8.929146528244018555e-01,8.997775912284851074e-01,9.013818502426147461e-01,9.018357992172241211e-01,9.018474221229553223e-01,9.018238782882690430e-01,9.018179774284362793e-01,9.018119573593139648e-01,9.018060564994812012e-01,9.018000364303588867e-01,9.017940759658813477e-01,9.017879962921142578e-01,9.017819166183471680e-01,9.017759561538696289e-01,9.017701148986816406e-01,9.017648696899414062e-01,9.017786383628845215e-01,9.018036127090454102e-01,9.016301631927490234e-01,9.011605978012084961e-01,9.002003669738769531e-01,8.986028432846069336e-01,8.961464166641235352e-01,8.921558260917663574e-01,8.860836029052734375e-01,8.775885105133056641e-01,8.682947158813476562e-01,8.554422259330749512e-01,8.269684910774230957e-01,8.060647249221801758e-01,7.985050678253173828e-01,7.719321250915527344e-01,7.191767096519470215e-01,6.127032041549682617e-01
5.864673256874084473e-01,6.097786426544189453e-01,6.518779993057250977e-01,6.520062685012817383e-01,6.745831966400146484e-01,6.974258422851562500e-01,7.329925298690795898e-01,7.536324858665466309e-01,7.735052704811096191e-01,7.914437055587768555e-01,8.087503910064697266e-01,8.249947428703308105e-01,8.399569988250732422e-01,8.535124063491821289e-01,8.654181957244873047e-01,8.752087354660034180e-01,8.825209140777587891e-01,8.875734806060791016e-01,8.911446928977966309e-01,8.930642008781433105e-01,8.942428827285766602e-01,8.909581899642944336e-01,8.822624087333679199e-01,8.669486045837402344e-01,8.597272634506225586e-01,8.314328193664550781e-01,7.968998551368713379e-01,7.480438947677612305e-01,6.332922577857971191e-01,5.701397657394409180e-01,5.495873093605041504e-01,5.372110009193420410e-01,4.761919379234313965e-01,4.699744582176208496e-01,3.909665048122406006e-01,3.398494124412536621e-01,3.498965203762054443e-01,4.130713343620300293e-01,4.301848411560058594e-01,4.651610553264617920e-01,5.658423900604248047e-01,6.803041696548461914e-01,7.612004280090332031e-01,8.161023855209350586e-01,8.573415279388427734e-01,8.727263212203979492e-01,8.835484981536865234e-01,8.928845524787902832e-01,8.948848247528076172e-01,8.953109979629516602e-01,8.952995538711547852e-01,8.952788114547729492e-01,8.952697515487670898e-01,8.952608108520507812e-01,8.952516913414001465e-01,8.952427506446838379e-01,8.952338695526123047e-01,8.952249288558959961e-01,8.952158689498901367e-01,8.952069282531738281e-01,8.951976895332336426e-01,8.951888680458068848e-01,8.951978683471679688e-01,8.952149152755737305e-01,8.950799703598022461e-01,8.946304321289062500e-01,8.938207626342773438e-01,8.923535346984863281e-01,8.900297284126281738e-01,8.861839771270751953e-01,8.802899718284606934e-01,8.720772862434387207e-01,8.626477718353271484e-01,8.496518135070800781e-01,8.213638067245483398e-01,8.010460138320922852e-01,7.939209342002868652e-01,7.675429582595825195e-01,7.151778340339660645e-01,6.077120900154113770e-01
5.825385451316833496e-01,6.038834452629089355e-01,6.454457044601440430e-01,6.448025107383728027e-01,6.661992073059082031e-01,6.881856918334960938e-01,7.229028940200805664e-01,7.430799007415771484e-01,7.622814178466796875e-01,7.793465256690979004e-01,7.960640192031860352e-01,8.120000362396240234e-01,8.270368576049804688e-01,8.408913612365722656e-01,8.531115055084228516e-01,8.633391857147216797e-01,8.711400032043457031e-01,8.765270709991455078e-01,8.803135156631469727e-01,8.824142813682556152e-01,8.832027912139892578e-01,8.794739246368408203e-01,8.671666383743286133e-01,8.563863039016723633e-01,8.459925651550292969e-01,8.185254931449890137e-01,7.804563045501708984e-01,7.135066986083984375e-01,6.029964089393615723e-01,5.719599723815917969e-01,5.766183733940124512e-01,5.337921977043151855e-01,5.191129446029663086e-01,5.010995864868164062e-01,4.004694223403930664e-01,3.553259372711181641e-01,3.719765543937683105e-01,4.043219387531280518e-01,4.024513065814971924e-01,4.553796350955963135e-01,5.412279367446899414e-01,6.498191356658935547e-01,7.307813763618469238e-01,7.903404235839843750e-01,8.362309932708740234e-01,8.575104475021362305e-01,8.720244169235229492e-01,8.813003897666931152e-01,8.838965892791748047e-01,8.842592239379882812e-01,8.842239975929260254e-01,8.841862678527832031e-01,8.841662406921386719e-01,8.841462135314941406e-01,8.841263651847839355e-01,8.841061592102050781e-01,8.840862512588500977e-01,8.840663433074951172e-01,8.840463161468505859e-01,8.840262889862060547e-01,8.840063214302062988e-01,8.839862942695617676e-01,8.839970827102661133e-01,8.840426802635192871e-01,8.839157223701477051e-01,8.835659027099609375e-01,8.828827142715454102e-01,8.814154267311096191e-01,8.790634274482727051e-01,8.753730058670043945e-01,8.695408105850219727e-01,8.616565465927124023e-01,8.526041507720947266e-01,8.395804762840270996e-01,8.107990026473999023e-01,7.916889190673828125e-01,7.853944897651672363e-01,7.605850696563720703e-01,7.072005271911621094e-01,6.017423272132873535e-01
5.753744840621948242e-01,5.940449833869934082e-01,6.345360279083251953e-01,6.318085789680480957e-01,6.512085795402526855e-01,6.719588637351989746e-01,7.057658433914184570e-01,7.251171469688415527e-01,7.435659170150756836e-01,7.599306106567382812e-01,7.757346630096435547e-01,7.909024953842163086e-01,8.055486679077148438e-01,8.189443349838256836e-01,8.307929039001464844e-01,8.406751155853271484e-01,8.481011986732482910e-01,8.534288406372070312e-01,8.571171760559082031e-01,8.591425418853759766e-01,8.597865104675292969e-01,8.543372154235839844e-01,8.417850732803344727e-01,8.316985964775085449e-01,8.185014724731445312e-01,7.891858816146850586e-01,7.528916597366333008e-01,6.442195773124694824e-01,5.794534087181091309e-01,5.843486189842224121e-01,5.984426736831665039e-01,5.497933030128479004e-01,5.417005419731140137e-01,4.848482906818389893e-01,4.213130474090576172e-01,3.618294596672058105e-01,3.875382840633392334e-01,3.823292553424835205e-01,3.918235301971435547e-01,4.420757591724395752e-01,4.926722645759582520e-01,6.142742633819580078e-01,6.945519447326660156e-01,7.532847523689270020e-01,8.062252998352050781e-01,8.307093381881713867e-01,8.470222949981689453e-01,8.574205636978149414e-01,8.598098158836364746e-01,8.604401350021362305e-01,8.603624701499938965e-01,8.603038787841796875e-01,8.602674007415771484e-01,8.602306842803955078e-01,8.601942062377929688e-01,8.601576089859008789e-01,8.601208925247192383e-01,8.600844144821166992e-01,8.600479364395141602e-01,8.600112199783325195e-01,8.599745035171508789e-01,8.599368333816528320e-01,8.599421977996826172e-01,8.599756956100463867e-01,8.598254323005676270e-01,8.595585823059082031e-01,8.591561913490295410e-01,8.579719066619873047e-01,8.559181094169616699e-01,8.521531820297241211e-01,8.465312719345092773e-01,8.387362360954284668e-01,8.300167322158813477e-01,8.170056343078613281e-01,7.877485752105712891e-01,7.700186967849731445e-01,7.670712471008300781e-01,7.439153790473937988e-01,6.925693154335021973e-01,5.922798514366149902e-01
5.643822550773620605e-01,5.786241888999938965e-01,6.173480153083801270e-01,6.113602519035339355e-01,6.278088092803955078e-01,6.468167304992675781e-01,6.787402033805847168e-01,6.960920095443725586e-01,7.121297121047973633e-01,7.261343002319335938e-01,7.397831082344055176e-01,7.531960010528564453e-01,7.665134072303771973e-01,7.789348363876342773e-01,7.898185849189758301e-01,7.990710735321044922e-01,8.064173460006713867e-01,8.117224574089050293e-01,8.154081106185913086e-01,8.181631565093994141e-01,8.177465796470642090e-01,8.076376318931579590e-01,7.937585115432739258e-01,7.865872979164123535e-01,7.648661136627197266e-01,7.398262023925781250e-01,6.778984069824218750e-01,5.948895812034606934e-01,5.541920065879821777e-01,5.774780511856079102e-01,5.561487674713134766e-01,5.502173900604248047e-01,5.536370873451232910e-01,5.033086538314819336e-01,4.108805656433105469e-01,3.704895377159118652e-01,3.667237162590026855e-01,3.506003022193908691e-01,3.689054846763610840e-01,4.211928546428680420e-01,4.667410552501678467e-01,5.677553415298461914e-01,6.468334197998046875e-01,7.003058791160583496e-01,7.559940814971923828e-01,7.852379083633422852e-01,8.029431104660034180e-01,8.152116537094116211e-01,8.164092302322387695e-01,8.175400495529174805e-01,8.174177408218383789e-01,8.173346519470214844e-01,8.172758817672729492e-01,8.172179460525512695e-01,8.171595335006713867e-01,8.171012401580810547e-01,8.170430064201354980e-01,8.169846534729003906e-01,8.169264793395996094e-01,8.168680667877197266e-01,8.168100714683532715e-01,8.167506456375122070e-01,8.167434930801391602e-01,8.167163133621215820e-01,8.165225982666015625e-01,8.161162137985229492e-01,8.156599998474121094e-01,8.143492937088012695e-01,8.124817609786987305e-01,8.095337152481079102e-01,8.043098449707031250e-01,7.970510125160217285e-01,7.894446849822998047e-01,7.774086594581604004e-01,7.479369640350341797e-01,7.330164909362792969e-01,7.344399094581604004e-01,7.134400010108947754e-01,6.685458421707153320e-01,5.795703530311584473e-01
5.498373508453369141e-01,5.541204810142517090e-01,5.890468358993530273e-01,5.790404081344604492e-01,5.922510623931884766e-01,6.085616946220397949e-01,6.381776928901672363e-01,6.527700424194335938e-01,6.666654348373413086e-01,6.784005165100097656e-01,6.898097395896911621e-01,7.009427547454833984e-01,7.119292020797729492e-01,7.217678427696228027e-01,7.306023836135864258e-01,7.382170557975769043e-01,7.439169883728027344e-01,7.478935718536376953e-01,7.506545782089233398e-01,7.533872127532958984e-01,7.506127357482910156e-01,7.393196821212768555e-01,7.259072065353393555e-01,7.211027145385742188e-01,6.886495947837829590e-01,6.594441533088684082e-01,6.040522456169128418e-01,5.350858569145202637e-01,5.406673550605773926e-01,5.365913510322570801e-01,5.283556580543518066e-01,5.232411623001098633e-01,5.174095630645751953e-01,4.739733040332794189e-01,4.097991883754730225e-01,3.697557151317596436e-01,3.405756950378417969e-01,3.424143195152282715e-01,3.537089228630065918e-01,3.922930359840393066e-01,4.239860773086547852e-01,5.197259783744812012e-01,5.891592502593994141e-01,6.347984075546264648e-01,6.856366395950317383e-01,7.211713790893554688e-01,7.369192242622375488e-01,7.469921708106994629e-01,7.488976120948791504e-01,7.503991723060607910e-01,7.502450942993164062e-01,7.501256465911865234e-01,7.500443458557128906e-01,7.499617934226989746e-01,7.498803138732910156e-01,7.497989535331726074e-01,7.497174143791198730e-01,7.496360540390014648e-01,7.495545148849487305e-01,7.494729757308959961e-01,7.493907809257507324e-01,7.493056058883666992e-01,7.492816448211669922e-01,7.492039203643798828e-01,7.490507960319519043e-01,7.487693428993225098e-01,7.482548356056213379e-01,7.468669414520263672e-01,7.446021437644958496e-01,7.412372231483459473e-01,7.365432381629943848e-01,7.301858067512512207e-01,7.241901159286499023e-01,7.129214406013488770e-01,6.834819316864013672e-01,6.727476119995117188e-01,6.816442012786865234e-01,6.628741621971130371e-01,6.336134076118469238e-01,5.563842654228210449e-01
5.325884222984313965e-01,5.238329172134399414e-01,5.546814203262329102e-01,5.387904644012451172e-01,5.466868281364440918e-01,5.595415234565734863e-01,5.837678909301757812e-01,5.949434041976928711e-01,6.054077148437500000e-01,6.135313510894775391e-01,6.215453147888183594e-01,6.294712424278259277e-01,6.371219158172607422e-01,6.439453363418579102e-01,6.501073837280273438e-01,6.548426151275634766e-01,6.580814123153686523e-01,6.605026125907897949e-01,6.620855331420898438e-01,6.645544171333312988e-01,6.581144332885742188e-01,6.477284431457519531e-01,6.361942291259765625e-01,6.302998661994934082e-01,5.969066023826599121e-01,5.675961971282958984e-01,5.185451507568359375e-01,4.750378429889678955e-01,4.849813878536224365e-01,4.748694896697998047e-01,4.988315105438232422e-01,4.915686249732971191e-01,4.770293831825256348e-01,4.290738999843597412e-01,4.145154953002929688e-01,3.433015942573547363e-01,3.160827457904815674e-01,3.068107366561889648e-01,3.265531659126281738e-01,3.593415021896362305e-01,3.910198807716369629e-01,4.657461047172546387e-01,5.229663252830505371e-01,5.580410361289978027e-01,5.989496707916259766e-01,6.309777498245239258e-01,6.497077345848083496e-01,6.585447192192077637e-01,6.590359210968017578e-01,6.606745123863220215e-01,6.605088710784912109e-01,6.604089140892028809e-01,6.603102087974548340e-01,6.602213978767395020e-01,6.601350307464599609e-01,6.600475311279296875e-01,6.599611639976501465e-01,6.598749160766601562e-01,6.597883105278015137e-01,6.597019433975219727e-01,6.596148014068603516e-01,6.595229506492614746e-01,6.594580411911010742e-01,6.593983769416809082e-01,6.591871976852416992e-01,6.589781641960144043e-01,6.586579680442810059e-01,6.575005054473876953e-01,6.555027961730957031e-01,6.523219347000122070e-01,6.491037607192993164e-01,6.442713737487792969e-01,6.404036879539489746e-01,6.307116150856018066e-01,6.032374501228332520e-01,5.958649516105651855e-01,6.114709377288818359e-01,5.967175960540771484e-01,5.879030823707580566e-01,5.268238782882690430e-01
5.116023421287536621e-01,4.894244670867919922e-01,5.142433047294616699e-01,4.909954667091369629e-01,4.925795495510101318e-01,5.011613965034484863e-01,5.197649002075195312e-01,5.277155041694641113e-01,5.348528623580932617e-01,5.396910309791564941e-01,5.445622801780700684e-01,5.496703386306762695e-01,5.546255707740783691e-01,5.589565634727478027e-01,5.625776052474975586e-01,5.652742385864257812e-01,5.675639510154724121e-01,5.691649317741394043e-01,5.708067417144775391e-01,5.715500712394714355e-01,5.663456320762634277e-01,5.559978485107421875e-01,5.502743721008300781e-01,5.431679487228393555e-01,5.145795941352844238e-01,4.899200201034545898e-01,4.391058087348937988e-01,4.387024939060211182e-01,4.293628931045532227e-01,4.511642158031463623e-01,4.520444869995117188e-01,4.534661173820495605e-01,4.204622209072113037e-01,3.955889046192169189e-01,3.679146170616149902e-01,3.300436735153198242e-01,3.017852902412414551e-01,2.908116579055786133e-01,3.063002228736877441e-01,3.264728188514709473e-01,3.595059812068939209e-01,4.115233421325683594e-01,4.544994533061981201e-01,4.852569699287414551e-01,5.202806591987609863e-01,5.432165265083312988e-01,5.588517189025878906e-01,5.659824013710021973e-01,5.671812295913696289e-01,5.683673620223999023e-01,5.681952834129333496e-01,5.681000947952270508e-01,5.680159926414489746e-01,5.679415464401245117e-01,5.678459405899047852e-01,5.677583217620849609e-01,5.676732063293457031e-01,5.675871968269348145e-01,5.675016045570373535e-01,5.674157738685607910e-01,5.673297047615051270e-01,5.672376751899719238e-01,5.671527981758117676e-01,5.671129822731018066e-01,5.670816898345947266e-01,5.670051574707031250e-01,5.667660236358642578e-01,5.662242770195007324e-01,5.647113323211669922e-01,5.622802972793579102e-01,5.592167973518371582e-01,5.556030273437500000e-01,5.536595582962036133e-01,5.454833507537841797e-01,5.214219093322753906e-01,5.173125863075256348e-01,5.383357405662536621e-01,5.280088186264038086e-01,5.396379828453063965e-01,4.964864253997802734e-01
4.905976057052612305e-01,4.557314515113830566e-01,4.713657796382904053e-01,4.409488439559936523e-01,4.362845420837402344e-01,4.406417012214660645e-01,4.540652036666870117e-01,4.581457376480102539e-01,4.624725878238677979e-01,4.647974371910095215e-01,4.673559069633483887e-01,4.701715111732482910e-01,4.729337692260742188e-01,4.755640029907226562e-01,4.778576791286468506e-01,4.795607030391693115e-01,4.808374345302581787e-01,4.817787408828735352e-01,4.829239547252655029e-01,4.823990464210510254e-01,4.777953624725341797e-01,4.716764986515045166e-01,4.692006707191467285e-01,4.579021036624908447e-01,4.389849901199340820e-01,4.156348705291748047e-01,3.967637717723846436e-01,3.892793059349060059e-01,3.852889239788055420e-01,3.962598443031311035e-01,4.076659381389617920e-01,4.078260064125061035e-01,3.781560957431793213e-01,3.665282726287841797e-01,3.471840620040893555e-01,3.075839877128601074e-01,2.860752046108245850e-01,2.758643627166748047e-01,2.897202968597412109e-01,2.979136109352111816e-01,3.258156180381774902e-01,3.645463883876800537e-01,3.999855220317840576e-01,4.171121716499328613e-01,4.413860440254211426e-01,4.614365994930267334e-01,4.742867350578308105e-01,4.790500104427337646e-01,4.797611832618713379e-01,4.806234240531921387e-01,4.803663492202758789e-01,4.804226756095886230e-01,4.803571999073028564e-01,4.803197383880615234e-01,4.802499711513519287e-01,4.801885187625885010e-01,4.801164269447326660e-01,4.800443351268768311e-01,4.799722135066986084e-01,4.799005389213562012e-01,4.798284471035003662e-01,4.797531962394714355e-01,4.796707332134246826e-01,4.796061813831329346e-01,4.795933961868286133e-01,4.796012938022613525e-01,4.795247912406921387e-01,4.794361591339111328e-01,4.788650870323181152e-01,4.778386354446411133e-01,4.769164323806762695e-01,4.753529727458953857e-01,4.753218889236450195e-01,4.694725573062896729e-01,4.494741261005401611e-01,4.482327699661254883e-01,4.717776775360107422e-01,4.687722027301788330e-01,4.949706494808197021e-01,4.690869748592376709e-01
4.694189429283142090e-01,4.224305450916290283e-01,4.285632967948913574e-01,3.950863182544708252e-01,3.841225206851959229e-01,3.856876492500305176e-01,3.961030840873718262e-01,3.990412652492523193e-01,4.020636081695556641e-01,4.032551944255828857e-01,4.044670164585113525e-01,4.056769013404846191e-01,4.066950976848602295e-01,4.076397418975830078e-01,4.084356129169464111e-01,4.090182185173034668e-01,4.096219539642333984e-01,4.100522994995117188e-01,4.107861220836639404e-01,4.103085994720458984e-01,4.072443842887878418e-01,4.049973487854003906e-01,4.041404128074645996e-01,3.908561468124389648e-01,3.787081241607666016e-01,3.604787886142730713e-01,3.525849282741546631e-01,3.479882776737213135e-01,3.500819802284240723e-01,3.591839075088500977e-01,3.675416707992553711e-01,3.648199439048767090e-01,3.444440364837646484e-01,3.334338366985321045e-01,3.160818219184875488e-01,2.895922660827636719e-01,2.749572992324829102e-01,2.639825940132141113e-01,2.734087705612182617e-01,2.828148901462554932e-01,3.020063638687133789e-01,3.257318735122680664e-01,3.515315651893615723e-01,3.635397553443908691e-01,3.810786008834838867e-01,3.935694694519042969e-01,4.043259024620056152e-01,4.073795676231384277e-01,4.079472720623016357e-01,4.083868563175201416e-01,4.085862934589385986e-01,4.085260927677154541e-01,4.083696305751800537e-01,4.083943665027618408e-01,4.083449840545654297e-01,4.082937240600585938e-01,4.082370400428771973e-01,4.081796705722808838e-01,4.081228673458099365e-01,4.080659747123718262e-01,4.080100059509277344e-01,4.079528152942657471e-01,4.078985452651977539e-01,4.078489542007446289e-01,4.078185856342315674e-01,4.077997803688049316e-01,4.078204035758972168e-01,4.077261686325073242e-01,4.073449969291687012e-01,4.065100550651550293e-01,4.056692719459533691e-01,4.045840501785278320e-01,4.052364230155944824e-01,4.015402793884277344e-01,3.856725394725799561e-01,3.876830339431762695e-01,4.135022759437561035e-01,4.177197813987731934e-01,4.560207426548004150e-01,4.460570812225341797e-01
4.513984024524688721e-01,3.938302397727966309e-01,3.929943740367889404e-01,3.573050796985626221e-01,3.413715958595275879e-01,3.406628966331481934e-01,3.481093347072601318e-01,3.498305082321166992e-01,3.515254855155944824e-01,3.519468903541564941e-01,3.524639010429382324e-01,3.529269397258758545e-01,3.534111976623535156e-01,3.538471162319183350e-01,3.541333079338073730e-01,3.542312681674957275e-01,3.542835116386413574e-01,3.541003465652465820e-01,3.541371524333953857e-01,3.537545204162597656e-01,3.522018194198608398e-01,3.513667583465576172e-01,3.489726781845092773e-01,3.396989703178405762e-01,3.318634629249572754e-01,3.247102499008178711e-01,3.191122412681579590e-01,3.166207075119018555e-01,3.125092387199401855e-01,3.238573968410491943e-01,3.294457793235778809e-01,3.280543088912963867e-01,3.159411251544952393e-01,3.070128858089447021e-01,2.942368090152740479e-01,2.743859887123107910e-01,2.601424455642700195e-01,2.509627938270568848e-01,2.598458528518676758e-01,2.691177129745483398e-01,2.787942588329315186e-01,2.977163195610046387e-01,3.135045766830444336e-01,3.211609125137329102e-01,3.333372473716735840e-01,3.437806665897369385e-01,3.486014604568481445e-01,3.511663675308227539e-01,3.520044386386871338e-01,3.527796864509582520e-01,3.525284528732299805e-01,3.525501489639282227e-01,3.525845110416412354e-01,3.526120781898498535e-01,3.525326550006866455e-01,3.524975776672363281e-01,3.524558842182159424e-01,3.524151444435119629e-01,3.523745834827423096e-01,3.523339331150054932e-01,3.522938191890716553e-01,3.522534370422363281e-01,3.522107005119323730e-01,3.521822690963745117e-01,3.521437644958496094e-01,3.520891070365905762e-01,3.520937561988830566e-01,3.521384894847869873e-01,3.520879447460174561e-01,3.520108461380004883e-01,3.517506122589111328e-01,3.512950539588928223e-01,3.521309494972229004e-01,3.495014309883117676e-01,3.363141119480133057e-01,3.391829133033752441e-01,3.653343915939331055e-01,3.756951689720153809e-01,4.224520325660705566e-01,4.258237779140472412e-01
4.349693059921264648e-01,3.689469397068023682e-01,3.612777888774871826e-01,3.251689672470092773e-01,3.061337769031524658e-01,3.047601580619812012e-01,3.108660280704498291e-01,3.122516274452209473e-01,3.134104609489440918e-01,3.134234547615051270e-01,3.134063780307769775e-01,3.133977651596069336e-01,3.134759068489074707e-01,3.135641217231750488e-01,3.135960698127746582e-01,3.136097192764282227e-01,3.135639429092407227e-01,3.134702444076538086e-01,3.136824369430541992e-01,3.132522702217102051e-01,3.131193816661834717e-01,3.123567104339599609e-01,3.103080391883850098e-01,3.040964603424072266e-01,3.000141680240631104e-01,2.953058481216430664e-01,2.925569415092468262e-01,2.901049852371215820e-01,2.918605804443359375e-01,2.971215844154357910e-01,3.015410900115966797e-01,3.010027408599853516e-01,2.919118106365203857e-01,2.813819348812103271e-01,2.759455740451812744e-01,2.661826908588409424e-01,2.484628558158874512e-01,2.441644966602325439e-01,2.475271522998809814e-01,2.536762952804565430e-01,2.620909810066223145e-01,2.748042047023773193e-01,2.838387489318847656e-01,2.894886732101440430e-01,2.981998324394226074e-01,3.048200011253356934e-01,3.079474568367004395e-01,3.102937340736389160e-01,3.114033639430999756e-01,3.123104572296142578e-01,3.123421072959899902e-01,3.124328255653381348e-01,3.124676346778869629e-01,3.124414682388305664e-01,3.124280571937561035e-01,3.124087452888488770e-01,3.123779892921447754e-01,3.123482465744018555e-01,3.123189210891723633e-01,3.122893571853637695e-01,3.122601509094238281e-01,3.122307658195495605e-01,3.122017383575439453e-01,3.121702671051025391e-01,3.121398985385894775e-01,3.121101856231689453e-01,3.120697140693664551e-01,3.120184540748596191e-01,3.119939565658569336e-01,3.118770122528076172e-01,3.117412924766540527e-01,3.115233480930328369e-01,3.122661709785461426e-01,3.104390501976013184e-01,2.992470860481262207e-01,3.026051223278045654e-01,3.288372755050659180e-01,3.442037999629974365e-01,3.968371748924255371e-01,4.101084172725677490e-01
4.212133884429931641e-01,3.491309881210327148e-01,3.364098668098449707e-01,2.999956905841827393e-01,2.791724205017089844e-01,2.769963741302490234e-01,2.819489240646362305e-01,2.831149697303771973e-01,2.839984297752380371e-01,2.838881611824035645e-01,2.838498950004577637e-01,2.838478386402130127e-01,2.838302254676818848e-01,2.838136553764343262e-01,2.837985754013061523e-01,2.837607562541961670e-01,2.837184667587280273e-01,2.836594581604003906e-01,2.837023437023162842e-01,2.834929823875427246e-01,2.833653688430786133e-01,2.829713225364685059e-01,2.818048596382141113e-01,2.786456942558288574e-01,2.751818299293518066e-01,2.732896208763122559e-01,2.717911005020141602e-01,2.707333564758300781e-01,2.728904187679290771e-01,2.739908099174499512e-01,2.777882218360900879e-01,2.770863175392150879e-01,2.724473178386688232e-01,2.666572928428649902e-01,2.599173784255981445e-01,2.512598037719726562e-01,2.430174052715301514e-01,2.371131181716918945e-01,2.388119697570800781e-01,2.395435571670532227e-01,2.490425407886505127e-01,2.543697953224182129e-01,2.607812881469726562e-01,2.641518712043762207e-01,2.697802186012268066e-01,2.740932106971740723e-01,2.771739959716796875e-01,2.800386250019073486e-01,2.814781069755554199e-01,2.818165421485900879e-01,2.823398113250732422e-01,2.827591598033905029e-01,2.828983068466186523e-01,2.828316092491149902e-01,2.828537523746490479e-01,2.828494906425476074e-01,2.828310132026672363e-01,2.828106582164764404e-01,2.827892005443572998e-01,2.827678322792053223e-01,2.827464640140533447e-01,2.827252149581909180e-01,2.827037572860717773e-01,2.826832532882690430e-01,2.826615571975708008e-01,2.826369404792785645e-01,2.826137542724609375e-01,2.826045751571655273e-01,2.825954556465148926e-01,2.825948596000671387e-01,2.825757861137390137e-01,2.824671268463134766e-01,2.831078767776489258e-01,2.817974090576171875e-01,2.718729972839355469e-01,2.751486301422119141e-01,3.007521927356719971e-01,3.195729851722717285e-01,3.763064444065093994e-01,3.975835740566253662e-01
4.091762602329254150e-01,3.324918746948242188e-01,3.159797191619873047e-01,2.799507975578308105e-01,2.584243118762969971e-01,2.558334469795227051e-01,2.600277066230773926e-01,2.610205411911010742e-01,2.617935836315155029e-01,2.617086172103881836e-01,2.616682648658752441e-01,2.616460025310516357e-01,2.616264522075653076e-01,2.616109251976013184e-01,2.615946531295776367e-01,2.615773379802703857e-01,2.615612149238586426e-01,2.615253925323486328e-01,2.615224719047546387e-01,2.614523768424987793e-01,2.614260315895080566e-01,2.613589167594909668e-01,2.609655261039733887e-01,2.592523694038391113e-01,2.575485110282897949e-01,2.552861869335174561e-01,2.550902366638183594e-01,2.544292509555816650e-01,2.556768655776977539e-01,2.572347819805145264e-01,2.581731081008911133e-01,2.577472329139709473e-01,2.564485371112823486e-01,2.524706125259399414e-01,2.465503811836242676e-01,2.418540418148040771e-01,2.346288561820983887e-01,2.316002547740936279e-01,2.303663492202758789e-01,2.327012121677398682e-01,2.333087027072906494e-01,2.397438883781433105e-01,2.436746060848236084e-01,2.472669184207916260e-01,2.504972815513610840e-01,2.527080178260803223e-01,2.549961805343627930e-01,2.565178275108337402e-01,2.582759559154510498e-01,2.594927251338958740e-01,2.603358328342437744e-01,2.605285644531250000e-01,2.607661187648773193e-01,2.608749270439147949e-01,2.609332203865051270e-01,2.609226107597351074e-01,2.609089016914367676e-01,2.608917951583862305e-01,2.608755230903625488e-01,2.608592510223388672e-01,2.608429491519927979e-01,2.608267664909362793e-01,2.608104944229125977e-01,2.607940137386322021e-01,2.607775628566741943e-01,2.607610225677490234e-01,2.607437372207641602e-01,2.607281804084777832e-01,2.607135176658630371e-01,2.606981396675109863e-01,2.606827020645141602e-01,2.606042623519897461e-01,2.611229419708251953e-01,2.600769996643066406e-01,2.511792182922363281e-01,2.544575333595275879e-01,2.794688940048217773e-01,3.010030984878540039e-01,3.605903387069702148e-01,3.876367211341857910e-01
3.991102278232574463e-01,3.188920021057128906e-01,2.997276782989501953e-01,2.643885016441345215e-01,2.423054277896881104e-01,2.394178211688995361e-01,2.430782318115234375e-01,2.439689040184020996e-01,2.446600198745727539e-01,2.445967793464660645e-01,2.445643842220306396e-01,2.445495724678039551e-01,2.445351779460906982e-01,2.445210814476013184e-01,2.445067167282104492e-01,2.444924414157867432e-01,2.444803714752197266e-01,2.444540858268737793e-01,2.444265186786651611e-01,2.444386482238769531e-01,2.444165050983428955e-01,2.443696856498718262e-01,2.443165779113769531e-01,2.437705099582672119e-01,2.426477968692779541e-01,2.417020499706268311e-01,2.412502467632293701e-01,2.411963045597076416e-01,2.418313026428222656e-01,2.419061362743377686e-01,2.424352765083312988e-01,2.421688139438629150e-01,2.419225275516510010e-01,2.393474280834197998e-01,2.339469194412231445e-01,2.311716675758361816e-01,2.271145582199096680e-01,2.242249250411987305e-01,2.228628695011138916e-01,2.243063151836395264e-01,2.275161743164062500e-01,2.266656756401062012e-01,2.309835851192474365e-01,2.328288257122039795e-01,2.364025115966796875e-01,2.366997897624969482e-01,2.386344373226165771e-01,2.403700351715087891e-01,2.410097122192382812e-01,2.420406937599182129e-01,2.429252564907073975e-01,2.433401644229888916e-01,2.437556982040405273e-01,2.439582943916320801e-01,2.439824342727661133e-01,2.439820170402526855e-01,2.439675927162170410e-01,2.439527809619903564e-01,2.439402341842651367e-01,2.439273297786712646e-01,2.439147233963012695e-01,2.439019083976745605e-01,2.438891530036926270e-01,2.438763678073883057e-01,2.438634634017944336e-01,2.438505291938781738e-01,2.438374757766723633e-01,2.438238561153411865e-01,2.438112199306488037e-01,2.437981367111206055e-01,2.437852323055267334e-01,2.437213659286499023e-01,2.441458106040954590e-01,2.433105111122131348e-01,2.352312505245208740e-01,2.385430634021759033e-01,2.629404366016387939e-01,2.863736152648925781e-01,3.479855954647064209e-01,3.796853423118591309e-01
3.908088803291320801e-01,3.077782988548278809e-01,2.866276502609252930e-01,2.519682347774505615e-01,2.295322120189666748e-01,2.264050245285034180e-01,2.296709716320037842e-01,2.304612994194030762e-01,2.310829162597656250e-01,2.310285270214080811e-01,2.310015857219696045e-01,2.309907674789428711e-01,2.309805750846862793e-01,2.309702932834625244e-01,2.309599220752716064e-01,2.309497892856597900e-01,2.309411466121673584e-01,2.309248447418212891e-01,2.308984100818634033e-01,2.308847606182098389e-01,2.309399247169494629e-01,2.308635115623474121e-01,2.308701872825622559e-01,2.307217717170715332e-01,2.302709817886352539e-01,2.294600307941436768e-01,2.296740710735321045e-01,2.293413281440734863e-01,2.299278378486633301e-01,2.299287021160125732e-01,2.300391793251037598e-01,2.299264669418334961e-01,2.296815514564514160e-01,2.280768454074859619e-01,2.248711287975311279e-01,2.224037051200866699e-01,2.200889587402343750e-01,2.171848416328430176e-01,2.157976627349853516e-01,2.159475982189178467e-01,2.173652052879333496e-01,2.185171544551849365e-01,2.203269302845001221e-01,2.229572236537933350e-01,2.231752276420593262e-01,2.255991101264953613e-01,2.267116904258728027e-01,2.274429500102996826e-01,2.281189858913421631e-01,2.287502586841583252e-01,2.292975187301635742e-01,2.296492457389831543e-01,2.302932143211364746e-01,2.305062115192413330e-01,2.305535972118377686e-01,2.305440604686737061e-01,2.305280268192291260e-01,2.305174767971038818e-01,2.305072247982025146e-01,2.304968833923339844e-01,2.304866909980773926e-01,2.304764688014984131e-01,2.304663658142089844e-01,2.304559946060180664e-01,2.304456233978271484e-01,2.304356098175048828e-01,2.304250895977020264e-01,2.304148972034454346e-01,2.304047048091888428e-01,2.303944230079650879e-01,2.303838431835174561e-01,2.303305566310882568e-01,2.306863963603973389e-01,2.300102114677429199e-01,2.225951552391052246e-01,2.259185016155242920e-01,2.498136758804321289e-01,2.745965719223022461e-01,3.377314805984497070e-01,3.732009530067443848e-01
3.838100433349609375e-01,2.985774278640747070e-01,2.758290469646453857e-01,2.418447434902191162e-01,2.191896438598632812e-01,2.158573865890502930e-01,2.188126742839813232e-01,2.195141613483428955e-01,2.200805544853210449e-01,2.200331687927246094e-01,2.200098931789398193e-01,2.200015485286712646e-01,2.199932038784027100e-01,2.199846208095550537e-01,2.199762165546417236e-01,2.199675738811492920e-01,2.199610173702239990e-01,2.199504971504211426e-01,2.199388742446899414e-01,2.199356257915496826e-01,2.199355363845825195e-01,2.198594510555267334e-01,2.199250757694244385e-01,2.199190258979797363e-01,2.197320759296417236e-01,2.193491458892822266e-01,2.192522287368774414e-01,2.193676531314849854e-01,2.195633053779602051e-01,2.197147309780120850e-01,2.194820344448089600e-01,2.195389568805694580e-01,2.193878591060638428e-01,2.186548411846160889e-01,2.158844769001007080e-01,2.147690951824188232e-01,2.133052051067352295e-01,2.110611200332641602e-01,2.093794643878936768e-01,2.099303305149078369e-01,2.097692489624023438e-01,2.102495133876800537e-01,2.121656835079193115e-01,2.129140496253967285e-01,2.141288220882415771e-01,2.156963050365447998e-01,2.173336744308471680e-01,2.177185118198394775e-01,2.180542647838592529e-01,2.184165120124816895e-01,2.186563014984130859e-01,2.189866006374359131e-01,2.194183170795440674e-01,2.195208966732025146e-01,2.196381092071533203e-01,2.196336090564727783e-01,2.196213901042938232e-01,2.196134626865386963e-01,2.196049988269805908e-01,2.195965051651000977e-01,2.195882499217987061e-01,2.195799648761749268e-01,2.195713520050048828e-01,2.195630073547363281e-01,2.195546925067901611e-01,2.195461690425872803e-01,2.195378541946411133e-01,2.195295393466949463e-01,2.195209562778472900e-01,2.195128500461578369e-01,2.195036411285400391e-01,2.194585502147674561e-01,2.197637557983398438e-01,2.192148864269256592e-01,2.123457193374633789e-01,2.156747281551361084e-01,2.391588091850280762e-01,2.649288177490234375e-01,3.292304873466491699e-01,3.678083717823028564e-01
3.778370022773742676e-01,2.908435463905334473e-01,2.668064236640930176e-01,2.334581315517425537e-01,2.106578350067138672e-01,2.071481049060821533e-01,2.098519802093505859e-01,2.104756236076354980e-01,2.109931409358978271e-01,2.109513282775878906e-01,2.109312415122985840e-01,2.109242379665374756e-01,2.109172344207763672e-01,2.109103202819824219e-01,2.109031379222869873e-01,2.108961641788482666e-01,2.108898460865020752e-01,2.108824253082275391e-01,2.108719646930694580e-01,2.108745872974395752e-01,2.108483016490936279e-01,2.108179032802581787e-01,2.108776867389678955e-01,2.108673155307769775e-01,2.107923328876495361e-01,2.107299864292144775e-01,2.105865180492401123e-01,2.104890048503875732e-01,2.107152938842773438e-01,2.107022702693939209e-01,2.106654047966003418e-01,2.108083069324493408e-01,2.106684148311614990e-01,2.101517915725708008e-01,2.091925144195556641e-01,2.080088555812835693e-01,2.067404389381408691e-01,2.055155336856842041e-01,2.044486403465270996e-01,2.038487792015075684e-01,2.039345204830169678e-01,2.038690745830535889e-01,2.046205401420593262e-01,2.058113515377044678e-01,2.070729732513427734e-01,2.078393697738647461e-01,2.081840336322784424e-01,2.094622552394866943e-01,2.098416686058044434e-01,2.101485133171081543e-01,2.102252542972564697e-01,2.105196118354797363e-01,2.105348110198974609e-01,2.105540633201599121e-01,2.105968296527862549e-01,2.106142342090606689e-01,2.106081545352935791e-01,2.106010913848876953e-01,2.105939388275146484e-01,2.105869054794311523e-01,2.105798125267028809e-01,2.105728983879089355e-01,2.105658650398254395e-01,2.105589509010314941e-01,2.105519175529479980e-01,2.105449736118316650e-01,2.105379402637481689e-01,2.105309069156646729e-01,2.105239331722259521e-01,2.105171084403991699e-01,2.105093002319335938e-01,2.104704976081848145e-01,2.107369899749755859e-01,2.102897465229034424e-01,2.038743495941162109e-01,2.072039544582366943e-01,2.303395569324493408e-01,2.568520307540893555e-01,3.220628499984741211e-01,3.632459640502929688e-01
3.726797699928283691e-01,2.842504978179931641e-01,2.591609358787536621e-01,2.263985574245452881e-01,2.035064995288848877e-01,1.998415887355804443e-01,2.023388147354125977e-01,2.028940021991729736e-01,2.033701241016387939e-01,2.033329606056213379e-01,2.033154368400573730e-01,2.033095359802246094e-01,2.033036053180694580e-01,2.032977044582366943e-01,2.032918632030487061e-01,2.032856643199920654e-01,2.032801806926727295e-01,2.032739520072937012e-01,2.032683789730072021e-01,2.032606899738311768e-01,2.032563984394073486e-01,2.032490968704223633e-01,2.032255232334136963e-01,2.032302618026733398e-01,2.032703161239624023e-01,2.031883597373962402e-01,2.031497955322265625e-01,2.031706571578979492e-01,2.031354308128356934e-01,2.031966745853424072e-01,2.031860649585723877e-01,2.031507492065429688e-01,2.030845284461975098e-01,2.030231058597564697e-01,2.025741934776306152e-01,2.019591629505157471e-01,2.011478245258331299e-01,2.002839446067810059e-01,1.994338035583496094e-01,1.993337571620941162e-01,1.988491714000701904e-01,1.989648938179016113e-01,1.990685462951660156e-01,1.991873681545257568e-01,2.001195251941680908e-01,2.010118663311004639e-01,2.015632390975952148e-01,2.021851837635040283e-01,2.026943266391754150e-01,2.028960287570953369e-01,2.029052078723907471e-01,2.031236588954925537e-01,2.030628919601440430e-01,2.030859291553497314e-01,2.030273079872131348e-01,2.030483186244964600e-01,2.030419409275054932e-01,2.030362486839294434e-01,2.030304372310638428e-01,2.030244171619415283e-01,2.030184566974639893e-01,2.030125260353088379e-01,2.030066847801208496e-01,2.030009329319000244e-01,2.029946744441986084e-01,2.029889225959777832e-01,2.029829919338226318e-01,2.029771208763122559e-01,2.029710710048675537e-01,2.029652297496795654e-01,2.029585838317871094e-01,2.029247879981994629e-01,2.031604051589965820e-01,2.027960419654846191e-01,1.967625916004180908e-01,2.000900506973266602e-01,2.229243814945220947e-01,2.500066757202148438e-01,3.159356713294982910e-01,3.593336641788482666e-01
3.681832551956176758e-01,2.785649001598358154e-01,2.526054382324218750e-01,2.203788459300994873e-01,1.974309086799621582e-01,1.936296224594116211e-01,1.959545612335205078e-01,1.964495480060577393e-01,1.968903243541717529e-01,1.968570947647094727e-01,1.968415379524230957e-01,1.968367099761962891e-01,1.968312859535217285e-01,1.968263089656829834e-01,1.968211233615875244e-01,1.968161761760711670e-01,1.968112587928771973e-01,1.968059539794921875e-01,1.968006789684295654e-01,1.967962980270385742e-01,1.967901289463043213e-01,1.967824697494506836e-01,1.967796683311462402e-01,1.967913508415222168e-01,1.967745423316955566e-01,1.967793405055999756e-01,1.967492699623107910e-01,1.967432796955108643e-01,1.967368125915527344e-01,1.967316567897796631e-01,1.967286765575408936e-01,1.967287361621856689e-01,1.966784894466400146e-01,1.966604590415954590e-01,1.965445578098297119e-01,1.962311863899230957e-01,1.958409547805786133e-01,1.954822540283203125e-01,1.949394047260284424e-01,1.945118308067321777e-01,1.944192945957183838e-01,1.944080591201782227e-01,1.944817006587982178e-01,1.945471167564392090e-01,1.949247717857360840e-01,1.951865553855895996e-01,1.953904330730438232e-01,1.957611739635467529e-01,1.962063610553741455e-01,1.963107883930206299e-01,1.965473592281341553e-01,1.967051327228546143e-01,1.966313421726226807e-01,1.966297328472137451e-01,1.966028809547424316e-01,1.966139376163482666e-01,1.966078579425811768e-01,1.966027319431304932e-01,1.965976357460021973e-01,1.965924799442291260e-01,1.965873241424560547e-01,1.965822577476501465e-01,1.965773105621337891e-01,1.965720355510711670e-01,1.965671479701995850e-01,1.965622305870056152e-01,1.965571045875549316e-01,1.965519189834594727e-01,1.965469121932983398e-01,1.965420246124267578e-01,1.965358853340148926e-01,1.965066492557525635e-01,1.967171430587768555e-01,1.964207589626312256e-01,1.907119452953338623e-01,1.940366625785827637e-01,2.166066765785217285e-01,2.441326677799224854e-01,3.106368780136108398e-01,3.559412956237792969e-01
3.642285466194152832e-01,2.736124396324157715e-01,2.469260394573211670e-01,2.151873707771301270e-01,1.922087669372558594e-01,1.882871687412261963e-01,1.904668807983398438e-01,1.909089088439941406e-01,1.913190186023712158e-01,1.912889182567596436e-01,1.912749707698822021e-01,1.912702918052673340e-01,1.912660598754882812e-01,1.912618875503540039e-01,1.912572085857391357e-01,1.912528872489929199e-01,1.912485659122467041e-01,1.912440061569213867e-01,1.912398338317871094e-01,1.912349760532379150e-01,1.912304759025573730e-01,1.912258565425872803e-01,1.912210583686828613e-01,1.912186741828918457e-01,1.912144720554351807e-01,1.912093460559844971e-01,1.912048757076263428e-01,1.912014186382293701e-01,1.911978423595428467e-01,1.911888718605041504e-01,1.911871135234832764e-01,1.911793649196624756e-01,1.911459863185882568e-01,1.911632418632507324e-01,1.911323070526123047e-01,1.909945607185363770e-01,1.907605230808258057e-01,1.906462609767913818e-01,1.905408799648284912e-01,1.903749406337738037e-01,1.900955736637115479e-01,1.900728940963745117e-01,1.900233030319213867e-01,1.900030970573425293e-01,1.902250647544860840e-01,1.902837753295898438e-01,1.903839409351348877e-01,1.906971931457519531e-01,1.908527910709381104e-01,1.909093558788299561e-01,1.910327672958374023e-01,1.910578906536102295e-01,1.911255717277526855e-01,1.910849213600158691e-01,1.910860240459442139e-01,1.910773217678070068e-01,1.910727918148040771e-01,1.910683810710906982e-01,1.910638511180877686e-01,1.910594999790191650e-01,1.910551488399505615e-01,1.910509169101715088e-01,1.910463869571685791e-01,1.910420358180999756e-01,1.910378336906433105e-01,1.910334825515747070e-01,1.910288333892822266e-01,1.910246312618255615e-01,1.910201907157897949e-01,1.910156607627868652e-01,1.910107135772705078e-01,1.909845173358917236e-01,1.911748051643371582e-01,1.909349262714385986e-01,1.855059266090393066e-01,1.888259351253509521e-01,2.111618518829345703e-01,2.390383780002593994e-01,3.060089349746704102e-01,3.529710769653320312e-01
3.607219159603118896e-01,2.692635655403137207e-01,2.419598996639251709e-01,2.106667757034301758e-01,1.876749992370605469e-01,1.836439371109008789e-01,1.856963932514190674e-01,1.860912442207336426e-01,1.864747703075408936e-01,1.864475309848785400e-01,1.864348351955413818e-01,1.864307224750518799e-01,1.864270269870758057e-01,1.864231228828430176e-01,1.864192783832550049e-01,1.864155232906341553e-01,1.864116191864013672e-01,1.864080429077148438e-01,1.864039897918701172e-01,1.864001750946044922e-01,1.863960623741149902e-01,1.863922774791717529e-01,1.863884925842285156e-01,1.863844096660614014e-01,1.863811910152435303e-01,1.863771677017211914e-01,1.863732635974884033e-01,1.863701343536376953e-01,1.863671243190765381e-01,1.863615214824676514e-01,1.863618195056915283e-01,1.863441765308380127e-01,1.863287091255187988e-01,1.863490641117095947e-01,1.863446533679962158e-01,1.862929165363311768e-01,1.862226426601409912e-01,1.861088275909423828e-01,1.859991550445556641e-01,1.859448850154876709e-01,1.859457194805145264e-01,1.858728229999542236e-01,1.858222484588623047e-01,1.858582496643066406e-01,1.860012412071228027e-01,1.860072612762451172e-01,1.861464381217956543e-01,1.861401498317718506e-01,1.862141489982604980e-01,1.862750649452209473e-01,1.862950921058654785e-01,1.862280368804931641e-01,1.862864494323730469e-01,1.862733960151672363e-01,1.862756907939910889e-01,1.862623691558837891e-01,1.862584054470062256e-01,1.862542927265167236e-01,1.862505674362182617e-01,1.862467825412750244e-01,1.862429082393646240e-01,1.862392127513885498e-01,1.862352788448333740e-01,1.862315833568572998e-01,1.862276494503021240e-01,1.862240135669708252e-01,1.862200200557708740e-01,1.862163245677947998e-01,1.862123608589172363e-01,1.862085163593292236e-01,1.862037777900695801e-01,1.861806809902191162e-01,1.863546073436737061e-01,1.861623227596282959e-01,1.809774935245513916e-01,1.842918395996093750e-01,2.064209580421447754e-01,2.345718145370483398e-01,3.019204735755920410e-01,3.503385782241821289e-01
3.576370477676391602e-01,2.654599249362945557e-01,2.376325726509094238e-01,2.067412436008453369e-01,1.837368309497833252e-01,1.796098351478576660e-01,1.815578341484069824e-01,1.819109320640563965e-01,1.822713911533355713e-01,1.822462081909179688e-01,1.822342872619628906e-01,1.822308897972106934e-01,1.822274327278137207e-01,1.822241246700286865e-01,1.822209060192108154e-01,1.822172701358795166e-01,1.822139024734497070e-01,1.822105050086975098e-01,1.822071075439453125e-01,1.822037398815155029e-01,1.822003722190856934e-01,1.821968853473663330e-01,1.821936368942260742e-01,1.821903288364410400e-01,1.821869313716888428e-01,1.821836531162261963e-01,1.821800470352172852e-01,1.821768879890441895e-01,1.821736991405487061e-01,1.821702718734741211e-01,1.821659505367279053e-01,1.821634173393249512e-01,1.821575760841369629e-01,1.821444034576416016e-01,1.821497380733489990e-01,1.821603775024414062e-01,1.821038126945495605e-01,1.820925176143646240e-01,1.820628345012664795e-01,1.819822788238525391e-01,1.819771528244018555e-01,1.819530427455902100e-01,1.819699704647064209e-01,1.819661855697631836e-01,1.819722950458526611e-01,1.820096671581268311e-01,1.821025609970092773e-01,1.820675432682037354e-01,1.821226179599761963e-01,1.821149885654449463e-01,1.820988953113555908e-01,1.820949614048004150e-01,1.820842325687408447e-01,1.820879578590393066e-01,1.820861697196960449e-01,1.820828616619110107e-01,1.820791959762573242e-01,1.820754706859588623e-01,1.820721626281738281e-01,1.820687055587768555e-01,1.820653975009918213e-01,1.820620894432067871e-01,1.820587813854217529e-01,1.820551455020904541e-01,1.820520460605621338e-01,1.820485889911651611e-01,1.820451617240905762e-01,1.820418834686279297e-01,1.820384860038757324e-01,1.820351481437683105e-01,1.820311248302459717e-01,1.820099353790283203e-01,1.821687817573547363e-01,1.820170283317565918e-01,1.770418584346771240e-01,1.803445219993591309e-01,2.022840678691864014e-01,2.306705117225646973e-01,2.983125150203704834e-01,3.479949533939361572e-01
3.552453517913818359e-01,2.622936666011810303e-01,2.341425120830535889e-01,2.035851776599884033e-01,1.805843710899353027e-01,1.763864457607269287e-01,1.782715916633605957e-01,1.786168515682220459e-01,1.789572834968566895e-01,1.789326965808868408e-01,1.789220869541168213e-01,1.789190471172332764e-01,1.789159476757049561e-01,1.789129376411437988e-01,1.789099574089050293e-01,1.789070665836334229e-01,1.789038479328155518e-01,1.789008975028991699e-01,1.788980960845947266e-01,1.788949072360992432e-01,1.788919866085052490e-01,1.788890361785888672e-01,1.788859069347381592e-01,1.788828074932098389e-01,1.788798868656158447e-01,1.788768768310546875e-01,1.788739860057830811e-01,1.788710653781890869e-01,1.788680851459503174e-01,1.788647770881652832e-01,1.788621842861175537e-01,1.788586378097534180e-01,1.788535714149475098e-01,1.788550615310668945e-01,1.788571774959564209e-01,1.788353621959686279e-01,1.788448989391326904e-01,1.788403093814849854e-01,1.788036525249481201e-01,1.787853538990020752e-01,1.787853538990020752e-01,1.787366569042205811e-01,1.787612140178680420e-01,1.787538826465606689e-01,1.787486970424652100e-01,1.787884235382080078e-01,1.788121759891510010e-01,1.788063645362854004e-01,1.788176298141479492e-01,1.787812709808349609e-01,1.787964403629302979e-01,1.788094043731689453e-01,1.787960231304168701e-01,1.787944138050079346e-01,1.787889301776885986e-01,1.787866353988647461e-01,1.787837147712707520e-01,1.787808835506439209e-01,1.787776648998260498e-01,1.787747442722320557e-01,1.787717938423156738e-01,1.787685751914978027e-01,1.787655949592590332e-01,1.787627339363098145e-01,1.787598133087158203e-01,1.787568330764770508e-01,1.787538230419158936e-01,1.787507534027099609e-01,1.787477135658264160e-01,1.787447929382324219e-01,1.787410378456115723e-01,1.787222623825073242e-01,1.788702607154846191e-01,1.787468492984771729e-01,1.739453077316284180e-01,1.772533655166625977e-01,1.989204287528991699e-01,2.273630201816558838e-01,2.952059209346771240e-01,3.462714552879333496e-01
