5.795701742172241211e-01,5.982284545898437500e-01,6.480353474617004395e-01,6.185638308525085449e-01,6.515630483627319336e-01,6.743717193603515625e-01,7.075760364532470703e-01,7.301657795906066895e-01,7.501364946365356445e-01,7.685753703117370605e-01,7.867043018341064453e-01,8.029252290725708008e-01,8.189263343811035156e-01,8.341140747070312500e-01,8.459096550941467285e-01,8.550537824630737305e-01,8.611831068992614746e-01,8.651215434074401855e-01,8.621237874031066895e-01,8.501368165016174316e-01,8.282306790351867676e-01,8.098121285438537598e-01,7.669168710708618164e-01,7.038911581039428711e-01,5.983590483665466309e-01,4.893802702426910400e-01,4.102548360824584961e-01,3.999475836753845215e-01,3.487769961357116699e-01,3.088051080703735352e-01,2.887660264968872070e-01,2.737979888916015625e-01,2.696281075477600098e-01,2.654974162578582764e-01,2.618037760257720947e-01,2.656643390655517578e-01,2.729316353797912598e-01,2.840279638767242432e-01,3.073403537273406982e-01,3.138324618339538574e-01,3.419819474220275879e-01,3.771095871925354004e-01,4.050469696521759033e-01,4.572105407714843750e-01,4.852674007415771484e-01,5.153284072875976562e-01,5.483791828155517578e-01,6.303969621658325195e-01,6.843875646591186523e-01,7.274845242500305176e-01,7.813911437988281250e-01,8.070577383041381836e-01,8.354257345199584961e-01,8.526860475540161133e-01,8.656693696975708008e-01,8.686465024948120117e-01,8.719011545181274414e-01,8.733229637145996094e-01,8.733801841735839844e-01,8.735732436180114746e-01,8.736140727996826172e-01,8.736113309860229492e-01,8.735967874526977539e-01,8.734917044639587402e-01,8.732697963714599609e-01,8.728823065757751465e-01,8.715936541557312012e-01,8.696097135543823242e-01,8.668307662010192871e-01,8.627885580062866211e-01,8.571749925613403320e-01,8.482553958892822266e-01,8.390170335769653320e-01,8.248668313026428223e-01,7.997847795486450195e-01,7.775160074234008789e-01,7.644908428192138672e-01,7.502402067184448242e-01,6.781923770904541016e-01,5.986089110374450684e-01
5.916152596473693848e-01,6.112027764320373535e-01,6.348633766174316406e-01,6.225444078445434570e-01,6.499800682067871094e-01,6.736613512039184570e-01,7.128702402114868164e-01,7.344681620597839355e-01,7.552265524864196777e-01,7.754618525505065918e-01,7.932406663894653320e-01,8.102238178253173828e-01,8.250706195831298828e-01,8.410220146179199219e-01,8.532837629318237305e-01,8.620712161064147949e-01,8.702386617660522461e-01,8.735276460647583008e-01,8.695887327194213867e-01,8.571400642395019531e-01,8.383567333221435547e-01,8.186686038970947266e-01,7.797626256942749023e-01,7.179052233695983887e-01,5.762822031974792480e-01,4.669506847858428955e-01,4.160505831241607666e-01,3.666843771934509277e-01,3.492875695228576660e-01,2.867591679096221924e-01,2.716726064682006836e-01,2.571468353271484375e-01,2.331810891628265381e-01,2.368421256542205811e-01,2.280794978141784668e-01,2.317597866058349609e-01,2.408273816108703613e-01,2.563014626502990723e-01,2.716513872146606445e-01,2.777619957923889160e-01,3.106838166713714600e-01,3.710550069808959961e-01,4.251320958137512207e-01,4.486373364925384521e-01,4.960779845714569092e-01,5.223989486694335938e-01,5.642553567886352539e-01,6.178303956985473633e-01,6.716279983520507812e-01,7.240976691246032715e-01,7.684422731399536133e-01,8.193736076354980469e-01,8.419233560562133789e-01,8.561404943466186523e-01,8.679121732711791992e-01,8.764418363571166992e-01,8.797957301139831543e-01,8.805127143859863281e-01,8.815260529518127441e-01,8.818467855453491211e-01,8.817816376686096191e-01,8.817535638809204102e-01,8.817404508590698242e-01,8.816740512847900391e-01,8.815380930900573730e-01,8.809601068496704102e-01,8.796960115432739258e-01,8.776128292083740234e-01,8.748910427093505859e-01,8.710879087448120117e-01,8.653662204742431641e-01,8.571635484695434570e-01,8.473479747772216797e-01,8.312688469886779785e-01,8.018132448196411133e-01,7.747789025306701660e-01,7.662680149078369141e-01,7.446759939193725586e-01,6.770658493041992188e-01,5.831781625747680664e-01
5.760108232498168945e-01,5.908898711204528809e-01,6.343255639076232910e-01,6.279858350753784180e-01,6.464066505432128906e-01,6.690378785133361816e-01,7.076363563537597656e-01,7.304207086563110352e-01,7.530200481414794922e-01,7.734230756759643555e-01,7.937979698181152344e-01,8.119133710861206055e-01,8.288812041282653809e-01,8.426450490951538086e-01,8.561301231384277344e-01,8.660039901733398438e-01,8.734813928604125977e-01,8.779901266098022461e-01,8.733373880386352539e-01,8.623999953269958496e-01,8.457922935485839844e-01,8.191648721694946289e-01,7.791603803634643555e-01,7.179518938064575195e-01,5.650642514228820801e-01,4.451276361942291260e-01,3.954784274101257324e-01,3.407574594020843506e-01,3.333942294120788574e-01,2.898383736610412598e-01,2.545128464698791504e-01,2.232546210289001465e-01,2.180978357791900635e-01,2.222889661788940430e-01,2.076802253723144531e-01,2.036104202270507812e-01,2.144286036491394043e-01,2.309665977954864502e-01,2.496525943279266357e-01,2.689868211746215820e-01,3.078942894935607910e-01,3.512411713600158691e-01,4.427183568477630615e-01,4.470922946929931641e-01,4.900067746639251709e-01,5.305747389793395996e-01,5.841869115829467773e-01,6.344128847122192383e-01,6.797336935997009277e-01,7.187511920928955078e-01,7.579504847526550293e-01,8.172812461853027344e-01,8.410389423370361328e-01,8.611177206039428711e-01,8.657891750335693359e-01,8.783587217330932617e-01,8.810968399047851562e-01,8.838042616844177246e-01,8.854985237121582031e-01,8.854111433029174805e-01,8.854212760925292969e-01,8.854089379310607910e-01,8.854006528854370117e-01,8.853731751441955566e-01,8.852565288543701172e-01,8.845664262771606445e-01,8.830093741416931152e-01,8.810021877288818359e-01,8.780071735382080078e-01,8.742913603782653809e-01,8.680037260055541992e-01,8.588938117027282715e-01,8.470186591148376465e-01,8.326994180679321289e-01,7.982698678970336914e-01,7.725363373756408691e-01,7.661837935447692871e-01,7.430063486099243164e-01,6.941772103309631348e-01,5.934043526649475098e-01
5.856291055679321289e-01,6.095346212387084961e-01,6.510716080665588379e-01,6.518869996070861816e-01,6.743693947792053223e-01,6.974387764930725098e-01,7.324486374855041504e-01,7.537954449653625488e-01,7.752487659454345703e-01,7.940106987953186035e-01,8.125054836273193359e-01,8.297311067581176758e-01,8.440528512001037598e-01,8.575364351272583008e-01,8.688038587570190430e-01,8.790647387504577637e-01,8.865631222724914551e-01,8.909898996353149414e-01,8.869862556457519531e-01,8.760946393013000488e-01,8.585003614425659180e-01,8.331561088562011719e-01,8.061228990554809570e-01,7.510774135589599609e-01,5.962418317794799805e-01,4.947063624858856201e-01,4.572908282279968262e-01,4.072058200836181641e-01,3.607578277587890625e-01,3.332917690277099609e-01,3.035590648651123047e-01,2.648592889308929443e-01,2.457917928695678711e-01,2.461509108543395996e-01,2.316516637802124023e-01,2.232680916786193848e-01,2.316298782825469971e-01,2.474184036254882812e-01,2.709557116031646729e-01,3.005687892436981201e-01,3.388140201568603516e-01,3.980941772460937500e-01,4.913534820079803467e-01,5.503879785537719727e-01,5.493792295455932617e-01,5.967277288436889648e-01,6.293147802352905273e-01,6.616344451904296875e-01,7.073004245758056641e-01,7.253021001815795898e-01,7.691131234169006348e-01,8.058928251266479492e-01,8.487498760223388672e-01,8.619887232780456543e-01,8.739852309226989746e-01,8.832031488418579102e-01,8.906452655792236328e-01,8.942694067955017090e-01,8.972687721252441406e-01,8.972465991973876953e-01,8.974552154541015625e-01,8.974870443344116211e-01,8.974843025207519531e-01,8.975172042846679688e-01,8.973144888877868652e-01,8.965841531753540039e-01,8.951637148857116699e-01,8.932741880416870117e-01,8.911123871803283691e-01,8.871732950210571289e-01,8.810296654701232910e-01,8.720035552978515625e-01,8.622950315475463867e-01,8.480070829391479492e-01,8.182247281074523926e-01,7.959253787994384766e-01,7.857882380485534668e-01,7.580446004867553711e-01,7.063713073730468750e-01,6.076322793960571289e-01
5.862386822700500488e-01,6.089721322059631348e-01,6.536799669265747070e-01,6.547656655311584473e-01,6.780838966369628906e-01,7.019335627555847168e-01,7.384438514709472656e-01,7.597755193710327148e-01,7.806826829910278320e-01,7.996257543563842773e-01,8.179712295532226562e-01,8.352560997009277344e-01,8.500529527664184570e-01,8.631908893585205078e-01,8.749985098838806152e-01,8.844547867774963379e-01,8.920959234237670898e-01,8.966728448867797852e-01,8.939305543899536133e-01,8.838551044464111328e-01,8.682239055633544922e-01,8.470703363418579102e-01,8.155946731567382812e-01,7.543320655822753906e-01,6.238691806793212891e-01,5.201762318611145020e-01,4.920219480991363525e-01,4.464404582977294922e-01,3.807974755764007568e-01,3.605033755302429199e-01,3.212245702743530273e-01,2.930986583232879639e-01,2.637746334075927734e-01,2.577056586742401123e-01,2.488763332366943359e-01,2.310809195041656494e-01,2.318568229675292969e-01,2.481741905212402344e-01,2.754616439342498779e-01,3.143493831157684326e-01,3.572835624217987061e-01,4.114133119583129883e-01,5.219342112541198730e-01,5.855985283851623535e-01,6.117438077926635742e-01,6.521031260490417480e-01,6.728404760360717773e-01,6.743984818458557129e-01,7.043182849884033203e-01,7.316950559616088867e-01,7.530635595321655273e-01,8.021113872528076172e-01,8.408886194229125977e-01,8.624559044837951660e-01,8.741213679313659668e-01,8.809629082679748535e-01,8.940804004669189453e-01,8.986424803733825684e-01,9.022784829139709473e-01,9.025566577911376953e-01,9.031062126159667969e-01,9.031492471694946289e-01,9.031727313995361328e-01,9.031926393508911133e-01,9.029681682586669922e-01,9.022150039672851562e-01,9.009346961975097656e-01,8.995031714439392090e-01,8.969997167587280273e-01,8.931798934936523438e-01,8.870203495025634766e-01,8.788357973098754883e-01,8.685356378555297852e-01,8.554216623306274414e-01,8.276196718215942383e-01,8.058067560195922852e-01,7.977398037910461426e-01,7.731654047966003418e-01,7.197253704071044922e-01,6.134555339813232422e-01
5.892089605331420898e-01,6.141216158866882324e-01,6.574165821075439453e-01,6.579459905624389648e-01,6.818144321441650391e-01,7.059258818626403809e-01,7.424399852752685547e-01,7.638148069381713867e-01,7.844151854515075684e-01,8.029767274856567383e-01,8.210763931274414062e-01,8.377190828323364258e-01,8.528628349304199219e-01,8.658933639526367188e-01,8.772104978561401367e-01,8.868346214294433594e-01,8.943945169448852539e-01,8.989495038986206055e-01,8.965203762054443359e-01,8.870708942413330078e-01,8.704706430435180664e-01,8.528391122817993164e-01,8.247507810592651367e-01,7.718843221664428711e-01,6.422209739685058594e-01,5.351737141609191895e-01,4.920545220375061035e-01,4.852507412433624268e-01,4.465594291687011719e-01,3.930202424526214600e-01,3.585867881774902344e-01,3.266509473323822021e-01,2.930463850498199463e-01,2.686074972152709961e-01,2.550676465034484863e-01,2.450762391090393066e-01,2.430397868156433105e-01,2.528376877307891846e-01,2.812307476997375488e-01,3.207578957080841064e-01,3.820140659809112549e-01,4.455105066299438477e-01,5.535570979118347168e-01,6.214882135391235352e-01,6.682556867599487305e-01,7.021522521972656250e-01,7.137601375579833984e-01,7.341378331184387207e-01,7.100254893302917480e-01,7.305426001548767090e-01,7.506955862045288086e-01,7.877653837203979492e-01,8.266594409942626953e-01,8.517661690711975098e-01,8.715087175369262695e-01,8.801971673965454102e-01,8.920964002609252930e-01,8.999634981155395508e-01,9.029716849327087402e-01,9.051222801208496094e-01,9.054949283599853516e-01,9.056000113487243652e-01,9.056216478347778320e-01,9.056230783462524414e-01,9.053969383239746094e-01,9.047081470489501953e-01,9.036164283752441406e-01,9.019732475280761719e-01,8.994526863098144531e-01,8.957049846649169922e-01,8.895947933197021484e-01,8.807386755943298340e-01,8.713241815567016602e-01,8.590161800384521484e-01,8.305082321166992188e-01,8.089781999588012695e-01,8.007289171218872070e-01,7.750712633132934570e-01,7.215895056724548340e-01,6.156178712844848633e-01
5.887278318405151367e-01,6.143665313720703125e-01,6.568009257316589355e-01,6.576658487319946289e-01,6.813173294067382812e-01,7.055894732475280762e-01,7.419074773788452148e-01,7.633268833160400391e-01,7.840604186058044434e-01,8.025947213172912598e-01,8.203082680702209473e-01,8.370756506919860840e-01,8.520721197128295898e-01,8.652583956718444824e-01,8.767422437667846680e-01,8.863195776939392090e-01,8.938220739364624023e-01,8.984923362731933594e-01,8.959494829177856445e-01,8.865786790847778320e-01,8.730446100234985352e-01,8.568862080574035645e-01,8.264569044113159180e-01,7.832601070404052734e-01,6.706037521362304688e-01,5.923292040824890137e-01,5.072193741798400879e-01,5.295714139938354492e-01,5.220793485641479492e-01,4.449478387832641602e-01,3.974551260471343994e-01,3.428381085395812988e-01,3.229155838489532471e-01,2.775596380233764648e-01,2.643377780914306641e-01,2.574225664138793945e-01,2.475169003009796143e-01,2.565908432006835938e-01,2.864807844161987305e-01,3.191037774085998535e-01,3.958299458026885986e-01,4.876299202442169189e-01,5.741008520126342773e-01,6.417185664176940918e-01,6.866239905357360840e-01,7.460918426513671875e-01,7.702704668045043945e-01,7.562754154205322266e-01,7.485777139663696289e-01,7.404388785362243652e-01,7.676509618759155273e-01,7.762211561203002930e-01,8.073863387107849121e-01,8.509064912796020508e-01,8.657802343368530273e-01,8.803859949111938477e-01,8.906852006912231445e-01,8.978661298751831055e-01,9.027614593505859375e-01,9.048981666564941406e-01,9.052267670631408691e-01,9.053248763084411621e-01,9.053359031677246094e-01,9.053479433059692383e-01,9.051187634468078613e-01,9.044790267944335938e-01,9.033899307250976562e-01,9.015980958938598633e-01,8.991197347640991211e-01,8.952248692512512207e-01,8.887358903884887695e-01,8.801132440567016602e-01,8.711239695549011230e-01,8.580766916275024414e-01,8.291841745376586914e-01,8.083124160766601562e-01,8.007318973541259766e-01,7.745542526245117188e-01,7.219356298446655273e-01,6.160211563110351562e-01
5.887535214424133301e-01,6.143558621406555176e-01,6.569752097129821777e-01,6.578218340873718262e-01,6.813716888427734375e-01,7.055991291999816895e-01,7.419753074645996094e-01,7.633653879165649414e-01,7.841247320175170898e-01,8.027307391166687012e-01,8.204537630081176758e-01,8.368871212005615234e-01,8.519610762596130371e-01,8.652215003967285156e-01,8.767006397247314453e-01,8.862392902374267578e-01,8.936832547187805176e-01,8.985610604286193848e-01,8.960024714469909668e-01,8.885857462882995605e-01,8.754438161849975586e-01,8.595099449157714844e-01,8.339196443557739258e-01,7.886388301849365234e-01,6.887552142143249512e-01,6.270011663436889648e-01,5.420677065849304199e-01,5.635064840316772461e-01,5.780772566795349121e-01,5.341025590896606445e-01,4.502068161964416504e-01,3.871860802173614502e-01,3.470916152000427246e-01,2.903234362602233887e-01,2.791252732276916504e-01,2.705036997795104980e-01,2.606180310249328613e-01,2.613954246044158936e-01,2.846402823925018311e-01,3.277580738067626953e-01,4.076100289821624756e-01,5.071768760681152344e-01,6.072375774383544922e-01,6.884181499481201172e-01,7.350585460662841797e-01,7.703543901443481445e-01,7.942467331886291504e-01,7.943606376647949219e-01,7.908301353454589844e-01,7.685345411300659180e-01,7.656057476997375488e-01,8.018090724945068359e-01,8.211650848388671875e-01,8.470419645309448242e-01,8.703867793083190918e-01,8.850851058959960938e-01,8.902990818023681641e-01,8.961413502693176270e-01,9.031788110733032227e-01,9.051153063774108887e-01,9.053729176521301270e-01,9.053487777709960938e-01,9.053573608398437500e-01,9.053783416748046875e-01,9.051487445831298828e-01,9.045405387878417969e-01,9.034007787704467773e-01,9.016119241714477539e-01,8.991032838821411133e-01,8.950774669647216797e-01,8.885998725891113281e-01,8.802758455276489258e-01,8.708721399307250977e-01,8.577375411987304688e-01,8.292530775070190430e-01,8.083451986312866211e-01,8.006058931350708008e-01,7.745685577392578125e-01,7.219293117523193359e-01,6.160476207733154297e-01
5.887327790260314941e-01,6.143194437026977539e-01,6.569501161575317383e-01,6.577830314636230469e-01,6.813428401947021484e-01,7.055718898773193359e-01,7.419341802597045898e-01,7.633383274078369141e-01,7.841005921363830566e-01,8.027126789093017578e-01,8.204674720764160156e-01,8.369155526161193848e-01,8.518254160881042480e-01,8.651648163795471191e-01,8.767236471176147461e-01,8.861690163612365723e-01,8.935558795928955078e-01,8.986178636550903320e-01,8.968584537506103516e-01,8.905783891677856445e-01,8.785338997840881348e-01,8.647707104682922363e-01,8.363199234008789062e-01,7.965594530105590820e-01,7.051423192024230957e-01,6.660096049308776855e-01,6.337333321571350098e-01,6.269737482070922852e-01,6.051616072654724121e-01,6.122266054153442383e-01,5.303805470466613770e-01,4.560193419456481934e-01,3.937022089958190918e-01,3.351776003837585449e-01,3.052165806293487549e-01,2.765569090843200684e-01,2.682869434356689453e-01,2.742467522621154785e-01,2.775137722492218018e-01,3.357166349887847900e-01,4.133156836032867432e-01,5.146865844726562500e-01,6.295182108879089355e-01,7.052180171012878418e-01,7.475416064262390137e-01,7.919826507568359375e-01,8.248616456985473633e-01,8.414230346679687500e-01,8.222631216049194336e-01,8.037749528884887695e-01,8.063948154449462891e-01,8.212376832962036133e-01,8.419353961944580078e-01,8.589966297149658203e-01,8.760575056076049805e-01,8.859395980834960938e-01,8.937433958053588867e-01,9.000048637390136719e-01,9.039141535758972168e-01,9.051366448402404785e-01,9.053208827972412109e-01,9.053381681442260742e-01,9.053540825843811035e-01,9.053707122802734375e-01,9.051675796508789062e-01,9.045493602752685547e-01,9.033930897712707520e-01,9.016163349151611328e-01,8.990687131881713867e-01,8.949469327926635742e-01,8.886444568634033203e-01,8.801643848419189453e-01,8.707153797149658203e-01,8.578227758407592773e-01,8.292664885520935059e-01,8.081737756729125977e-01,8.005626201629638672e-01,7.745723724365234375e-01,7.219680547714233398e-01,6.160023212432861328e-01
5.887259840965270996e-01,6.143084764480590820e-01,6.569375991821289062e-01,6.577686071395874023e-01,6.813263893127441406e-01,7.055535912513732910e-01,7.419199347496032715e-01,7.633177042007446289e-01,7.840818166732788086e-01,8.027034997940063477e-01,8.204581737518310547e-01,8.369134664535522461e-01,8.518285751342773438e-01,8.651089668273925781e-01,8.767030239105224609e-01,8.861902952194213867e-01,8.936008214950561523e-01,8.988940715789794922e-01,8.974971771240234375e-01,8.927075266838073730e-01,8.831375837326049805e-01,8.723918795585632324e-01,8.505501151084899902e-01,8.144001364707946777e-01,7.369713783264160156e-01,6.892134547233581543e-01,6.922538876533508301e-01,6.769380569458007812e-01,6.742122769355773926e-01,6.777563095092773438e-01,6.330258846282958984e-01,5.220490694046020508e-01,4.554713964462280273e-01,3.771408498287200928e-01,3.158296644687652588e-01,2.915140986442565918e-01,2.810572087764739990e-01,2.732549905776977539e-01,2.746672630310058594e-01,3.521543145179748535e-01,4.292995035648345947e-01,5.136445164680480957e-01,6.428931951522827148e-01,7.371527552604675293e-01,7.721375226974487305e-01,8.004146814346313477e-01,8.414652347564697266e-01,8.533592224121093750e-01,8.640075325965881348e-01,8.472598791122436523e-01,8.335033655166625977e-01,8.339056968688964844e-01,8.647384643554687500e-01,8.739842176437377930e-01,8.832406997680664062e-01,8.963813781738281250e-01,8.980970382690429688e-01,9.020693302154541016e-01,9.042132496833801270e-01,9.051977396011352539e-01,9.052867889404296875e-01,9.053274393081665039e-01,9.053525924682617188e-01,9.053744077682495117e-01,9.051620960235595703e-01,9.045385122299194336e-01,9.033939838409423828e-01,9.016328454017639160e-01,8.990531563758850098e-01,8.949608206748962402e-01,8.886346817016601562e-01,8.801281452178955078e-01,8.707859516143798828e-01,8.578417897224426270e-01,8.292030096054077148e-01,8.081842660903930664e-01,8.005905151367187500e-01,7.745984792709350586e-01,7.219765782356262207e-01,6.160136461257934570e-01
5.887188911437988281e-01,6.142972707748413086e-01,6.569247245788574219e-01,6.577538847923278809e-01,6.813102960586547852e-01,7.055369019508361816e-01,7.419025897979736328e-01,7.633029818534851074e-01,7.840649485588073730e-01,8.026864528656005859e-01,8.204481601715087891e-01,8.369038701057434082e-01,8.518203496932983398e-01,8.651012182235717773e-01,8.766796588897705078e-01,8.861612081527709961e-01,8.935447931289672852e-01,8.987316489219665527e-01,8.986268043518066406e-01,8.943710923194885254e-01,8.872431516647338867e-01,8.813087940216064453e-01,8.621976375579833984e-01,8.286423087120056152e-01,7.690557241439819336e-01,7.339550256729125977e-01,7.380673289299011230e-01,7.629497051239013672e-01,7.185934782028198242e-01,7.263807058334350586e-01,6.861671209335327148e-01,5.973228216171264648e-01,5.156771540641784668e-01,4.258149564266204834e-01,3.475382328033447266e-01,3.024125695228576660e-01,2.944740056991577148e-01,2.830074727535247803e-01,2.865550816059112549e-01,3.482262492179870605e-01,4.246043562889099121e-01,5.150724649429321289e-01,6.415389776229858398e-01,7.343133687973022461e-01,7.913359999656677246e-01,8.212164044380187988e-01,8.471882343292236328e-01,8.639376163482666016e-01,8.716539144515991211e-01,8.675730824470520020e-01,8.649220466613769531e-01,8.629599809646606445e-01,8.747055530548095703e-01,8.890783786773681641e-01,8.928499817848205566e-01,9.000715017318725586e-01,9.027385115623474121e-01,9.046058654785156250e-01,9.050055742263793945e-01,9.049587249755859375e-01,9.053342938423156738e-01,9.053342342376708984e-01,9.053524732589721680e-01,9.053735136985778809e-01,9.051607847213745117e-01,9.045398235321044922e-01,9.033986926078796387e-01,9.016395807266235352e-01,8.990608453750610352e-01,8.949519395828247070e-01,8.886377215385437012e-01,8.801601529121398926e-01,8.707973957061767578e-01,8.578356504440307617e-01,8.292222619056701660e-01,8.082054853439331055e-01,8.006061315536499023e-01,7.746134996414184570e-01,7.219905853271484375e-01,6.160243153572082520e-01
5.887120962142944336e-01,6.142860054969787598e-01,6.569117307662963867e-01,6.577389240264892578e-01,6.812941431999206543e-01,7.055203318595886230e-01,7.418860197067260742e-01,7.632863521575927734e-01,7.840496897697448730e-01,8.026712536811828613e-01,8.204338550567626953e-01,8.368920087814331055e-01,8.518089652061462402e-01,8.650913834571838379e-01,8.766694068908691406e-01,8.861511945724487305e-01,8.937158584594726562e-01,8.995199203491210938e-01,8.997844457626342773e-01,8.974589705467224121e-01,8.930170536041259766e-01,8.875437974929809570e-01,8.753662109375000000e-01,8.483210802078247070e-01,8.074722290039062500e-01,7.819015979766845703e-01,7.966557741165161133e-01,8.085873126983642578e-01,7.856405973434448242e-01,7.629581689834594727e-01,7.422856092453002930e-01,6.606999635696411133e-01,5.818719267845153809e-01,4.515401721000671387e-01,3.792983889579772949e-01,3.245961666107177734e-01,3.053127527236938477e-01,2.860336899757385254e-01,3.085479736328125000e-01,3.467082977294921875e-01,4.143297672271728516e-01,5.272732377052307129e-01,6.422961950302124023e-01,7.297545671463012695e-01,7.960478067398071289e-01,8.347970843315124512e-01,8.598998785018920898e-01,8.672982454299926758e-01,8.721418380737304688e-01,8.851613998413085938e-01,8.853706717491149902e-01,8.767878413200378418e-01,8.827542066574096680e-01,8.949774503707885742e-01,8.972212672233581543e-01,9.026956558227539062e-01,9.051583409309387207e-01,9.046729803085327148e-01,9.056506156921386719e-01,9.049216508865356445e-01,9.053660631179809570e-01,9.053364992141723633e-01,9.053522944450378418e-01,9.053736925125122070e-01,9.051607847213745117e-01,9.045403003692626953e-01,9.034001827239990234e-01,9.016416668891906738e-01,8.990638256072998047e-01,8.949550390243530273e-01,8.886440992355346680e-01,8.801686763763427734e-01,8.708062171936035156e-01,8.578462600708007812e-01,8.292392492294311523e-01,8.082233667373657227e-01,8.006225228309631348e-01,7.746299505233764648e-01,7.220044136047363281e-01,6.160328984260559082e-01
5.887051820755004883e-01,6.142747998237609863e-01,6.568985581398010254e-01,6.577239036560058594e-01,6.812777519226074219e-01,7.055036425590515137e-01,7.418693304061889648e-01,7.632701396942138672e-01,7.840336561203002930e-01,8.026559352874755859e-01,8.204198479652404785e-01,8.368790745735168457e-01,8.517975807189941406e-01,8.650814294815063477e-01,8.766649961471557617e-01,8.861309289932250977e-01,8.936916589736938477e-01,8.992662429809570312e-01,8.992754220962524414e-01,8.983611464500427246e-01,8.995887041091918945e-01,8.951534032821655273e-01,8.838839530944824219e-01,8.618724942207336426e-01,8.468888998031616211e-01,8.314804434776306152e-01,8.382517695426940918e-01,8.369917869567871094e-01,8.289394378662109375e-01,7.945461273193359375e-01,7.745144367218017578e-01,7.395240664482116699e-01,6.186721920967102051e-01,4.833816587924957275e-01,3.903269767761230469e-01,3.380832672119140625e-01,3.092789947986602783e-01,3.058021664619445801e-01,3.246508836746215820e-01,3.433863520622253418e-01,3.997939825057983398e-01,5.191701054573059082e-01,6.327093243598937988e-01,7.211031913757324219e-01,7.887149453163146973e-01,8.345748186111450195e-01,8.598892688751220703e-01,8.733570575714111328e-01,8.807844519615173340e-01,8.885970115661621094e-01,8.885180950164794922e-01,8.941180706024169922e-01,8.932423591613769531e-01,8.938261866569519043e-01,8.972076773643493652e-01,9.020587205886840820e-01,9.054940938949584961e-01,9.049212932586669922e-01,9.057034254074096680e-01,9.052006006240844727e-01,9.053462743759155273e-01,9.053316712379455566e-01,9.053521752357482910e-01,9.053735136985778809e-01,9.051609635353088379e-01,9.045409560203552246e-01,9.034014344215393066e-01,9.016436338424682617e-01,8.990663290023803711e-01,8.949594497680664062e-01,8.886509537696838379e-01,8.801774978637695312e-01,8.708159327507019043e-01,8.578587174415588379e-01,8.292546272277832031e-01,8.082403540611267090e-01,8.006393313407897949e-01,7.746461629867553711e-01,7.220174670219421387e-01,6.160423159599304199e-01
5.886980295181274414e-01,6.142631769180297852e-01,6.568852663040161133e-01,6.577088236808776855e-01,6.812613010406494141e-01,7.054871320724487305e-01,7.418527603149414062e-01,7.632536888122558594e-01,7.840177416801452637e-01,8.026404380798339844e-01,8.204054832458496094e-01,8.368661403656005859e-01,8.517861366271972656e-01,8.650712966918945312e-01,8.766627311706542969e-01,8.861215114593505859e-01,8.936257362365722656e-01,8.985499143600463867e-01,8.996840715408325195e-01,8.996083140373229980e-01,9.010716676712036133e-01,8.985105752944946289e-01,8.934146761894226074e-01,8.857605457305908203e-01,8.721147775650024414e-01,8.570560812950134277e-01,8.622183799743652344e-01,8.659176826477050781e-01,8.565481901168823242e-01,8.292416930198669434e-01,8.099409937858581543e-01,7.583270072937011719e-01,6.574766635894775391e-01,4.976674318313598633e-01,4.007673859596252441e-01,3.461010158061981201e-01,3.089867234230041504e-01,3.094718456268310547e-01,3.211661279201507568e-01,3.376728296279907227e-01,3.931810557842254639e-01,5.125198960304260254e-01,6.305153965950012207e-01,7.165254354476928711e-01,7.800076007843017578e-01,8.323470354080200195e-01,8.609323501586914062e-01,8.772836923599243164e-01,8.876881599426269531e-01,8.937828540802001953e-01,8.973890542984008789e-01,9.000509977340698242e-01,8.986726403236389160e-01,8.959777355194091797e-01,8.976864814758300781e-01,9.011150002479553223e-01,9.053177833557128906e-01,9.058421850204467773e-01,9.050880074501037598e-01,9.053626060485839844e-01,9.053489565849304199e-01,9.053329825401306152e-01,9.053522348403930664e-01,9.053735136985778809e-01,9.051612615585327148e-01,9.045416116714477539e-01,9.034025669097900391e-01,9.016454815864562988e-01,8.990690112113952637e-01,8.949636816978454590e-01,8.886575102806091309e-01,8.801862597465515137e-01,8.708260059356689453e-01,8.578715324401855469e-01,8.292698860168457031e-01,8.082569837570190430e-01,8.006560802459716797e-01,7.746625542640686035e-01,7.220308184623718262e-01,6.160515546798706055e-01
5.886905193328857422e-01,6.142514944076538086e-01,6.568719744682312012e-01,6.576935052871704102e-01,6.812444329261779785e-01,7.054699659347534180e-01,7.418359518051147461e-01,7.632371187210083008e-01,7.840013504028320312e-01,8.026250004768371582e-01,8.203909993171691895e-01,8.368529081344604492e-01,8.517743349075317383e-01,8.650610446929931641e-01,8.766474723815917969e-01,8.860986232757568359e-01,8.934717178344726562e-01,8.981586694717407227e-01,9.002596139907836914e-01,9.031718969345092773e-01,9.047626256942749023e-01,9.013568162918090820e-01,8.974162936210632324e-01,8.882497549057006836e-01,8.816627264022827148e-01,8.770741820335388184e-01,8.872667551040649414e-01,8.780179023742675781e-01,8.737791776657104492e-01,8.488513231277465820e-01,8.184829950332641602e-01,7.746880054473876953e-01,6.978560686111450195e-01,5.147136449813842773e-01,4.139161407947540283e-01,3.473269343376159668e-01,3.159230351448059082e-01,3.105940222740173340e-01,3.222570419311523438e-01,3.367799222469329834e-01,4.026851654052734375e-01,4.936515092849731445e-01,6.229546666145324707e-01,7.172964811325073242e-01,7.807519435882568359e-01,8.352234959602355957e-01,8.648626804351806641e-01,8.813142776489257812e-01,8.921049237251281738e-01,8.959083557128906250e-01,8.994351625442504883e-01,9.037907123565673828e-01,9.013680219650268555e-01,9.017200469970703125e-01,9.022286534309387207e-01,9.026847481727600098e-01,9.039308428764343262e-01,9.054607748985290527e-01,9.054461717605590820e-01,9.054340124130249023e-01,9.053319692611694336e-01,9.053323268890380859e-01,9.053521156311035156e-01,9.053735136985778809e-01,9.051613807678222656e-01,9.045423865318298340e-01,9.034036397933959961e-01,9.016472697257995605e-01,8.990715742111206055e-01,8.949677944183349609e-01,8.886640071868896484e-01,8.801950812339782715e-01,8.708367347717285156e-01,8.578839302062988281e-01,8.292849063873291016e-01,8.082739114761352539e-01,8.006728291511535645e-01,7.746788263320922852e-01,7.220443487167358398e-01,6.160609722137451172e-01
5.886825919151306152e-01,6.142387390136718750e-01,6.568578481674194336e-01,6.576775908470153809e-01,6.812272667884826660e-01,7.054525613784790039e-01,7.418187856674194336e-01,7.632203102111816406e-01,7.839850187301635742e-01,8.026089072227478027e-01,8.203762173652648926e-01,8.368397355079650879e-01,8.517624139785766602e-01,8.650506138801574707e-01,8.766350150108337402e-01,8.860869407653808594e-01,8.931181430816650391e-01,8.980321884155273438e-01,9.007079601287841797e-01,9.041758775711059570e-01,9.063610434532165527e-01,9.024493098258972168e-01,8.974748849868774414e-01,8.935394287109375000e-01,8.930414915084838867e-01,8.951517939567565918e-01,8.925899267196655273e-01,8.863770365715026855e-01,8.778207302093505859e-01,8.582802414894104004e-01,8.280891180038452148e-01,7.861484289169311523e-01,6.974556446075439453e-01,5.356066226959228516e-01,4.138806164264678955e-01,3.598443269729614258e-01,3.230236768722534180e-01,3.089500069618225098e-01,3.169014453887939453e-01,3.300128579139709473e-01,4.095936715602874756e-01,5.040006637573242188e-01,6.299326419830322266e-01,7.147957682609558105e-01,7.815278172492980957e-01,8.375966548919677734e-01,8.637094497680664062e-01,8.821561336517333984e-01,8.970986604690551758e-01,8.995552062988281250e-01,9.016562700271606445e-01,9.051255583763122559e-01,9.035749435424804688e-01,9.039622545242309570e-01,9.041532874107360840e-01,9.045763015747070312e-01,9.049348831176757812e-01,9.052298069000244141e-01,9.052187800407409668e-01,9.053840041160583496e-01,9.053463935852050781e-01,9.053360223770141602e-01,9.053521156311035156e-01,9.053735136985778809e-01,9.051617383956909180e-01,9.045429229736328125e-01,9.034048914909362793e-01,9.016491174697875977e-01,8.990743160247802734e-01,8.949720859527587891e-01,8.886705636978149414e-01,8.802040219306945801e-01,8.708472847938537598e-01,8.578964471817016602e-01,8.293002247810363770e-01,8.082906603813171387e-01,8.006896972656250000e-01,7.746950387954711914e-01,7.220578789710998535e-01,6.160703897476196289e-01
5.886741280555725098e-01,6.142256259918212891e-01,6.568425893783569336e-01,6.576606035232543945e-01,6.812090277671813965e-01,7.054344415664672852e-01,7.418007850646972656e-01,7.632029056549072266e-01,7.839682698249816895e-01,8.025928139686584473e-01,8.203608989715576172e-01,8.368259668350219727e-01,8.517504930496215820e-01,8.650400638580322266e-01,8.766331672668457031e-01,8.860757350921630859e-01,8.929611444473266602e-01,8.980903625488281250e-01,9.018498659133911133e-01,9.046550989151000977e-01,9.055153131484985352e-01,9.046308994293212891e-01,9.016396999359130859e-01,8.974478244781494141e-01,8.956636190414428711e-01,8.978008031845092773e-01,8.995494842529296875e-01,8.870891928672790527e-01,8.762583136558532715e-01,8.599878549575805664e-01,8.341571688652038574e-01,7.833998203277587891e-01,6.922677755355834961e-01,5.403094887733459473e-01,4.277829229831695557e-01,3.638493418693542480e-01,3.332644999027252197e-01,3.162202239036560059e-01,3.119878768920898438e-01,3.449003100395202637e-01,4.136977791786193848e-01,5.121009945869445801e-01,6.421213150024414062e-01,7.288254499435424805e-01,7.871397733688354492e-01,8.401670455932617188e-01,8.692136406898498535e-01,8.848727345466613770e-01,8.985220789909362793e-01,9.005053043365478516e-01,9.036070108413696289e-01,9.056967496871948242e-01,9.048800468444824219e-01,9.052951335906982422e-01,9.051651954650878906e-01,9.050312042236328125e-01,9.051619172096252441e-01,9.052802920341491699e-01,9.053817987442016602e-01,9.053148627281188965e-01,9.053277969360351562e-01,9.053325057029724121e-01,9.053521156311035156e-01,9.053735733032226562e-01,9.051619768142700195e-01,9.045436382293701172e-01,9.034061431884765625e-01,9.016508460044860840e-01,8.990770578384399414e-01,8.949763774871826172e-01,8.886774182319641113e-01,8.802130818367004395e-01,8.708578348159790039e-01,8.579093217849731445e-01,8.293153047561645508e-01,8.083077669143676758e-01,8.007065057754516602e-01,7.747114896774291992e-01,7.220714092254638672e-01,6.160798072814941406e-01
5.886656045913696289e-01,6.142116785049438477e-01,6.568268537521362305e-01,6.576423645019531250e-01,6.811895966529846191e-01,7.054152488708496094e-01,7.417818307876586914e-01,7.631845474243164062e-01,7.839508056640625000e-01,8.025760054588317871e-01,8.203455209732055664e-01,8.368119001388549805e-01,8.517378568649291992e-01,8.650293350219726562e-01,8.766216635704040527e-01,8.860792517662048340e-01,8.929914236068725586e-01,8.977820873260498047e-01,9.015625119209289551e-01,9.038050174713134766e-01,9.042416810989379883e-01,9.051458835601806641e-01,9.032863378524780273e-01,8.993371725082397461e-01,9.020216464996337891e-01,9.030234813690185547e-01,8.985307216644287109e-01,8.885643482208251953e-01,8.749175667762756348e-01,8.589280843734741211e-01,8.324912786483764648e-01,7.727980613708496094e-01,6.849907636642456055e-01,5.284957289695739746e-01,4.299351274967193604e-01,3.663523793220520020e-01,3.297377526760101318e-01,3.297291100025177002e-01,3.088873624801635742e-01,3.536807894706726074e-01,4.390785992145538330e-01,5.384487509727478027e-01,6.597564816474914551e-01,7.413084506988525391e-01,7.953240275382995605e-01,8.445310592651367188e-01,8.723611831665039062e-01,8.887478113174438477e-01,8.992859721183776855e-01,9.016056060791015625e-01,9.037782549858093262e-01,9.050666093826293945e-01,9.055967926979064941e-01,9.053410291671752930e-01,9.051737189292907715e-01,9.054304957389831543e-01,9.053468108177185059e-01,9.052938818931579590e-01,9.053317308425903320e-01,9.053281545639038086e-01,9.053267240524291992e-01,9.053295850753784180e-01,9.053520560264587402e-01,9.053734540939331055e-01,9.051622152328491211e-01,9.045442342758178711e-01,9.034072160720825195e-01,9.016526937484741211e-01,8.990794420242309570e-01,8.949805498123168945e-01,8.886841535568237305e-01,8.802218437194824219e-01,8.708682060241699219e-01,8.579217791557312012e-01,8.293309211730957031e-01,8.083244562149047852e-01,8.007233738899230957e-01,7.747277021408081055e-01,7.220848202705383301e-01,6.160891652107238770e-01
5.886567234992980957e-01,6.141973733901977539e-01,6.568106412887573242e-01,6.576235294342041016e-01,6.811691522598266602e-01,7.053943872451782227e-01,7.417617440223693848e-01,7.631652355194091797e-01,7.839322090148925781e-01,8.025586605072021484e-01,8.203295469284057617e-01,8.367977142333984375e-01,8.517251014709472656e-01,8.650179505348205566e-01,8.766164779663085938e-01,8.860955238342285156e-01,8.930807113647460938e-01,8.978567123413085938e-01,9.012866020202636719e-01,9.037556052207946777e-01,9.049916863441467285e-01,9.057642221450805664e-01,9.044842720031738281e-01,9.021818637847900391e-01,9.032241106033325195e-01,9.004079103469848633e-01,8.965063691139221191e-01,8.870480060577392578e-01,8.745373487472534180e-01,8.590083122253417969e-01,8.287271857261657715e-01,7.536176443099975586e-01,6.531720161437988281e-01,5.122188925743103027e-01,4.086213111877441406e-01,3.493151068687438965e-01,3.392841219902038574e-01,3.269151449203491211e-01,3.005148172378540039e-01,3.775532543659210205e-01,4.738145470619201660e-01,5.639130473136901855e-01,6.690527796745300293e-01,7.618233561515808105e-01,8.113734722137451172e-01,8.476880192756652832e-01,8.786758184432983398e-01,8.931786417961120605e-01,8.994622826576232910e-01,9.024993181228637695e-01,9.046150445938110352e-01,9.052293300628662109e-01,9.052782058715820312e-01,9.052983522415161133e-01,9.053351879119873047e-01,9.053552746772766113e-01,9.053403139114379883e-01,9.053218364715576172e-01,9.053344130516052246e-01,9.053277373313903809e-01,9.053269028663635254e-01,9.053289890289306641e-01,9.053519964218139648e-01,9.053734540939331055e-01,9.051623344421386719e-01,9.045448303222656250e-01,9.034085273742675781e-01,9.016543626785278320e-01,8.990822434425354004e-01,8.949849605560302734e-01,8.886905312538146973e-01,8.802309036254882812e-01,8.708788156509399414e-01,8.579343557357788086e-01,8.293460607528686523e-01,8.083413839340209961e-01,8.007402420043945312e-01,7.747441530227661133e-01,7.220981717109680176e-01,6.160984039306640625e-01
5.886481404304504395e-01,6.141833662986755371e-01,6.567941904067993164e-01,6.576040983200073242e-01,6.811482310295104980e-01,7.053730487823486328e-01,7.417407035827636719e-01,7.631446123123168945e-01,7.839123010635375977e-01,8.025398254394531250e-01,8.203123807907104492e-01,8.367825150489807129e-01,8.517118692398071289e-01,8.650064468383789062e-01,8.766063451766967773e-01,8.860930204391479492e-01,8.930279016494750977e-01,8.977905511856079102e-01,9.009596109390258789e-01,9.028662443161010742e-01,9.042693376541137695e-01,9.054309725761413574e-01,9.049044847488403320e-01,9.042776823043823242e-01,9.030101299285888672e-01,8.989828824996948242e-01,8.954694271087646484e-01,8.829192519187927246e-01,8.676508665084838867e-01,8.503154516220092773e-01,8.008277416229248047e-01,7.358919978141784668e-01,6.065411567687988281e-01,4.867448508739471436e-01,3.903705179691314697e-01,3.524025082588195801e-01,3.361551165580749512e-01,3.225584030151367188e-01,3.201743960380554199e-01,3.925469219684600830e-01,5.026986598968505859e-01,5.891563892364501953e-01,7.043827772140502930e-01,7.757934331893920898e-01,8.271781206130981445e-01,8.622988462448120117e-01,8.851509094238281250e-01,8.973766565322875977e-01,9.015548825263977051e-01,9.032818078994750977e-01,9.047703742980957031e-01,9.052721261978149414e-01,9.052782058715820312e-01,9.053185582160949707e-01,9.053316116333007812e-01,9.053320288658142090e-01,9.053291082382202148e-01,9.053297042846679688e-01,9.053294658660888672e-01,9.053267836570739746e-01,9.053289294242858887e-01,9.053298234939575195e-01,9.053521156311035156e-01,9.053734540939331055e-01,9.051626920700073242e-01,9.045455455780029297e-01,9.034095406532287598e-01,9.016562700271606445e-01,8.990846872329711914e-01,8.949892520904541016e-01,8.886972665786743164e-01,8.802396059036254883e-01,8.708891868591308594e-01,8.579468727111816406e-01,8.293613195419311523e-01,8.083583116531372070e-01,8.007570505142211914e-01,7.747603654861450195e-01,7.221115231513977051e-01,6.161077022552490234e-01
5.886399149894714355e-01,6.141696572303771973e-01,6.567778587341308594e-01,6.575855016708374023e-01,6.811273097991943359e-01,7.053514719009399414e-01,7.417191267013549805e-01,7.631236314773559570e-01,7.838917970657348633e-01,8.025198578834533691e-01,8.202941417694091797e-01,8.367661237716674805e-01,8.516978025436401367e-01,8.649942278861999512e-01,8.765969276428222656e-01,8.860908746719360352e-01,8.930643200874328613e-01,8.977464437484741211e-01,9.009803533554077148e-01,9.031482934951782227e-01,9.044754505157470703e-01,9.052796959877014160e-01,9.052741527557373047e-01,9.046512246131896973e-01,9.012240171432495117e-01,8.993773460388183594e-01,8.907648324966430664e-01,8.757161498069763184e-01,8.616253137588500977e-01,8.364378213882446289e-01,7.743006944656372070e-01,6.818745136260986328e-01,5.803989171981811523e-01,4.599249660968780518e-01,3.719936907291412354e-01,3.400241136550903320e-01,3.368683755397796631e-01,3.055646717548370361e-01,3.369903862476348877e-01,4.169734120368957520e-01,5.139124989509582520e-01,6.391500234603881836e-01,7.308048605918884277e-01,7.909739017486572266e-01,8.403273820877075195e-01,8.674987554550170898e-01,8.891596794128417969e-01,8.991563320159912109e-01,9.016730785369873047e-01,9.041631817817687988e-01,9.051378965377807617e-01,9.053418636322021484e-01,9.053206443786621094e-01,9.053283333778381348e-01,9.053283333778381348e-01,9.053283333778381348e-01,9.053283333778381348e-01,9.053283333778381348e-01,9.053283333778381348e-01,9.053283333778381348e-01,9.053285121917724609e-01,9.053297042846679688e-01,9.053519964218139648e-01,9.053733348846435547e-01,9.051627516746520996e-01,9.045461416244506836e-01,9.034106731414794922e-01,9.016580581665039062e-01,8.990875482559204102e-01,8.949934244155883789e-01,8.887039422988891602e-01,8.802487850189208984e-01,8.708995580673217773e-01,8.579595088958740234e-01,8.293763399124145508e-01,8.083748817443847656e-01,8.007736206054687500e-01,7.747765779495239258e-01,7.221245765686035156e-01,6.161170601844787598e-01
5.886319279670715332e-01,6.141567230224609375e-01,6.567628383636474609e-01,6.575676202774047852e-01,6.811071038246154785e-01,7.053308486938476562e-01,7.416981458663940430e-01,7.631022930145263672e-01,7.838704586029052734e-01,8.024994134902954102e-01,8.202745914459228516e-01,8.367482423782348633e-01,8.516814708709716797e-01,8.649801015853881836e-01,8.765845298767089844e-01,8.860803842544555664e-01,8.930561542510986328e-01,8.977577686309814453e-01,9.010214209556579590e-01,9.031369686126708984e-01,9.043558239936828613e-01,9.050475358963012695e-01,9.048131704330444336e-01,9.038704633712768555e-01,9.000743627548217773e-01,8.949683904647827148e-01,8.847240805625915527e-01,8.711686134338378906e-01,8.537235260009765625e-01,8.092353343963623047e-01,7.351894378662109375e-01,6.407130956649780273e-01,5.270323157310485840e-01,4.291536509990692139e-01,3.675169348716735840e-01,3.190304040908813477e-01,3.060818910598754883e-01,2.976135015487670898e-01,3.690263032913208008e-01,4.394297599792480469e-01,5.246589779853820801e-01,6.684799194335937500e-01,7.647719979286193848e-01,8.052747249603271484e-01,8.466379642486572266e-01,8.794614076614379883e-01,8.938282132148742676e-01,9.013839960098266602e-01,9.026043415069580078e-01,9.048755168914794922e-01,9.053796529769897461e-01,9.052453041076660156e-01,9.053492546081542969e-01,9.053260684013366699e-01,9.053260684013366699e-01,9.053260684013366699e-01,9.053260684013366699e-01,9.053260684013366699e-01,9.053261280059814453e-01,9.053261280059814453e-01,9.053262472152709961e-01,9.053274393081665039e-01,9.053497314453125000e-01,9.053711295127868652e-01,9.051607847213745117e-01,9.045447707176208496e-01,9.034100770950317383e-01,9.016581773757934570e-01,8.990883827209472656e-01,8.949958682060241699e-01,8.887084126472473145e-01,8.802560567855834961e-01,8.709089756011962891e-01,8.579713106155395508e-01,8.293909430503845215e-01,8.083914518356323242e-01,8.007900714874267578e-01,7.747924327850341797e-01,7.221379280090332031e-01,6.161261796951293945e-01
5.886238813400268555e-01,6.141436696052551270e-01,6.567470431327819824e-01,6.575490832328796387e-01,6.810855865478515625e-01,7.053070664405822754e-01,7.416732907295227051e-01,7.630767226219177246e-01,7.838443517684936523e-01,8.024724721908569336e-01,8.202486038208007812e-01,8.367234468460083008e-01,8.516582250595092773e-01,8.649586439132690430e-01,8.765654563903808594e-01,8.860661387443542480e-01,8.930491209030151367e-01,8.977488279342651367e-01,9.010155797004699707e-01,9.031373262405395508e-01,9.044164419174194336e-01,9.048744440078735352e-01,9.049369096755981445e-01,9.021664261817932129e-01,8.998585343360900879e-01,8.890594840049743652e-01,8.751271963119506836e-01,8.612148761749267578e-01,8.371107578277587891e-01,7.914506196975708008e-01,7.030503749847412109e-01,6.011928319931030273e-01,4.844054579734802246e-01,3.943230509757995605e-01,3.442571759223937988e-01,3.149600923061370850e-01,2.941538393497467041e-01,3.076704442501068115e-01,3.717886209487915039e-01,4.491017162799835205e-01,5.474904179573059082e-01,6.870894432067871094e-01,7.744083404541015625e-01,8.224886655807495117e-01,8.606003522872924805e-01,8.824418783187866211e-01,8.939938545227050781e-01,9.023679494857788086e-01,9.034987688064575195e-01,9.047845005989074707e-01,9.053751230239868164e-01,9.053138494491577148e-01,9.053259491920471191e-01,9.053215980529785156e-01,9.053215980529785156e-01,9.053217172622680664e-01,9.053217172622680664e-01,9.053217172622680664e-01,9.053217768669128418e-01,9.053217768669128418e-01,9.053220748901367188e-01,9.053232073783874512e-01,9.053454995155334473e-01,9.053670167922973633e-01,9.051569700241088867e-01,9.045403003692626953e-01,9.034063816070556641e-01,9.016551971435546875e-01,8.990851640701293945e-01,8.949920535087585449e-01,8.887053728103637695e-01,8.802535533905029297e-01,8.709068894386291504e-01,8.579734563827514648e-01,8.293968439102172852e-01,8.084000349044799805e-01,8.007993698120117188e-01,7.748001813888549805e-01,7.221422791481018066e-01,6.161287426948547363e-01
5.886114835739135742e-01,6.141275763511657715e-01,6.567274928092956543e-01,6.575307250022888184e-01,6.810665726661682129e-01,7.052868604660034180e-01,7.416545748710632324e-01,7.630628347396850586e-01,7.838363051414489746e-01,8.024714589118957520e-01,8.202580809593200684e-01,8.367463350296020508e-01,8.517014980316162109e-01,8.650188446044921875e-01,8.766279220581054688e-01,8.861194252967834473e-01,8.930929899215698242e-01,8.977872729301452637e-01,9.010508656501770020e-01,9.031980037689208984e-01,9.045071005821228027e-01,9.047710895538330078e-01,9.041290283203125000e-01,9.021900892257690430e-01,8.957377672195434570e-01,8.861690163612365723e-01,8.728725910186767578e-01,8.581976890563964844e-01,8.228462934494018555e-01,7.495366930961608887e-01,6.671155691146850586e-01,5.449610948562622070e-01,4.617323279380798340e-01,3.884140253067016602e-01,3.315208554267883301e-01,2.985158562660217285e-01,2.812814116477966309e-01,3.249217867851257324e-01,3.753532469272613525e-01,4.542043507099151611e-01,5.694862604141235352e-01,6.932128667831420898e-01,7.760644555091857910e-01,8.334809541702270508e-01,8.653403520584106445e-01,8.870053291320800781e-01,8.952323198318481445e-01,9.019831418991088867e-01,9.045578241348266602e-01,9.052359461784362793e-01,9.054338335990905762e-01,9.053764343261718750e-01,9.054027795791625977e-01,9.053957462310791016e-01,9.053961038589477539e-01,9.053963422775268555e-01,9.053965806961059570e-01,9.053968191146850586e-01,9.053971171379089355e-01,9.053972959518432617e-01,9.053978919982910156e-01,9.053994417190551758e-01,9.054225683212280273e-01,9.054448604583740234e-01,9.052376747131347656e-01,9.046199321746826172e-01,9.034807682037353516e-01,9.017143249511718750e-01,8.991348147392272949e-01,8.950434923171997070e-01,8.887714147567749023e-01,8.803315162658691406e-01,8.709965944290161133e-01,8.580464124679565430e-01,8.294649720191955566e-01,8.084487915039062500e-01,8.008316755294799805e-01,7.748210430145263672e-01,7.221424579620361328e-01,6.161293983459472656e-01
5.886178016662597656e-01,6.141345500946044922e-01,6.567316651344299316e-01,6.575453281402587891e-01,6.810917854309082031e-01,7.053452730178833008e-01,7.417640089988708496e-01,7.632201910018920898e-01,7.840194106101989746e-01,8.026660680770874023e-01,8.204531669616699219e-01,8.369380235671997070e-01,8.518699407577514648e-01,8.651559352874755859e-01,8.767372965812683105e-01,8.861936330795288086e-01,8.931597471237182617e-01,8.978857994079589844e-01,9.011799097061157227e-01,9.033055305480957031e-01,9.045679569244384766e-01,9.048182368278503418e-01,9.042010307312011719e-01,9.009572267532348633e-01,8.914275169372558594e-01,8.768528103828430176e-01,8.669339418411254883e-01,8.468152284622192383e-01,8.040674924850463867e-01,7.307154536247253418e-01,6.229920983314514160e-01,5.154547691345214844e-01,4.333125650882720947e-01,3.782672286033630371e-01,3.194614648818969727e-01,2.801285982131958008e-01,2.953012585639953613e-01,3.463670015335083008e-01,3.760486245155334473e-01,4.458424150943756104e-01,5.811306834220886230e-01,6.978200674057006836e-01,7.786185145378112793e-01,8.326386213302612305e-01,8.667519092559814453e-01,8.819931745529174805e-01,8.941006660461425781e-01,9.021290540695190430e-01,9.051713943481445312e-01,9.054044485092163086e-01,9.054533839225769043e-01,9.055173993110656738e-01,9.054584503173828125e-01,9.054661989212036133e-01,9.054653644561767578e-01,9.054644107818603516e-01,9.054635763168334961e-01,9.054627418518066406e-01,9.054619073867797852e-01,9.054610133171081543e-01,9.054605960845947266e-01,9.054611921310424805e-01,9.054840803146362305e-01,9.055072069168090820e-01,9.053021669387817383e-01,9.046818017959594727e-01,9.035501480102539062e-01,9.017890691757202148e-01,8.992090225219726562e-01,8.951137065887451172e-01,8.888944387435913086e-01,8.804664611816406250e-01,8.711236119270324707e-01,8.582098484039306641e-01,8.296959400177001953e-01,8.086968660354614258e-01,8.010895848274230957e-01,7.750706672668457031e-01,7.224279046058654785e-01,6.165233850479125977e-01
5.888013839721679688e-01,6.143111586570739746e-01,6.569848656654357910e-01,6.578003168106079102e-01,6.813384294509887695e-01,7.055053114891052246e-01,7.418465614318847656e-01,7.632265090942382812e-01,7.838832139968872070e-01,8.024008274078369141e-01,8.200691342353820801e-01,8.364213705062866211e-01,8.512631058692932129e-01,8.644661903381347656e-01,8.759480714797973633e-01,8.853852748870849609e-01,8.923833966255187988e-01,8.970937728881835938e-01,9.003641605377197266e-01,9.025604128837585449e-01,9.036184549331665039e-01,9.041581153869628906e-01,9.022611379623413086e-01,8.980716466903686523e-01,8.872621059417724609e-01,8.728703260421752930e-01,8.638937473297119141e-01,8.415428400039672852e-01,7.768924236297607422e-01,7.159358859062194824e-01,5.814005136489868164e-01,4.924193918704986572e-01,4.227188229560852051e-01,3.869545459747314453e-01,3.069561123847961426e-01,2.779592275619506836e-01,2.966226339340209961e-01,3.376284241676330566e-01,3.745750784873962402e-01,4.501316249370574951e-01,5.863401889801025391e-01,6.943355202674865723e-01,7.792857885360717773e-01,8.286126852035522461e-01,8.616378903388977051e-01,8.806363940238952637e-01,8.944774866104125977e-01,9.015741348266601562e-01,9.042179584503173828e-01,9.047766923904418945e-01,9.046741127967834473e-01,9.046193361282348633e-01,9.046145677566528320e-01,9.046132564544677734e-01,9.046122431755065918e-01,9.046112895011901855e-01,9.046105146408081055e-01,9.046093225479125977e-01,9.046086668968200684e-01,9.046077728271484375e-01,9.046070575714111328e-01,9.046077728271484375e-01,9.046276807785034180e-01,9.046609401702880859e-01,9.044567346572875977e-01,9.038790464401245117e-01,9.027748107910156250e-01,9.010077714920043945e-01,8.984280228614807129e-01,8.943620920181274414e-01,8.880728483200073242e-01,8.796485662460327148e-01,8.703293800354003906e-01,8.574472665786743164e-01,8.288396596908569336e-01,8.078463077545166016e-01,8.004527091979980469e-01,7.742125988006591797e-01,7.216140031814575195e-01,6.159951090812683105e-01
5.891574621200561523e-01,6.141797304153442383e-01,6.566531062126159668e-01,6.571511030197143555e-01,6.804426908493041992e-01,7.042933106422424316e-01,7.404209375381469727e-01,7.615287303924560547e-01,7.820317745208740234e-01,8.004177808761596680e-01,8.180015087127685547e-01,8.343540430068969727e-01,8.493276834487915039e-01,8.627436161041259766e-01,8.744814395904541016e-01,8.841423988342285156e-01,8.912270069122314453e-01,8.960017561912536621e-01,8.993836641311645508e-01,9.016686081886291504e-01,9.025529026985168457e-01,9.023723602294921875e-01,9.010326862335205078e-01,8.929291367530822754e-01,8.815704584121704102e-01,8.713583946228027344e-01,8.616207242012023926e-01,8.246873021125793457e-01,7.707128524780273438e-01,6.750052571296691895e-01,5.585376024246215820e-01,5.036421418190002441e-01,4.173098802566528320e-01,3.840603828430175781e-01,2.911474406719207764e-01,3.035967350006103516e-01,3.008136749267578125e-01,3.378690183162689209e-01,3.819634914398193359e-01,4.594975709915161133e-01,5.546301007270812988e-01,6.896538138389587402e-01,7.758785486221313477e-01,8.232401609420776367e-01,8.621176481246948242e-01,8.803730010986328125e-01,8.937956690788269043e-01,9.012907743453979492e-01,9.032116532325744629e-01,9.037071466445922852e-01,9.037095308303833008e-01,9.037036895751953125e-01,9.036960601806640625e-01,9.036949872970581055e-01,9.036940336227416992e-01,9.036928415298461914e-01,9.036917686462402344e-01,9.036908149719238281e-01,9.036897420883178711e-01,9.036886692047119141e-01,9.036878347396850586e-01,9.036878347396850586e-01,9.037036895751953125e-01,9.037333726882934570e-01,9.035475254058837891e-01,9.029993414878845215e-01,9.019619226455688477e-01,9.002496004104614258e-01,8.976996541023254395e-01,8.936421871185302734e-01,8.874087333679199219e-01,8.790719509124755859e-01,8.698112368583679199e-01,8.568364381790161133e-01,8.282477855682373047e-01,8.071007132530212402e-01,7.996383905410766602e-01,7.733826637268066406e-01,7.204567193984985352e-01,6.144736409187316895e-01
5.884079933166503906e-01,6.125014424324035645e-01,6.548567414283752441e-01,6.552609205245971680e-01,6.780956983566284180e-01,7.014923691749572754e-01,7.376139760017395020e-01,7.587709426879882812e-01,7.793208360671997070e-01,7.977041006088256836e-01,8.152694106101989746e-01,8.317412137985229492e-01,8.468407392501831055e-01,8.603414297103881836e-01,8.721705675125122070e-01,8.818703889846801758e-01,8.891113996505737305e-01,8.941320776939392090e-01,8.975913524627685547e-01,8.998069763183593750e-01,9.006744623184204102e-01,9.006116390228271484e-01,8.979606628417968750e-01,8.890892863273620605e-01,8.742976784706115723e-01,8.682199716567993164e-01,8.515514135360717773e-01,8.194785118103027344e-01,7.581206560134887695e-01,6.302769184112548828e-01,5.365241169929504395e-01,5.091988444328308105e-01,4.544590115547180176e-01,3.780916333198547363e-01,3.177262246608734131e-01,3.113048672676086426e-01,2.963352203369140625e-01,3.311464190483093262e-01,3.922881186008453369e-01,4.593151807785034180e-01,5.522103309631347656e-01,6.830198764801025391e-01,7.707071304321289062e-01,8.181204199790954590e-01,8.607704639434814453e-01,8.793007135391235352e-01,8.916990756988525391e-01,9.000651836395263672e-01,9.010791182518005371e-01,9.018989801406860352e-01,9.018639326095581055e-01,9.018115997314453125e-01,9.018144607543945312e-01,9.018083810806274414e-01,9.018024206161499023e-01,9.017962217330932617e-01,9.017902612686157227e-01,9.017841815948486328e-01,9.017781019210815430e-01,9.017719626426696777e-01,9.017660617828369141e-01,9.017607569694519043e-01,9.017745256423950195e-01,9.017996788024902344e-01,9.016259908676147461e-01,9.011564850807189941e-01,9.001966118812561035e-01,8.985990881919860840e-01,8.961430788040161133e-01,8.921523094177246094e-01,8.860802054405212402e-01,8.775858879089355469e-01,8.682910203933715820e-01,8.554385900497436523e-01,8.269650936126708984e-01,8.060621023178100586e-01,7.985020875930786133e-01,7.719292640686035156e-01,7.191736102104187012e-01,6.126996874809265137e-01
5.864669084548950195e-01,6.097779870033264160e-01,6.518770456314086914e-01,6.520050764083862305e-01,6.745817661285400391e-01,6.974242925643920898e-01,7.329908609390258789e-01,7.536305785179138184e-01,7.735033035278320312e-01,7.914416790008544922e-01,8.087482452392578125e-01,8.249921798706054688e-01,8.399544954299926758e-01,8.535097837448120117e-01,8.654154539108276367e-01,8.752057552337646484e-01,8.825129866600036621e-01,8.875677585601806641e-01,8.911241292953491211e-01,8.933776617050170898e-01,8.943097591400146484e-01,8.939674496650695801e-01,8.906391263008117676e-01,8.803888559341430664e-01,8.675853013992309570e-01,8.607683181762695312e-01,8.287267684936523438e-01,7.952690720558166504e-01,7.370170354843139648e-01,6.176195144653320312e-01,5.462174415588378906e-01,5.051801800727844238e-01,4.703305959701538086e-01,3.983679115772247314e-01,3.432442545890808105e-01,3.085727393627166748e-01,3.129145503044128418e-01,3.506222963333129883e-01,4.054555594921112061e-01,4.494143426418304443e-01,5.338200926780700684e-01,6.643012762069702148e-01,7.566649913787841797e-01,8.084301948547363281e-01,8.526182770729064941e-01,8.734152913093566895e-01,8.848259449005126953e-01,8.931365013122558594e-01,8.946456909179687500e-01,8.953191637992858887e-01,8.953076601028442383e-01,8.952741622924804688e-01,8.952645063400268555e-01,8.952554464340209961e-01,8.952463865280151367e-01,8.952373266220092773e-01,8.952282667160034180e-01,8.952191472053527832e-01,8.952101469039916992e-01,8.952009677886962891e-01,8.951916694641113281e-01,8.951827287673950195e-01,8.951916694641113281e-01,8.952086567878723145e-01,8.950736522674560547e-01,8.946241736412048340e-01,8.938145637512207031e-01,8.923479318618774414e-01,8.900240659713745117e-01,8.861784338951110840e-01,8.802846074104309082e-01,8.720723986625671387e-01,8.626432418823242188e-01,8.496457934379577637e-01,8.213572502136230469e-01,8.010401725769042969e-01,7.939155101776123047e-01,7.675372958183288574e-01,7.151723504066467285e-01,6.077080965042114258e-01
5.825376510620117188e-01,6.038821935653686523e-01,6.454443335533142090e-01,6.448007822036743164e-01,6.661971211433410645e-01,6.881833672523498535e-01,7.229004502296447754e-01,7.430772185325622559e-01,7.622784376144409180e-01,7.793431282043457031e-01,7.960605621337890625e-01,8.119963407516479492e-01,8.270331025123596191e-01,8.408875465393066406e-01,8.531073927879333496e-01,8.633352518081665039e-01,8.711276054382324219e-01,8.765115141868591309e-01,8.802449703216552734e-01,8.824917674064636230e-01,8.829649686813354492e-01,8.834791183471679688e-01,8.773796558380126953e-01,8.660291433334350586e-01,8.588376045227050781e-01,8.458523154258728027e-01,8.166588544845581055e-01,7.803009748458862305e-01,6.856493353843688965e-01,5.941076874732971191e-01,5.520913004875183105e-01,5.278688669204711914e-01,4.545369446277618408e-01,4.327430725097656250e-01,3.634524941444396973e-01,3.206050992012023926e-01,3.227858543395996094e-01,3.552766442298889160e-01,3.896075785160064697e-01,4.477759599685668945e-01,5.256503820419311523e-01,6.458249092102050781e-01,7.340314984321594238e-01,7.890092730522155762e-01,8.356733322143554688e-01,8.595190048217773438e-01,8.738360404968261719e-01,8.822121620178222656e-01,8.835456371307373047e-01,8.842623233795166016e-01,8.842183351516723633e-01,8.841748237609863281e-01,8.841546773910522461e-01,8.841344118118286133e-01,8.841142654418945312e-01,8.840941786766052246e-01,8.840738534927368164e-01,8.840537071228027344e-01,8.840335011482238770e-01,8.840134143829345703e-01,8.839931488037109375e-01,8.839730024337768555e-01,8.839836716651916504e-01,8.840291500091552734e-01,8.839020729064941406e-01,8.835523128509521484e-01,8.828697204589843750e-01,8.814024925231933594e-01,8.790498971939086914e-01,8.753594160079956055e-01,8.695279359817504883e-01,8.616435527801513672e-01,8.525927066802978516e-01,8.395695686340332031e-01,8.107875585556030273e-01,7.916782498359680176e-01,7.853856086730957031e-01,7.605778574943542480e-01,7.071923017501831055e-01,6.017374396324157715e-01
5.753734111785888672e-01,5.940432548522949219e-01,6.345341205596923828e-01,6.318060755729675293e-01,6.512055397033691406e-01,6.719560027122497559e-01,7.057625055313110352e-01,7.251134514808654785e-01,7.435619235038757324e-01,7.599261999130249023e-01,7.757296562194824219e-01,7.908968329429626465e-01,8.055427074432373047e-01,8.189378976821899414e-01,8.307859301567077637e-01,8.406672477722167969e-01,8.480857610702514648e-01,8.534154891967773438e-01,8.571872711181640625e-01,8.593937158584594727e-01,8.606501221656799316e-01,8.601850271224975586e-01,8.520976305007934570e-01,8.390041589736938477e-01,8.309822082519531250e-01,8.119012117385864258e-01,7.855774164199829102e-01,7.356445193290710449e-01,6.279333829879760742e-01,5.838496088981628418e-01,5.816165208816528320e-01,5.140872597694396973e-01,4.782104492187500000e-01,4.305685162544250488e-01,3.730119168758392334e-01,3.219783902168273926e-01,3.438257575035095215e-01,3.607746958732604980e-01,3.811212778091430664e-01,4.348458051681518555e-01,5.052372217178344727e-01,6.136567592620849609e-01,6.982785463333129883e-01,7.562711238861083984e-01,8.076782822608947754e-01,8.340350985527038574e-01,8.492799401283264160e-01,8.580971956253051758e-01,8.597434759140014648e-01,8.604461550712585449e-01,8.603500127792358398e-01,8.602834939956665039e-01,8.602464795112609863e-01,8.602097034454345703e-01,8.601727485656738281e-01,8.601357936859130859e-01,8.600987195968627930e-01,8.600618839263916016e-01,8.600249886512756348e-01,8.599880933761596680e-01,8.599507212638854980e-01,8.599131107330322266e-01,8.599179983139038086e-01,8.599511384963989258e-01,8.598004579544067383e-01,8.595332503318786621e-01,8.591309189796447754e-01,8.579472899436950684e-01,8.558940887451171875e-01,8.521302938461303711e-01,8.465083241462707520e-01,8.387156724929809570e-01,8.299969434738159180e-01,8.169861435890197754e-01,7.877287864685058594e-01,7.699998021125793457e-01,7.670534849166870117e-01,7.438989877700805664e-01,6.925557851791381836e-01,5.922717452049255371e-01
5.643807649612426758e-01,5.786220431327819824e-01,6.173453927040100098e-01,6.113568544387817383e-01,6.278047561645507812e-01,6.468122005462646484e-01,6.787351369857788086e-01,6.960866451263427734e-01,7.121235728263854980e-01,7.261273860931396484e-01,7.397757768630981445e-01,7.531883716583251953e-01,7.665055990219116211e-01,7.789263129234313965e-01,7.898082733154296875e-01,7.990602254867553711e-01,8.063982725143432617e-01,8.116853237152099609e-01,8.154094219207763672e-01,8.177450895309448242e-01,8.196825981140136719e-01,8.165566921234130859e-01,8.078418970108032227e-01,7.946908473968505859e-01,7.901156544685363770e-01,7.619256377220153809e-01,7.259541153907775879e-01,6.744555234909057617e-01,5.852996110916137695e-01,5.499189496040344238e-01,5.515218973159790039e-01,5.013359785079956055e-01,4.894963800907135010e-01,4.427453279495239258e-01,3.717249333858489990e-01,3.315312862396240234e-01,3.364960551261901855e-01,3.455630540847778320e-01,3.642075061798095703e-01,4.196126461029052734e-01,4.780550003051757812e-01,5.719890594482421875e-01,6.507169008255004883e-01,7.060813307762145996e-01,7.574968338012695312e-01,7.886397838592529297e-01,8.062874674797058105e-01,8.151092529296875000e-01,8.166472911834716797e-01,8.175309896469116211e-01,8.173974752426147461e-01,8.173020482063293457e-01,8.172436952590942383e-01,8.171848654747009277e-01,8.171259760856628418e-01,8.170671463012695312e-01,8.170083761215209961e-01,8.169496059417724609e-01,8.168908357620239258e-01,8.168318867683410645e-01,8.167733550071716309e-01,8.167131543159484863e-01,8.167055845260620117e-01,8.166778087615966797e-01,8.164834976196289062e-01,8.160771131515502930e-01,8.156199455261230469e-01,8.143084049224853516e-01,8.124398589134216309e-01,8.094927072525024414e-01,8.042725324630737305e-01,7.970143556594848633e-01,7.894091606140136719e-01,7.773728370666503906e-01,7.479017972946166992e-01,7.329834699630737305e-01,7.344103455543518066e-01,7.134135961532592773e-01,6.685262322425842285e-01,5.795586705207824707e-01
5.498357415199279785e-01,5.541174411773681641e-01,5.890432000160217285e-01,5.790362358093261719e-01,5.922463536262512207e-01,6.085566282272338867e-01,6.381719112396240234e-01,6.527631878852844238e-01,6.666578054428100586e-01,6.783919930458068848e-01,6.898000240325927734e-01,7.009323239326477051e-01,7.119175195693969727e-01,7.217553853988647461e-01,7.305891513824462891e-01,7.382019758224487305e-01,7.439010143280029297e-01,7.478763461112976074e-01,7.505956292152404785e-01,7.521619200706481934e-01,7.537737488746643066e-01,7.470943331718444824e-01,7.351056933403015137e-01,7.245333194732666016e-01,7.170144915580749512e-01,6.875627636909484863e-01,6.554337739944458008e-01,5.982398390769958496e-01,5.447289943695068359e-01,5.317937135696411133e-01,4.884818196296691895e-01,4.909083545207977295e-01,4.506248235702514648e-01,4.247772693634033203e-01,3.519217073917388916e-01,3.354941606521606445e-01,3.251920342445373535e-01,3.314492404460906982e-01,3.520521521568298340e-01,3.918080925941467285e-01,4.426387250423431396e-01,5.284549593925476074e-01,5.940080881118774414e-01,6.402943134307861328e-01,6.899546384811401367e-01,7.226412296295166016e-01,7.400749921798706055e-01,7.475932836532592773e-01,7.493106126785278320e-01,7.503739595413208008e-01,7.502067089080810547e-01,7.500820159912109375e-01,7.499983906745910645e-01,7.499162554740905762e-01,7.498342990875244141e-01,7.497520446777343750e-01,7.496699094772338867e-01,7.495873570442199707e-01,7.495051622390747070e-01,7.494231462478637695e-01,7.493401169776916504e-01,7.492539286613464355e-01,7.492292523384094238e-01,7.491508126258850098e-01,7.489968538284301758e-01,7.487155199050903320e-01,7.482014894485473633e-01,7.468129992485046387e-01,7.445492744445800781e-01,7.411842942237854004e-01,7.364900112152099609e-01,7.301353812217712402e-01,7.241417169570922852e-01,7.128741741180419922e-01,6.834346055984497070e-01,6.727026700973510742e-01,6.816030740737915039e-01,6.628354787826538086e-01,6.335870027542114258e-01,5.563670396804809570e-01
5.325865745544433594e-01,5.238299369812011719e-01,5.546776056289672852e-01,5.387853384017944336e-01,5.466812849044799805e-01,5.595349073410034180e-01,5.837607979774475098e-01,5.949353575706481934e-01,6.053986549377441406e-01,6.135212182998657227e-01,6.215339899063110352e-01,6.294591426849365234e-01,6.371085047721862793e-01,6.439311504364013672e-01,6.500927209854125977e-01,6.548253893852233887e-01,6.580516695976257324e-01,6.604598760604858398e-01,6.620334982872009277e-01,6.637533307075500488e-01,6.631232500076293945e-01,6.577895879745483398e-01,6.452166438102722168e-01,6.392937898635864258e-01,6.258997321128845215e-01,5.976272821426391602e-01,5.698838233947753906e-01,5.004392266273498535e-01,4.996101558208465576e-01,4.685426950454711914e-01,4.555516839027404785e-01,4.449722170829772949e-01,4.393680691719055176e-01,3.914372026920318604e-01,3.676782846450805664e-01,3.222897648811340332e-01,3.019462227821350098e-01,3.021367192268371582e-01,3.250021338462829590e-01,3.584383428096771240e-01,4.031330943107604980e-01,4.730841517448425293e-01,5.286527276039123535e-01,5.641786456108093262e-01,6.060604453086853027e-01,6.351194381713867188e-01,6.517352461814880371e-01,6.584200263023376465e-01,6.595259904861450195e-01,6.606507301330566406e-01,6.604882478713989258e-01,6.603491902351379395e-01,6.602599024772644043e-01,6.601728200912475586e-01,6.600853800773620605e-01,6.599981188774108887e-01,6.599107980728149414e-01,6.598235964775085449e-01,6.597363352775573730e-01,6.596490144729614258e-01,6.595609188079833984e-01,6.594685316085815430e-01,6.594026088714599609e-01,6.593419313430786133e-01,6.591305732727050781e-01,6.589206457138061523e-01,6.586000323295593262e-01,6.574415564537048340e-01,6.554442048072814941e-01,6.522628068923950195e-01,6.490432024002075195e-01,6.442167758941650391e-01,6.403497457504272461e-01,6.306586861610412598e-01,6.031854748725891113e-01,5.958134531974792480e-01,6.114221811294555664e-01,5.966706275939941406e-01,5.878696441650390625e-01,5.268025398254394531e-01
5.116001963615417480e-01,4.894212782382965088e-01,5.142391324043273926e-01,4.909904003143310547e-01,4.925737082958221436e-01,5.011547803878784180e-01,5.197572708129882812e-01,5.277075171470642090e-01,5.348433852195739746e-01,5.396803021430969238e-01,5.445505976676940918e-01,5.496577620506286621e-01,5.546110868453979492e-01,5.589410662651062012e-01,5.625606775283813477e-01,5.652566552162170410e-01,5.675421357154846191e-01,5.691360831260681152e-01,5.702030658721923828e-01,5.713695287704467773e-01,5.695501565933227539e-01,5.625638365745544434e-01,5.549966692924499512e-01,5.524696707725524902e-01,5.317666530609130859e-01,5.105068087577819824e-01,4.826080799102783203e-01,4.411373436450958252e-01,4.363345205783843994e-01,4.297282099723815918e-01,4.300475418567657471e-01,4.183866083621978760e-01,3.976820707321166992e-01,3.610329031944274902e-01,3.380755484104156494e-01,3.075702786445617676e-01,2.838011980056762695e-01,2.882852554321289062e-01,3.051284551620483398e-01,3.291814923286437988e-01,3.675567507743835449e-01,4.163985550403594971e-01,4.609616994857788086e-01,4.913935661315917969e-01,5.235501527786254883e-01,5.470936298370361328e-01,5.608524084091186523e-01,5.665103793144226074e-01,5.674183368682861328e-01,5.683270096778869629e-01,5.681710839271545410e-01,5.680527687072753906e-01,5.679716467857360840e-01,5.678830742835998535e-01,5.677965283393859863e-01,5.677093267440795898e-01,5.676229000091552734e-01,5.675366520881652832e-01,5.674502253532409668e-01,5.673636198043823242e-01,5.672767162322998047e-01,5.671838521957397461e-01,5.670983195304870605e-01,5.670576095581054688e-01,5.670259594917297363e-01,5.669496655464172363e-01,5.667104125022888184e-01,5.661680698394775391e-01,5.646582841873168945e-01,5.622274875640869141e-01,5.591666698455810547e-01,5.555513501167297363e-01,5.536097288131713867e-01,5.454325079917907715e-01,5.213731527328491211e-01,5.172643065452575684e-01,5.382895469665527344e-01,5.279663205146789551e-01,5.396045446395874023e-01,4.964675009250640869e-01
4.905955791473388672e-01,4.557282328605651855e-01,4.713618159294128418e-01,4.409440159797668457e-01,4.362790286540985107e-01,4.406352043151855469e-01,4.540578424930572510e-01,4.581373631954193115e-01,4.624640643596649170e-01,4.647878110408782959e-01,4.673460721969604492e-01,4.701610207557678223e-01,4.729223847389221191e-01,4.755521714687347412e-01,4.778448939323425293e-01,4.795466661453247070e-01,4.808232188224792480e-01,4.817771613597869873e-01,4.822781980037689209e-01,4.835782647132873535e-01,4.822350740432739258e-01,4.766304790973663330e-01,4.741578698158264160e-01,4.734691679477691650e-01,4.520710706710815430e-01,4.416998326778411865e-01,4.164668917655944824e-01,3.918430209159851074e-01,3.812552988529205322e-01,3.887131214141845703e-01,3.789187669754028320e-01,3.754023909568786621e-01,3.528438210487365723e-01,3.405062556266784668e-01,3.223143219947814941e-01,2.901084423065185547e-01,2.736530005931854248e-01,2.707214951515197754e-01,2.864750921726226807e-01,2.991538643836975098e-01,3.314135670661926270e-01,3.700890541076660156e-01,4.014434814453125000e-01,4.227159023284912109e-01,4.457885921001434326e-01,4.647018313407897949e-01,4.758005142211914062e-01,4.794004559516906738e-01,4.800005257129669189e-01,4.805852770805358887e-01,4.805087745189666748e-01,4.804365634918212891e-01,4.803625345230102539e-01,4.802993834018707275e-01,4.802204370498657227e-01,4.801467061042785645e-01,4.800745844841003418e-01,4.800019860267639160e-01,4.799295365810394287e-01,4.798570573329925537e-01,4.797843098640441895e-01,4.797083139419555664e-01,4.796252250671386719e-01,4.795600175857543945e-01,4.795465767383575439e-01,4.795535504817962646e-01,4.794760644435882568e-01,4.793859422206878662e-01,4.788151979446411133e-01,4.777882695198059082e-01,4.768663346767425537e-01,4.753049314022064209e-01,4.752753973007202148e-01,4.694274663925170898e-01,4.494308531284332275e-01,4.481917321681976318e-01,4.717389941215515137e-01,4.687364101409912109e-01,4.949443936347961426e-01,4.690703153610229492e-01
4.694169759750366211e-01,4.224276542663574219e-01,4.285596311092376709e-01,3.950825035572052002e-01,3.841180205345153809e-01,3.856827616691589355e-01,3.960973024368286133e-01,3.990353941917419434e-01,4.020568132400512695e-01,4.032475352287292480e-01,4.044589996337890625e-01,4.056680798530578613e-01,4.066852927207946777e-01,4.076292514801025391e-01,4.084246754646301270e-01,4.090067744255065918e-01,4.096166193485260010e-01,4.100688993930816650e-01,4.102083742618560791e-01,4.106437861919403076e-01,4.092243611812591553e-01,4.073399007320404053e-01,4.066945016384124756e-01,4.025534391403198242e-01,3.862163424491882324e-01,3.741258680820465088e-01,3.662849664688110352e-01,3.519119620323181152e-01,3.480538725852966309e-01,3.391007781028747559e-01,3.556563258171081543e-01,3.422363996505737305e-01,3.229598999023437500e-01,3.146283924579620361e-01,2.953753471374511719e-01,2.753167748451232910e-01,2.617017030715942383e-01,2.608674168586730957e-01,2.712514400482177734e-01,2.832271456718444824e-01,3.043660521507263184e-01,3.293164968490600586e-01,3.544976115226745605e-01,3.668526411056518555e-01,3.836896121501922607e-01,3.972565233707427979e-01,4.061080813407897949e-01,4.074867069721221924e-01,4.081929028034210205e-01,4.085584878921508789e-01,4.084761738777160645e-01,4.084447622299194336e-01,4.084051549434661865e-01,4.083667695522308350e-01,4.083121418952941895e-01,4.082611799240112305e-01,4.082036018371582031e-01,4.081461727619171143e-01,4.080887734889984131e-01,4.080315232276916504e-01,4.079747796058654785e-01,4.079171419143676758e-01,4.078623652458190918e-01,4.078122377395629883e-01,4.077813923358917236e-01,4.077621698379516602e-01,4.077821969985961914e-01,4.076884984970092773e-01,4.073077440261840820e-01,4.064736664295196533e-01,4.056325554847717285e-01,4.045465588569641113e-01,4.051979780197143555e-01,4.015022516250610352e-01,3.856366276741027832e-01,3.876470923423767090e-01,4.134679734706878662e-01,4.176889657974243164e-01,4.559968709945678711e-01,4.460439085960388184e-01
4.513968229293823242e-01,3.938278555870056152e-01,3.929914236068725586e-01,3.573017418384552002e-01,3.413678407669067383e-01,3.406585156917572021e-01,3.481045961380004883e-01,3.498252630233764648e-01,3.515201210975646973e-01,3.519409894943237305e-01,3.524576723575592041e-01,3.529202342033386230e-01,3.534041345119476318e-01,3.538394868373870850e-01,3.541252315044403076e-01,3.542227745056152344e-01,3.542946577072143555e-01,3.541618585586547852e-01,3.539159297943115234e-01,3.542478084564208984e-01,3.530317544937133789e-01,3.521254658699035645e-01,3.517736494541168213e-01,3.476099371910095215e-01,3.380335569381713867e-01,3.323457539081573486e-01,3.217951059341430664e-01,3.181090354919433594e-01,3.105906248092651367e-01,3.120373487472534180e-01,3.185079097747802734e-01,3.148223757743835449e-01,2.988478541374206543e-01,2.964937090873718262e-01,2.794956862926483154e-01,2.614360153675079346e-01,2.496920824050903320e-01,2.475443482398986816e-01,2.574808597564697266e-01,2.681465744972229004e-01,2.814828455448150635e-01,2.992868721485137939e-01,3.157224059104919434e-01,3.247145116329193115e-01,3.361938595771789551e-01,3.459335565567016602e-01,3.510342836380004883e-01,3.519977331161499023e-01,3.523201942443847656e-01,3.526003360748291016e-01,3.526495695114135742e-01,3.526401221752166748e-01,3.525493443012237549e-01,3.525498509407043457e-01,3.525126874446868896e-01,3.524732887744903564e-01,3.524322509765625000e-01,3.523912429809570312e-01,3.523505330085754395e-01,3.523094058036804199e-01,3.522688746452331543e-01,3.522281050682067871e-01,3.521850407123565674e-01,3.521562814712524414e-01,3.521175384521484375e-01,3.520622253417968750e-01,3.520660400390625000e-01,3.521103262901306152e-01,3.520597815513610840e-01,3.519820272922515869e-01,3.517227470874786377e-01,3.512667119503021240e-01,3.521029949188232422e-01,3.494738340377807617e-01,3.362873196601867676e-01,3.391561508178710938e-01,3.653076887130737305e-01,3.756725192070007324e-01,4.224337339401245117e-01,4.258129000663757324e-01
4.349679946899414062e-01,3.689450621604919434e-01,3.612753748893737793e-01,3.251663446426391602e-01,3.061305880546569824e-01,3.047569990158081055e-01,3.108623027801513672e-01,3.122478127479553223e-01,3.134063184261322021e-01,3.134191036224365234e-01,3.134012222290039062e-01,3.133925795555114746e-01,3.134704828262329102e-01,3.135585784912109375e-01,3.135901391506195068e-01,3.136034905910491943e-01,3.135603070259094238e-01,3.135064840316772461e-01,3.135877549648284912e-01,3.135182857513427734e-01,3.131980895996093750e-01,3.127160668373107910e-01,3.115185499191284180e-01,3.094270825386047363e-01,3.037862181663513184e-01,3.001382350921630859e-01,2.925761044025421143e-01,2.940431237220764160e-01,2.874897122383117676e-01,2.896003723144531250e-01,2.930648028850555420e-01,2.898628115653991699e-01,2.822123467922210693e-01,2.728948593139648438e-01,2.657718658447265625e-01,2.519919872283935547e-01,2.410729527473449707e-01,2.405821681022644043e-01,2.476376593112945557e-01,2.546141743659973145e-01,2.636132240295410156e-01,2.759822010993957520e-01,2.858347296714782715e-01,2.931094169616699219e-01,3.010604679584503174e-01,3.085004687309265137e-01,3.097706437110900879e-01,3.117187917232513428e-01,3.120138049125671387e-01,3.126212656497955322e-01,3.124035596847534180e-01,3.124143481254577637e-01,3.124637305736541748e-01,3.124682605266571045e-01,3.124176263809204102e-01,3.123911023139953613e-01,3.123608231544494629e-01,3.123310208320617676e-01,3.123012781143188477e-01,3.122714757919311523e-01,3.122420907020568848e-01,3.122124075889587402e-01,3.121829032897949219e-01,3.121513128280639648e-01,3.121206462383270264e-01,3.120907247066497803e-01,3.120500743389129639e-01,3.119987845420837402e-01,3.119735717773437500e-01,3.118572235107421875e-01,3.117210865020751953e-01,3.115028440952301025e-01,3.122456073760986328e-01,3.104180097579956055e-01,2.992268204689025879e-01,3.025850653648376465e-01,3.288169503211975098e-01,3.441858291625976562e-01,3.968233168125152588e-01,4.100997745990753174e-01
4.212123751640319824e-01,3.491295278072357178e-01,3.364078700542449951e-01,2.999934256076812744e-01,2.791699767112731934e-01,2.769939303398132324e-01,2.819462716579437256e-01,2.831121087074279785e-01,2.839954495429992676e-01,2.838847637176513672e-01,2.838462591171264648e-01,2.838441133499145508e-01,2.838264703750610352e-01,2.838095426559448242e-01,2.837942242622375488e-01,2.837562561035156250e-01,2.837168574333190918e-01,2.836835980415344238e-01,2.836523652076721191e-01,2.834660112857818604e-01,2.831773161888122559e-01,2.831538319587707520e-01,2.823597788810729980e-01,2.804800271987915039e-01,2.780383229255676270e-01,2.752851247787475586e-01,2.730611860752105713e-01,2.705353498458862305e-01,2.715746760368347168e-01,2.699999809265136719e-01,2.716755867004394531e-01,2.706796228885650635e-01,2.643482685089111328e-01,2.586749792098999023e-01,2.512338757514953613e-01,2.452938258647918701e-01,2.342323362827301025e-01,2.343716621398925781e-01,2.361381947994232178e-01,2.406210303306579590e-01,2.508726418018341064e-01,2.554399371147155762e-01,2.629266083240509033e-01,2.661136984825134277e-01,2.732627391815185547e-01,2.771309614181518555e-01,2.797381579875946045e-01,2.814672589302062988e-01,2.820545732975006104e-01,2.825868725776672363e-01,2.827520370483398438e-01,2.828831076622009277e-01,2.828899025917053223e-01,2.828636169433593750e-01,2.828589677810668945e-01,2.828420996665954590e-01,2.828197479248046875e-01,2.827980816364288330e-01,2.827764153480529785e-01,2.827548980712890625e-01,2.827334403991699219e-01,2.827120423316955566e-01,2.826903462409973145e-01,2.826694846153259277e-01,2.826477587223052979e-01,2.826228141784667969e-01,2.825994789600372314e-01,2.825899422168731689e-01,2.825808525085449219e-01,2.825797200202941895e-01,2.825607955455780029e-01,2.824520766735076904e-01,2.830923199653625488e-01,2.817818522453308105e-01,2.718580961227416992e-01,2.751336097717285156e-01,3.007366955280303955e-01,3.195597529411315918e-01,3.762952685356140137e-01,3.975770771503448486e-01
4.091754257678985596e-01,3.324906826019287109e-01,3.159782886505126953e-01,2.799491882324218750e-01,2.584226131439208984e-01,2.558314204216003418e-01,2.600256800651550293e-01,2.610182762145996094e-01,2.617913484573364258e-01,2.617062330245971680e-01,2.616656422615051270e-01,2.616432309150695801e-01,2.616236209869384766e-01,2.616078853607177734e-01,2.615912556648254395e-01,2.615738213062286377e-01,2.615568637847900391e-01,2.615362107753753662e-01,2.615292668342590332e-01,2.615295052528381348e-01,2.614410221576690674e-01,2.616322636604309082e-01,2.613241672515869141e-01,2.606632113456726074e-01,2.594119906425476074e-01,2.572892606258392334e-01,2.545863986015319824e-01,2.550941109657287598e-01,2.534552514553070068e-01,2.562981247901916504e-01,2.546252012252807617e-01,2.545304894447326660e-01,2.516017556190490723e-01,2.469004392623901367e-01,2.404357194900512695e-01,2.345439493656158447e-01,2.293143868446350098e-01,2.285573482513427734e-01,2.295969724655151367e-01,2.307876348495483398e-01,2.364858090877532959e-01,2.409893572330474854e-01,2.450786530971527100e-01,2.486935555934906006e-01,2.526758611202239990e-01,2.546158134937286377e-01,2.570568323135375977e-01,2.583692669868469238e-01,2.597922086715698242e-01,2.600532472133636475e-01,2.606115937232971191e-01,2.608450055122375488e-01,2.609498798847198486e-01,2.609159946441650391e-01,2.609199881553649902e-01,2.609127163887023926e-01,2.608983516693115234e-01,2.608820796012878418e-01,2.608659267425537109e-01,2.608493864536285400e-01,2.608330845832824707e-01,2.608167231082916260e-01,2.608003914356231689e-01,2.607836425304412842e-01,2.607670426368713379e-01,2.607503533363342285e-01,2.607327401638031006e-01,2.607175111770629883e-01,2.607021629810333252e-01,2.606869339942932129e-01,2.606710493564605713e-01,2.605929672718048096e-01,2.611112296581268311e-01,2.600652873516082764e-01,2.511677742004394531e-01,2.544461488723754883e-01,2.794571220874786377e-01,3.009928464889526367e-01,3.605818152427673340e-01,3.876313567161560059e-01
3.991093933582305908e-01,3.188908696174621582e-01,2.997264862060546875e-01,2.643871307373046875e-01,2.423037886619567871e-01,2.394163012504577637e-01,2.430766820907592773e-01,2.439670860767364502e-01,2.446584701538085938e-01,2.445949316024780273e-01,2.445622384548187256e-01,2.445473968982696533e-01,2.445327937602996826e-01,2.445190846920013428e-01,2.445042729377746582e-01,2.444898784160614014e-01,2.444737553596496582e-01,2.444588840007781982e-01,2.444070875644683838e-01,2.443925738334655762e-01,2.443278133869171143e-01,2.443809509277343750e-01,2.441586256027221680e-01,2.440926134586334229e-01,2.430420517921447754e-01,2.426554262638092041e-01,2.418990731239318848e-01,2.410684823989868164e-01,2.410247325897216797e-01,2.410987317562103271e-01,2.406594455242156982e-01,2.402676641941070557e-01,2.391616702079772949e-01,2.344489395618438721e-01,2.307746708393096924e-01,2.275563776493072510e-01,2.227146327495574951e-01,2.218067944049835205e-01,2.222953438758850098e-01,2.241336107254028320e-01,2.253296077251434326e-01,2.295579016208648682e-01,2.319266498088836670e-01,2.353190183639526367e-01,2.369492352008819580e-01,2.384293377399444580e-01,2.398445606231689453e-01,2.410792708396911621e-01,2.417274117469787598e-01,2.429738938808441162e-01,2.435834407806396484e-01,2.437720894813537598e-01,2.438910603523254395e-01,2.439532876014709473e-01,2.439830899238586426e-01,2.439706027507781982e-01,2.439586818218231201e-01,2.439453601837158203e-01,2.439326345920562744e-01,2.439197897911071777e-01,2.439068853855133057e-01,2.438938319683074951e-01,2.438811361789703369e-01,2.438684105873107910e-01,2.438552975654602051e-01,2.438422441482543945e-01,2.438289225101470947e-01,2.438152730464935303e-01,2.438023388385772705e-01,2.437894046306610107e-01,2.437762022018432617e-01,2.437122166156768799e-01,2.441367506980895996e-01,2.433012425899505615e-01,2.352226376533508301e-01,2.385342121124267578e-01,2.629311084747314453e-01,2.863654792308807373e-01,3.479785025119781494e-01,3.796809911727905273e-01
3.908083438873291016e-01,3.077775537967681885e-01,2.866267561912536621e-01,2.519669532775878906e-01,2.295313179492950439e-01,2.264040708541870117e-01,2.296699285507202148e-01,2.304598689079284668e-01,2.310814261436462402e-01,2.310267686843872070e-01,2.309996783733367920e-01,2.309890091419219971e-01,2.309785187244415283e-01,2.309684753417968750e-01,2.309579253196716309e-01,2.309477329254150391e-01,2.309388816356658936e-01,2.309265136718750000e-01,2.309195995330810547e-01,2.308685183525085449e-01,2.309621274471282959e-01,2.309900224208831787e-01,2.308973073959350586e-01,2.309270203113555908e-01,2.306394279003143311e-01,2.297990918159484863e-01,2.296962440013885498e-01,2.292812466621398926e-01,2.292358577251434326e-01,2.300088703632354736e-01,2.293353080749511719e-01,2.295224368572235107e-01,2.278978228569030762e-01,2.250272929668426514e-01,2.219475507736206055e-01,2.195468842983245850e-01,2.162760794162750244e-01,2.153228819370269775e-01,2.154344320297241211e-01,2.156372964382171631e-01,2.179092168807983398e-01,2.187762260437011719e-01,2.222710847854614258e-01,2.234701514244079590e-01,2.251853644847869873e-01,2.265005111694335938e-01,2.268953323364257812e-01,2.280564308166503906e-01,2.285106480121612549e-01,2.293244004249572754e-01,2.298094332218170166e-01,2.301965057849884033e-01,2.304378747940063477e-01,2.305383682250976562e-01,2.305382192134857178e-01,2.305341362953186035e-01,2.305229604244232178e-01,2.305114269256591797e-01,2.305010855197906494e-01,2.304907739162445068e-01,2.304802238941192627e-01,2.304701507091522217e-01,2.304597198963165283e-01,2.304494678974151611e-01,2.304393351078033447e-01,2.304288744926452637e-01,2.304185032844543457e-01,2.304081618785858154e-01,2.303977906703948975e-01,2.303873598575592041e-01,2.303767800331115723e-01,2.303234338760375977e-01,2.306791543960571289e-01,2.300028502941131592e-01,2.225880026817321777e-01,2.259113192558288574e-01,2.498062551021575928e-01,2.745899856090545654e-01,3.377255797386169434e-01,3.731974959373474121e-01
3.838096559047698975e-01,2.985767126083374023e-01,2.758283019065856934e-01,2.418440282344818115e-01,2.191888093948364258e-01,2.158561944961547852e-01,2.188116610050201416e-01,2.195130288600921631e-01,2.200793623924255371e-01,2.200316786766052246e-01,2.200084626674652100e-01,2.200002372264862061e-01,2.199915647506713867e-01,2.199830710887908936e-01,2.199745774269104004e-01,2.199659645557403564e-01,2.199575901031494141e-01,2.199500203132629395e-01,2.199281156063079834e-01,2.199380397796630859e-01,2.198957502841949463e-01,2.198273837566375732e-01,2.198953032493591309e-01,2.199612855911254883e-01,2.196016311645507812e-01,2.197833955287933350e-01,2.193144857883453369e-01,2.193216979503631592e-01,2.193991541862487793e-01,2.193307578563690186e-01,2.189751863479614258e-01,2.195230126380920410e-01,2.183394134044647217e-01,2.160813808441162109e-01,2.148923277854919434e-01,2.127136886119842529e-01,2.109360396862030029e-01,2.092636823654174805e-01,2.086431384086608887e-01,2.094012796878814697e-01,2.097768187522888184e-01,2.114772796630859375e-01,2.131520807743072510e-01,2.139447033405303955e-01,2.149492502212524414e-01,2.167811393737792969e-01,2.176703512668609619e-01,2.177337408065795898e-01,2.183521091938018799e-01,2.186188697814941406e-01,2.189763188362121582e-01,2.191218435764312744e-01,2.195141017436981201e-01,2.196114957332611084e-01,2.196398973464965820e-01,2.196289598941802979e-01,2.196170389652252197e-01,2.196082472801208496e-01,2.196001708507537842e-01,2.195915877819061279e-01,2.195831537246704102e-01,2.195747494697570801e-01,2.195661664009094238e-01,2.195575833320617676e-01,2.195492088794708252e-01,2.195407748222351074e-01,2.195321917533874512e-01,2.195238769054412842e-01,2.195154726505279541e-01,2.195069491863250732e-01,2.194977402687072754e-01,2.194527387619018555e-01,2.197579145431518555e-01,2.192088663578033447e-01,2.123399376869201660e-01,2.156689763069152832e-01,2.391527593135833740e-01,2.649232149124145508e-01,3.292256593704223633e-01,3.678054809570312500e-01
3.778364658355712891e-01,2.908429503440856934e-01,2.668057680130004883e-01,2.334575355052947998e-01,2.106573283672332764e-01,2.071473598480224609e-01,2.098512649536132812e-01,2.104748487472534180e-01,2.109920680522918701e-01,2.109502255916595459e-01,2.109302580356597900e-01,2.109232842922210693e-01,2.109161615371704102e-01,2.109088599681854248e-01,2.109017074108123779e-01,2.108947932720184326e-01,2.108877897262573242e-01,2.108812928199768066e-01,2.108756899833679199e-01,2.108638584613800049e-01,2.108568549156188965e-01,2.108696401119232178e-01,2.108586728572845459e-01,2.108199298381805420e-01,2.109063863754272461e-01,2.107692062854766846e-01,2.105734944343566895e-01,2.105732560157775879e-01,2.106331586837768555e-01,2.105596661567687988e-01,2.107531130313873291e-01,2.106311619281768799e-01,2.101465165615081787e-01,2.091945707798004150e-01,2.077682316303253174e-01,2.067111432552337646e-01,2.055220901966094971e-01,2.038195431232452393e-01,2.035265564918518066e-01,2.036579251289367676e-01,2.034918069839477539e-01,2.043874263763427734e-01,2.055284380912780762e-01,2.066085338592529297e-01,2.072495818138122559e-01,2.084663808345794678e-01,2.091926634311676025e-01,2.094910442829132080e-01,2.098873257637023926e-01,2.099729776382446289e-01,2.101694345474243164e-01,2.102965712547302246e-01,2.105116546154022217e-01,2.105576694011688232e-01,2.106154859066009521e-01,2.106124460697174072e-01,2.106038331985473633e-01,2.105969190597534180e-01,2.105898857116699219e-01,2.105827629566192627e-01,2.105756700038909912e-01,2.105685770511627197e-01,2.105615437030792236e-01,2.105545699596405029e-01,2.105473279953002930e-01,2.105403542518615723e-01,2.105332314968109131e-01,2.105264067649841309e-01,2.105192244052886963e-01,2.105121612548828125e-01,2.105045020580291748e-01,2.104656696319580078e-01,2.107318639755249023e-01,2.102847695350646973e-01,2.038694024085998535e-01,2.071994245052337646e-01,2.303344905376434326e-01,2.568473815917968750e-01,3.220586180686950684e-01,3.632432222366333008e-01
3.726793527603149414e-01,2.842500209808349609e-01,2.591603398323059082e-01,2.263981103897094727e-01,2.035058140754699707e-01,1.998408734798431396e-01,2.023380696773529053e-01,2.028930783271789551e-01,2.033693790435791016e-01,2.033320963382720947e-01,2.033144533634185791e-01,2.033084928989410400e-01,2.033026218414306641e-01,2.032966017723083496e-01,2.032906115055084229e-01,2.032845318317413330e-01,2.032788991928100586e-01,2.032728493213653564e-01,2.032659649848937988e-01,2.032596468925476074e-01,2.032574415206909180e-01,2.032448053359985352e-01,2.032064795494079590e-01,2.032452225685119629e-01,2.032623887062072754e-01,2.031997442245483398e-01,2.031527161598205566e-01,2.032178938388824463e-01,2.031003236770629883e-01,2.032013833522796631e-01,2.031507492065429688e-01,2.030304968357086182e-01,2.030183374881744385e-01,2.025128602981567383e-01,2.019089758396148682e-01,2.010766565799713135e-01,2.000964581966400146e-01,1.992533504962921143e-01,1.989934444427490234e-01,1.985567510128021240e-01,1.985529661178588867e-01,1.987821757793426514e-01,1.992184817790985107e-01,1.996523141860961914e-01,2.007309198379516602e-01,2.013362050056457520e-01,2.016842067241668701e-01,2.024188339710235596e-01,2.027946412563323975e-01,2.029289603233337402e-01,2.028841078281402588e-01,2.030447125434875488e-01,2.030174434185028076e-01,2.030291557312011719e-01,2.030364573001861572e-01,2.030441761016845703e-01,2.030391991138458252e-01,2.030328512191772461e-01,2.030267715454101562e-01,2.030209004878997803e-01,2.030149102210998535e-01,2.030090093612670898e-01,2.030029892921447754e-01,2.029969096183776855e-01,2.029908895492553711e-01,2.029851675033569336e-01,2.029792964458465576e-01,2.029733657836914062e-01,2.029672563076019287e-01,2.029611170291900635e-01,2.029544413089752197e-01,2.029207944869995117e-01,2.031563222408294678e-01,2.027918994426727295e-01,1.967582404613494873e-01,2.000862956047058105e-01,2.229202687740325928e-01,2.500027418136596680e-01,3.159319758415222168e-01,3.593317270278930664e-01
3.681828975677490234e-01,2.785642743110656738e-01,2.526050806045532227e-01,2.203784286975860596e-01,1.974303424358367920e-01,1.936288774013519287e-01,1.959539949893951416e-01,1.964490413665771484e-01,1.968897283077239990e-01,1.968564689159393311e-01,1.968407928943634033e-01,1.968357264995574951e-01,1.968305408954620361e-01,1.968254148960113525e-01,1.968203783035278320e-01,1.968150138854980469e-01,1.968100070953369141e-01,1.968051195144653320e-01,1.967997848987579346e-01,1.967944502830505371e-01,1.967890858650207520e-01,1.967820227146148682e-01,1.967779695987701416e-01,1.967882812023162842e-01,1.967712640762329102e-01,1.967719793319702148e-01,1.967607140541076660e-01,1.967337429523468018e-01,1.967448294162750244e-01,1.967279314994812012e-01,1.967276632785797119e-01,1.966716051101684570e-01,1.966558396816253662e-01,1.965303421020507812e-01,1.962063610553741455e-01,1.958099901676177979e-01,1.953928768634796143e-01,1.947932541370391846e-01,1.943003535270690918e-01,1.942030191421508789e-01,1.939550638198852539e-01,1.941055357456207275e-01,1.942721009254455566e-01,1.943842172622680664e-01,1.948874890804290771e-01,1.953898072242736816e-01,1.958152055740356445e-01,1.962117552757263184e-01,1.963498592376708984e-01,1.965982913970947266e-01,1.965788900852203369e-01,1.966781914234161377e-01,1.966288983821868896e-01,1.966414153575897217e-01,1.966031789779663086e-01,1.966103613376617432e-01,1.966047585010528564e-01,1.965996026992797852e-01,1.965945065021514893e-01,1.965894997119903564e-01,1.965843439102172852e-01,1.965792477130889893e-01,1.965741515159606934e-01,1.965689063072204590e-01,1.965638995170593262e-01,1.965588331222534180e-01,1.965534985065460205e-01,1.965486407279968262e-01,1.965435445308685303e-01,1.965384483337402344e-01,1.965325176715850830e-01,1.965028047561645508e-01,1.967137157917022705e-01,1.964171528816223145e-01,1.907088160514831543e-01,1.940331459045410156e-01,2.166030406951904297e-01,2.441290915012359619e-01,3.106340765953063965e-01,3.559396564960479736e-01
