5.834189653396606445e-01,5.977113246917724609e-01,6.267969608306884766e-01,6.188302636146545410e-01,6.430782079696655273e-01,6.537671685218811035e-01,6.840230226516723633e-01,7.024565935134887695e-01,7.179764509201049805e-01,7.333840131759643555e-01,7.466448545455932617e-01,7.608954906463623047e-01,7.762604951858520508e-01,7.892301082611083984e-01,8.010272979736328125e-01,8.107898235321044922e-01,8.175898194313049316e-01,8.216587305068969727e-01,8.245365619659423828e-01,8.218410015106201172e-01,8.100728392601013184e-01,7.862206697463989258e-01,7.697570919990539551e-01,7.357525825500488281e-01,6.938416361808776855e-01,5.994886159896850586e-01,5.499622225761413574e-01,4.910101890563964844e-01,4.683544039726257324e-01,4.267714321613311768e-01,3.936403989791870117e-01,3.561056554317474365e-01,3.494156599044799805e-01,3.446999192237854004e-01,3.357682824134826660e-01,3.270243108272552490e-01,3.312632441520690918e-01,3.284687697887420654e-01,3.364199697971343994e-01,3.397970497608184814e-01,3.591386377811431885e-01,3.590640425682067871e-01,3.843808770179748535e-01,3.766001164913177490e-01,3.819877803325653076e-01,4.450868666172027588e-01,4.613769948482513428e-01,4.972749948501586914e-01,5.305929183959960938e-01,5.861988663673400879e-01,6.392185688018798828e-01,6.920980811119079590e-01,7.142926454544067383e-01,7.573887109756469727e-01,7.888928651809692383e-01,8.036964535713195801e-01,8.150494098663330078e-01,8.238477706909179688e-01,8.277943134307861328e-01,8.288983106613159180e-01,8.296995162963867188e-01,8.297094106674194336e-01,8.297384977340698242e-01,8.296775817871093750e-01,8.294299244880676270e-01,8.290020227432250977e-01,8.281294107437133789e-01,8.263134956359863281e-01,8.234742879867553711e-01,8.194887638092041016e-01,8.142843842506408691e-01,8.065882921218872070e-01,7.968071699142456055e-01,7.857737541198730469e-01,7.639342546463012695e-01,7.404714226722717285e-01,7.343447208404541016e-01,7.291068434715270996e-01,6.447823643684387207e-01,5.760391950607299805e-01
5.795703530311584473e-01,5.982288122177124023e-01,6.480358242988586426e-01,6.185641884803771973e-01,6.515635848045349121e-01,6.743719577789306641e-01,7.075763940811157227e-01,7.301659584045410156e-01,7.501367330551147461e-01,7.685755491256713867e-01,7.867044210433959961e-01,8.029253482818603516e-01,8.189265131950378418e-01,8.341141939163208008e-01,8.459055423736572266e-01,8.549965620040893555e-01,8.612620830535888672e-01,8.666648864746093750e-01,8.679664134979248047e-01,8.645564317703247070e-01,8.519273996353149414e-01,8.320875167846679688e-01,8.176625967025756836e-01,7.726447582244873047e-01,7.140725255012512207e-01,6.020998954772949219e-01,5.184081792831420898e-01,4.539127349853515625e-01,4.062844216823577881e-01,3.491333127021789551e-01,3.131294846534729004e-01,2.914800047874450684e-01,2.758024334907531738e-01,2.577326893806457520e-01,2.590929865837097168e-01,2.549090981483459473e-01,2.509127557277679443e-01,2.493306100368499756e-01,2.548613846302032471e-01,2.676643431186676025e-01,2.759951353073120117e-01,3.001611232757568359e-01,3.015118539333343506e-01,3.152625858783721924e-01,3.354267179965972900e-01,3.810148537158966064e-01,4.183416962623596191e-01,4.731451272964477539e-01,5.128309726715087891e-01,5.586237907409667969e-01,6.324135661125183105e-01,6.964518427848815918e-01,7.669455409049987793e-01,7.992182970046997070e-01,8.307965993881225586e-01,8.469189405441284180e-01,8.622463345527648926e-01,8.676063418388366699e-01,8.704677820205688477e-01,8.724919557571411133e-01,8.734371662139892578e-01,8.735827207565307617e-01,8.735808134078979492e-01,8.734917044639587402e-01,8.732697963714599609e-01,8.728822469711303711e-01,8.715935945510864258e-01,8.696095943450927734e-01,8.668307065963745117e-01,8.627884387969970703e-01,8.571747541427612305e-01,8.482549190521240234e-01,8.390164375305175781e-01,8.248661756515502930e-01,7.997841835021972656e-01,7.775151729583740234e-01,7.644900083541870117e-01,7.502393722534179688e-01,6.781917214393615723e-01,5.986083745956420898e-01
5.916154980659484863e-01,6.112031936645507812e-01,6.348636150360107422e-01,6.225448250770568848e-01,6.499803662300109863e-01,6.736616492271423340e-01,7.128707170486450195e-01,7.344685196876525879e-01,7.552268505096435547e-01,7.754619717597961426e-01,7.932408452033996582e-01,8.102239370346069336e-01,8.250706195831298828e-01,8.410221338272094727e-01,8.532791733741760254e-01,8.619852066040039062e-01,8.696228265762329102e-01,8.746730685234069824e-01,8.770486712455749512e-01,8.717603087425231934e-01,8.596792221069335938e-01,8.429483175277709961e-01,8.267582058906555176e-01,7.922904491424560547e-01,7.283650040626525879e-01,5.968133807182312012e-01,4.946192502975463867e-01,4.451510012149810791e-01,3.881092369556427002e-01,3.403823375701904297e-01,2.972876429557800293e-01,2.757405340671539307e-01,2.506416141986846924e-01,2.298007309436798096e-01,2.269522249698638916e-01,2.215690016746520996e-01,2.156198322772979736e-01,2.162727713584899902e-01,2.200705707073211670e-01,2.291506528854370117e-01,2.399663925170898438e-01,2.618687152862548828e-01,2.614618241786956787e-01,2.877921462059020996e-01,3.507699668407440186e-01,3.599952161312103271e-01,4.224471151828765869e-01,4.471640884876251221e-01,4.956351518630981445e-01,5.655766129493713379e-01,6.254552006721496582e-01,6.829711198806762695e-01,7.683821320533752441e-01,8.049998879432678223e-01,8.291743397712707520e-01,8.513319492340087891e-01,8.691886663436889648e-01,8.739899992942810059e-01,8.793091177940368652e-01,8.813295364379882812e-01,8.815429210662841797e-01,8.817508220672607422e-01,8.817470669746398926e-01,8.816756010055541992e-01,8.815380930900573730e-01,8.809600472450256348e-01,8.796960115432739258e-01,8.776127099990844727e-01,8.748910427093505859e-01,8.710876703262329102e-01,8.653659820556640625e-01,8.571633100509643555e-01,8.473474383354187012e-01,8.312683701515197754e-01,8.018124103546142578e-01,7.747781276702880859e-01,7.662668824195861816e-01,7.446749806404113770e-01,6.770649552345275879e-01,5.831775665283203125e-01
5.760110616683959961e-01,5.908904075622558594e-01,6.343259215354919434e-01,6.279862523078918457e-01,6.464071869850158691e-01,6.690382957458496094e-01,7.076367139816284180e-01,7.304211258888244629e-01,7.530203461647033691e-01,7.734233140945434570e-01,7.937982082366943359e-01,8.119133710861206055e-01,8.288814425468444824e-01,8.426449894905090332e-01,8.561211228370666504e-01,8.659281730651855469e-01,8.728864192962646484e-01,8.783077001571655273e-01,8.809406757354736328e-01,8.761968612670898438e-01,8.648796677589416504e-01,8.509663343429565430e-01,8.283627629280090332e-01,7.968635559082031250e-01,7.340539097785949707e-01,5.941848754882812500e-01,4.958322346210479736e-01,4.182854890823364258e-01,4.049994945526123047e-01,3.408828973770141602e-01,2.922545969486236572e-01,2.555979490280151367e-01,2.259873449802398682e-01,2.193686962127685547e-01,2.055012881755828857e-01,1.982531845569610596e-01,1.928690075874328613e-01,1.936604082584381104e-01,1.920276284217834473e-01,2.034771144390106201e-01,2.180563211441040039e-01,2.377813756465911865e-01,2.401740849018096924e-01,2.729526758193969727e-01,3.090125024318695068e-01,3.781605362892150879e-01,3.889801204204559326e-01,4.478605389595031738e-01,4.824329018592834473e-01,5.518640875816345215e-01,6.102889180183410645e-01,6.840306520462036133e-01,7.308434844017028809e-01,8.011971712112426758e-01,8.251875638961791992e-01,8.524392247200012207e-01,8.626904487609863281e-01,8.748916387557983398e-01,8.814429044723510742e-01,8.844132423400878906e-01,8.849781751632690430e-01,8.854445219039916992e-01,8.853958249092102051e-01,8.853554725646972656e-01,8.852565884590148926e-01,8.845664262771606445e-01,8.830093145370483398e-01,8.810023069381713867e-01,8.780070543289184570e-01,8.742911815643310547e-01,8.680034875869750977e-01,8.588932752609252930e-01,8.470180034637451172e-01,8.326987028121948242e-01,7.982690334320068359e-01,7.725353240966796875e-01,7.661827802658081055e-01,7.430053949356079102e-01,6.941764950752258301e-01,5.934037566184997559e-01
5.856294035911560059e-01,6.095349788665771484e-01,6.510720252990722656e-01,6.518872976303100586e-01,6.743698120117187500e-01,6.974390745162963867e-01,7.324489951133728027e-01,7.537957429885864258e-01,7.752491235733032227e-01,7.940108776092529297e-01,8.125057220458984375e-01,8.297313451766967773e-01,8.440529108047485352e-01,8.575364351272583008e-01,8.687927722930908203e-01,8.790088891983032227e-01,8.861167430877685547e-01,8.910465240478515625e-01,8.937211036682128906e-01,8.889695405960083008e-01,8.791886568069458008e-01,8.641761541366577148e-01,8.455419540405273438e-01,8.252197504043579102e-01,7.712652087211608887e-01,6.556003689765930176e-01,5.734678506851196289e-01,4.822788834571838379e-01,4.765010178089141846e-01,4.147696495056152344e-01,3.734195828437805176e-01,3.105067014694213867e-01,2.831295132637023926e-01,2.537510097026824951e-01,2.268477678298950195e-01,2.172895371913909912e-01,2.124879658222198486e-01,2.051677405834197998e-01,2.043021917343139648e-01,2.144182324409484863e-01,2.347680032253265381e-01,2.591243684291839600e-01,2.692558467388153076e-01,2.965844273567199707e-01,3.418297767639160156e-01,4.487846791744232178e-01,4.688577353954315186e-01,4.874500036239624023e-01,5.200701355934143066e-01,5.542656779289245605e-01,6.411702036857604980e-01,6.832410693168640137e-01,7.397286295890808105e-01,8.056249618530273438e-01,8.390898704528808594e-01,8.565421104431152344e-01,8.706419467926025391e-01,8.854535222053527832e-01,8.930289745330810547e-01,8.953864574432373047e-01,8.965327143669128418e-01,8.972941040992736816e-01,8.974955081939697266e-01,8.975130915641784668e-01,8.973144292831420898e-01,8.965840935707092285e-01,8.951636552810668945e-01,8.932740688323974609e-01,8.911122083663940430e-01,8.871731758117675781e-01,8.810294270515441895e-01,8.720030784606933594e-01,8.622945547103881836e-01,8.480064868927001953e-01,8.182238340377807617e-01,7.959244251251220703e-01,7.857873439788818359e-01,7.580437660217285156e-01,7.063706517219543457e-01,6.076317429542541504e-01
5.862388610839843750e-01,6.089724898338317871e-01,6.536803245544433594e-01,6.547662019729614258e-01,6.780844330787658691e-01,7.019339799880981445e-01,7.384442687034606934e-01,7.597758769989013672e-01,7.806831002235412598e-01,7.996259331703186035e-01,8.179715275764465332e-01,8.352563381195068359e-01,8.500530719757080078e-01,8.631908893585205078e-01,8.749899268150329590e-01,8.844196200370788574e-01,8.915508985519409180e-01,8.967117071151733398e-01,8.998388051986694336e-01,8.958725929260253906e-01,8.878871798515319824e-01,8.747917413711547852e-01,8.601124286651611328e-01,8.352959156036376953e-01,7.841088771820068359e-01,6.769572496414184570e-01,6.197410821914672852e-01,5.540369749069213867e-01,5.497342944145202637e-01,4.775021970272064209e-01,4.398136734962463379e-01,3.689003586769104004e-01,3.133230209350585938e-01,2.709142863750457764e-01,2.471958398818969727e-01,2.424243986606597900e-01,2.203744053840637207e-01,2.056350409984588623e-01,2.067288160324096680e-01,2.185828089714050293e-01,2.381406426429748535e-01,2.626152336597442627e-01,2.907767593860626221e-01,3.179839253425598145e-01,3.580176830291748047e-01,4.400671720504760742e-01,5.144486427307128906e-01,5.089862942695617676e-01,5.506414175033569336e-01,5.636445879936218262e-01,6.190978288650512695e-01,6.726092100143432617e-01,7.387349605560302734e-01,7.837855815887451172e-01,8.251914978027343750e-01,8.543406724929809570e-01,8.739881515502929688e-01,8.855216503143310547e-01,8.951870203018188477e-01,9.004626870155334473e-01,9.025142192840576172e-01,9.029449224472045898e-01,9.032671451568603516e-01,9.031913280487060547e-01,9.029681086540222168e-01,9.022150039672851562e-01,9.009345769882202148e-01,8.995032310485839844e-01,8.969995975494384766e-01,8.931797146797180176e-01,8.870201110839843750e-01,8.788353204727172852e-01,8.685350418090820312e-01,8.554209470748901367e-01,8.276189565658569336e-01,8.058059215545654297e-01,7.977388501167297363e-01,7.731645107269287109e-01,7.197247147560119629e-01,6.134549379348754883e-01
5.892091989517211914e-01,6.141219735145568848e-01,6.574170589447021484e-01,6.579464077949523926e-01,6.818147301673889160e-01,7.059262394905090332e-01,7.424404025077819824e-01,7.638151645660400391e-01,7.844156026840209961e-01,8.029770851135253906e-01,8.210765719413757324e-01,8.377193212509155273e-01,8.528630137443542480e-01,8.658934831619262695e-01,8.772035837173461914e-01,8.867941498756408691e-01,8.938531279563903809e-01,8.988695144653320312e-01,9.022401571273803711e-01,8.991808891296386719e-01,8.922553062438964844e-01,8.797879219055175781e-01,8.692009449005126953e-01,8.449368476867675781e-01,8.081308603286743164e-01,7.059416770935058594e-01,6.538315415382385254e-01,6.263985633850097656e-01,5.952292680740356445e-01,5.577016472816467285e-01,4.911722540855407715e-01,4.460489749908447266e-01,3.433713316917419434e-01,3.242720961570739746e-01,2.705406546592712402e-01,2.549175024032592773e-01,2.303861379623413086e-01,2.135323584079742432e-01,2.087679505348205566e-01,2.192357778549194336e-01,2.362631261348724365e-01,2.666006684303283691e-01,3.020734488964080811e-01,3.430329561233520508e-01,3.861967325210571289e-01,4.782585203647613525e-01,5.312270522117614746e-01,5.845681428909301758e-01,5.697147846221923828e-01,5.809903740882873535e-01,6.103240251541137695e-01,6.791538596153259277e-01,7.212699651718139648e-01,7.747787237167358398e-01,8.195940852165222168e-01,8.498399257659912109e-01,8.763847351074218750e-01,8.859561681747436523e-01,8.944075703620910645e-01,9.016013145446777344e-01,9.044891595840454102e-01,9.051225781440734863e-01,9.057101011276245117e-01,9.056090116500854492e-01,9.053969383239746094e-01,9.047080874443054199e-01,9.036164283752441406e-01,9.019731283187866211e-01,8.994526863098144531e-01,8.957049846649169922e-01,8.895945549011230469e-01,8.807382583618164062e-01,8.713237047195434570e-01,8.590155839920043945e-01,8.305075168609619141e-01,8.089772462844848633e-01,8.007280826568603516e-01,7.750704288482666016e-01,7.215889096260070801e-01,6.156174540519714355e-01
5.887280702590942383e-01,6.143670082092285156e-01,6.568012237548828125e-01,6.576664447784423828e-01,6.813178062438964844e-01,7.055898904800415039e-01,7.419079542160034180e-01,7.633271217346191406e-01,7.840606570243835449e-01,8.025949597358703613e-01,8.203085064888000488e-01,8.370758295059204102e-01,8.520722985267639160e-01,8.652584552764892578e-01,8.767313957214355469e-01,8.862695693969726562e-01,8.932539224624633789e-01,8.984199762344360352e-01,9.020292758941650391e-01,8.992462158203125000e-01,8.938287496566772461e-01,8.849414587020874023e-01,8.727360963821411133e-01,8.565144538879394531e-01,8.167984485626220703e-01,7.356534004211425781e-01,6.847946047782897949e-01,6.764690876007080078e-01,6.877680420875549316e-01,6.192256212234497070e-01,5.574917793273925781e-01,4.933460056781768799e-01,3.959974050521850586e-01,3.463069796562194824e-01,3.022153973579406738e-01,2.731306254863739014e-01,2.429940402507781982e-01,2.215079367160797119e-01,2.108524739742279053e-01,2.237179875373840332e-01,2.371731996536254883e-01,2.697983980178833008e-01,3.098485469818115234e-01,3.657749295234680176e-01,4.158241450786590576e-01,5.059685111045837402e-01,5.618383288383483887e-01,6.092274188995361328e-01,6.099163293838500977e-01,6.203773617744445801e-01,6.363394856452941895e-01,6.579493284225463867e-01,7.166532278060913086e-01,7.710071206092834473e-01,8.145052194595336914e-01,8.448103666305541992e-01,8.680343031883239746e-01,8.848218917846679688e-01,8.935217857360839844e-01,9.015315175056457520e-01,9.039735198020935059e-01,9.047535657882690430e-01,9.053015112876892090e-01,9.052923321723937988e-01,9.051187038421630859e-01,9.044790267944335938e-01,9.033899903297424316e-01,9.015980958938598633e-01,8.991196155548095703e-01,8.952248096466064453e-01,8.887356519699096680e-01,8.801126480102539062e-01,8.711235523223876953e-01,8.580760955810546875e-01,8.291833400726318359e-01,8.083114624023437500e-01,8.007313013076782227e-01,7.745534181594848633e-01,7.219349145889282227e-01,6.160206794738769531e-01
5.887537598609924316e-01,6.143564581871032715e-01,6.569755673408508301e-01,6.578223705291748047e-01,6.813722252845764160e-01,7.055996656417846680e-01,7.419757843017578125e-01,7.633659243583679199e-01,7.841252088546752930e-01,8.027310967445373535e-01,8.204539418220520020e-01,8.368873596191406250e-01,8.519611358642578125e-01,8.652216792106628418e-01,8.766922354698181152e-01,8.861845731735229492e-01,8.931918144226074219e-01,8.982626199722290039e-01,9.018581509590148926e-01,9.006034135818481445e-01,8.960024118423461914e-01,8.893141746520996094e-01,8.826293945312500000e-01,8.677241206169128418e-01,8.327900171279907227e-01,7.802565097808837891e-01,7.300055027008056641e-01,7.157006859779357910e-01,7.282339930534362793e-01,6.985129117965698242e-01,6.470882296562194824e-01,5.526938438415527344e-01,4.565393030643463135e-01,3.725090026855468750e-01,3.247735500335693359e-01,2.803141474723815918e-01,2.632955908775329590e-01,2.284292280673980713e-01,2.132892012596130371e-01,2.243404090404510498e-01,2.372898459434509277e-01,2.748312950134277344e-01,3.185694217681884766e-01,3.796099722385406494e-01,4.377979040145874023e-01,5.277594327926635742e-01,5.765325427055358887e-01,6.415020227432250977e-01,6.703755259513854980e-01,6.613404154777526855e-01,6.517007946968078613e-01,6.934229135513305664e-01,7.425491809844970703e-01,7.837244272232055664e-01,8.203915357589721680e-01,8.514240384101867676e-01,8.663513660430908203e-01,8.839536905288696289e-01,8.959182500839233398e-01,8.995159864425659180e-01,9.030336141586303711e-01,9.043595790863037109e-01,9.051332473754882812e-01,9.053281545639038086e-01,9.051487445831298828e-01,9.045404195785522461e-01,9.034007787704467773e-01,9.016118049621582031e-01,8.991032838821411133e-01,8.950773477554321289e-01,8.885995149612426758e-01,8.802756071090698242e-01,8.708718419075012207e-01,8.577368855476379395e-01,8.292523622512817383e-01,8.083442449569702148e-01,8.006050586700439453e-01,7.745677232742309570e-01,7.219287157058715820e-01,6.160471439361572266e-01
5.887330770492553711e-01,6.143199205398559570e-01,6.569506525993347168e-01,6.577836275100708008e-01,6.813434362411499023e-01,7.055722475051879883e-01,7.419348359107971191e-01,7.633388042449951172e-01,7.841010093688964844e-01,8.027128577232360840e-01,8.204676508903503418e-01,8.369159102439880371e-01,8.518256545066833496e-01,8.651648163795471191e-01,8.767173290252685547e-01,8.861320018768310547e-01,8.931311368942260742e-01,8.984137773513793945e-01,9.026513695716857910e-01,9.018635749816894531e-01,8.989652395248413086e-01,8.932567834854125977e-01,8.875731229782104492e-01,8.755431771278381348e-01,8.486158847808837891e-01,8.176556825637817383e-01,7.791634798049926758e-01,7.912229299545288086e-01,7.765494585037231445e-01,7.567692399024963379e-01,6.900461316108703613e-01,6.170495748519897461e-01,5.129010081291198730e-01,4.045786559581756592e-01,3.597462177276611328e-01,2.959574460983276367e-01,2.658364176750183105e-01,2.369357645511627197e-01,2.212446928024291992e-01,2.284229993820190430e-01,2.406411767005920410e-01,2.758487462997436523e-01,3.260304331779479980e-01,3.934639692306518555e-01,4.602922499179840088e-01,5.626913309097290039e-01,6.251336932182312012e-01,6.580901741981506348e-01,6.899837851524353027e-01,6.937165260314941406e-01,7.010046243667602539e-01,7.394147515296936035e-01,7.527649402618408203e-01,7.945680022239685059e-01,8.294506072998046875e-01,8.477668762207031250e-01,8.683860301971435547e-01,8.867683410644531250e-01,8.971725702285766602e-01,8.991708755493164062e-01,9.029580354690551758e-01,9.040385484695434570e-01,9.050493240356445312e-01,9.052453041076660156e-01,9.051675796508789062e-01,9.045493602752685547e-01,9.033929705619812012e-01,9.016163349151611328e-01,8.990685343742370605e-01,8.949468135833740234e-01,8.886442184448242188e-01,8.801640272140502930e-01,8.707148432731628418e-01,8.578221201896667480e-01,8.292657136917114258e-01,8.081731200218200684e-01,8.005617260932922363e-01,7.745714783668518066e-01,7.219673991203308105e-01,6.160017251968383789e-01
5.887262821197509766e-01,6.143089532852172852e-01,6.569379568099975586e-01,6.577692031860351562e-01,6.813269853591918945e-01,7.055541872978210449e-01,7.419204711914062500e-01,7.633180618286132812e-01,7.840822935104370117e-01,8.027039766311645508e-01,8.204584717750549316e-01,8.369135856628417969e-01,8.518288731575012207e-01,8.651090860366821289e-01,8.767032027244567871e-01,8.861671686172485352e-01,8.930991888046264648e-01,8.983794450759887695e-01,9.024702310562133789e-01,9.013419151306152344e-01,8.998841047286987305e-01,8.999536633491516113e-01,8.948922157287597656e-01,8.864032030105590820e-01,8.671429157257080078e-01,8.499994277954101562e-01,8.376920223236083984e-01,8.274925947189331055e-01,8.161625862121582031e-01,7.871510982513427734e-01,7.533704638481140137e-01,6.776493787765502930e-01,5.911415815353393555e-01,4.588115215301513672e-01,3.748674094676971436e-01,3.068507909774780273e-01,2.700170278549194336e-01,2.441425025463104248e-01,2.285295426845550537e-01,2.292918562889099121e-01,2.453830838203430176e-01,2.770930826663970947e-01,3.285069465637207031e-01,4.053571224212646484e-01,4.747687280178070068e-01,5.785182714462280273e-01,6.480665206909179688e-01,6.704549789428710938e-01,7.161881327629089355e-01,7.494755387306213379e-01,7.536589503288269043e-01,7.577630281448364258e-01,7.829408645629882812e-01,8.096683621406555176e-01,8.350213766098022461e-01,8.571355342864990234e-01,8.780957460403442383e-01,8.888440132141113281e-01,8.952168226242065430e-01,8.993643522262573242e-01,9.014964103698730469e-01,9.035140275955200195e-01,9.048299789428710938e-01,9.052456617355346680e-01,9.051620960235595703e-01,9.045384526252746582e-01,9.033939838409423828e-01,9.016329050064086914e-01,8.990530967712402344e-01,8.949606418609619141e-01,8.886344432830810547e-01,8.801275491714477539e-01,8.707853555679321289e-01,8.578413128852844238e-01,8.292024135589599609e-01,8.081833720207214355e-01,8.005896806716918945e-01,7.745976448059082031e-01,7.219757437705993652e-01,6.160131692886352539e-01
5.887193083763122559e-01,6.142979264259338379e-01,6.569252014160156250e-01,6.577544212341308594e-01,6.813110113143920898e-01,7.055373787879943848e-01,7.419031262397766113e-01,7.633035182952880859e-01,7.840652465820312500e-01,8.026869297027587891e-01,8.204485177993774414e-01,8.369041085243225098e-01,8.518205881118774414e-01,8.651012182235717773e-01,8.766871690750122070e-01,8.861637115478515625e-01,8.930994868278503418e-01,8.983159661293029785e-01,9.017946720123291016e-01,9.017010331153869629e-01,9.006406068801879883e-01,9.015609622001647949e-01,8.977991342544555664e-01,8.934821486473083496e-01,8.860473632812500000e-01,8.742804527282714844e-01,8.595788478851318359e-01,8.566484451293945312e-01,8.477117419242858887e-01,8.324359059333801270e-01,7.992393970489501953e-01,7.425630688667297363e-01,6.442433595657348633e-01,5.096902847290039062e-01,3.936921656131744385e-01,3.211051821708679199e-01,2.803398966789245605e-01,2.636009454727172852e-01,2.337693572044372559e-01,2.322449982166290283e-01,2.488921284675598145e-01,2.821015119552612305e-01,3.343024253845214844e-01,4.151303470134735107e-01,4.913333058357238770e-01,6.130176782608032227e-01,6.819391250610351562e-01,7.024555802345275879e-01,7.339757084846496582e-01,7.605992555618286133e-01,7.772493362426757812e-01,7.810093164443969727e-01,8.066558837890625000e-01,8.230080604553222656e-01,8.398045301437377930e-01,8.625054359436035156e-01,8.751709461212158203e-01,8.899979591369628906e-01,8.941868543624877930e-01,8.988596200942993164e-01,9.015090465545654297e-01,9.037932157516479492e-01,9.047851562500000000e-01,9.052838087081909180e-01,9.051607847213745117e-01,9.045398235321044922e-01,9.033986330032348633e-01,9.016396999359130859e-01,8.990606665611267090e-01,8.949518203735351562e-01,8.886374235153198242e-01,8.801598548889160156e-01,8.707969784736633301e-01,8.578351140022277832e-01,8.292216658592224121e-01,8.082045316696166992e-01,8.006054162979125977e-01,7.746124863624572754e-01,7.219899296760559082e-01,6.160237789154052734e-01
5.887125134468078613e-01,6.142866015434265137e-01,6.569123268127441406e-01,6.577398180961608887e-01,6.812947988510131836e-01,7.055210471153259277e-01,7.418865561485290527e-01,7.632869482040405273e-01,7.840501070022583008e-01,8.026716113090515137e-01,8.204342126846313477e-01,8.368923664093017578e-01,8.518093824386596680e-01,8.650915622711181641e-01,8.766788244247436523e-01,8.861508369445800781e-01,8.930785655975341797e-01,8.981617689132690430e-01,9.014139175415039062e-01,9.023271203041076660e-01,9.043253660202026367e-01,9.052958488464355469e-01,9.017906188964843750e-01,8.974756598472595215e-01,8.888876438140869141e-01,8.846534490585327148e-01,8.777601122856140137e-01,8.840669393539428711e-01,8.702193498611450195e-01,8.526328802108764648e-01,8.197184801101684570e-01,7.773265838623046875e-01,6.897765398025512695e-01,5.560917854309082031e-01,4.229352474212646484e-01,3.515999019145965576e-01,2.899983525276184082e-01,2.673270106315612793e-01,2.421355843544006348e-01,2.396965026855468750e-01,2.529237866401672363e-01,2.870106101036071777e-01,3.330522179603576660e-01,4.201981425285339355e-01,5.110530257225036621e-01,6.162083148956298828e-01,6.946802139282226562e-01,7.223899960517883301e-01,7.510422468185424805e-01,7.803214788436889648e-01,8.005300164222717285e-01,8.174870014190673828e-01,8.188623189926147461e-01,8.326946496963500977e-01,8.415747284889221191e-01,8.593973517417907715e-01,8.749793171882629395e-01,8.866403102874755859e-01,8.935058116912841797e-01,8.995379209518432617e-01,9.010664224624633789e-01,9.032134413719177246e-01,9.048254489898681641e-01,9.052708148956298828e-01,9.051607847213745117e-01,9.045402407646179199e-01,9.034001827239990234e-01,9.016416668891906738e-01,8.990637063980102539e-01,8.949549794197082520e-01,8.886439204216003418e-01,8.801683187484741211e-01,8.708057403564453125e-01,8.578457236289978027e-01,8.292385339736938477e-01,8.082225322723388672e-01,8.006215095520019531e-01,7.746289968490600586e-01,7.220036983489990234e-01,6.160323023796081543e-01
5.887054204940795898e-01,6.142752170562744141e-01,6.568991541862487793e-01,6.577246785163879395e-01,6.812784671783447266e-01,7.055044174194335938e-01,7.418699860572814941e-01,7.632706165313720703e-01,7.840342521667480469e-01,8.026562929153442383e-01,8.204202055931091309e-01,8.368793725967407227e-01,8.517977595329284668e-01,8.650815486907958984e-01,8.766703009605407715e-01,8.861410617828369141e-01,8.930690288543701172e-01,8.978127837181091309e-01,9.012825489044189453e-01,9.027764797210693359e-01,9.053360223770141602e-01,9.068816900253295898e-01,9.024899005889892578e-01,8.968381881713867188e-01,8.929526805877685547e-01,8.943480253219604492e-01,8.950963020324707031e-01,8.916662931442260742e-01,8.853916525840759277e-01,8.652379512786865234e-01,8.349205255508422852e-01,7.953355312347412109e-01,7.239308357238769531e-01,5.989281535148620605e-01,4.404405653476715088e-01,3.671426773071289062e-01,3.065472245216369629e-01,2.713236808776855469e-01,2.489360868930816650e-01,2.458519339561462402e-01,2.570891380310058594e-01,2.878806889057159424e-01,3.395990729331970215e-01,4.273040592670440674e-01,5.170375108718872070e-01,6.267032623291015625e-01,7.078223228454589844e-01,7.392184138298034668e-01,7.696359157562255859e-01,7.913116216659545898e-01,8.077271580696105957e-01,8.235663175582885742e-01,8.331333398818969727e-01,8.381717801094055176e-01,8.456826806068420410e-01,8.569420576095581055e-01,8.768472075462341309e-01,8.862991333007812500e-01,8.935358524322509766e-01,9.002228975296020508e-01,9.021084904670715332e-01,9.034947156906127930e-01,9.051310420036315918e-01,9.052467346191406250e-01,9.051609635353088379e-01,9.045408368110656738e-01,9.034013748168945312e-01,9.016435742378234863e-01,8.990660905838012695e-01,8.949592113494873047e-01,8.886505961418151855e-01,8.801771402359008789e-01,8.708154559135437012e-01,8.578582406044006348e-01,8.292537927627563477e-01,8.082393407821655273e-01,8.006384968757629395e-01,7.746452093124389648e-01,7.220169901847839355e-01,6.160417795181274414e-01
5.886983871459960938e-01,6.142637729644775391e-01,6.568861007690429688e-01,6.577095389366149902e-01,6.812617778778076172e-01,7.054877281188964844e-01,7.418534755706787109e-01,7.632543444633483887e-01,7.840182781219482422e-01,8.026409745216369629e-01,8.204057812690734863e-01,8.368664383888244629e-01,8.517863750457763672e-01,8.650715351104736328e-01,8.766617774963378906e-01,8.861409425735473633e-01,8.930604457855224609e-01,8.976597785949707031e-01,9.013548493385314941e-01,9.039515256881713867e-01,9.058857560157775879e-01,9.063186049461364746e-01,9.048780202865600586e-01,9.015442132949829102e-01,8.973283767700195312e-01,8.965000510215759277e-01,8.986174464225769043e-01,9.008548259735107422e-01,8.877025842666625977e-01,8.719110488891601562e-01,8.459823131561279297e-01,8.155484199523925781e-01,7.482917308807373047e-01,6.305357217788696289e-01,4.546469449996948242e-01,3.731538355350494385e-01,3.116109967231750488e-01,2.717991769313812256e-01,2.595626711845397949e-01,2.471337020397186279e-01,2.588278055191040039e-01,2.859606742858886719e-01,3.448498845100402832e-01,4.165506660938262939e-01,5.189524888992309570e-01,6.405705213546752930e-01,7.018499970436096191e-01,7.369703054428100586e-01,7.790598869323730469e-01,7.957265377044677734e-01,8.205009102821350098e-01,8.380692005157470703e-01,8.388276696205139160e-01,8.437994718551635742e-01,8.511974811553955078e-01,8.629928231239318848e-01,8.781565427780151367e-01,8.882297277450561523e-01,8.945100307464599609e-01,8.999127149581909180e-01,9.019516706466674805e-01,9.038330316543579102e-01,9.051603078842163086e-01,9.053353071212768555e-01,9.051612615585327148e-01,9.045416116714477539e-01,9.034024477005004883e-01,9.016453623771667480e-01,8.990688323974609375e-01,8.949633836746215820e-01,8.886571526527404785e-01,8.801859617233276367e-01,8.708257675170898438e-01,8.578706383705139160e-01,8.292689919471740723e-01,8.082561492919921875e-01,8.006551265716552734e-01,7.746616005897521973e-01,7.220300436019897461e-01,6.160510182380676270e-01
5.886908769607543945e-01,6.142520308494567871e-01,6.568726897239685059e-01,6.576940417289733887e-01,6.812450885772705078e-01,7.054706811904907227e-01,7.418366074562072754e-01,7.632377147674560547e-01,7.840020656585693359e-01,8.026252985000610352e-01,8.203912973403930664e-01,8.368535041809082031e-01,8.517746329307556152e-01,8.650611639022827148e-01,8.766529560089111328e-01,8.861318826675415039e-01,8.930658102035522461e-01,8.976930975914001465e-01,9.010473489761352539e-01,9.036834836006164551e-01,9.050372242927551270e-01,9.049292802810668945e-01,9.053949713706970215e-01,9.031466245651245117e-01,8.992077112197875977e-01,9.027241468429565430e-01,9.048684835433959961e-01,9.016479849815368652e-01,8.915795087814331055e-01,8.779690265655517578e-01,8.511097431182861328e-01,8.190485239028930664e-01,7.653690576553344727e-01,6.556601524353027344e-01,4.666804671287536621e-01,3.811285197734832764e-01,3.203088641166687012e-01,2.816560864448547363e-01,2.641290724277496338e-01,2.513392567634582520e-01,2.623787820339202881e-01,3.020535707473754883e-01,3.519362509250640869e-01,4.243866205215454102e-01,5.232589244842529297e-01,6.287671327590942383e-01,7.075467705726623535e-01,7.449909448623657227e-01,7.855339646339416504e-01,8.038779497146606445e-01,8.274114131927490234e-01,8.368569016456604004e-01,8.414106369018554688e-01,8.525632619857788086e-01,8.616584539413452148e-01,8.691563606262207031e-01,8.817173242568969727e-01,8.908531665802001953e-01,8.956689834594726562e-01,9.006203413009643555e-01,9.030646085739135742e-01,9.047561883926391602e-01,9.052781462669372559e-01,9.053344130516052246e-01,9.051613807678222656e-01,9.045422077178955078e-01,9.034035801887512207e-01,9.016472101211547852e-01,8.990714550018310547e-01,8.949676752090454102e-01,8.886637687683105469e-01,8.801948428153991699e-01,8.708362579345703125e-01,8.578832149505615234e-01,8.292841911315917969e-01,8.082729578018188477e-01,8.006718158721923828e-01,7.746778130531311035e-01,7.220434546470642090e-01,6.160604357719421387e-01
5.886829495429992676e-01,6.142393350601196289e-01,6.568583846092224121e-01,6.576781272888183594e-01,6.812278032302856445e-01,7.054534554481506348e-01,7.418192625045776367e-01,7.632208466529846191e-01,7.839854955673217773e-01,8.026095032691955566e-01,8.203766345977783203e-01,8.368400335311889648e-01,8.517627716064453125e-01,8.650507926940917969e-01,8.766440153121948242e-01,8.861290216445922852e-01,8.930841684341430664e-01,8.977839946746826172e-01,9.011245965957641602e-01,9.034090042114257812e-01,9.049803018569946289e-01,9.056781530380249023e-01,9.060345888137817383e-01,9.044012427330017090e-01,9.023319482803344727e-01,9.039615392684936523e-01,9.047409296035766602e-01,9.024766087532043457e-01,8.960722684860229492e-01,8.831489086151123047e-01,8.573274612426757812e-01,8.244328498840332031e-01,7.636857032775878906e-01,6.755321025848388672e-01,4.707268476486206055e-01,3.852819800376892090e-01,3.253040611743927002e-01,2.902081012725830078e-01,2.698237299919128418e-01,2.464683651924133301e-01,2.710715830326080322e-01,3.115388154983520508e-01,3.445230126380920410e-01,4.388284385204315186e-01,5.197270512580871582e-01,6.321153044700622559e-01,6.982025504112243652e-01,7.459158301353454590e-01,7.889780998229980469e-01,8.125980496406555176e-01,8.287974596023559570e-01,8.426672816276550293e-01,8.491326570510864258e-01,8.580888509750366211e-01,8.661042451858520508e-01,8.776678442955017090e-01,8.866416215896606445e-01,8.936259746551513672e-01,8.980823159217834473e-01,9.012409448623657227e-01,9.038618803024291992e-01,9.047594070434570312e-01,9.053167104721069336e-01,9.053279161453247070e-01,9.051617383956909180e-01,9.045429229736328125e-01,9.034049510955810547e-01,9.016489982604980469e-01,8.990741968154907227e-01,8.949718475341796875e-01,8.886703252792358398e-01,8.802037239074707031e-01,8.708466291427612305e-01,8.578959107398986816e-01,8.292994499206542969e-01,8.082899451255798340e-01,8.006886839866638184e-01,7.746940851211547852e-01,7.220569849014282227e-01,6.160697937011718750e-01
5.886745452880859375e-01,6.142261028289794922e-01,6.568432450294494629e-01,6.576611995697021484e-01,6.812097430229187012e-01,7.054351568222045898e-01,7.418015599250793457e-01,7.632036805152893066e-01,7.839688658714294434e-01,8.025932908058166504e-01,8.203614950180053711e-01,8.368263244628906250e-01,8.517508506774902344e-01,8.650403022766113281e-01,8.766350150108337402e-01,8.861217498779296875e-01,8.930844664573669434e-01,8.977339267730712891e-01,9.010596871376037598e-01,9.030793905258178711e-01,9.040694236755371094e-01,9.049330949783325195e-01,9.056228995323181152e-01,9.051278829574584961e-01,9.045825004577636719e-01,9.054875373840332031e-01,9.053272008895874023e-01,9.048475027084350586e-01,8.959635496139526367e-01,8.813912868499755859e-01,8.594254255294799805e-01,8.295184969902038574e-01,7.682423591613769531e-01,6.505087614059448242e-01,4.894263744354248047e-01,3.839448690414428711e-01,3.325234949588775635e-01,2.963730096817016602e-01,2.724161148071289062e-01,2.515519857406616211e-01,2.815169692039489746e-01,3.061610758304595947e-01,3.580733537673950195e-01,4.383444190025329590e-01,5.442038774490356445e-01,6.347931623458862305e-01,7.040416002273559570e-01,7.506824731826782227e-01,7.942221164703369141e-01,8.142181038856506348e-01,8.345185518264770508e-01,8.483709096908569336e-01,8.536715507507324219e-01,8.645555973052978516e-01,8.727612495422363281e-01,8.847317695617675781e-01,8.902131915092468262e-01,8.959500193595886230e-01,8.997198343276977539e-01,9.024820923805236816e-01,9.046879410743713379e-01,9.051618576049804688e-01,9.053567647933959961e-01,9.053647518157958984e-01,9.051619172096252441e-01,9.045435786247253418e-01,9.034060239791870117e-01,9.016507863998413086e-01,8.990768790245056152e-01,8.949760198593139648e-01,8.886771202087402344e-01,8.802126049995422363e-01,8.708572387695312500e-01,8.579084873199462891e-01,8.293145895004272461e-01,8.083067536354064941e-01,8.007055521011352539e-01,7.747105360031127930e-01,7.220704555511474609e-01,6.160792708396911621e-01
5.886659026145935059e-01,6.142122149467468262e-01,6.568274497985839844e-01,6.576429605484008789e-01,6.811904311180114746e-01,7.054157257080078125e-01,7.417825460433959961e-01,7.631853818893432617e-01,7.839512825012207031e-01,8.025767207145690918e-01,8.203461170196533203e-01,8.368123769760131836e-01,8.517381548881530762e-01,8.650294542312622070e-01,8.766257762908935547e-01,8.861154317855834961e-01,8.930853009223937988e-01,8.977726101875305176e-01,9.010168313980102539e-01,9.031026363372802734e-01,9.043627977371215820e-01,9.051287770271301270e-01,9.054203033447265625e-01,9.055369496345520020e-01,9.052081108093261719e-01,9.050263166427612305e-01,9.056710004806518555e-01,9.042403697967529297e-01,8.934392333030700684e-01,8.766250610351562500e-01,8.604335188865661621e-01,8.269181251525878906e-01,7.595521211624145508e-01,6.501705646514892578e-01,4.739371240139007568e-01,3.939578533172607422e-01,3.304940462112426758e-01,2.968671917915344238e-01,2.734095454216003418e-01,2.647772133350372314e-01,2.930417656898498535e-01,3.135389089584350586e-01,3.869640231132507324e-01,4.598263502120971680e-01,5.523390769958496094e-01,6.406422257423400879e-01,7.233982086181640625e-01,7.597864270210266113e-01,7.974485158920288086e-01,8.212958574295043945e-01,8.431322574615478516e-01,8.498252034187316895e-01,8.652086257934570312e-01,8.714386224746704102e-01,8.801280856132507324e-01,8.894822597503662109e-01,8.957897424697875977e-01,8.980200886726379395e-01,9.016382098197937012e-01,9.034859538078308105e-01,9.047506451606750488e-01,9.053708314895629883e-01,9.052374362945556641e-01,9.053978919982910156e-01,9.051622152328491211e-01,9.045442342758178711e-01,9.034072160720825195e-01,9.016525149345397949e-01,8.990793824195861816e-01,8.949804306030273438e-01,8.886836171150207520e-01,8.802214860916137695e-01,8.708676099777221680e-01,8.579211831092834473e-01,8.293300867080688477e-01,8.083235025405883789e-01,8.007222414016723633e-01,7.747268676757812500e-01,7.220839858055114746e-01,6.160883903503417969e-01
5.886571407318115234e-01,6.141979694366455078e-01,6.568114757537841797e-01,6.576243638992309570e-01,6.811698675155639648e-01,7.053950428962707520e-01,7.417623996734619141e-01,7.631660699844360352e-01,7.839328646659851074e-01,8.025592565536499023e-01,8.203302025794982910e-01,8.367980718612670898e-01,8.517255783081054688e-01,8.650182485580444336e-01,8.766161799430847168e-01,8.861072659492492676e-01,8.930790424346923828e-01,8.977679014205932617e-01,9.010307788848876953e-01,9.031497240066528320e-01,9.043490886688232422e-01,9.050234556198120117e-01,9.052753448486328125e-01,9.053284525871276855e-01,9.053677916526794434e-01,9.049346446990966797e-01,9.047868847846984863e-01,9.024498462677001953e-01,8.903619647026062012e-01,8.742516040802001953e-01,8.590567111968994141e-01,8.207781314849853516e-01,7.564795017242431641e-01,6.155037879943847656e-01,4.595042169094085693e-01,3.762462735176086426e-01,3.399306535720825195e-01,3.045459389686584473e-01,2.772293090820312500e-01,2.714219093322753906e-01,2.933388352394104004e-01,3.437808752059936523e-01,4.182361066341400146e-01,5.002368688583374023e-01,5.560860633850097656e-01,6.574741601943969727e-01,7.382553219795227051e-01,7.764962911605834961e-01,8.016742467880249023e-01,8.350642323493957520e-01,8.489416837692260742e-01,8.615345358848571777e-01,8.690135478973388672e-01,8.780857324600219727e-01,8.876914978027343750e-01,8.945921063423156738e-01,8.974511623382568359e-01,9.011424779891967773e-01,9.026613831520080566e-01,9.040917158126831055e-01,9.049233198165893555e-01,9.053763151168823242e-01,9.053862690925598145e-01,9.053781032562255859e-01,9.051623344421386719e-01,9.045448303222656250e-01,9.034084677696228027e-01,9.016543626785278320e-01,8.990821838378906250e-01,8.949847221374511719e-01,8.886902332305908203e-01,8.802304267883300781e-01,8.708781003952026367e-01,8.579337596893310547e-01,8.293451070785522461e-01,8.083403110504150391e-01,8.007391095161437988e-01,7.747431397438049316e-01,7.220971584320068359e-01,6.160978674888610840e-01
5.886485576629638672e-01,6.141838431358337402e-01,6.567947864532470703e-01,6.576050519943237305e-01,6.811489462852478027e-01,7.053737640380859375e-01,7.417413592338562012e-01,7.631452679634094238e-01,7.839130163192749023e-01,8.025405406951904297e-01,8.203130960464477539e-01,8.367829322814941406e-01,8.517124056816101074e-01,8.650066852569580078e-01,8.766063451766967773e-01,8.860994577407836914e-01,8.930749893188476562e-01,8.977702856063842773e-01,9.010295271873474121e-01,9.031471014022827148e-01,9.043545722961425781e-01,9.050104618072509766e-01,9.052587747573852539e-01,9.053081274032592773e-01,9.054298996925354004e-01,9.048807621002197266e-01,9.048972129821777344e-01,9.011663198471069336e-01,8.870979547500610352e-01,8.688074350357055664e-01,8.546528816223144531e-01,8.061417341232299805e-01,7.497847080230712891e-01,5.802579522132873535e-01,4.447896480560302734e-01,3.788152337074279785e-01,3.370157480239868164e-01,3.163401782512664795e-01,2.779033184051513672e-01,2.895112931728363037e-01,3.333520293235778809e-01,3.653669357299804688e-01,4.578320384025573730e-01,5.256906747817993164e-01,6.190249919891357422e-01,6.934323906898498535e-01,7.519324421882629395e-01,7.940135002136230469e-01,8.219407200813293457e-01,8.459154963493347168e-01,8.554896116256713867e-01,8.666380047798156738e-01,8.753305673599243164e-01,8.859114646911621094e-01,8.927398920059204102e-01,8.979547023773193359e-01,9.002237915992736816e-01,9.020100831985473633e-01,9.035588502883911133e-01,9.048786759376525879e-01,9.052522182464599609e-01,9.052290916442871094e-01,9.053582549095153809e-01,9.053810834884643555e-01,9.051625728607177734e-01,9.045454859733581543e-01,9.034094810485839844e-01,9.016562700271606445e-01,8.990845680236816406e-01,8.949891328811645508e-01,8.886969089508056641e-01,8.802393078804016113e-01,8.708886504173278809e-01,8.579462766647338867e-01,8.293603658676147461e-01,8.083570003509521484e-01,8.007558584213256836e-01,7.747591733932495117e-01,7.221106290817260742e-01,6.161071062088012695e-01
5.886402726173400879e-01,6.141701340675354004e-01,6.567785739898681641e-01,6.575861573219299316e-01,6.811280846595764160e-01,7.053522467613220215e-01,7.417197823524475098e-01,7.631242275238037109e-01,7.838923335075378418e-01,8.025205135345458984e-01,8.202946186065673828e-01,8.367666006088256836e-01,8.516981601715087891e-01,8.649947643280029297e-01,8.765958547592163086e-01,8.860911130905151367e-01,8.930693864822387695e-01,8.977671861648559570e-01,9.010297656059265137e-01,9.031466245651245117e-01,9.043557047843933105e-01,9.050141572952270508e-01,9.052585959434509277e-01,9.053840041160583496e-01,9.051797389984130859e-01,9.049649238586425781e-01,9.041321277618408203e-01,8.978651762008666992e-01,8.851506114006042480e-01,8.645938634872436523e-01,8.486611247062683105e-01,7.979841232299804688e-01,7.075217962265014648e-01,5.630785822868347168e-01,4.353120028972625732e-01,3.791552782058715820e-01,3.362381458282470703e-01,3.191701769828796387e-01,2.802261710166931152e-01,3.126810491085052490e-01,3.620850145816802979e-01,4.220926463603973389e-01,5.078971982002258301e-01,5.814869999885559082e-01,6.755061745643615723e-01,7.252383828163146973e-01,7.722958922386169434e-01,8.077371120452880859e-01,8.342554569244384766e-01,8.477008938789367676e-01,8.656345605850219727e-01,8.747812509536743164e-01,8.832840323448181152e-01,8.912291526794433594e-01,8.981276154518127441e-01,8.996996879577636719e-01,9.011008739471435547e-01,9.030456542968750000e-01,9.042567014694213867e-01,9.050563573837280273e-01,9.052315950393676758e-01,9.053965806961059570e-01,9.053812026977539062e-01,9.053642153739929199e-01,9.051627516746520996e-01,9.045461416244506836e-01,9.034106731414794922e-01,9.016579389572143555e-01,8.990873098373413086e-01,8.949933052062988281e-01,8.887035250663757324e-01,8.802481889724731445e-01,8.708990812301635742e-01,8.579586744308471680e-01,8.293754458427429199e-01,8.083739280700683594e-01,8.007725477218627930e-01,7.747752070426940918e-01,7.221236228942871094e-01,6.161163449287414551e-01
5.886322259902954102e-01,6.141571998596191406e-01,6.567633152008056641e-01,6.575682163238525391e-01,6.811076998710632324e-01,7.053314447402954102e-01,7.416987419128417969e-01,7.631027698516845703e-01,7.838711738586425781e-01,8.024998903274536133e-01,8.202751874923706055e-01,8.367487192153930664e-01,8.516818881034851074e-01,8.649803996086120605e-01,8.765843510627746582e-01,8.860819339752197266e-01,8.930625915527343750e-01,8.977621793746948242e-01,9.010255336761474609e-01,9.031424522399902344e-01,9.043455123901367188e-01,9.050033092498779297e-01,9.052559733390808105e-01,9.054032564163208008e-01,9.052037000656127930e-01,9.049925804138183594e-01,9.030319452285766602e-01,8.956843614578247070e-01,8.794907331466674805e-01,8.613297939300537109e-01,8.416782617568969727e-01,7.852417230606079102e-01,6.853473186492919922e-01,5.261461138725280762e-01,4.396682977676391602e-01,3.643763661384582520e-01,3.347262144088745117e-01,3.149258792400360107e-01,2.934072017669677734e-01,3.239428997039794922e-01,3.970218896865844727e-01,5.172149538993835449e-01,5.687563419342041016e-01,6.271314620971679688e-01,7.071005105972290039e-01,7.596744894981384277e-01,7.959545850753784180e-01,8.240935802459716797e-01,8.474473953247070312e-01,8.624215722084045410e-01,8.709125518798828125e-01,8.799915313720703125e-01,8.885827064514160156e-01,8.954858183860778809e-01,8.988162279129028320e-01,9.003879427909851074e-01,9.029752612113952637e-01,9.040168523788452148e-01,9.049266576766967773e-01,9.052163362503051758e-01,9.053534865379333496e-01,9.053089022636413574e-01,9.053574800491333008e-01,9.053715467453002930e-01,9.051607847213745117e-01,9.045447111129760742e-01,9.034100770950317383e-01,9.016581773757934570e-01,8.990883231163024902e-01,8.949956893920898438e-01,8.887081742286682129e-01,8.802556991577148438e-01,8.709084391593933105e-01,8.579705357551574707e-01,8.293899297714233398e-01,8.083902597427368164e-01,8.007889986038208008e-01,7.747912406921386719e-01,7.221369743347167969e-01,6.161255836486816406e-01
5.886241197586059570e-01,6.141440868377685547e-01,6.567476391792297363e-01,6.575498580932617188e-01,6.810863018035888672e-01,7.053079009056091309e-01,7.416739463806152344e-01,7.630773782730102539e-01,7.838449478149414062e-01,8.024730682373046875e-01,8.202491998672485352e-01,8.367240428924560547e-01,8.516585826873779297e-01,8.649588823318481445e-01,8.765654563903808594e-01,8.860663175582885742e-01,8.930498957633972168e-01,8.977519273757934570e-01,9.010162353515625000e-01,9.031320810317993164e-01,9.043350219726562500e-01,9.049820899963378906e-01,9.052196145057678223e-01,9.053037762641906738e-01,9.050545692443847656e-01,9.043284058570861816e-01,9.005571603775024414e-01,8.914797306060791016e-01,8.738512992858886719e-01,8.594697117805480957e-01,8.320040702819824219e-01,7.628549337387084961e-01,6.611040830612182617e-01,4.701619744300842285e-01,4.154370725154876709e-01,3.575991094112396240e-01,3.490614295005798340e-01,3.105310201644897461e-01,3.207790851593017578e-01,3.568543195724487305e-01,4.553989768028259277e-01,5.465544462203979492e-01,6.215842962265014648e-01,6.724767088890075684e-01,7.480262517929077148e-01,7.896426320075988770e-01,8.224642276763916016e-01,8.435667753219604492e-01,8.548931479454040527e-01,8.674696683883666992e-01,8.779686689376831055e-01,8.859298825263977051e-01,8.954567909240722656e-01,8.981161117553710938e-01,9.002375602722167969e-01,9.024384617805480957e-01,9.036769270896911621e-01,9.048890471458435059e-01,9.050867557525634766e-01,9.052664637565612793e-01,9.053075313568115234e-01,9.053555130958557129e-01,9.053363204002380371e-01,9.053670167922973633e-01,9.051569700241088867e-01,9.045403003692626953e-01,9.034063220024108887e-01,9.016550779342651367e-01,8.990851640701293945e-01,8.949918746948242188e-01,8.887050151824951172e-01,8.802530765533447266e-01,8.709062933921813965e-01,8.579726219177246094e-01,8.293957710266113281e-01,8.083989620208740234e-01,8.007982969284057617e-01,7.747991085052490234e-01,7.221412658691406250e-01,6.161280870437622070e-01
5.886117219924926758e-01,6.141276359558105469e-01,6.567279696464538574e-01,6.575313210487365723e-01,6.810672879219055176e-01,7.052873373031616211e-01,7.416552901268005371e-01,7.630635499954223633e-01,7.838368415832519531e-01,8.024721145629882812e-01,8.202584981918334961e-01,8.367468118667602539e-01,8.517016172409057617e-01,8.650192618370056152e-01,8.766281604766845703e-01,8.861196637153625488e-01,8.930930495262145996e-01,8.977882266044616699e-01,9.010556936264038086e-01,9.031839966773986816e-01,9.043909311294555664e-01,9.051187038421630859e-01,9.051604866981506348e-01,9.052748084068298340e-01,9.044053554534912109e-01,9.023755788803100586e-01,8.995789289474487305e-01,8.851630091667175293e-01,8.653990030288696289e-01,8.535830378532409668e-01,8.098579049110412598e-01,7.439360618591308594e-01,6.189746260643005371e-01,4.674406349658966064e-01,3.991387784481048584e-01,3.487848341464996338e-01,3.376232981681823730e-01,3.107136487960815430e-01,3.420239090919494629e-01,3.999386727809906006e-01,4.941481351852416992e-01,5.751598477363586426e-01,6.628448367118835449e-01,7.270203232765197754e-01,7.690715193748474121e-01,8.096936941146850586e-01,8.362451791763305664e-01,8.505067229270935059e-01,8.648985624313354492e-01,8.734266161918640137e-01,8.832867145538330078e-01,8.917964696884155273e-01,8.968987464904785156e-01,8.990066051483154297e-01,9.015780091285705566e-01,9.038737416267395020e-01,9.047441482543945312e-01,9.052138924598693848e-01,9.053319692611694336e-01,9.053771495819091797e-01,9.054256677627563477e-01,9.053905010223388672e-01,9.054230451583862305e-01,9.054448604583740234e-01,9.052376747131347656e-01,9.046199321746826172e-01,9.034807682037353516e-01,9.017142653465270996e-01,8.991346955299377441e-01,8.950434923171997070e-01,8.887711763381958008e-01,8.803312778472900391e-01,8.709962368011474609e-01,8.580457568168640137e-01,8.294640779495239258e-01,8.084477186203002930e-01,8.008308410644531250e-01,7.748199701309204102e-01,7.221415042877197266e-01,6.161288022994995117e-01
5.886179804801940918e-01,6.141348481178283691e-01,6.567322611808776855e-01,6.575458049774169922e-01,6.810923814773559570e-01,7.053460478782653809e-01,7.417645454406738281e-01,7.632207870483398438e-01,7.840198874473571777e-01,8.026665449142456055e-01,8.204536437988281250e-01,8.369384407997131348e-01,8.518701791763305664e-01,8.651563525199890137e-01,8.767375349998474121e-01,8.861937522888183594e-01,8.931597471237182617e-01,8.978884816169738770e-01,9.011781215667724609e-01,9.033082723617553711e-01,9.045317173004150391e-01,9.053045511245727539e-01,9.053118228912353516e-01,9.049563407897949219e-01,9.029611349105834961e-01,9.011353254318237305e-01,8.955405950546264648e-01,8.829941749572753906e-01,8.669648170471191406e-01,8.511465787887573242e-01,7.897434830665588379e-01,7.016158103942871094e-01,5.840349197387695312e-01,4.388253688812255859e-01,3.856306374073028564e-01,3.471747040748596191e-01,3.355633318424224854e-01,3.133186101913452148e-01,3.551380932331085205e-01,4.263094067573547363e-01,5.194158554077148438e-01,6.242949962615966797e-01,6.891361474990844727e-01,7.521803975105285645e-01,7.896699309349060059e-01,8.188458681106567383e-01,8.428617715835571289e-01,8.549512624740600586e-01,8.698430061340332031e-01,8.803462982177734375e-01,8.880293965339660645e-01,8.956810235977172852e-01,8.985642194747924805e-01,9.007395505905151367e-01,9.036469459533691406e-01,9.048399925231933594e-01,9.052937626838684082e-01,9.052959084510803223e-01,9.054616689682006836e-01,9.054886102676391602e-01,9.054512977600097656e-01,9.054614305496215820e-01,9.054840207099914551e-01,9.055072069168090820e-01,9.053019285202026367e-01,9.046815633773803711e-01,9.035499095916748047e-01,9.017888903617858887e-01,8.992086648941040039e-01,8.951133489608764648e-01,8.888938426971435547e-01,8.804658651351928711e-01,8.711228370666503906e-01,8.582092523574829102e-01,8.296948671340942383e-01,8.086957931518554688e-01,8.010885715484619141e-01,7.750697135925292969e-01,7.224271297454833984e-01,6.165229678153991699e-01
5.888015031814575195e-01,6.143115162849426270e-01,6.569854617118835449e-01,6.578009128570556641e-01,6.813388466835021973e-01,7.055059671401977539e-01,7.418469190597534180e-01,7.632268667221069336e-01,7.838836908340454102e-01,8.024010658264160156e-01,8.200694322586059570e-01,8.364216089248657227e-01,8.512633442878723145e-01,8.644663691520690918e-01,8.759483098983764648e-01,8.853853940963745117e-01,8.923836350440979004e-01,8.970941305160522461e-01,9.003559350967407227e-01,9.024873971939086914e-01,9.037225842475891113e-01,9.044109582901000977e-01,9.043064117431640625e-01,9.035810232162475586e-01,9.003059864044189453e-01,8.983963131904602051e-01,8.891232609748840332e-01,8.740801215171813965e-01,8.607735633850097656e-01,8.275367617607116699e-01,7.724947333335876465e-01,6.719309687614440918e-01,5.427464246749877930e-01,4.285438656806945801e-01,3.729597926139831543e-01,3.333045542240142822e-01,3.213024139404296875e-01,3.166558444499969482e-01,3.630670905113220215e-01,4.251756668090820312e-01,5.584350824356079102e-01,6.334617733955383301e-01,7.134186029434204102e-01,7.711341381072998047e-01,7.991993427276611328e-01,8.249646425247192383e-01,8.461165428161621094e-01,8.614231944084167480e-01,8.729926347732543945e-01,8.840501308441162109e-01,8.931012153625488281e-01,8.960145711898803711e-01,8.985041975975036621e-01,9.013187885284423828e-01,9.031169414520263672e-01,9.042831659317016602e-01,9.044854640960693359e-01,9.046691656112670898e-01,9.046329259872436523e-01,9.045985341072082520e-01,9.046072959899902344e-01,9.046076536178588867e-01,9.046276807785034180e-01,9.046608209609985352e-01,9.044566154479980469e-01,9.038789868354797363e-01,9.027746915817260742e-01,9.010077714920043945e-01,8.984278440475463867e-01,8.943617343902587891e-01,8.880724906921386719e-01,8.796479701995849609e-01,8.703287243843078613e-01,8.574463725090026855e-01,8.288386464118957520e-01,8.078451156616210938e-01,8.004516363143920898e-01,7.742116451263427734e-01,7.216128706932067871e-01,6.159942746162414551e-01
5.891577005386352539e-01,6.141800880432128906e-01,6.566535234451293945e-01,6.571514606475830078e-01,6.804431676864624023e-01,7.042936682701110840e-01,7.404211759567260742e-01,7.615290284156799316e-01,7.820322513580322266e-01,8.004179596900939941e-01,8.180017471313476562e-01,8.343543410301208496e-01,8.493279218673706055e-01,8.627436757087707520e-01,8.744814395904541016e-01,8.841425180435180664e-01,8.912271261215209961e-01,8.960006833076477051e-01,8.993604183197021484e-01,9.015561938285827637e-01,9.027921557426452637e-01,9.034438133239746094e-01,9.036403894424438477e-01,9.016987085342407227e-01,8.996722698211669922e-01,8.942793607711791992e-01,8.847820758819580078e-01,8.706446290016174316e-01,8.572067618370056152e-01,8.087974786758422852e-01,7.373827695846557617e-01,6.477361321449279785e-01,5.016887784004211426e-01,4.168777465820312500e-01,3.574271500110626221e-01,3.263543546199798584e-01,3.085852563381195068e-01,3.297049999237060547e-01,3.685265183448791504e-01,4.351437985897064209e-01,5.638852715492248535e-01,6.561261415481567383e-01,7.152754068374633789e-01,7.687637805938720703e-01,8.011190891265869141e-01,8.328545093536376953e-01,8.542472124099731445e-01,8.641477823257446289e-01,8.779437541961669922e-01,8.877749443054199219e-01,8.931825160980224609e-01,8.968950510025024414e-01,8.994687795639038086e-01,9.020271301269531250e-01,9.030108451843261719e-01,9.036608338356018066e-01,9.036862850189208984e-01,9.036722779273986816e-01,9.036971926689147949e-01,9.036889076232910156e-01,9.036877751350402832e-01,9.036875963211059570e-01,9.037035703659057617e-01,9.037330150604248047e-01,9.035474061965942383e-01,9.029992818832397461e-01,9.019618034362792969e-01,9.002494215965270996e-01,8.976994752883911133e-01,8.936418294906616211e-01,8.874081969261169434e-01,8.790714144706726074e-01,8.698105812072753906e-01,8.568357825279235840e-01,8.282468914985656738e-01,8.070998191833496094e-01,7.996374368667602539e-01,7.733817100524902344e-01,7.204557657241821289e-01,6.144729852676391602e-01
5.884082317352294922e-01,6.125018000602722168e-01,6.548569798469543457e-01,6.552612781524658203e-01,6.780961751937866211e-01,7.014926671981811523e-01,7.376142740249633789e-01,7.587713003158569336e-01,7.793210744857788086e-01,7.977043390274047852e-01,8.152696490287780762e-01,8.317413330078125000e-01,8.468409776687622070e-01,8.603414893150329590e-01,8.721705675125122070e-01,8.818703889846801758e-01,8.891113996505737305e-01,8.941247463226318359e-01,8.975704312324523926e-01,8.997792005538940430e-01,9.010244607925415039e-01,9.015161395072937012e-01,9.010841846466064453e-01,8.993159532546997070e-01,8.963931202888488770e-01,8.879105448722839355e-01,8.778066635131835938e-01,8.671259880065917969e-01,8.452162742614746094e-01,7.852339744567871094e-01,7.043803930282592773e-01,5.947883129119873047e-01,4.938896596431732178e-01,4.078841805458068848e-01,3.420594930648803711e-01,3.065275549888610840e-01,2.962520718574523926e-01,3.270277976989746094e-01,3.633546233177185059e-01,4.429327845573425293e-01,5.665760040283203125e-01,6.617018580436706543e-01,7.187438011169433594e-01,7.724773287773132324e-01,8.104510307312011719e-01,8.323739767074584961e-01,8.583150506019592285e-01,8.694440126419067383e-01,8.803839683532714844e-01,8.895497918128967285e-01,8.932420015335083008e-01,8.961670994758605957e-01,8.989755511283874512e-01,9.008737802505493164e-01,9.016543626785278320e-01,9.015514850616455078e-01,9.017938375473022461e-01,9.018168449401855469e-01,9.017677307128906250e-01,9.017711281776428223e-01,9.017651081085205078e-01,9.017599821090698242e-01,9.017737507820129395e-01,9.017986059188842773e-01,9.016249775886535645e-01,9.011556506156921387e-01,9.001957178115844727e-01,8.985981941223144531e-01,8.961423039436340332e-01,8.921515941619873047e-01,8.860793113708496094e-01,8.775850534439086914e-01,8.682897090911865234e-01,8.554371595382690430e-01,8.269639015197753906e-01,8.060607910156250000e-01,7.985008955001831055e-01,7.719281911849975586e-01,7.191725373268127441e-01,6.126985549926757812e-01
5.864669680595397949e-01,6.097781658172607422e-01,6.518774032592773438e-01,6.520055532455444336e-01,6.745821237564086914e-01,6.974247694015502930e-01,7.329911589622497559e-01,7.536308765411376953e-01,7.735034823417663574e-01,7.914417982101440430e-01,8.087484836578369141e-01,8.249922394752502441e-01,8.399546742439270020e-01,8.535097241401672363e-01,8.654154539108276367e-01,8.752057552337646484e-01,8.825128674507141113e-01,8.875584602355957031e-01,8.911026716232299805e-01,8.933060765266418457e-01,8.945689797401428223e-01,8.951805830001831055e-01,8.947771191596984863e-01,8.937389850616455078e-01,8.890395164489746094e-01,8.760490417480468750e-01,8.665030598640441895e-01,8.517360091209411621e-01,8.298761248588562012e-01,7.662792801856994629e-01,6.622462868690490723e-01,5.517007112503051758e-01,4.765385091304779053e-01,3.973882198333740234e-01,3.293777704238891602e-01,2.990144193172454834e-01,3.028249740600585938e-01,3.295380473136901855e-01,3.637466728687286377e-01,4.299140274524688721e-01,5.593944787979125977e-01,6.516884565353393555e-01,7.109152078628540039e-01,7.695174217224121094e-01,8.049906492233276367e-01,8.347892761230468750e-01,8.532030582427978516e-01,8.679183721542358398e-01,8.783612251281738281e-01,8.834121823310852051e-01,8.878666162490844727e-01,8.912072181701660156e-01,8.936725258827209473e-01,8.946813344955444336e-01,8.952458500862121582e-01,8.952665328979492188e-01,8.952537775039672852e-01,8.952077627182006836e-01,8.952093124389648438e-01,8.951995372772216797e-01,8.951904177665710449e-01,8.951814174652099609e-01,8.951902389526367188e-01,8.952072858810424805e-01,8.950720429420471191e-01,8.946229219436645508e-01,8.938131332397460938e-01,8.923466205596923828e-01,8.900226354598999023e-01,8.861771225929260254e-01,8.802831172943115234e-01,8.720710277557373047e-01,8.626418709754943848e-01,8.496440052986145020e-01,8.213551044464111328e-01,8.010385036468505859e-01,7.939135432243347168e-01,7.675353288650512695e-01,7.151708006858825684e-01,6.077068448066711426e-01
5.825380086898803711e-01,6.038826107978820801e-01,6.454447507858276367e-01,6.448011994361877441e-01,6.661975979804992676e-01,6.881837844848632812e-01,7.229008674621582031e-01,7.430776357650756836e-01,7.622787356376647949e-01,7.793433666229248047e-01,7.960605621337890625e-01,8.119963407516479492e-01,8.270331025123596191e-01,8.408874273300170898e-01,8.531072139739990234e-01,8.633350133895874023e-01,8.711274862289428711e-01,8.765017390251159668e-01,8.802323937416076660e-01,8.825676441192626953e-01,8.839116096496582031e-01,8.844882249832153320e-01,8.844607472419738770e-01,8.836075067520141602e-01,8.770805001258850098e-01,8.666327595710754395e-01,8.565130233764648438e-01,8.386695384979248047e-01,7.928659915924072266e-01,7.252935171127319336e-01,6.270014047622680664e-01,5.333237648010253906e-01,4.678546190261840820e-01,4.002377390861511230e-01,3.244338631629943848e-01,2.919574975967407227e-01,2.915897965431213379e-01,3.167995810508728027e-01,3.681892156600952148e-01,4.329134821891784668e-01,5.422739982604980469e-01,6.328243613243103027e-01,6.971012353897094727e-01,7.555157542228698730e-01,7.943884730339050293e-01,8.233100771903991699e-01,8.456777334213256836e-01,8.600030541419982910e-01,8.702907562255859375e-01,8.739591836929321289e-01,8.785746693611145020e-01,8.815541267395019531e-01,8.831126689910888672e-01,8.840392827987670898e-01,8.839126229286193848e-01,8.840950131416320801e-01,8.840820193290710449e-01,8.840518593788146973e-01,8.840309381484985352e-01,8.840106129646301270e-01,8.839902281761169434e-01,8.839701414108276367e-01,8.839806318283081055e-01,8.840260505676269531e-01,8.838987946510314941e-01,8.835493326187133789e-01,8.828666806221008301e-01,8.813993930816650391e-01,8.790467977523803711e-01,8.753558397293090820e-01,8.695246577262878418e-01,8.616400957107543945e-01,8.525897264480590820e-01,8.395662307739257812e-01,8.107843399047851562e-01,7.916749715805053711e-01,7.853829860687255859e-01,7.605754733085632324e-01,7.071899175643920898e-01,6.017359495162963867e-01
5.753737688064575195e-01,5.940438508987426758e-01,6.345345973968505859e-01,6.318067312240600586e-01,6.512061953544616699e-01,6.719561815261840820e-01,7.057631015777587891e-01,7.251137495040893555e-01,7.435624599456787109e-01,7.599264383316040039e-01,7.757298946380615234e-01,7.908970117568969727e-01,8.055427074432373047e-01,8.189374804496765137e-01,8.307855129241943359e-01,8.406668305397033691e-01,8.480846881866455078e-01,8.534053564071655273e-01,8.571287989616394043e-01,8.594431877136230469e-01,8.607228994369506836e-01,8.614711761474609375e-01,8.623291850090026855e-01,8.593401908874511719e-01,8.510270118713378906e-01,8.400757908821105957e-01,8.255141973495483398e-01,8.089406490325927734e-01,7.655352354049682617e-01,6.874905824661254883e-01,6.012102961540222168e-01,5.111164450645446777e-01,4.506747722625732422e-01,3.720648884773254395e-01,3.100184798240661621e-01,2.905409336090087891e-01,2.908909320831298828e-01,3.133116364479064941e-01,3.657301366329193115e-01,4.217671155929565430e-01,5.193861722946166992e-01,6.054953932762145996e-01,6.624910831451416016e-01,7.225608825683593750e-01,7.712852954864501953e-01,8.014596700668334961e-01,8.265285491943359375e-01,8.387674093246459961e-01,8.475393056869506836e-01,8.516407608985900879e-01,8.550539016723632812e-01,8.580361604690551758e-01,8.595041036605834961e-01,8.601478934288024902e-01,8.602167963981628418e-01,8.601748943328857422e-01,8.600801229476928711e-01,8.600568771362304688e-01,8.600197434425354004e-01,8.599826693534851074e-01,8.599454164505004883e-01,8.599075078964233398e-01,8.599123954772949219e-01,8.599454164505004883e-01,8.597945570945739746e-01,8.595272302627563477e-01,8.591250181198120117e-01,8.579416275024414062e-01,8.558881282806396484e-01,8.521246910095214844e-01,8.465026617050170898e-01,8.387105464935302734e-01,8.299922943115234375e-01,8.169811964035034180e-01,7.877238392829895020e-01,7.699949741363525391e-01,7.670488357543945312e-01,7.438945770263671875e-01,6.925522685050964355e-01,5.922693014144897461e-01
5.643813610076904297e-01,5.786226987838745117e-01,6.173462271690368652e-01,6.113578081130981445e-01,6.278056502342224121e-01,6.468129158020019531e-01,6.787358522415161133e-01,6.960871815681457520e-01,7.121242284774780273e-01,7.261279821395874023e-01,7.397761344909667969e-01,7.531884908676147461e-01,7.665055394172668457e-01,7.789261937141418457e-01,7.898079156875610352e-01,7.990598082542419434e-01,8.063970804214477539e-01,8.116819858551025391e-01,8.153716325759887695e-01,8.176491260528564453e-01,8.187348246574401855e-01,8.198609352111816406e-01,8.197781443595886230e-01,8.148151636123657227e-01,8.075710535049438477e-01,7.979562282562255859e-01,7.828311920166015625e-01,7.674235701560974121e-01,7.087968587875366211e-01,6.223146915435791016e-01,5.417644977569580078e-01,5.154560208320617676e-01,4.357671141624450684e-01,3.583600521087646484e-01,3.074800372123718262e-01,2.886618375778198242e-01,2.794979512691497803e-01,3.139685094356536865e-01,3.617390096187591553e-01,4.026327729225158691e-01,4.882629215717315674e-01,5.628150701522827148e-01,6.180593967437744141e-01,6.853073239326477051e-01,7.260930538177490234e-01,7.624742388725280762e-01,7.844333052635192871e-01,7.978631854057312012e-01,8.042653203010559082e-01,8.098987936973571777e-01,8.137326836585998535e-01,8.161852359771728516e-01,8.171725273132324219e-01,8.169502019882202148e-01,8.171377182006835938e-01,8.170781135559082031e-01,8.170013427734375000e-01,8.169417977333068848e-01,8.168825507164001465e-01,8.168237209320068359e-01,8.167647123336791992e-01,8.167047500610351562e-01,8.166967630386352539e-01,8.166688680648803711e-01,8.164740800857543945e-01,8.160675168037414551e-01,8.156105279922485352e-01,8.142986297607421875e-01,8.124299049377441406e-01,8.094828128814697266e-01,8.042632937431335449e-01,7.970052957534790039e-01,7.894003987312316895e-01,7.773642539978027344e-01,7.478930950164794922e-01,7.329750657081604004e-01,7.344026565551757812e-01,7.134067416191101074e-01,6.685212850570678711e-01,5.795555710792541504e-01
5.498363971710205078e-01,5.541184544563293457e-01,5.890444517135620117e-01,5.790375471115112305e-01,5.922476649284362793e-01,6.085578203201293945e-01,6.381728053092956543e-01,6.527641415596008301e-01,6.666585803031921387e-01,6.783925890922546387e-01,6.898005008697509766e-01,7.009328603744506836e-01,7.119175791740417480e-01,7.217553853988647461e-01,7.305888533592224121e-01,7.382014989852905273e-01,7.438987493515014648e-01,7.478559017181396484e-01,7.505356073379516602e-01,7.520027756690979004e-01,7.524785399436950684e-01,7.536792755126953125e-01,7.514001727104187012e-01,7.451151013374328613e-01,7.344858646392822266e-01,7.266823053359985352e-01,7.066338658332824707e-01,6.981149315834045410e-01,6.468336582183837891e-01,5.593977570533752441e-01,4.929420053958892822e-01,4.578303396701812744e-01,4.019171595573425293e-01,3.364652395248413086e-01,2.990118563175201416e-01,2.817734479904174805e-01,2.852142453193664551e-01,3.113266825675964355e-01,3.426013588905334473e-01,3.805885910987854004e-01,4.557587802410125732e-01,5.189461112022399902e-01,5.694307088851928711e-01,6.254454255104064941e-01,6.698037385940551758e-01,7.021023035049438477e-01,7.250450253486633301e-01,7.318568825721740723e-01,7.406936883926391602e-01,7.445643544197082520e-01,7.471660375595092773e-01,7.490644454956054688e-01,7.495319843292236328e-01,7.501124739646911621e-01,7.499116659164428711e-01,7.497167587280273438e-01,7.496590018272399902e-01,7.495763897895812988e-01,7.494938373565673828e-01,7.494113445281982422e-01,7.493281960487365723e-01,7.492419481277465820e-01,7.492169141769409180e-01,7.491382956504821777e-01,7.489840984344482422e-01,7.487028837203979492e-01,7.481887340545654297e-01,7.467999458312988281e-01,7.445366382598876953e-01,7.411714792251586914e-01,7.364770174026489258e-01,7.301231622695922852e-01,7.241300344467163086e-01,7.128628492355346680e-01,6.834231615066528320e-01,6.726917028427124023e-01,6.815931200981140137e-01,6.628256440162658691e-01,6.335803866386413574e-01,5.563627481460571289e-01
5.325874686241149902e-01,5.238312482833862305e-01,5.546791553497314453e-01,5.387868285179138184e-01,5.466827750205993652e-01,5.595363378524780273e-01,5.837620496749877930e-01,5.949367284774780273e-01,6.053997278213500977e-01,6.135223507881164551e-01,6.215350031852722168e-01,6.294599175453186035e-01,6.371091008186340332e-01,6.439315676689147949e-01,6.500928401947021484e-01,6.548249721527099609e-01,6.580489873886108398e-01,6.604483127593994141e-01,6.619989275932312012e-01,6.628145575523376465e-01,6.629920005798339844e-01,6.642310023307800293e-01,6.622798442840576172e-01,6.584146022796630859e-01,6.479516029357910156e-01,6.401572823524475098e-01,6.215896010398864746e-01,5.997016429901123047e-01,5.575032830238342285e-01,4.868485629558563232e-01,4.326973855495452881e-01,3.980455696582794189e-01,3.776997625827789307e-01,3.347414135932922363e-01,2.842673063278198242e-01,2.666523456573486328e-01,2.686045467853546143e-01,2.913639545440673828e-01,3.173038959503173828e-01,3.513412475585937500e-01,4.130017161369323730e-01,4.697503745555877686e-01,5.098053216934204102e-01,5.554271340370178223e-01,5.985351204872131348e-01,6.233755946159362793e-01,6.401809453964233398e-01,6.461656689643859863e-01,6.527687311172485352e-01,6.569348573684692383e-01,6.585494279861450195e-01,6.602926254272460938e-01,6.601649522781372070e-01,6.601503491401672363e-01,6.601043939590454102e-01,6.599879860877990723e-01,6.598998904228210449e-01,6.598123311996459961e-01,6.597247123718261719e-01,6.596373319625854492e-01,6.595488786697387695e-01,6.594561338424682617e-01,6.593901515007019043e-01,6.593291759490966797e-01,6.591175794601440430e-01,6.589072346687316895e-01,6.585867404937744141e-01,6.574280261993408203e-01,6.554306745529174805e-01,6.522489190101623535e-01,6.490287184715270996e-01,6.442036628723144531e-01,6.403368711471557617e-01,6.306461691856384277e-01,6.031730175018310547e-01,5.958007574081420898e-01,6.114102005958557129e-01,5.966590046882629395e-01,5.878613591194152832e-01,5.267971754074096680e-01
5.116012096405029297e-01,4.894227981567382812e-01,5.142408609390258789e-01,4.909921586513519287e-01,4.925754964351654053e-01,5.011565089225769043e-01,5.197591185569763184e-01,5.277090668678283691e-01,5.348449349403381348e-01,5.396817922592163086e-01,5.445517897605895996e-01,5.496587753295898438e-01,5.546118021011352539e-01,5.589416027069091797e-01,5.625606775283813477e-01,5.652564167976379395e-01,5.675392746925354004e-01,5.691388845443725586e-01,5.702135562896728516e-01,5.706706643104553223e-01,5.706495046615600586e-01,5.709416866302490234e-01,5.704913735389709473e-01,5.649248361587524414e-01,5.593309402465820312e-01,5.513429641723632812e-01,5.360170602798461914e-01,5.093470811843872070e-01,4.706187248229980469e-01,4.581708312034606934e-01,3.919140994548797607e-01,3.634344339370727539e-01,3.350427746772766113e-01,3.082585036754608154e-01,2.684259116649627686e-01,2.560544610023498535e-01,2.631553411483764648e-01,2.747053205966949463e-01,2.990134358406066895e-01,3.230651617050170898e-01,3.727435767650604248e-01,4.184073507785797119e-01,4.506104588508605957e-01,4.919999241828918457e-01,5.205902457237243652e-01,5.421935915946960449e-01,5.509449243545532227e-01,5.574539303779602051e-01,5.645208954811096191e-01,5.665789842605590820e-01,5.680105686187744141e-01,5.674669742584228516e-01,5.680269002914428711e-01,5.679981708526611328e-01,5.677505135536193848e-01,5.676991343498229980e-01,5.676122307777404785e-01,5.675255060195922852e-01,5.674388408660888672e-01,5.673521757125854492e-01,5.672649145126342773e-01,5.671718120574951172e-01,5.670861005783081055e-01,5.670450329780578613e-01,5.670133233070373535e-01,5.669370889663696289e-01,5.666975975036621094e-01,5.661552548408508301e-01,5.646461248397827148e-01,5.622155666351318359e-01,5.591551661491394043e-01,5.555394291877746582e-01,5.535981655120849609e-01,5.454207658767700195e-01,5.213615894317626953e-01,5.172528028488159180e-01,5.382785797119140625e-01,5.279558897018432617e-01,5.395963191986083984e-01,4.964627623558044434e-01
4.905967116355895996e-01,4.557300209999084473e-01,4.713636040687561035e-01,4.409458339214324951e-01,4.362807869911193848e-01,4.406371116638183594e-01,4.540595710277557373e-01,4.581390619277954102e-01,4.624654352664947510e-01,4.647893905639648438e-01,4.673474431037902832e-01,4.701622426509857178e-01,4.729234576225280762e-01,4.755527973175048828e-01,4.778452813625335693e-01,4.795468449592590332e-01,4.808228015899658203e-01,4.817790985107421875e-01,4.823768436908721924e-01,4.826181530952453613e-01,4.825437068939208984e-01,4.826660156250000000e-01,4.837158620357513428e-01,4.805274009704589844e-01,4.759978652000427246e-01,4.726064503192901611e-01,4.609699547290802002e-01,4.337962567806243896e-01,4.071102142333984375e-01,3.893662989139556885e-01,3.562566637992858887e-01,3.240537047386169434e-01,3.166946172714233398e-01,3.019025921821594238e-01,2.661654353141784668e-01,2.517219185829162598e-01,2.507860064506530762e-01,2.656722664833068848e-01,2.750616669654846191e-01,2.984219193458557129e-01,3.376979529857635498e-01,3.734292387962341309e-01,3.966502845287322998e-01,4.221403002738952637e-01,4.481328129768371582e-01,4.614505767822265625e-01,4.684590995311737061e-01,4.745129644870758057e-01,4.784596562385559082e-01,4.790753424167633057e-01,4.801520407199859619e-01,4.807012975215911865e-01,4.805086255073547363e-01,4.802548885345458984e-01,4.802117943763732910e-01,4.801385104656219482e-01,4.800659418106079102e-01,4.799931049346923828e-01,4.799206852912902832e-01,4.798479080200195312e-01,4.797749817371368408e-01,4.796986281871795654e-01,4.796153604984283447e-01,4.795502424240112305e-01,4.795365035533905029e-01,4.795431494712829590e-01,4.794653058052062988e-01,4.793747365474700928e-01,4.788042008876800537e-01,4.777772426605224609e-01,4.768552780151367188e-01,4.752940535545349121e-01,4.752647280693054199e-01,4.694172739982604980e-01,4.494207799434661865e-01,4.481822252273559570e-01,4.717297255992889404e-01,4.687278866767883301e-01,4.949380159378051758e-01,4.690660834312438965e-01
4.694180786609649658e-01,4.224293828010559082e-01,4.285613596439361572e-01,3.950840830802917480e-01,3.841196894645690918e-01,3.856844604015350342e-01,3.960990309715270996e-01,3.990370035171508789e-01,4.020583033561706543e-01,4.032491743564605713e-01,4.044603705406188965e-01,4.056694507598876953e-01,4.066865146160125732e-01,4.076300859451293945e-01,4.084253013134002686e-01,4.090071320533752441e-01,4.096171259880065918e-01,4.101006090641021729e-01,4.103047251701354980e-01,4.103403687477111816e-01,4.102638065814971924e-01,4.102885723114013672e-01,4.106301665306091309e-01,4.088510274887084961e-01,4.044338464736938477e-01,4.010671377182006836e-01,3.942368626594543457e-01,3.724074959754943848e-01,3.586058616638183594e-01,3.477060198783874512e-01,3.303056657314300537e-01,3.054868876934051514e-01,2.897112965583801270e-01,2.829241454601287842e-01,2.588955461978912354e-01,2.491642832756042480e-01,2.445032596588134766e-01,2.560025453567504883e-01,2.643790841102600098e-01,2.824998497962951660e-01,3.073313832283020020e-01,3.337998390197753906e-01,3.478233218193054199e-01,3.700326085090637207e-01,3.835501074790954590e-01,3.950257003307342529e-01,4.008613824844360352e-01,4.056937098503112793e-01,4.069924950599670410e-01,4.082900881767272949e-01,4.085245132446289062e-01,4.084943234920501709e-01,4.084414243698120117e-01,4.083726108074188232e-01,4.083122909069061279e-01,4.082548618316650391e-01,4.081970155239105225e-01,4.081395864486694336e-01,4.080820083618164062e-01,4.080246388912200928e-01,4.079679846763610840e-01,4.079100489616394043e-01,4.078551530838012695e-01,4.078047275543212891e-01,4.077737927436828613e-01,4.077542126178741455e-01,4.077743589878082275e-01,4.076808094978332520e-01,4.073000550270080566e-01,4.064660370349884033e-01,4.056245684623718262e-01,4.045381546020507812e-01,4.051895439624786377e-01,4.014939069747924805e-01,3.856286108493804932e-01,3.876392841339111328e-01,4.134601056575775146e-01,4.176818132400512695e-01,4.559913575649261475e-01,4.460406601428985596e-01
4.513979554176330566e-01,3.938293755054473877e-01,3.929930329322814941e-01,3.573032021522521973e-01,3.413693308830261230e-01,3.406604528427124023e-01,3.481063246726989746e-01,3.498268127441406250e-01,3.515216112136840820e-01,3.519425094127655029e-01,3.524591326713562012e-01,3.529216051101684570e-01,3.534054160118103027e-01,3.538405895233154297e-01,3.541260957717895508e-01,3.542235791683197021e-01,3.542932271957397461e-01,3.541633784770965576e-01,3.540133535861968994e-01,3.539698123931884766e-01,3.539070487022399902e-01,3.541878461837768555e-01,3.536187410354614258e-01,3.520425558090209961e-01,3.501659631729125977e-01,3.497287631034851074e-01,3.406891226768493652e-01,3.299629688262939453e-01,3.155178427696228027e-01,3.108588457107543945e-01,2.984872162342071533e-01,2.878133654594421387e-01,2.799578309059143066e-01,2.700198292732238770e-01,2.555738389492034912e-01,2.376037836074829102e-01,2.366514503955841064e-01,2.466724514961242676e-01,2.549320459365844727e-01,2.657733559608459473e-01,2.854560017585754395e-01,2.998427152633666992e-01,3.129523396492004395e-01,3.242964148521423340e-01,3.353899121284484863e-01,3.433245420455932617e-01,3.497284054756164551e-01,3.493698239326477051e-01,3.514712452888488770e-01,3.521212339401245117e-01,3.527173101902008057e-01,3.526611924171447754e-01,3.525464236736297607e-01,3.525478839874267578e-01,3.525104820728302002e-01,3.524689674377441406e-01,3.524279594421386719e-01,3.523870408535003662e-01,3.523459136486053467e-01,3.523048758506774902e-01,3.522640764713287354e-01,3.522232770919799805e-01,3.521801829338073730e-01,3.521514534950256348e-01,3.521123826503753662e-01,3.520569503307342529e-01,3.520606756210327148e-01,3.521048724651336670e-01,3.520541191101074219e-01,3.519762158393859863e-01,3.517172336578369141e-01,3.512610793113708496e-01,3.520971238613128662e-01,3.494683504104614258e-01,3.362818360328674316e-01,3.391505181789398193e-01,3.653019070625305176e-01,3.756675422191619873e-01,4.224297106266021729e-01,4.258101582527160645e-01
4.349689781665802002e-01,3.689462840557098389e-01,3.612770140171051025e-01,3.251677751541137695e-01,3.061323165893554688e-01,3.047584593296051025e-01,3.108640015125274658e-01,3.122492432594299316e-01,3.134078383445739746e-01,3.134204149246215820e-01,3.134026527404785156e-01,3.133939504623413086e-01,3.134717941284179688e-01,3.135593831539154053e-01,3.135910630226135254e-01,3.136042952537536621e-01,3.135626316070556641e-01,3.135133981704711914e-01,3.135300278663635254e-01,3.135135769844055176e-01,3.134228885173797607e-01,3.135509192943572998e-01,3.132747411727905273e-01,3.120285868644714355e-01,3.110042810440063477e-01,3.111188411712646484e-01,3.044921457767486572e-01,3.000122308731079102e-01,2.947961091995239258e-01,2.837914228439331055e-01,2.816708683967590332e-01,2.724837660789489746e-01,2.634651362895965576e-01,2.546875476837158203e-01,2.451282739639282227e-01,2.352917492389678955e-01,2.339466512203216553e-01,2.395515143871307373e-01,2.432518899440765381e-01,2.546646595001220703e-01,2.644863128662109375e-01,2.741532921791076660e-01,2.833270430564880371e-01,2.924715280532836914e-01,3.007410764694213867e-01,3.053243160247802734e-01,3.089334964752197266e-01,3.101096749305725098e-01,3.113471865653991699e-01,3.119859695434570312e-01,3.124059438705444336e-01,3.124311864376068115e-01,3.124685883522033691e-01,3.124487400054931641e-01,3.124177455902099609e-01,3.123879134654998779e-01,3.123579621315002441e-01,3.123281002044677734e-01,3.122984170913696289e-01,3.122684955596923828e-01,3.122388720512390137e-01,3.122091293334960938e-01,3.121796250343322754e-01,3.121479749679565430e-01,3.121172487735748291e-01,3.120872378349304199e-01,3.120466470718383789e-01,3.119951784610748291e-01,3.119701445102691650e-01,3.118535280227661133e-01,3.117175102233886719e-01,3.114990592002868652e-01,3.122417330741882324e-01,3.104141354560852051e-01,2.992229163646697998e-01,3.025811612606048584e-01,3.288124799728393555e-01,3.441822528839111328e-01,3.968201875686645508e-01,4.100977778434753418e-01
4.212131500244140625e-01,3.491305708885192871e-01,3.364093899726867676e-01,2.999948859214782715e-01,2.791714668273925781e-01,2.769953012466430664e-01,2.819477021694183350e-01,2.831134796142578125e-01,2.839966416358947754e-01,2.838860452175140381e-01,2.838473320007324219e-01,2.838451266288757324e-01,2.838272452354431152e-01,2.838104963302612305e-01,2.837949395179748535e-01,2.837572693824768066e-01,2.837177515029907227e-01,2.836884856224060059e-01,2.836630642414093018e-01,2.836224734783172607e-01,2.835628986358642578e-01,2.836494445800781250e-01,2.832699418067932129e-01,2.829938828945159912e-01,2.830297052860260010e-01,2.816268801689147949e-01,2.775292396545410156e-01,2.758536934852600098e-01,2.722939848899841309e-01,2.667661905288696289e-01,2.641792297363281250e-01,2.581906914710998535e-01,2.549164295196533203e-01,2.457883954048156738e-01,2.382903695106506348e-01,2.319549918174743652e-01,2.286577224731445312e-01,2.302701175212860107e-01,2.327394187450408936e-01,2.428780794143676758e-01,2.458604276180267334e-01,2.560137212276458740e-01,2.580979466438293457e-01,2.678974270820617676e-01,2.724628746509552002e-01,2.770711183547973633e-01,2.783612608909606934e-01,2.809107005596160889e-01,2.817321121692657471e-01,2.824176847934722900e-01,2.826004624366760254e-01,2.828677296638488770e-01,2.828964591026306152e-01,2.828809022903442383e-01,2.828616797924041748e-01,2.828395366668701172e-01,2.828177809715270996e-01,2.827962636947631836e-01,2.827748060226440430e-01,2.827531695365905762e-01,2.827314734458923340e-01,2.827101945877075195e-01,2.826882600784301758e-01,2.826672196388244629e-01,2.826454639434814453e-01,2.826204299926757812e-01,2.825971841812133789e-01,2.825875282287597656e-01,2.825784981250762939e-01,2.825774550437927246e-01,2.825582325458526611e-01,2.824492752552032471e-01,2.830896079540252686e-01,2.817790806293487549e-01,2.718554735183715820e-01,2.751306295394897461e-01,3.007336556911468506e-01,3.195572495460510254e-01,3.762930929660797119e-01,3.975756168365478516e-01
4.091762006282806396e-01,3.324918150901794434e-01,3.159793019294738770e-01,2.799503505229949951e-01,2.584236860275268555e-01,2.558325529098510742e-01,2.600268125534057617e-01,2.610194981098175049e-01,2.617926001548767090e-01,2.617071568965911865e-01,2.616667449474334717e-01,2.616442441940307617e-01,2.616244852542877197e-01,2.616088092327117920e-01,2.615921795368194580e-01,2.615748643875122070e-01,2.615587711334228516e-01,2.615433335304260254e-01,2.615260481834411621e-01,2.615088224411010742e-01,2.614649534225463867e-01,2.614758014678955078e-01,2.612639665603637695e-01,2.613360285758972168e-01,2.615945339202880859e-01,2.605940103530883789e-01,2.590327858924865723e-01,2.579736113548278809e-01,2.552796304225921631e-01,2.542286515235900879e-01,2.504251003265380859e-01,2.479355335235595703e-01,2.436538934707641602e-01,2.378216981887817383e-01,2.306174337863922119e-01,2.252718806266784668e-01,2.251665592193603516e-01,2.239644229412078857e-01,2.275206446647644043e-01,2.281491756439208984e-01,2.353446483612060547e-01,2.393108606338500977e-01,2.438516616821289062e-01,2.474946379661560059e-01,2.525391578674316406e-01,2.548577189445495605e-01,2.571213245391845703e-01,2.589736580848693848e-01,2.596068978309631348e-01,2.602939903736114502e-01,2.606975734233856201e-01,2.609069347381591797e-01,2.609412372112274170e-01,2.609447240829467773e-01,2.609302997589111328e-01,2.609140276908874512e-01,2.608977556228637695e-01,2.608810663223266602e-01,2.608646154403686523e-01,2.608482241630554199e-01,2.608318328857421875e-01,2.608154118061065674e-01,2.607989311218261719e-01,2.607822418212890625e-01,2.607654929161071777e-01,2.607487440109252930e-01,2.607313692569732666e-01,2.607158422470092773e-01,2.607005834579467773e-01,2.606852650642395020e-01,2.606692910194396973e-01,2.605912089347839355e-01,2.611092925071716309e-01,2.600633502006530762e-01,2.511659860610961914e-01,2.544439435005187988e-01,2.794550955295562744e-01,3.009908497333526611e-01,3.605802059173583984e-01,3.876302838325500488e-01
3.991101682186126709e-01,3.188919425010681152e-01,2.997274994850158691e-01,2.643880546092987061e-01,2.423049509525299072e-01,2.394174337387084961e-01,2.430776655673980713e-01,2.439681887626647949e-01,2.446593642234802246e-01,2.445958256721496582e-01,2.445632815361022949e-01,2.445482909679412842e-01,2.445337474346160889e-01,2.445198595523834229e-01,2.445049881935119629e-01,2.444908916950225830e-01,2.444769442081451416e-01,2.444636225700378418e-01,2.444499731063842773e-01,2.444355785846710205e-01,2.444074451923370361e-01,2.443758547306060791e-01,2.443701326847076416e-01,2.444078028202056885e-01,2.443627715110778809e-01,2.443216741085052490e-01,2.437525689601898193e-01,2.420473992824554443e-01,2.415188848972320557e-01,2.397346198558807373e-01,2.379401028156280518e-01,2.361279726028442383e-01,2.331355810165405273e-01,2.285508513450622559e-01,2.252505719661712646e-01,2.215169072151184082e-01,2.193887233734130859e-01,2.193489670753479004e-01,2.193830311298370361e-01,2.223467230796813965e-01,2.248200774192810059e-01,2.287253439426422119e-01,2.309104800224304199e-01,2.337753176689147949e-01,2.364978790283203125e-01,2.386820316314697266e-01,2.402953803539276123e-01,2.416264712810516357e-01,2.426644265651702881e-01,2.431429326534271240e-01,2.437869608402252197e-01,2.438728511333465576e-01,2.440018951892852783e-01,2.439915537834167480e-01,2.439828217029571533e-01,2.439700961112976074e-01,2.439576685428619385e-01,2.439445555210113525e-01,2.439318299293518066e-01,2.439188957214355469e-01,2.439058423042297363e-01,2.438929378986358643e-01,2.438803017139434814e-01,2.438674569129943848e-01,2.438541948795318604e-01,2.438409030437469482e-01,2.438277602195739746e-01,2.438141107559204102e-01,2.438011765480041504e-01,2.437881231307983398e-01,2.437750101089477539e-01,2.437111735343933105e-01,2.441354990005493164e-01,2.432999014854431152e-01,2.352209985256195068e-01,2.385327517986297607e-01,2.629296779632568359e-01,2.863641381263732910e-01,3.479772806167602539e-01,3.796802163124084473e-01
3.908089995384216309e-01,3.077785074710845947e-01,2.866277694702148438e-01,2.519681453704833984e-01,2.295321524143218994e-01,2.264048457145690918e-01,2.296708822250366211e-01,2.304606735706329346e-01,2.310823202133178711e-01,2.310278415679931641e-01,2.310008108615875244e-01,2.309899628162384033e-01,2.309793233871459961e-01,2.309691607952117920e-01,2.309585809707641602e-01,2.309485673904418945e-01,2.309379577636718750e-01,2.309274971485137939e-01,2.309169471263885498e-01,2.309067547321319580e-01,2.308892011642456055e-01,2.308532595634460449e-01,2.308467626571655273e-01,2.308814227581024170e-01,2.308203577995300293e-01,2.308590412139892578e-01,2.306845486164093018e-01,2.300239801406860352e-01,2.295933663845062256e-01,2.290908992290496826e-01,2.280766367912292480e-01,2.272279858589172363e-01,2.240405082702636719e-01,2.215838134288787842e-01,2.184804081916809082e-01,2.151062190532684326e-01,2.133575379848480225e-01,2.138028442859649658e-01,2.135103940963745117e-01,2.145519554615020752e-01,2.156271636486053467e-01,2.191894650459289551e-01,2.206322252750396729e-01,2.231240272521972656e-01,2.246429622173309326e-01,2.264929711818695068e-01,2.273878157138824463e-01,2.283035516738891602e-01,2.290636003017425537e-01,2.298974096775054932e-01,2.302516698837280273e-01,2.304681837558746338e-01,2.305286526679992676e-01,2.305553555488586426e-01,2.305429577827453613e-01,2.305321395397186279e-01,2.305212020874023438e-01,2.305109500885009766e-01,2.305005490779876709e-01,2.304903566837310791e-01,2.304798066616058350e-01,2.304695844650268555e-01,2.304591238498687744e-01,2.304486334323883057e-01,2.304384410381317139e-01,2.304279506206512451e-01,2.304177880287170410e-01,2.304072082042694092e-01,2.303968667984008789e-01,2.303865253925323486e-01,2.303757667541503906e-01,2.303225100040435791e-01,2.306779623031616211e-01,2.300020158290863037e-01,2.225870490074157715e-01,2.259103655815124512e-01,2.498050332069396973e-01,2.745890021324157715e-01,3.377246856689453125e-01,3.731966614723205566e-01
3.838102221488952637e-01,2.985776066780090332e-01,2.758292555809020996e-01,2.418446838855743408e-01,2.191896438598632812e-01,2.158570885658264160e-01,2.188125252723693848e-01,2.195140719413757324e-01,2.200801372528076172e-01,2.200326323509216309e-01,2.200095951557159424e-01,2.200009226799011230e-01,2.199922502040863037e-01,2.199838161468505859e-01,2.199750542640686035e-01,2.199666798114776611e-01,2.199581265449523926e-01,2.199495732784271240e-01,2.199409008026123047e-01,2.199348211288452148e-01,2.199227809906005859e-01,2.199116349220275879e-01,2.198971211910247803e-01,2.199296355247497559e-01,2.198413014411926270e-01,2.199886441230773926e-01,2.198301851749420166e-01,2.196831107139587402e-01,2.190927863121032715e-01,2.187795937061309814e-01,2.185119092464447021e-01,2.179488241672515869e-01,2.156514227390289307e-01,2.138967514038085938e-01,2.129075825214385986e-01,2.095068097114562988e-01,2.081505060195922852e-01,2.068811655044555664e-01,2.076593637466430664e-01,2.081654369831085205e-01,2.098732590675354004e-01,2.109293937683105469e-01,2.130148410797119141e-01,2.137041091918945312e-01,2.154269516468048096e-01,2.167356312274932861e-01,2.174120843410491943e-01,2.179517149925231934e-01,2.183900177478790283e-01,2.189333140850067139e-01,2.192902266979217529e-01,2.195836603641510010e-01,2.196399867534637451e-01,2.196424603462219238e-01,2.196344435214996338e-01,2.196255028247833252e-01,2.196168303489685059e-01,2.196081280708312988e-01,2.195996344089508057e-01,2.195912599563598633e-01,2.195827066898345947e-01,2.195741534233093262e-01,2.195656001567840576e-01,2.195571959018707275e-01,2.195487618446350098e-01,2.195401191711425781e-01,2.195318043231964111e-01,2.195232212543487549e-01,2.195147275924682617e-01,2.195062041282653809e-01,2.194971442222595215e-01,2.194519937038421631e-01,2.197571992874145508e-01,2.192083001136779785e-01,2.123391926288604736e-01,2.156681418418884277e-01,2.391520142555236816e-01,2.649224400520324707e-01,3.292248845100402832e-01,3.678048849105834961e-01
3.778370618820190430e-01,2.908438444137573242e-01,2.668065428733825684e-01,2.334581613540649414e-01,2.106578350067138672e-01,2.071481645107269287e-01,2.098518908023834229e-01,2.104754447937011719e-01,2.109929323196411133e-01,2.109511196613311768e-01,2.109307944774627686e-01,2.109238803386688232e-01,2.109168767929077148e-01,2.109096050262451172e-01,2.109023928642272949e-01,2.108954191207885742e-01,2.108882367610931396e-01,2.108810544013977051e-01,2.108738422393798828e-01,2.108675837516784668e-01,2.108605206012725830e-01,2.108452320098876953e-01,2.108597457408905029e-01,2.108145356178283691e-01,2.107862830162048340e-01,2.108315229415893555e-01,2.108461856842041016e-01,2.107792496681213379e-01,2.106234431266784668e-01,2.103367447853088379e-01,2.106316387653350830e-01,2.098390460014343262e-01,2.087205946445465088e-01,2.077959477901458740e-01,2.060874998569488525e-01,2.049481868743896484e-01,2.032233178615570068e-01,2.025553286075592041e-01,2.022998631000518799e-01,2.030923366546630859e-01,2.031547427177429199e-01,2.044754624366760254e-01,2.057092785835266113e-01,2.065292894840240479e-01,2.076855897903442383e-01,2.088115513324737549e-01,2.094652056694030762e-01,2.095436155796051025e-01,2.098766565322875977e-01,2.102372050285339355e-01,2.103535532951354980e-01,2.105205059051513672e-01,2.106036841869354248e-01,2.106302976608276367e-01,2.106193602085113525e-01,2.106107473373413086e-01,2.106038033962249756e-01,2.105967104434967041e-01,2.105897367000579834e-01,2.105824351310729980e-01,2.105754017829895020e-01,2.105683982372283936e-01,2.105611562728881836e-01,2.105540335178375244e-01,2.105471193790435791e-01,2.105399072170257568e-01,2.105329334735870361e-01,2.105259001255035400e-01,2.105186581611633301e-01,2.105117440223693848e-01,2.105039656162261963e-01,2.104651629924774170e-01,2.107312381267547607e-01,2.102842032909393311e-01,2.038689255714416504e-01,2.071986794471740723e-01,2.303338646888732910e-01,2.568469047546386719e-01,3.220581114292144775e-01,3.632428646087646484e-01
3.726799786090850830e-01,2.842506468296051025e-01,2.591613233089447021e-01,2.263987660408020020e-01,2.035065293312072754e-01,1.998416781425476074e-01,2.023389935493469238e-01,2.028940021991729736e-01,2.033700942993164062e-01,2.033329010009765625e-01,2.033151686191558838e-01,2.033091485500335693e-01,2.033031582832336426e-01,2.032972872257232666e-01,2.032911479473114014e-01,2.032851278781890869e-01,2.032791674137115479e-01,2.032730579376220703e-01,2.032670080661773682e-01,2.032615244388580322e-01,2.032550871372222900e-01,2.032500505447387695e-01,2.032392919063568115e-01,2.032423019409179688e-01,2.032208740711212158e-01,2.032026052474975586e-01,2.032566964626312256e-01,2.032654285430908203e-01,2.030480802059173584e-01,2.031760513782501221e-01,2.030015289783477783e-01,2.027640342712402344e-01,2.024596035480499268e-01,2.014499902725219727e-01,2.006252110004425049e-01,1.996920108795166016e-01,1.986887753009796143e-01,1.980671882629394531e-01,1.977269649505615234e-01,1.978850364685058594e-01,1.979128718376159668e-01,1.988068819046020508e-01,1.995563507080078125e-01,2.004794478416442871e-01,2.009869515895843506e-01,2.017979025840759277e-01,2.022950053215026855e-01,2.025643885135650635e-01,2.027703225612640381e-01,2.028706073760986328e-01,2.030411958694458008e-01,2.030059695243835449e-01,2.030279636383056641e-01,2.030524313449859619e-01,2.030512690544128418e-01,2.030447423458099365e-01,2.030386924743652344e-01,2.030327022075653076e-01,2.030267715454101562e-01,2.030207216739654541e-01,2.030147612094879150e-01,2.030088603496551514e-01,2.030026316642761230e-01,2.029967606067657471e-01,2.029907107353210449e-01,2.029848992824554443e-01,2.029788196086883545e-01,2.029729485511779785e-01,2.029669284820556641e-01,2.029609382152557373e-01,2.029540240764617920e-01,2.029203474521636963e-01,2.031558752059936523e-01,2.027915418148040771e-01,1.967577934265136719e-01,2.000859379768371582e-01,2.229196727275848389e-01,2.500022053718566895e-01,3.159317970275878906e-01,3.593313694000244141e-01
