6.295638680458068848e-01,6.181969046592712402e-01,6.701834201812744141e-01,6.733883619308471680e-01,6.755904555320739746e-01,6.647138595581054688e-01,6.812955141067504883e-01,6.908851861953735352e-01,7.006902694702148438e-01,7.083126306533813477e-01,7.184648513793945312e-01,7.281659841537475586e-01,7.369238734245300293e-01,7.459613680839538574e-01,7.535147666931152344e-01,7.600322365760803223e-01,7.644876837730407715e-01,7.677886486053466797e-01,7.691507935523986816e-01,7.708712220191955566e-01,7.706766724586486816e-01,7.689485549926757812e-01,7.655787467956542969e-01,7.484425306320190430e-01,7.437741160392761230e-01,7.284762859344482422e-01,7.088141441345214844e-01,6.468772888183593750e-01,6.298114657402038574e-01,6.009026169776916504e-01,5.632632970809936523e-01,5.678349137306213379e-01,5.357326865196228027e-01,5.292975902557373047e-01,5.050734281539916992e-01,4.992513656616210938e-01,4.988184273242950439e-01,4.991956055164337158e-01,4.966770410537719727e-01,4.975593388080596924e-01,4.965691566467285156e-01,4.983018338680267334e-01,4.953047633171081543e-01,4.961287677288055420e-01,5.009648203849792480e-01,5.020009279251098633e-01,5.088508129119873047e-01,5.100598931312561035e-01,5.211213827133178711e-01,5.251296162605285645e-01,5.545598268508911133e-01,5.611261725425720215e-01,5.951673984527587891e-01,6.354858875274658203e-01,6.650512218475341797e-01,6.954653263092041016e-01,7.025295495986938477e-01,7.254557609558105469e-01,7.405753135681152344e-01,7.519496679306030273e-01,7.578960657119750977e-01,7.635808587074279785e-01,7.671421170234680176e-01,7.692451477050781250e-01,7.705093622207641602e-01,7.713539004325866699e-01,7.708559036254882812e-01,7.697116136550903320e-01,7.674410939216613770e-01,7.658507823944091797e-01,7.627152204513549805e-01,7.593696117401123047e-01,7.524650692939758301e-01,7.413831949234008789e-01,7.331048846244812012e-01,7.123333215713500977e-01,7.105885744094848633e-01,7.511600255966186523e-01,6.802622675895690918e-01,5.325540304183959961e-01
5.834192633628845215e-01,5.977117419242858887e-01,6.267973184585571289e-01,6.188309192657470703e-01,6.430788636207580566e-01,6.537679433822631836e-01,6.840234994888305664e-01,7.024571895599365234e-01,7.179769873619079590e-01,7.333846092224121094e-01,7.466450929641723633e-01,7.608957886695861816e-01,7.762606143951416016e-01,7.892303466796875000e-01,8.010275363922119141e-01,8.107916116714477539e-01,8.175226449966430664e-01,8.214477300643920898e-01,8.254273533821105957e-01,8.277652263641357422e-01,8.289042711257934570e-01,8.254494667053222656e-01,8.178749084472656250e-01,7.988996505737304688e-01,7.888438701629638672e-01,7.585483193397521973e-01,7.229093909263610840e-01,6.449179053306579590e-01,5.783470869064331055e-01,5.583046078681945801e-01,4.951219558715820312e-01,4.681819081306457520e-01,4.131200313568115234e-01,3.690658211708068848e-01,3.407105803489685059e-01,3.374361693859100342e-01,3.309095501899719238e-01,3.236715197563171387e-01,3.207234740257263184e-01,3.213618397712707520e-01,3.217614889144897461e-01,3.229679465293884277e-01,3.225676119327545166e-01,3.257103264331817627e-01,3.291440606117248535e-01,3.275372982025146484e-01,3.301294445991516113e-01,3.408682346343994141e-01,3.646994829177856445e-01,3.801686167716979980e-01,4.348723888397216797e-01,4.693192541599273682e-01,5.130434036254882812e-01,5.876419544219970703e-01,6.407551765441894531e-01,6.773173213005065918e-01,7.175035476684570312e-01,7.544890642166137695e-01,7.784648537635803223e-01,7.950451374053955078e-01,8.124718666076660156e-01,8.139801621437072754e-01,8.188773393630981445e-01,8.243857622146606445e-01,8.273541331291198730e-01,8.277966976165771484e-01,8.277807235717773438e-01,8.262749910354614258e-01,8.234538435935974121e-01,8.194884061813354492e-01,8.142839670181274414e-01,8.065875768661499023e-01,7.968062758445739746e-01,7.857726812362670898e-01,7.639330029487609863e-01,7.404703497886657715e-01,7.343436479568481445e-01,7.291057109832763672e-01,6.447815299034118652e-01,5.760384798049926758e-01
5.795707702636718750e-01,5.982292294502258301e-01,6.480364799499511719e-01,6.185650229454040527e-01,6.515643596649169922e-01,6.743726730346679688e-01,7.075771093368530273e-01,7.301665544509887695e-01,7.501372694969177246e-01,7.685762643814086914e-01,7.867049574851989746e-01,8.029257059097290039e-01,8.189266920089721680e-01,8.341146111488342285e-01,8.459057807922363281e-01,8.549930453300476074e-01,8.612017631530761719e-01,8.666665554046630859e-01,8.694970607757568359e-01,8.714756965637207031e-01,8.721249103546142578e-01,8.706848621368408203e-01,8.610711097717285156e-01,8.498789668083190918e-01,8.377313613891601562e-01,8.086008429527282715e-01,7.556920647621154785e-01,6.764529943466186523e-01,5.898517966270446777e-01,5.299286842346191406e-01,4.861276745796203613e-01,4.292503893375396729e-01,3.531621694564819336e-01,2.912488579750061035e-01,2.876783609390258789e-01,2.690703272819519043e-01,2.569116353988647461e-01,2.448877990245819092e-01,2.422751486301422119e-01,2.404631078243255615e-01,2.429009079933166504e-01,2.412657141685485840e-01,2.436356842517852783e-01,2.436074316501617432e-01,2.486625313758850098e-01,2.490895390510559082e-01,2.542288899421691895e-01,2.658210992813110352e-01,2.791381478309631348e-01,3.135501742362976074e-01,3.541612923145294189e-01,4.025581777095794678e-01,4.703526496887207031e-01,5.545368194580078125e-01,6.414529681205749512e-01,7.027710676193237305e-01,7.571225166320800781e-01,7.904337644577026367e-01,8.163605928421020508e-01,8.357402086257934570e-01,8.524067401885986328e-01,8.601260185241699219e-01,8.655605316162109375e-01,8.687452077865600586e-01,8.717586398124694824e-01,8.722146153450012207e-01,8.712862730026245117e-01,8.697012066841125488e-01,8.668250441551208496e-01,8.627892732620239258e-01,8.571742177009582520e-01,8.482542037963867188e-01,8.390155434608459473e-01,8.248650431632995605e-01,7.997827529907226562e-01,7.775134444236755371e-01,7.644885778427124023e-01,7.502378225326538086e-01,6.781904697418212891e-01,5.986075401306152344e-01
5.916159152984619141e-01,6.112035512924194336e-01,6.348645091056823730e-01,6.225456595420837402e-01,6.499810814857482910e-01,6.736624240875244141e-01,7.128714323043823242e-01,7.344694137573242188e-01,7.552273273468017578e-01,7.754626274108886719e-01,7.932413816452026367e-01,8.102244138717651367e-01,8.250710964202880859e-01,8.410224914550781250e-01,8.532793521881103516e-01,8.619816899299621582e-01,8.695371747016906738e-01,8.739531636238098145e-01,8.776314258575439453e-01,8.801938295364379883e-01,8.816795349121093750e-01,8.780692219734191895e-01,8.727066516876220703e-01,8.625062108039855957e-01,8.535248041152954102e-01,8.316113948822021484e-01,7.733184099197387695e-01,7.067265510559082031e-01,6.109634041786193848e-01,5.841395258903503418e-01,4.991395473480224609e-01,4.423328340053558350e-01,3.486687541007995605e-01,2.979863882064819336e-01,2.693825960159301758e-01,2.401786148548126221e-01,2.252816259860992432e-01,2.148456871509552002e-01,2.138538956642150879e-01,2.094596028327941895e-01,2.088886201381683350e-01,2.110398709774017334e-01,2.122391760349273682e-01,2.149798870086669922e-01,2.204365730285644531e-01,2.160714268684387207e-01,2.278010845184326172e-01,2.303922474384307861e-01,2.489441037178039551e-01,2.829169034957885742e-01,3.028772175312042236e-01,3.678416311740875244e-01,4.544870257377624512e-01,5.324193239212036133e-01,6.245147585868835449e-01,7.089414596557617188e-01,7.526986598968505859e-01,7.796024680137634277e-01,8.234205842018127441e-01,8.443107604980468750e-01,8.570418357849121094e-01,8.679176568984985352e-01,8.718029260635375977e-01,8.751690983772277832e-01,8.779525160789489746e-01,8.795009851455688477e-01,8.790658712387084961e-01,8.776024580001831055e-01,8.748633861541748047e-01,8.710669279098510742e-01,8.653653860092163086e-01,8.571623563766479492e-01,8.473464846611022949e-01,8.312669992446899414e-01,8.018107414245605469e-01,7.747764587402343750e-01,7.662650346755981445e-01,7.446732521057128906e-01,6.770635843276977539e-01,5.831767320632934570e-01
5.760114192962646484e-01,5.908910036087036133e-01,6.343266367912292480e-01,6.279871463775634766e-01,6.464079022407531738e-01,6.690392494201660156e-01,7.076374888420104980e-01,7.304220199584960938e-01,7.530211210250854492e-01,7.734239697456359863e-01,7.937986850738525391e-01,8.119139671325683594e-01,8.288817405700683594e-01,8.426452875137329102e-01,8.561214208602905273e-01,8.659186363220214844e-01,8.727938532829284668e-01,8.775997757911682129e-01,8.806731700897216797e-01,8.839100599288940430e-01,8.859187364578247070e-01,8.826732635498046875e-01,8.802982568740844727e-01,8.783357143402099609e-01,8.615014553070068359e-01,8.450884222984313965e-01,8.024734258651733398e-01,7.428973317146301270e-01,6.665213108062744141e-01,6.123423576354980469e-01,5.279192924499511719e-01,4.684794843196868896e-01,3.488890528678894043e-01,2.985512316226959229e-01,2.526918649673461914e-01,2.207885086536407471e-01,2.071557343006134033e-01,1.959648132324218750e-01,1.873845756053924561e-01,1.843523681163787842e-01,1.851531863212585449e-01,1.856377422809600830e-01,1.875824332237243652e-01,1.969284117221832275e-01,2.001115381717681885e-01,1.998642981052398682e-01,1.950182020664215088e-01,2.017546594142913818e-01,2.112239897251129150e-01,2.532145977020263672e-01,2.709994912147521973e-01,3.270260691642761230e-01,4.109924435615539551e-01,5.062884688377380371e-01,5.950078964233398438e-01,6.774758696556091309e-01,7.406589984893798828e-01,7.801144123077392578e-01,8.160208463668823242e-01,8.381758928298950195e-01,8.540816307067871094e-01,8.702912926673889160e-01,8.753471374511718750e-01,8.789423704147338867e-01,8.819662928581237793e-01,8.832479119300842285e-01,8.823493719100952148e-01,8.807569742202758789e-01,8.779760003089904785e-01,8.742858767509460449e-01,8.680028319358825684e-01,8.588923811912536621e-01,8.470168113708496094e-01,8.326971530914306641e-01,7.982672452926635742e-01,7.725335359573364258e-01,7.661807537078857422e-01,7.430036664009094238e-01,6.941750049591064453e-01,5.934028029441833496e-01
5.856297016143798828e-01,6.095356941223144531e-01,6.510728001594543457e-01,6.518881916999816895e-01,6.743705272674560547e-01,6.974397897720336914e-01,7.324497103691101074e-01,7.537963390350341797e-01,7.752498388290405273e-01,7.940116524696350098e-01,8.125064969062805176e-01,8.297317624092102051e-01,8.440533280372619629e-01,8.575366139411926270e-01,8.687930703163146973e-01,8.789942264556884766e-01,8.860359191894531250e-01,8.904854059219360352e-01,8.932578563690185547e-01,8.956164717674255371e-01,8.973175287246704102e-01,8.957660198211669922e-01,8.915832638740539551e-01,8.931041359901428223e-01,8.830864429473876953e-01,8.772253394126892090e-01,8.528926968574523926e-01,7.976905703544616699e-01,7.498229742050170898e-01,7.050891518592834473e-01,6.374762058258056641e-01,5.397785305976867676e-01,4.406803846359252930e-01,3.418805599212646484e-01,2.944471836090087891e-01,2.460885643959045410e-01,2.401126325130462646e-01,2.139497995376586914e-01,2.035195529460906982e-01,2.012145817279815674e-01,2.057063281536102295e-01,1.982418000698089600e-01,2.052846550941467285e-01,2.259127795696258545e-01,2.232610285282135010e-01,2.166182994842529297e-01,2.103664278984069824e-01,2.227181792259216309e-01,2.231076061725616455e-01,2.496878802776336670e-01,2.951884865760803223e-01,3.328018188476562500e-01,3.986490964889526367e-01,4.965292513370513916e-01,5.909684300422668457e-01,6.862212419509887695e-01,7.537158727645874023e-01,7.931224107742309570e-01,8.196873664855957031e-01,8.475689888000488281e-01,8.665831685066223145e-01,8.774218559265136719e-01,8.868681192398071289e-01,8.899351358413696289e-01,8.922425508499145508e-01,8.941332101821899414e-01,8.940618038177490234e-01,8.928204178810119629e-01,8.911955356597900391e-01,8.871703147888183594e-01,8.810285329818725586e-01,8.720021247863769531e-01,8.622933626174926758e-01,8.480050563812255859e-01,8.182221651077270508e-01,7.959226369857788086e-01,7.857853770256042480e-01,7.580417394638061523e-01,7.063691616058349609e-01,6.076307892799377441e-01
5.862392187118530273e-01,6.089730858802795410e-01,6.536810994148254395e-01,6.547669172286987305e-01,6.780852079391479492e-01,7.019348740577697754e-01,7.384451031684875488e-01,7.597767114639282227e-01,7.806837558746337891e-01,7.996267080307006836e-01,8.179723024368286133e-01,8.352566957473754883e-01,8.500534296035766602e-01,8.631911277770996094e-01,8.749901056289672852e-01,8.844105005264282227e-01,8.914954662322998047e-01,8.961747884750366211e-01,8.992426395416259766e-01,9.014121890068054199e-01,9.025375843048095703e-01,9.023017287254333496e-01,9.022517204284667969e-01,9.019371271133422852e-01,8.961093425750732422e-01,8.895184993743896484e-01,8.763149976730346680e-01,8.473124504089355469e-01,7.995924949645996094e-01,7.781915664672851562e-01,6.852771639823913574e-01,6.032804846763610840e-01,4.905545115470886230e-01,3.835897743701934814e-01,3.186529874801635742e-01,2.795915007591247559e-01,2.570837736129760742e-01,2.217856943607330322e-01,2.080329060554504395e-01,2.097696959972381592e-01,2.111560106277465820e-01,2.006447613239288330e-01,2.184533774852752686e-01,2.326276302337646484e-01,2.378091514110565186e-01,2.278570532798767090e-01,2.271589934825897217e-01,2.219172120094299316e-01,2.305262684822082520e-01,2.446199655532836914e-01,2.869233489036560059e-01,3.075492382049560547e-01,3.757645785808563232e-01,4.713954329490661621e-01,5.728142261505126953e-01,6.602212190628051758e-01,7.423626184463500977e-01,7.880052328109741211e-01,8.109037876129150391e-01,8.449100255966186523e-01,8.664389848709106445e-01,8.783112764358520508e-01,8.917003870010375977e-01,8.945068120956420898e-01,8.970304727554321289e-01,8.998710513114929199e-01,8.993223905563354492e-01,8.989654779434204102e-01,8.970097303390502930e-01,8.931789994239807129e-01,8.870193958282470703e-01,8.788341879844665527e-01,8.685339689254760742e-01,8.554196357727050781e-01,8.276174068450927734e-01,8.058040738105773926e-01,7.977369427680969238e-01,7.731627225875854492e-01,7.197232842445373535e-01,6.134541034698486328e-01
5.892095565795898438e-01,6.141226291656494141e-01,6.574178338050842285e-01,6.579473018646240234e-01,6.818156838417053223e-01,7.059271335601806641e-01,7.424410581588745117e-01,7.638158798217773438e-01,7.844163179397583008e-01,8.029778003692626953e-01,8.210772275924682617e-01,8.377197980880737305e-01,8.528635501861572266e-01,8.658939003944396973e-01,8.772039413452148438e-01,8.867897987365722656e-01,8.938256502151489258e-01,8.984348773956298828e-01,9.015923738479614258e-01,9.036117792129516602e-01,9.052118062973022461e-01,9.046695232391357422e-01,9.063457250595092773e-01,9.069224596023559570e-01,9.016373157501220703e-01,8.979668617248535156e-01,8.900908231735229492e-01,8.728686571121215820e-01,8.373787403106689453e-01,8.035708665847778320e-01,7.421650886535644531e-01,6.760557889938354492e-01,5.453617572784423828e-01,4.320110082626342773e-01,3.464002013206481934e-01,3.000321984291076660e-01,2.569345831871032715e-01,2.334535717964172363e-01,2.152341604232788086e-01,2.189786136150360107e-01,2.148058414459228516e-01,2.196991741657257080e-01,2.257120013236999512e-01,2.573127448558807373e-01,2.636893391609191895e-01,2.582267224788665771e-01,2.390272617340087891e-01,2.283639311790466309e-01,2.378495633602142334e-01,2.461357712745666504e-01,2.746598124504089355e-01,3.075045943260192871e-01,3.474979996681213379e-01,4.449647068977355957e-01,5.370718836784362793e-01,6.236146092414855957e-01,7.201902866363525391e-01,7.775595784187316895e-01,8.048602938652038574e-01,8.322780132293701172e-01,8.611963987350463867e-01,8.760673999786376953e-01,8.897570371627807617e-01,8.964920043945312500e-01,8.991924524307250977e-01,9.001853466033935547e-01,9.018020629882812500e-01,9.014427661895751953e-01,8.993871212005615234e-01,8.956470489501953125e-01,8.895936012268066406e-01,8.807371854782104492e-01,8.713225126266479492e-01,8.590140938758850098e-01,8.305058479309082031e-01,8.089753389358520508e-01,8.007261753082275391e-01,7.750686407089233398e-01,7.215875387191772461e-01,6.156164407730102539e-01
5.887284278869628906e-01,6.143675446510314941e-01,6.568021178245544434e-01,6.576670408248901367e-01,6.813184618949890137e-01,7.055907249450683594e-01,7.419087886810302734e-01,7.633278369903564453e-01,7.840614318847656250e-01,8.025956153869628906e-01,8.203091621398925781e-01,8.370764255523681641e-01,8.520727157592773438e-01,8.652586936950683594e-01,8.767315149307250977e-01,8.862708806991577148e-01,8.932356238365173340e-01,8.979337215423583984e-01,9.011058807373046875e-01,9.031083583831787109e-01,9.048097133636474609e-01,9.055538773536682129e-01,9.058839082717895508e-01,9.066770076751708984e-01,9.060406684875488281e-01,8.995786309242248535e-01,8.953495025634765625e-01,8.775770664215087891e-01,8.713617324829101562e-01,8.303186297416687012e-01,7.929126024246215820e-01,6.981291770935058594e-01,6.034752726554870605e-01,4.460477530956268311e-01,3.672488331794738770e-01,3.100018501281738281e-01,2.597877085208892822e-01,2.389270961284637451e-01,2.270273864269256592e-01,2.273804247379302979e-01,2.192296087741851807e-01,2.376687526702880859e-01,2.385733127593994141e-01,2.887942790985107422e-01,2.861205339431762695e-01,2.865599095821380615e-01,2.625735104084014893e-01,2.486589848995208740e-01,2.514032721519470215e-01,2.531384825706481934e-01,2.640501260757446289e-01,2.992266416549682617e-01,3.419381976127624512e-01,4.083202779293060303e-01,4.937709271907806396e-01,5.936071872711181641e-01,6.846908926963806152e-01,7.699636220932006836e-01,7.963687777519226074e-01,8.251261711120605469e-01,8.522350788116455078e-01,8.732386827468872070e-01,8.846473693847656250e-01,8.935788869857788086e-01,8.977447748184204102e-01,8.990337252616882324e-01,9.009015560150146484e-01,9.005807638168334961e-01,8.987510204315185547e-01,8.951523303985595703e-01,8.887347579002380371e-01,8.801117539405822754e-01,8.711223602294921875e-01,8.580747842788696289e-01,8.291817903518676758e-01,8.083099126815795898e-01,8.007296323776245117e-01,7.745518088340759277e-01,7.219337224960327148e-01,6.160197854042053223e-01
5.887539982795715332e-01,6.143568158149719238e-01,6.569762229919433594e-01,6.578229665756225586e-01,6.813728809356689453e-01,7.056005001068115234e-01,7.419764995574951172e-01,7.633665800094604492e-01,7.841258049011230469e-01,8.027318120002746582e-01,8.204546570777893066e-01,8.368875980377197266e-01,8.519616127014160156e-01,8.652219772338867188e-01,8.766925334930419922e-01,8.861924409866333008e-01,8.931940793991088867e-01,8.978383541107177734e-01,9.010716676712036133e-01,9.030909538269042969e-01,9.043604135513305664e-01,9.058827757835388184e-01,9.057583808898925781e-01,9.065316915512084961e-01,9.068999290466308594e-01,9.048917293548583984e-01,8.977959156036376953e-01,8.920865058898925781e-01,8.799577951431274414e-01,8.469022512435913086e-01,8.136902451515197754e-01,7.546772956848144531e-01,6.320192217826843262e-01,4.922229945659637451e-01,3.864127397537231445e-01,3.182879686355590820e-01,2.655942142009735107e-01,2.563791573047637939e-01,2.372703552246093750e-01,2.319369912147521973e-01,2.266688942909240723e-01,2.570910155773162842e-01,2.821349799633026123e-01,3.045309185981750488e-01,3.225995302200317383e-01,3.204543590545654297e-01,2.895093560218811035e-01,2.700677216053009033e-01,2.570164203643798828e-01,2.667225599288940430e-01,2.683283984661102295e-01,2.948282361030578613e-01,3.236226141452789307e-01,3.770316243171691895e-01,4.773380160331726074e-01,5.699748992919921875e-01,6.544456481933593750e-01,7.392082810401916504e-01,7.905573248863220215e-01,8.124576807022094727e-01,8.411405086517333984e-01,8.661954402923583984e-01,8.793900609016418457e-01,8.921336531639099121e-01,8.975502252578735352e-01,8.988380432128906250e-01,9.009724855422973633e-01,9.003516435623168945e-01,8.986004590988159180e-01,8.949447274208068848e-01,8.885986804962158203e-01,8.802744150161743164e-01,8.708707094192504883e-01,8.577356934547424316e-01,8.292505741119384766e-01,8.083425760269165039e-01,8.006033897399902344e-01,7.745660543441772461e-01,7.219273447990417480e-01,6.160463690757751465e-01
5.887333154678344727e-01,6.143203377723693848e-01,6.569511890411376953e-01,6.577843427658081055e-01,6.813440322875976562e-01,7.055729627609252930e-01,7.419352531433105469e-01,7.633394002914428711e-01,7.841016054153442383e-01,8.027133941650390625e-01,8.204681277275085449e-01,8.369163274765014648e-01,8.518261313438415527e-01,8.651652336120605469e-01,8.767176270484924316e-01,8.861410617828369141e-01,8.931359052658081055e-01,8.978182673454284668e-01,9.010389447212219238e-01,9.031503200531005859e-01,9.043726921081542969e-01,9.052494764328002930e-01,9.060587882995605469e-01,9.058803319931030273e-01,9.061323404312133789e-01,9.050302505493164062e-01,9.004250764846801758e-01,8.995178937911987305e-01,8.898287415504455566e-01,8.611550927162170410e-01,8.384398221969604492e-01,7.742320895195007324e-01,6.686834692955017090e-01,5.330986976623535156e-01,4.021726548671722412e-01,3.280802369117736816e-01,2.804764509201049805e-01,2.719776630401611328e-01,2.440653443336486816e-01,2.421790361404418945e-01,2.419495284557342529e-01,2.647493481636047363e-01,3.042855858802795410e-01,3.281676471233367920e-01,3.583272099494934082e-01,3.458802700042724609e-01,3.172654807567596436e-01,2.997248768806457520e-01,2.886655330657958984e-01,2.773920297622680664e-01,2.744749188423156738e-01,2.915332615375518799e-01,3.182632625102996826e-01,3.561940491199493408e-01,4.513086676597595215e-01,5.277399420738220215e-01,6.365666389465332031e-01,7.099852561950683594e-01,7.788331508636474609e-01,8.045952320098876953e-01,8.370512127876281738e-01,8.601671457290649414e-01,8.779048919677734375e-01,8.882273435592651367e-01,8.953188657760620117e-01,8.991512060165405273e-01,8.995385169982910156e-01,8.997545242309570312e-01,8.984940648078918457e-01,8.948577642440795898e-01,8.886436223983764648e-01,8.801630735397338867e-01,8.707137107849121094e-01,8.578208684921264648e-01,8.292642235755920410e-01,8.081715106964111328e-01,8.005601167678833008e-01,7.745699286460876465e-01,7.219661474227905273e-01,6.160008311271667480e-01
5.887265205383300781e-01,6.143092513084411621e-01,6.569384932518005371e-01,6.577696800231933594e-01,6.813275218009948730e-01,7.055546045303344727e-01,7.419210672378540039e-01,7.633187770843505859e-01,7.840826511383056641e-01,8.027044534683227539e-01,8.204588890075683594e-01,8.369143009185791016e-01,8.518291711807250977e-01,8.651092648506164551e-01,8.767033815383911133e-01,8.861721754074096680e-01,8.931173086166381836e-01,8.978030085563659668e-01,9.010525345802307129e-01,9.031061530113220215e-01,9.044363498687744141e-01,9.049469232559204102e-01,9.053281545639038086e-01,9.057146310806274414e-01,9.064449071884155273e-01,9.063970446586608887e-01,9.051893949508666992e-01,9.029735922813415527e-01,8.950425386428833008e-01,8.704892396926879883e-01,8.462689518928527832e-01,7.840840816497802734e-01,7.114133238792419434e-01,5.744206309318542480e-01,4.313515424728393555e-01,3.516071438789367676e-01,2.967951595783233643e-01,2.653238177299499512e-01,2.577534317970275879e-01,2.558525800704956055e-01,2.494023740291595459e-01,2.744917869567871094e-01,3.191539645195007324e-01,3.929191827774047852e-01,3.825477063655853271e-01,3.727972805500030518e-01,3.583850264549255371e-01,3.199334144592285156e-01,3.074563145637512207e-01,2.896201014518737793e-01,2.887889146804809570e-01,2.915519475936889648e-01,3.209685981273651123e-01,3.476333320140838623e-01,3.995852768421173096e-01,5.155009031295776367e-01,6.184117197990417480e-01,6.964175105094909668e-01,7.601245045661926270e-01,8.034545183181762695e-01,8.289859294891357422e-01,8.516206741333007812e-01,8.777825236320495605e-01,8.872251510620117188e-01,8.948686122894287109e-01,8.994465470314025879e-01,9.002333879470825195e-01,9.001611471176147461e-01,8.987036943435668945e-01,8.949102163314819336e-01,8.886336088180541992e-01,8.801267147064208984e-01,8.707844018936157227e-01,8.578400015830993652e-01,8.292008042335510254e-01,8.081816434860229492e-01,8.005880713462829590e-01,7.745960354804992676e-01,7.219746112823486328e-01,6.160122156143188477e-01
5.887194871902465820e-01,6.142981648445129395e-01,6.569255590438842773e-01,6.577549576759338379e-01,6.813115477561950684e-01,7.055380344390869141e-01,7.419036626815795898e-01,7.633038759231567383e-01,7.840659618377685547e-01,8.026871681213378906e-01,8.204488754272460938e-01,8.369044065475463867e-01,8.518208265304565430e-01,8.651016950607299805e-01,8.766874670982360840e-01,8.861627578735351562e-01,8.931200504302978516e-01,8.978012800216674805e-01,9.010519981384277344e-01,9.031503796577453613e-01,9.043036699295043945e-01,9.050437211990356445e-01,9.051141738891601562e-01,9.052696228027343750e-01,9.052546620368957520e-01,9.065408706665039062e-01,9.067549705505371094e-01,9.040610194206237793e-01,8.973155617713928223e-01,8.862956762313842773e-01,8.541170358657836914e-01,8.125057220458984375e-01,7.295204997062683105e-01,6.188750267028808594e-01,4.685626327991485596e-01,3.640757799148559570e-01,3.093791604042053223e-01,2.745519876480102539e-01,2.685574293136596680e-01,2.633309960365295410e-01,2.682895660400390625e-01,2.859661281108856201e-01,3.335706889629364014e-01,4.138752818107604980e-01,4.226379990577697754e-01,4.146724343299865723e-01,3.626030087471008301e-01,3.466097414493560791e-01,3.390288352966308594e-01,3.121149539947509766e-01,2.928054928779602051e-01,2.869617938995361328e-01,3.244328498840332031e-01,3.361572623252868652e-01,3.905440866947174072e-01,5.056256651878356934e-01,6.060765981674194336e-01,6.938489675521850586e-01,7.491171360015869141e-01,8.025345802307128906e-01,8.281437158584594727e-01,8.577423095703125000e-01,8.766634464263916016e-01,8.871088624000549316e-01,8.942558765411376953e-01,8.993871808052062988e-01,8.996506929397583008e-01,9.003069400787353516e-01,8.988310098648071289e-01,8.949196338653564453e-01,8.886368274688720703e-01,8.801590204238891602e-01,8.707957267761230469e-01,8.578337430953979492e-01,8.292200565338134766e-01,8.082029819488525391e-01,8.006036877632141113e-01,7.746111154556274414e-01,7.219885587692260742e-01,6.160229444503784180e-01
5.887126326560974121e-01,6.142868995666503906e-01,6.569126248359680176e-01,6.577401161193847656e-01,6.812952756881713867e-01,7.055214643478393555e-01,7.418869733810424805e-01,7.632874250411987305e-01,7.840505838394165039e-01,8.026720285415649414e-01,8.204346895217895508e-01,8.368927240371704102e-01,8.518095016479492188e-01,8.650918602943420410e-01,8.766790032386779785e-01,8.861560821533203125e-01,8.931143283843994141e-01,8.977972269058227539e-01,9.010505676269531250e-01,9.031536579132080078e-01,9.043586254119873047e-01,9.050025343894958496e-01,9.052152633666992188e-01,9.053211212158203125e-01,9.053071737289428711e-01,9.060541987419128418e-01,9.068533182144165039e-01,9.034672975540161133e-01,8.983204364776611328e-01,8.861538171768188477e-01,8.599253892898559570e-01,8.251513242721557617e-01,7.705783843994140625e-01,6.474322080612182617e-01,4.910941123962402344e-01,3.787150382995605469e-01,3.159964978694915771e-01,2.850188910961151123e-01,2.813028097152709961e-01,2.729114890098571777e-01,2.746377289295196533e-01,2.954292297363281250e-01,3.365637063980102539e-01,4.365527331829071045e-01,4.876750111579895020e-01,4.131190180778503418e-01,3.785851001739501953e-01,3.713506460189819336e-01,3.606266379356384277e-01,3.234980404376983643e-01,2.962899506092071533e-01,3.026712536811828613e-01,3.202435374259948730e-01,3.210907280445098877e-01,3.940564095973968506e-01,4.884820878505706787e-01,6.101866364479064941e-01,6.810663938522338867e-01,7.481501102447509766e-01,8.111444711685180664e-01,8.293702602386474609e-01,8.590385913848876953e-01,8.783113956451416016e-01,8.898435235023498535e-01,8.964990377426147461e-01,9.004303812980651855e-01,9.010003805160522461e-01,9.008467793464660645e-01,8.990390896797180176e-01,8.948894739151000977e-01,8.886432647705078125e-01,8.801673650741577148e-01,8.708046674728393555e-01,8.578444719314575195e-01,8.292369842529296875e-01,8.082209229469299316e-01,8.006199598312377930e-01,7.746273279190063477e-01,7.220024466514587402e-01,6.160315275192260742e-01
5.887055397033691406e-01,6.142754554748535156e-01,6.568994522094726562e-01,6.577249765396118164e-01,6.812788844108581543e-01,7.055048346519470215e-01,7.418705224990844727e-01,7.632709741592407227e-01,7.840346693992614746e-01,8.026566505432128906e-01,8.204203844070434570e-01,8.368796706199645996e-01,8.517981767654418945e-01,8.650818467140197754e-01,8.766705989837646484e-01,8.861494660377502441e-01,8.931097388267517090e-01,8.977937698364257812e-01,9.010491371154785156e-01,9.031560420989990234e-01,9.043537378311157227e-01,9.050189852714538574e-01,9.052555561065673828e-01,9.052950739860534668e-01,9.053218364715576172e-01,9.057869911193847656e-01,9.063559770584106445e-01,9.056828022003173828e-01,9.012856483459472656e-01,8.905781507492065430e-01,8.635795712471008301e-01,8.289736509323120117e-01,7.765517234802246094e-01,6.660433411598205566e-01,5.127794146537780762e-01,3.988586068153381348e-01,3.401125073432922363e-01,2.955071628093719482e-01,2.798334062099456787e-01,2.738634943962097168e-01,2.891932129859924316e-01,3.055999875068664551e-01,3.472042977809906006e-01,4.484043419361114502e-01,4.857542812824249268e-01,4.242306649684906006e-01,3.963726460933685303e-01,3.805457055568695068e-01,3.654723763465881348e-01,3.288087248802185059e-01,3.191722333431243896e-01,3.087001144886016846e-01,3.022181987762451172e-01,3.365328311920166016e-01,4.114968776702880859e-01,5.054875016212463379e-01,6.207590103149414062e-01,7.002442479133605957e-01,7.595911026000976562e-01,8.108006715774536133e-01,8.421635031700134277e-01,8.651194572448730469e-01,8.835705518722534180e-01,8.926017284393310547e-01,8.976727724075317383e-01,9.004859924316406250e-01,9.017772674560546875e-01,9.009422063827514648e-01,8.990084528923034668e-01,8.948907852172851562e-01,8.886498212814331055e-01,8.801763057708740234e-01,8.708144426345825195e-01,8.578571081161499023e-01,8.292522430419921875e-01,8.082377910614013672e-01,8.006366491317749023e-01,7.746436595916748047e-01,7.220155000686645508e-01,6.160409450531005859e-01
5.886985063552856445e-01,6.142639517784118652e-01,6.568862199783325195e-01,6.577098369598388672e-01,6.812622547149658203e-01,7.054881453514099121e-01,7.418539524078369141e-01,7.632547616958618164e-01,7.840186357498168945e-01,8.026412725448608398e-01,8.204061985015869141e-01,8.368669748306274414e-01,8.517867922782897949e-01,8.650716543197631836e-01,8.766620159149169922e-01,8.861424922943115234e-01,8.931050896644592285e-01,8.977904319763183594e-01,9.010468721389770508e-01,9.031566381454467773e-01,9.043596982955932617e-01,9.050158858299255371e-01,9.052628874778747559e-01,9.053013920783996582e-01,9.052608013153076172e-01,9.055041670799255371e-01,9.057433605194091797e-01,9.047960042953491211e-01,8.996191024780273438e-01,8.892271518707275391e-01,8.672179579734802246e-01,8.364492654800415039e-01,7.842935323715209961e-01,6.956908106803894043e-01,5.257144570350646973e-01,3.963847160339355469e-01,3.335113525390625000e-01,3.018838465213775635e-01,2.783260941505432129e-01,2.786726355552673340e-01,2.771757245063781738e-01,3.016604483127593994e-01,3.649579882621765137e-01,4.329028427600860596e-01,4.736861288547515869e-01,4.543320536613464355e-01,3.878339827060699463e-01,3.719888329505920410e-01,3.464812636375427246e-01,3.318713903427124023e-01,3.314923942089080811e-01,3.135470151901245117e-01,3.001344799995422363e-01,3.757464885711669922e-01,4.380547702312469482e-01,5.186286568641662598e-01,6.190214753150939941e-01,7.252343893051147461e-01,7.798484563827514648e-01,8.151351213455200195e-01,8.479132652282714844e-01,8.735891580581665039e-01,8.886604309082031250e-01,8.943196535110473633e-01,8.993503451347351074e-01,9.010848999023437500e-01,9.027587175369262695e-01,9.014400243759155273e-01,8.990935087203979492e-01,8.949450254440307617e-01,8.886564970016479492e-01,8.801850080490112305e-01,8.708248734474182129e-01,8.578695058822631836e-01,8.292673826217651367e-01,8.082544207572937012e-01,8.006534576416015625e-01,7.746600508689880371e-01,7.220288515090942383e-01,6.160502433776855469e-01
5.886909365653991699e-01,6.142522096633911133e-01,6.568728685379028320e-01,6.576943397521972656e-01,6.812453269958496094e-01,7.054710388183593750e-01,7.418370246887207031e-01,7.632380723953247070e-01,7.840024232864379883e-01,8.026256561279296875e-01,8.203917145729064941e-01,8.368536233901977539e-01,8.517748713493347168e-01,8.650615215301513672e-01,8.766531348228454590e-01,8.861357569694519043e-01,8.931001424789428711e-01,8.977873325347900391e-01,9.010444879531860352e-01,9.031555652618408203e-01,9.043592214584350586e-01,9.050178527832031250e-01,9.052629470825195312e-01,9.053177237510681152e-01,9.053037166595458984e-01,9.053597450256347656e-01,9.058848023414611816e-01,9.052293300628662109e-01,9.003477692604064941e-01,8.854230642318725586e-01,8.677784204483032227e-01,8.376395702362060547e-01,7.890672683715820312e-01,7.125587463378906250e-01,5.127595067024230957e-01,4.019668102264404297e-01,3.388492465019226074e-01,2.991050183773040771e-01,2.806301116943359375e-01,2.806327939033508301e-01,2.689922451972961426e-01,3.233988285064697266e-01,3.898668587207794189e-01,4.151129722595214844e-01,4.244855046272277832e-01,4.100673794746398926e-01,3.907949924468994141e-01,3.629089593887329102e-01,3.459331989288330078e-01,3.429270088672637939e-01,3.262978196144104004e-01,2.971259355545043945e-01,3.319731056690216064e-01,3.997525870800018311e-01,4.909440279006958008e-01,5.476256608963012695e-01,6.713893413543701172e-01,7.488822340965270996e-01,7.849017381668090820e-01,8.306775093078613281e-01,8.650017976760864258e-01,8.838640451431274414e-01,8.927181959152221680e-01,8.968806862831115723e-01,8.998816609382629395e-01,9.019941091537475586e-01,9.027719497680664062e-01,9.016960859298706055e-01,8.989194631576538086e-01,8.950055241584777832e-01,8.886630535125732422e-01,8.801938891410827637e-01,8.708352446556091309e-01,8.578821420669555664e-01,8.292827010154724121e-01,8.082712888717651367e-01,8.006702065467834473e-01,7.746764421463012695e-01,7.220424413681030273e-01,6.160596013069152832e-01
5.886830687522888184e-01,6.142395138740539551e-01,6.568585634231567383e-01,6.576783657073974609e-01,6.812282204627990723e-01,7.054535746574401855e-01,7.418195009231567383e-01,7.632210254669189453e-01,7.839859724044799805e-01,8.026098012924194336e-01,8.203768730163574219e-01,8.368403911590576172e-01,8.517629504203796387e-01,8.650510311126708984e-01,8.766440749168395996e-01,8.861287832260131836e-01,8.930953741073608398e-01,8.977841138839721680e-01,9.010421037673950195e-01,9.031542539596557617e-01,9.043585062026977539e-01,9.050174951553344727e-01,9.052623510360717773e-01,9.053208827972412109e-01,9.053064584732055664e-01,9.053314924240112305e-01,9.052608013153076172e-01,9.049850106239318848e-01,8.974170088768005371e-01,8.848426938056945801e-01,8.651453256607055664e-01,8.393099308013916016e-01,7.814583182334899902e-01,6.858048439025878906e-01,5.225881934165954590e-01,4.013840854167938232e-01,3.418604731559753418e-01,3.070617914199829102e-01,2.926619648933410645e-01,2.557308673858642578e-01,2.677441835403442383e-01,3.265346288681030273e-01,3.743796646595001221e-01,3.908993005752563477e-01,3.883436024188995361e-01,4.020429551601409912e-01,3.806807398796081543e-01,3.562901616096496582e-01,3.451791405677795410e-01,3.378125429153442383e-01,3.007251024246215820e-01,3.260036110877990723e-01,3.545022308826446533e-01,4.490299522876739502e-01,5.269720554351806641e-01,6.158897876739501953e-01,7.134474515914916992e-01,7.630474567413330078e-01,8.144716024398803711e-01,8.486783504486083984e-01,8.773990869522094727e-01,8.892918825149536133e-01,8.948810100555419922e-01,8.983684778213500977e-01,9.014068841934204102e-01,9.031460285186767578e-01,9.029746651649475098e-01,9.017234444618225098e-01,8.991103172302246094e-01,8.949773311614990234e-01,8.886697292327880859e-01,8.802028894424438477e-01,8.708456754684448242e-01,8.578946590423583984e-01,8.292979001998901367e-01,8.082883358001708984e-01,8.006870746612548828e-01,7.746927738189697266e-01,7.220559120178222656e-01,6.160690784454345703e-01
5.886746048927307129e-01,6.142263412475585938e-01,6.568434238433837891e-01,6.576614379882812500e-01,6.812101602554321289e-01,7.054352760314941406e-01,7.418017387390136719e-01,7.632037401199340820e-01,7.839690446853637695e-01,8.025934696197509766e-01,8.203617334365844727e-01,8.368266224861145020e-01,8.517510890960693359e-01,8.650404214859008789e-01,8.766350746154785156e-01,8.861215114593505859e-01,8.930903673171997070e-01,8.977808952331542969e-01,9.010397195816040039e-01,9.031528830528259277e-01,9.043576717376708984e-01,9.050171375274658203e-01,9.052620530128479004e-01,9.053310751914978027e-01,9.053438901901245117e-01,9.054805040359497070e-01,9.050310850143432617e-01,9.040362834930419922e-01,8.962371945381164551e-01,8.804640769958496094e-01,8.610141277313232422e-01,8.348069190979003906e-01,7.742158174514770508e-01,6.668932437896728516e-01,5.230062603950500488e-01,4.015597105026245117e-01,3.396667242050170898e-01,2.993988394737243652e-01,2.920602262020111084e-01,2.368603050708770752e-01,2.801572084426879883e-01,3.319165110588073730e-01,3.660919964313507080e-01,3.625544905662536621e-01,3.875083327293395996e-01,3.825729787349700928e-01,3.337668180465698242e-01,3.495499491691589355e-01,3.401762843132019043e-01,3.115410208702087402e-01,3.158342242240905762e-01,3.461833596229553223e-01,4.190614223480224609e-01,5.076196789741516113e-01,5.755726695060729980e-01,6.887414455413818359e-01,7.418532967567443848e-01,7.917416095733642578e-01,8.313720226287841797e-01,8.665181994438171387e-01,8.863093852996826172e-01,8.942962884902954102e-01,8.971697688102722168e-01,9.006260633468627930e-01,9.029735326766967773e-01,9.037283062934875488e-01,9.033282995223999023e-01,9.014980792999267578e-01,8.990827798843383789e-01,8.949849605560302734e-01,8.886764049530029297e-01,8.802117705345153809e-01,8.708561658859252930e-01,8.579072952270507812e-01,8.293132185935974121e-01,8.083050847053527832e-01,8.007040023803710938e-01,7.747092247009277344e-01,7.220693826675415039e-01,6.160784959793090820e-01
5.886659622192382812e-01,6.142123937606811523e-01,6.568276882171630859e-01,6.576431989669799805e-01,6.811905503273010254e-01,7.054160237312316895e-01,7.417827844619750977e-01,7.631855010986328125e-01,7.839514613151550293e-01,8.025769591331481934e-01,8.203461766242980957e-01,8.368126153945922852e-01,8.517383337020874023e-01,8.650295734405517578e-01,8.766258955001831055e-01,8.861142396926879883e-01,8.930854797363281250e-01,8.977776765823364258e-01,9.010373353958129883e-01,9.031513929367065430e-01,9.043569564819335938e-01,9.050166606903076172e-01,9.052617549896240234e-01,9.053323268890380859e-01,9.053592681884765625e-01,9.052631855010986328e-01,9.045311212539672852e-01,9.032450914382934570e-01,8.929891586303710938e-01,8.766171932220458984e-01,8.596490621566772461e-01,8.357240557670593262e-01,7.671042680740356445e-01,6.436190605163574219e-01,4.708150625228881836e-01,3.926657140254974365e-01,3.319711387157440186e-01,3.099268078804016113e-01,2.751167714595794678e-01,2.369441092014312744e-01,2.854181528091430664e-01,3.496758043766021729e-01,3.202642798423767090e-01,3.426761627197265625e-01,3.820701539516448975e-01,3.377456665039062500e-01,3.532179296016693115e-01,3.475312888622283936e-01,3.405317664146423340e-01,3.059663772583007812e-01,3.492183089256286621e-01,3.976098597049713135e-01,5.071829557418823242e-01,5.634533166885375977e-01,6.430613398551940918e-01,7.235146760940551758e-01,7.750720381736755371e-01,8.192566633224487305e-01,8.584852218627929688e-01,8.786548376083374023e-01,8.913477659225463867e-01,8.976631164550781250e-01,8.989219069480895996e-01,9.019263982772827148e-01,9.037203788757324219e-01,9.040654301643371582e-01,9.033614397048950195e-01,9.016890525817871094e-01,8.991115093231201172e-01,8.949695229530334473e-01,8.886828422546386719e-01,8.802205324172973633e-01,8.708667755126953125e-01,8.579200506210327148e-01,8.293285369873046875e-01,8.083220720291137695e-01,8.007208704948425293e-01,7.747254967689514160e-01,7.220828533172607422e-01,6.160877943038940430e-01
5.886571407318115234e-01,6.141980886459350586e-01,6.568115353584289551e-01,6.576244235038757324e-01,6.811701655387878418e-01,7.053952217102050781e-01,7.417626380920410156e-01,7.631660699844360352e-01,7.839330434799194336e-01,8.025593757629394531e-01,8.203303813934326172e-01,8.367981910705566406e-01,8.517256975173950195e-01,8.650183677673339844e-01,8.766161799430847168e-01,8.861067295074462891e-01,8.930804729461669922e-01,8.977742791175842285e-01,9.010349512100219727e-01,9.031499624252319336e-01,9.043560028076171875e-01,9.050163030624389648e-01,9.052616953849792480e-01,9.053299427032470703e-01,9.053709506988525391e-01,9.053297042846679688e-01,9.048291444778442383e-01,9.027557969093322754e-01,8.896222114562988281e-01,8.690128326416015625e-01,8.541666269302368164e-01,8.180805444717407227e-01,7.541544437408447266e-01,6.067451834678649902e-01,4.717907905578613281e-01,3.809841871261596680e-01,3.367195725440979004e-01,3.138288855552673340e-01,2.528262138366699219e-01,2.461051940917968750e-01,2.969821095466613770e-01,3.362790346145629883e-01,3.181087374687194824e-01,3.492956757545471191e-01,3.453904986381530762e-01,3.418521583080291748e-01,3.580248355865478516e-01,3.627107143402099609e-01,3.139952421188354492e-01,3.527275323867797852e-01,3.845640122890472412e-01,4.805386066436767578e-01,5.383597612380981445e-01,6.201663613319396973e-01,7.122043967247009277e-01,7.658774852752685547e-01,8.064687252044677734e-01,8.505214452743530273e-01,8.738604187965393066e-01,8.858087658882141113e-01,8.941307663917541504e-01,8.984274864196777344e-01,9.009217619895935059e-01,9.035319089889526367e-01,9.046469926834106445e-01,9.045071005821228027e-01,9.032974243164062500e-01,9.016553163528442383e-01,8.990906476974487305e-01,8.949848413467407227e-01,8.886895179748535156e-01,8.802297115325927734e-01,8.708771467208862305e-01,8.579325079917907715e-01,8.293439149856567383e-01,8.083389997482299805e-01,8.007376194000244141e-01,7.747418880462646484e-01,7.220961451530456543e-01,6.160970926284790039e-01
5.886486768722534180e-01,6.141839623451232910e-01,6.567949652671813965e-01,6.576051712036132812e-01,6.811491250991821289e-01,7.053740620613098145e-01,7.417417764663696289e-01,7.631454467773437500e-01,7.839132547378540039e-01,8.025406599044799805e-01,8.203130960464477539e-01,8.367831707000732422e-01,8.517123460769653320e-01,8.650068044662475586e-01,8.766063451766967773e-01,8.860991597175598145e-01,8.930749893188476562e-01,8.977708816528320312e-01,9.010324478149414062e-01,9.031484723091125488e-01,9.043552875518798828e-01,9.050158858299255371e-01,9.052616953849792480e-01,9.053241014480590820e-01,9.053835272789001465e-01,9.053086042404174805e-01,9.054198861122131348e-01,9.017379879951477051e-01,8.882765769958496094e-01,8.690369725227355957e-01,8.557508587837219238e-01,8.094834089279174805e-01,7.319940924644470215e-01,5.874014496803283691e-01,4.347019195556640625e-01,3.716520667076110840e-01,3.298112154006958008e-01,3.068892359733581543e-01,2.317462563514709473e-01,2.788494825363159180e-01,3.113583922386169434e-01,3.034047484397888184e-01,3.333582580089569092e-01,3.372081518173217773e-01,3.506418466567993164e-01,3.350979685783386230e-01,3.714865446090698242e-01,3.462864160537719727e-01,3.405994772911071777e-01,3.900932669639587402e-01,4.566178321838378906e-01,5.330519676208496094e-01,5.960858464241027832e-01,6.970798373222351074e-01,7.427598237991333008e-01,7.955744862556457520e-01,8.350667953491210938e-01,8.649770617485046387e-01,8.801147937774658203e-01,8.942360877990722656e-01,8.967101573944091797e-01,8.995050191879272461e-01,9.023568630218505859e-01,9.039980173110961914e-01,9.049006700515747070e-01,9.044044017791748047e-01,9.034787416458129883e-01,9.016872644424438477e-01,8.990744352340698242e-01,8.949885964393615723e-01,8.886962532997131348e-01,8.802384138107299805e-01,8.708876967430114746e-01,8.579452037811279297e-01,8.293590545654296875e-01,8.083558082580566406e-01,8.007544279098510742e-01,7.747579813003540039e-01,7.221094965934753418e-01,6.161063909530639648e-01
5.886404514312744141e-01,6.141705513000488281e-01,6.567787528038024902e-01,6.575864553451538086e-01,6.811282038688659668e-01,7.053524255752563477e-01,7.417201399803161621e-01,7.631245255470275879e-01,7.838925123214721680e-01,8.025206327438354492e-01,8.202947974205017090e-01,8.367667198181152344e-01,8.516982793807983398e-01,8.649946451187133789e-01,8.765960931777954102e-01,8.860912322998046875e-01,8.930693864822387695e-01,8.977671861648559570e-01,9.010298252105712891e-01,9.031469821929931641e-01,9.043543338775634766e-01,9.050153493881225586e-01,9.052615761756896973e-01,9.053288698196411133e-01,9.053909778594970703e-01,9.054024219512939453e-01,9.055637121200561523e-01,9.004522562026977539e-01,8.849108219146728516e-01,8.658270835876464844e-01,8.488284945487976074e-01,7.988559603691101074e-01,7.260544896125793457e-01,5.616775155067443848e-01,4.252516329288482666e-01,3.642560839653015137e-01,3.274017870426177979e-01,2.869797348976135254e-01,2.431514859199523926e-01,2.823450565338134766e-01,3.184626698493957520e-01,3.081636428833007812e-01,3.310081958770751953e-01,3.408263325691223145e-01,3.339856863021850586e-01,3.729704916477203369e-01,3.817392587661743164e-01,3.507325351238250732e-01,3.733100891113281250e-01,4.327122569084167480e-01,5.292289257049560547e-01,5.796077847480773926e-01,6.754380464553833008e-01,7.263129353523254395e-01,7.850986719131469727e-01,8.205401897430419922e-01,8.546124696731567383e-01,8.743057250976562500e-01,8.873068094253540039e-01,8.952153325080871582e-01,8.988074064254760742e-01,9.011417627334594727e-01,9.036911725997924805e-01,9.046726226806640625e-01,9.051116704940795898e-01,9.045442342758178711e-01,9.033913016319274902e-01,9.016661643981933594e-01,8.990876674652099609e-01,8.949928283691406250e-01,8.887027502059936523e-01,8.802473545074462891e-01,8.708981275558471680e-01,8.579576015472412109e-01,8.293741941452026367e-01,8.083724379539489746e-01,8.007711768150329590e-01,7.747741341590881348e-01,7.221227288246154785e-01,6.161155700683593750e-01
5.886323451995849609e-01,6.141574382781982422e-01,6.567636132240295410e-01,6.575684547424316406e-01,6.811079978942871094e-01,7.053318023681640625e-01,7.416990399360656738e-01,7.631030678749084473e-01,7.838712334632873535e-01,8.025000095367431641e-01,8.202754259109497070e-01,8.367488384246826172e-01,8.516819477081298828e-01,8.649805784225463867e-01,8.765843510627746582e-01,8.860819339752197266e-01,8.930625915527343750e-01,8.977621197700500488e-01,9.010255336761474609e-01,9.031435251235961914e-01,9.043517112731933594e-01,9.050130844116210938e-01,9.052596688270568848e-01,9.053295850753784180e-01,9.053921699523925781e-01,9.057474136352539062e-01,9.056468009948730469e-01,8.998550176620483398e-01,8.849412202835083008e-01,8.666523098945617676e-01,8.473466634750366211e-01,7.940613627433776855e-01,7.188827991485595703e-01,5.152898430824279785e-01,4.219004213809967041e-01,3.616549968719482422e-01,3.282772302627563477e-01,2.696121037006378174e-01,2.624686360359191895e-01,2.900991141796112061e-01,3.069773316383361816e-01,3.214078247547149658e-01,3.284191787242889404e-01,3.349941372871398926e-01,3.472074866294860840e-01,3.855061829090118408e-01,3.727396726608276367e-01,3.622295856475830078e-01,4.348626136779785156e-01,5.119762420654296875e-01,5.494832396507263184e-01,6.615114808082580566e-01,7.178848981857299805e-01,7.622885107994079590e-01,8.030592203140258789e-01,8.394258022308349609e-01,8.696975708007812500e-01,8.816680908203125000e-01,8.909456133842468262e-01,8.968851566314697266e-01,8.992170095443725586e-01,9.024000167846679688e-01,9.047242403030395508e-01,9.052687287330627441e-01,9.049726724624633789e-01,9.045506715774536133e-01,9.034436941146850586e-01,9.016484022140502930e-01,8.990879654884338379e-01,8.949952721595764160e-01,8.887076377868652344e-01,8.802548646926879883e-01,8.709074258804321289e-01,8.579694628715515137e-01,8.293886184692382812e-01,8.083889484405517578e-01,8.007878065109252930e-01,7.747901082038879395e-01,7.221357822418212891e-01,6.161248087882995605e-01
5.886242985725402832e-01,6.141443252563476562e-01,6.567478179931640625e-01,6.575499773025512695e-01,6.810863614082336426e-01,7.053080797195434570e-01,7.416740655899047852e-01,7.630776166915893555e-01,7.838453054428100586e-01,8.024732470512390137e-01,8.202494382858276367e-01,8.367241024971008301e-01,8.516588211059570312e-01,8.649590015411376953e-01,8.765655159950256348e-01,8.860663175582885742e-01,8.930498957633972168e-01,8.977520465850830078e-01,9.010163545608520508e-01,9.031350016593933105e-01,9.043438434600830078e-01,9.050057530403137207e-01,9.052530527114868164e-01,9.053171873092651367e-01,9.053943753242492676e-01,9.059427380561828613e-01,9.054756164550781250e-01,8.986266255378723145e-01,8.841862678527832031e-01,8.661919832229614258e-01,8.394852280616760254e-01,7.909179925918579102e-01,7.050242424011230469e-01,5.156953334808349609e-01,4.162770807743072510e-01,3.548448085784912109e-01,3.166735172271728516e-01,2.736313939094543457e-01,2.971817851066589355e-01,2.876036763191223145e-01,2.965137064456939697e-01,3.214927315711975098e-01,3.498918414115905762e-01,3.290043473243713379e-01,3.710869252681732178e-01,4.011649191379547119e-01,3.743590116500854492e-01,4.048036038875579834e-01,4.864524006843566895e-01,5.582112669944763184e-01,6.100457310676574707e-01,6.991797089576721191e-01,7.538475394248962402e-01,7.920463085174560547e-01,8.311630487442016602e-01,8.560673594474792480e-01,8.754849433898925781e-01,8.884580135345458984e-01,8.929727077484130859e-01,8.976204991340637207e-01,9.009448289871215820e-01,9.036516547203063965e-01,9.049407243728637695e-01,9.052688479423522949e-01,9.052197933197021484e-01,9.045644998550415039e-01,9.033968448638916016e-01,9.016554355621337891e-01,8.990848064422607422e-01,8.949915170669555664e-01,8.887043595314025879e-01,8.802522420883178711e-01,8.709053993225097656e-01,8.579716086387634277e-01,8.293944001197814941e-01,8.083975315093994141e-01,8.007968664169311523e-01,7.747979164123535156e-01,7.221401929855346680e-01,6.161272525787353516e-01
5.886119008064270020e-01,6.141279339790344238e-01,6.567282676696777344e-01,6.575314998626708984e-01,6.810675859451293945e-01,7.052876949310302734e-01,7.416555285453796387e-01,7.630637884140014648e-01,7.838370800018310547e-01,8.024722337722778320e-01,8.202587366104125977e-01,8.367470502853393555e-01,8.517017364501953125e-01,8.650193810462951660e-01,8.766283988952636719e-01,8.861196637153625488e-01,8.930929899215698242e-01,8.977882862091064453e-01,9.010556340217590332e-01,9.031848311424255371e-01,9.044005274772644043e-01,9.050682783126831055e-01,9.053184986114501953e-01,9.053868055343627930e-01,9.054504632949829102e-01,9.060481190681457520e-01,9.057699441909790039e-01,8.986372351646423340e-01,8.850457072257995605e-01,8.679026365280151367e-01,8.381953239440917969e-01,7.906094789505004883e-01,7.020459771156311035e-01,4.882373213768005371e-01,4.133747816085815430e-01,3.485239148139953613e-01,3.095323443412780762e-01,2.730009555816650391e-01,2.928427457809448242e-01,2.890526354312896729e-01,2.897008061408996582e-01,3.350504338741302490e-01,3.157525360584259033e-01,3.612698316574096680e-01,3.920051455497741699e-01,3.898446857929229736e-01,3.887536227703094482e-01,4.517863690853118896e-01,5.330330133438110352e-01,5.710813403129577637e-01,6.832149028778076172e-01,7.383510470390319824e-01,7.751494646072387695e-01,8.118007183074951172e-01,8.435600996017456055e-01,8.693423271179199219e-01,8.817141056060791016e-01,8.905296325683593750e-01,8.957513570785522461e-01,9.000679254531860352e-01,9.023346900939941406e-01,9.042310714721679688e-01,9.053213596343994141e-01,9.053952693939208984e-01,9.052190780639648438e-01,9.046280384063720703e-01,9.034810066223144531e-01,9.017140865325927734e-01,8.991345167160034180e-01,8.950430154800415039e-01,8.887705802917480469e-01,8.803305029869079590e-01,8.709952831268310547e-01,8.580447435379028320e-01,8.294628858566284180e-01,8.084462881088256836e-01,8.008295297622680664e-01,7.748187780380249023e-01,7.221403717994689941e-01,6.161280870437622070e-01
5.886180996894836426e-01,6.141350269317626953e-01,6.567324995994567871e-01,6.575459837913513184e-01,6.810927391052246094e-01,7.053462266921997070e-01,7.417648434638977051e-01,7.632210254669189453e-01,7.840200662612915039e-01,8.026667833328247070e-01,8.204538822174072266e-01,8.369386196136474609e-01,8.518705368041992188e-01,8.651564121246337891e-01,8.767376542091369629e-01,8.861938714981079102e-01,8.931598663330078125e-01,8.978885412216186523e-01,9.011781215667724609e-01,9.033067226409912109e-01,9.045196771621704102e-01,9.051825404167175293e-01,9.054272770881652832e-01,9.054889082908630371e-01,9.055399894714355469e-01,9.061403870582580566e-01,9.057682752609252930e-01,8.987542986869812012e-01,8.849916458129882812e-01,8.666905164718627930e-01,8.359727859497070312e-01,7.884757518768310547e-01,6.948178410530090332e-01,4.956126213073730469e-01,4.113255739212036133e-01,3.424221277236938477e-01,3.016623854637145996e-01,2.859285473823547363e-01,2.836194634437561035e-01,2.751645445823669434e-01,3.058573007583618164e-01,3.160993158817291260e-01,3.283600211143493652e-01,3.723338544368743896e-01,3.881646394729614258e-01,3.945877552032470703e-01,4.469442367553710938e-01,5.117978453636169434e-01,5.586013793945312500e-01,6.493860483169555664e-01,7.152072191238403320e-01,7.576367855072021484e-01,7.907978892326354980e-01,8.301441669464111328e-01,8.590140342712402344e-01,8.765813112258911133e-01,8.854478001594543457e-01,8.906182646751403809e-01,8.979477882385253906e-01,9.003971815109252930e-01,9.036588072776794434e-01,9.049545526504516602e-01,9.053667783737182617e-01,9.054781198501586914e-01,9.053338766098022461e-01,9.046721458435058594e-01,9.035497307777404785e-01,9.017884731292724609e-01,8.992083072662353516e-01,8.951128721237182617e-01,8.888930082321166992e-01,8.804652094841003418e-01,8.711219429969787598e-01,8.582079410552978516e-01,8.296936750411987305e-01,8.086944818496704102e-01,8.010872006416320801e-01,7.750682830810546875e-01,7.224262356758117676e-01,6.165222525596618652e-01
5.888016223907470703e-01,6.143116950988769531e-01,6.569856405258178711e-01,6.578012704849243164e-01,6.813391447067260742e-01,7.055062651634216309e-01,7.418472766876220703e-01,7.632271051406860352e-01,7.838838100433349609e-01,8.024013042449951172e-01,8.200695514678955078e-01,8.364217281341552734e-01,8.512634634971618652e-01,8.644663691520690918e-01,8.759483098983764648e-01,8.853853940963745117e-01,8.923834562301635742e-01,8.970941305160522461e-01,9.003557562828063965e-01,9.024782776832580566e-01,9.037008285522460938e-01,9.043442010879516602e-01,9.045748710632324219e-01,9.046367406845092773e-01,9.046838283538818359e-01,9.053686857223510742e-01,9.049806594848632812e-01,8.981711864471435547e-01,8.847284317016601562e-01,8.662695884704589844e-01,8.348048925399780273e-01,7.856373190879821777e-01,6.878195405006408691e-01,4.954216182231903076e-01,4.047097265720367432e-01,3.383291363716125488e-01,3.106768131256103516e-01,2.923805713653564453e-01,2.655928134918212891e-01,2.661391496658325195e-01,3.108333647251129150e-01,3.140362501144409180e-01,3.509886860847473145e-01,3.894992470741271973e-01,3.799429237842559814e-01,4.186086356639862061e-01,4.746924638748168945e-01,5.545195937156677246e-01,5.852173566818237305e-01,6.891943216323852539e-01,7.521456480026245117e-01,7.727259397506713867e-01,8.100796937942504883e-01,8.435388803482055664e-01,8.604649305343627930e-01,8.789690732955932617e-01,8.874279260635375977e-01,8.928583860397338867e-01,8.980581164360046387e-01,9.008004665374755859e-01,9.034735560417175293e-01,9.044610261917114258e-01,9.045211076736450195e-01,9.047052860260009766e-01,9.044472575187683105e-01,9.038792848587036133e-01,9.027745127677917480e-01,9.010074138641357422e-01,8.984276056289672852e-01,8.943611979484558105e-01,8.880718946456909180e-01,8.796471357345581055e-01,8.703277707099914551e-01,8.574453592300415039e-01,8.288373947143554688e-01,8.078436255455017090e-01,8.004501461982727051e-01,7.742100954055786133e-01,7.216115593910217285e-01,6.159934401512145996e-01
5.891577005386352539e-01,6.141802668571472168e-01,6.566535830497741699e-01,6.571515798568725586e-01,6.804431676864624023e-01,7.042939066886901855e-01,7.404213547706604004e-01,7.615292072296142578e-01,7.820323705673217773e-01,8.004180192947387695e-01,8.180017471313476562e-01,8.343542814254760742e-01,8.493279218673706055e-01,8.627437353134155273e-01,8.744816780090332031e-01,8.841425180435180664e-01,8.912270069122314453e-01,8.960006237030029297e-01,8.993603587150573730e-01,9.015436172485351562e-01,9.027553200721740723e-01,9.033966064453125000e-01,9.036448001861572266e-01,9.037220478057861328e-01,9.037665128707885742e-01,9.043890237808227539e-01,9.041230678558349609e-01,8.971852064132690430e-01,8.836326003074645996e-01,8.650479912757873535e-01,8.340668678283691406e-01,7.832065224647521973e-01,6.865503787994384766e-01,4.948909878730773926e-01,4.000506699085235596e-01,3.301190137863159180e-01,3.084713518619537354e-01,2.889037728309631348e-01,2.621949315071105957e-01,2.758279442787170410e-01,3.073837459087371826e-01,3.190881311893463135e-01,3.569646179676055908e-01,3.654102087020874023e-01,3.959791064262390137e-01,4.566961824893951416e-01,5.278099775314331055e-01,5.546107888221740723e-01,6.574940681457519531e-01,7.280538678169250488e-01,7.610044479370117188e-01,7.868301272392272949e-01,8.269450664520263672e-01,8.528975248336791992e-01,8.654216527938842773e-01,8.804667592048645020e-01,8.877164125442504883e-01,8.939810991287231445e-01,8.976035118103027344e-01,9.002394080162048340e-01,9.025557041168212891e-01,9.036540985107421875e-01,9.036853313446044922e-01,9.037376642227172852e-01,9.035475254058837891e-01,9.029988646507263184e-01,9.019613265991210938e-01,9.002489447593688965e-01,8.976990580558776855e-01,8.936412334442138672e-01,8.874074220657348633e-01,8.790702819824218750e-01,8.698095083236694336e-01,8.568345904350280762e-01,8.282454013824462891e-01,8.070982694625854492e-01,7.996360063552856445e-01,7.733802795410156250e-01,7.204546332359313965e-01,6.144722104072570801e-01
5.884081721305847168e-01,6.125018000602722168e-01,6.548570394515991211e-01,6.552612781524658203e-01,6.780961751937866211e-01,7.014927864074707031e-01,7.376142740249633789e-01,7.587715387344360352e-01,7.793213129043579102e-01,7.977042198181152344e-01,8.152694702148437500e-01,8.317412137985229492e-01,8.468406200408935547e-01,8.603413701057434082e-01,8.721703290939331055e-01,8.818699121475219727e-01,8.891109824180603027e-01,8.941242694854736328e-01,8.975701332092285156e-01,8.997674584388732910e-01,9.010009765625000000e-01,9.016666412353515625e-01,9.019196629524230957e-01,9.019875526428222656e-01,9.020198583602905273e-01,9.026017785072326660e-01,9.022743105888366699e-01,8.955969214439392090e-01,8.823837041854858398e-01,8.638799190521240234e-01,8.323175907135009766e-01,7.807013988494873047e-01,6.830334067344665527e-01,4.924820959568023682e-01,3.994019031524658203e-01,3.311539888381958008e-01,3.082729578018188477e-01,2.841375172138214111e-01,2.610201835632324219e-01,2.767779827117919922e-01,2.909082174301147461e-01,3.398275971412658691e-01,3.707943856716156006e-01,3.810294270515441895e-01,4.327982366085052490e-01,4.943605661392211914e-01,5.623518824577331543e-01,6.081861257553100586e-01,6.922456026077270508e-01,7.412784695625305176e-01,7.726427316665649414e-01,8.044801950454711914e-01,8.368119597434997559e-01,8.499350547790527344e-01,8.704850673675537109e-01,8.784095048904418945e-01,8.863095045089721680e-01,8.938913345336914062e-01,8.966550827026367188e-01,8.996413946151733398e-01,9.012120962142944336e-01,9.016697406768798828e-01,9.017416238784790039e-01,9.018059968948364258e-01,9.016239643096923828e-01,9.011545777320861816e-01,9.001947641372680664e-01,8.985971212387084961e-01,8.961411714553833008e-01,8.921502232551574707e-01,8.860778808593750000e-01,8.775836825370788574e-01,8.682883977890014648e-01,8.554354310035705566e-01,8.269621133804321289e-01,8.060591220855712891e-01,7.984990477561950684e-01,7.719262838363647461e-01,7.191709280014038086e-01,6.126971840858459473e-01
5.864669084548950195e-01,6.097781062126159668e-01,6.518771648406982422e-01,6.520054936408996582e-01,6.745818853378295898e-01,6.974242925643920898e-01,7.329908013343811035e-01,7.536306381225585938e-01,7.735031247138977051e-01,7.914415001869201660e-01,8.087481260299682617e-01,8.249915838241577148e-01,8.399538993835449219e-01,8.535090684890747070e-01,8.654147386550903320e-01,8.752049207687377930e-01,8.825119733810424805e-01,8.875577449798583984e-01,8.911019563674926758e-01,8.933005332946777344e-01,8.945295214653015137e-01,8.952172994613647461e-01,8.954709172248840332e-01,8.955285549163818359e-01,8.955543637275695801e-01,8.961236476898193359e-01,8.957834243774414062e-01,8.889873623847961426e-01,8.759602308273315430e-01,8.570686578750610352e-01,8.257320523262023926e-01,7.712709307670593262e-01,6.713272929191589355e-01,4.861988127231597900e-01,3.926970362663269043e-01,3.307215571403503418e-01,3.033564388751983643e-01,2.755855321884155273e-01,2.622544169425964355e-01,2.706642150878906250e-01,3.093487322330474854e-01,3.394166827201843262e-01,3.599183559417724609e-01,3.956542015075683594e-01,4.573780298233032227e-01,5.499227643013000488e-01,5.523123145103454590e-01,6.605966687202453613e-01,7.191653847694396973e-01,7.481048107147216797e-01,7.745369076728820801e-01,8.150411844253540039e-01,8.354609012603759766e-01,8.478407263755798340e-01,8.646379709243774414e-01,8.733907938003540039e-01,8.806200027465820312e-01,8.866398334503173828e-01,8.899413347244262695e-01,8.934000134468078613e-01,8.949756622314453125e-01,8.950752019882202148e-01,8.952423930168151855e-01,8.951956033706665039e-01,8.950706720352172852e-01,8.946215510368347168e-01,8.938115835189819336e-01,8.923451900482177734e-01,8.900212049484252930e-01,8.861753940582275391e-01,8.802813291549682617e-01,8.720692396163940430e-01,8.626399040222167969e-01,8.496419191360473633e-01,8.213528394699096680e-01,8.010361194610595703e-01,7.939113974571228027e-01,7.675330638885498047e-01,7.151686549186706543e-01,6.077054142951965332e-01
5.825375318527221680e-01,6.038820743560791016e-01,6.454443335533142090e-01,6.448006033897399902e-01,6.661968231201171875e-01,6.881831288337707520e-01,7.229002714157104492e-01,7.430769205093383789e-01,7.622778415679931641e-01,7.793424725532531738e-01,7.960596084594726562e-01,8.119953870773315430e-01,8.270320296287536621e-01,8.408862948417663574e-01,8.531059622764587402e-01,8.633335828781127930e-01,8.711261153221130371e-01,8.764998912811279297e-01,8.802306652069091797e-01,8.825708627700805664e-01,8.838841915130615234e-01,8.845245838165283203e-01,8.847163319587707520e-01,8.847378492355346680e-01,8.847444057464599609e-01,8.853708505630493164e-01,8.848388791084289551e-01,8.780531883239746094e-01,8.648756742477416992e-01,8.465928435325622559e-01,8.131168484687805176e-01,7.551903724670410156e-01,6.526905894279479980e-01,4.770566225051879883e-01,3.862349987030029297e-01,3.286659121513366699e-01,2.995211482048034668e-01,2.764814496040344238e-01,2.650624513626098633e-01,2.771513462066650391e-01,3.005879521369934082e-01,3.311842083930969238e-01,3.685633540153503418e-01,4.231830239295959473e-01,5.032784342765808105e-01,5.506204366683959961e-01,5.998626351356506348e-01,6.698662042617797852e-01,7.154238224029541016e-01,7.419081926345825195e-01,7.799023389816284180e-01,8.128210902214050293e-01,8.235087394714355469e-01,8.404783010482788086e-01,8.526025414466857910e-01,8.630825281143188477e-01,8.706424236297607422e-01,8.764930963516235352e-01,8.800312280654907227e-01,8.828860521316528320e-01,8.839603066444396973e-01,8.839845657348632812e-01,8.839824795722961426e-01,8.840237855911254883e-01,8.838959336280822754e-01,8.835461735725402832e-01,8.828635215759277344e-01,8.813965320587158203e-01,8.790436983108520508e-01,8.753528594970703125e-01,8.695214390754699707e-01,8.616369962692260742e-01,8.525866270065307617e-01,8.395633697509765625e-01,8.107813000679016113e-01,7.916718721389770508e-01,7.853801250457763672e-01,7.605729103088378906e-01,7.071874737739562988e-01,6.017343997955322266e-01
5.753732323646545410e-01,5.940430164337158203e-01,6.345337629318237305e-01,6.318056583404541016e-01,6.512048840522766113e-01,6.719552278518676758e-01,7.057617902755737305e-01,7.251126766204833984e-01,7.435608506202697754e-01,7.599250078201293945e-01,7.757282257080078125e-01,7.908949851989746094e-01,8.055408000946044922e-01,8.189351558685302734e-01,8.307833075523376465e-01,8.406642079353332520e-01,8.480819463729858398e-01,8.534026145935058594e-01,8.571255207061767578e-01,8.594368100166320801e-01,8.606514930725097656e-01,8.611847758293151855e-01,8.613114953041076660e-01,8.613172173500061035e-01,8.613069653511047363e-01,8.622784614562988281e-01,8.616819381713867188e-01,8.540140390396118164e-01,8.402240276336669922e-01,8.219070434570312500e-01,7.847974300384521484e-01,7.217717766761779785e-01,6.134979128837585449e-01,4.533292651176452637e-01,3.695216476917266846e-01,3.185294866561889648e-01,2.923117876052856445e-01,2.697375416755676270e-01,2.605050802230834961e-01,2.833602428436279297e-01,3.065563738346099854e-01,3.340643942356109619e-01,3.715763688087463379e-01,4.308571219444274902e-01,5.147526264190673828e-01,5.389528870582580566e-01,6.251692771911621094e-01,6.646561026573181152e-01,7.031784057617187500e-01,7.331477403640747070e-01,7.634180784225463867e-01,7.844694852828979492e-01,7.993938922882080078e-01,8.151290416717529297e-01,8.289086818695068359e-01,8.392028212547302246e-01,8.468326330184936523e-01,8.523665070533752441e-01,8.571166992187500000e-01,8.588539958000183105e-01,8.598533868789672852e-01,8.597898483276367188e-01,8.599206209182739258e-01,8.599400520324707031e-01,8.597892522811889648e-01,8.595217466354370117e-01,8.591195344924926758e-01,8.579361438751220703e-01,8.558828830718994141e-01,8.521198034286499023e-01,8.464976549148559570e-01,8.387054800987243652e-01,8.299871683120727539e-01,8.169762492179870605e-01,7.877185344696044922e-01,7.699897289276123047e-01,7.670443058013916016e-01,7.438903450965881348e-01,6.925488114356994629e-01,5.922676324844360352e-01
5.643804073333740234e-01,5.786213874816894531e-01,6.173446178436279297e-01,6.113560199737548828e-01,6.278037428855895996e-01,6.468108892440795898e-01,6.787337064743041992e-01,6.960849761962890625e-01,7.121213674545288086e-01,7.261250615119934082e-01,7.397731542587280273e-01,7.531856298446655273e-01,7.665028572082519531e-01,7.789230346679687500e-01,7.898041009902954102e-01,7.990558147430419922e-01,8.063930273056030273e-01,8.116775751113891602e-01,8.153669834136962891e-01,8.176350593566894531e-01,8.186808824539184570e-01,8.189443945884704590e-01,8.189643025398254395e-01,8.189406394958496094e-01,8.188948631286621094e-01,8.202669024467468262e-01,8.192652463912963867e-01,8.095488548278808594e-01,7.951083183288574219e-01,7.771071195602416992e-01,7.345551848411560059e-01,6.698040962219238281e-01,5.635599493980407715e-01,4.223112165927886963e-01,3.510087728500366211e-01,3.051898777484893799e-01,2.820314466953277588e-01,2.629314959049224854e-01,2.615194916725158691e-01,2.774076461791992188e-01,2.978916466236114502e-01,3.307764232158660889e-01,3.857492208480834961e-01,4.670231342315673828e-01,4.906816184520721436e-01,5.583971738815307617e-01,5.941553711891174316e-01,6.344931125640869141e-01,6.608630418777465820e-01,6.980836987495422363e-01,7.247903347015380859e-01,7.396051883697509766e-01,7.560359239578247070e-01,7.722741365432739258e-01,7.848504781723022461e-01,7.965384721755981445e-01,8.045804500579833984e-01,8.101131916046142578e-01,8.149992227554321289e-01,8.160685300827026367e-01,8.168166875839233398e-01,8.167062997817993164e-01,8.166701197624206543e-01,8.166608810424804688e-01,8.164660334587097168e-01,8.160593509674072266e-01,8.156022429466247559e-01,8.142902851104736328e-01,8.124210834503173828e-01,8.094744682312011719e-01,8.042553663253784180e-01,7.969973683357238770e-01,7.893923521041870117e-01,7.773562073707580566e-01,7.478852272033691406e-01,7.329677343368530273e-01,7.343961000442504883e-01,7.134007811546325684e-01,6.685166954994201660e-01,5.795529484748840332e-01
5.498352050781250000e-01,5.541165471076965332e-01,5.890421867370605469e-01,5.790348649024963379e-01,5.922449231147766113e-01,6.085550785064697266e-01,6.381700038909912109e-01,6.527606844902038574e-01,6.666550636291503906e-01,6.783888339996337891e-01,6.897962689399719238e-01,7.009282708168029785e-01,7.119127511978149414e-01,7.217503786087036133e-01,7.305835485458374023e-01,7.381959557533264160e-01,7.438926696777343750e-01,7.478497028350830078e-01,7.505290508270263672e-01,7.519868612289428711e-01,7.523967027664184570e-01,7.524603605270385742e-01,7.524312734603881836e-01,7.523681521415710449e-01,7.522923946380615234e-01,7.540622949600219727e-01,7.521611452102661133e-01,7.410199642181396484e-01,7.245376110076904297e-01,7.077902555465698242e-01,6.573461294174194336e-01,5.945172309875488281e-01,5.011499524116516113e-01,3.852733671665191650e-01,3.261312842369079590e-01,2.863748669624328613e-01,2.663317322731018066e-01,2.579907774925231934e-01,2.591438293457031250e-01,2.740639448165893555e-01,2.960191369056701660e-01,3.363707959651947021e-01,3.993746936321258545e-01,4.361687302589416504e-01,4.782920181751251221e-01,5.247719287872314453e-01,5.726624727249145508e-01,5.925959944725036621e-01,6.255823969841003418e-01,6.458544135093688965e-01,6.607047319412231445e-01,6.752552986145019531e-01,6.898611187934875488e-01,7.101534008979797363e-01,7.217454910278320312e-01,7.307400703430175781e-01,7.377182841300964355e-01,7.437992095947265625e-01,7.475080490112304688e-01,7.493427395820617676e-01,7.490266561508178711e-01,7.493075132369995117e-01,7.492070794105529785e-01,7.491278052330017090e-01,7.489736080169677734e-01,7.486920952796936035e-01,7.481781244277954102e-01,7.467890977859497070e-01,7.445259094238281250e-01,7.411607503890991211e-01,7.364662885665893555e-01,7.301125526428222656e-01,7.241196632385253906e-01,7.128527164459228516e-01,6.834126710891723633e-01,6.726820468902587891e-01,6.815842986106872559e-01,6.628177762031555176e-01,6.335747241973876953e-01,5.563594102859497070e-01
5.325859189033508301e-01,5.238289237022399902e-01,5.546764731407165527e-01,5.387837290763854980e-01,5.466793179512023926e-01,5.595325827598571777e-01,5.837580561637878418e-01,5.949324369430541992e-01,6.053948402404785156e-01,6.135171651840209961e-01,6.215298175811767578e-01,6.294543743133544922e-01,6.371030807495117188e-01,6.439253091812133789e-01,6.500868201255798340e-01,6.548179984092712402e-01,6.580417752265930176e-01,6.604410409927368164e-01,6.619913578033447266e-01,6.628112792968750000e-01,6.630150079727172852e-01,6.629748940467834473e-01,6.628705859184265137e-01,6.627820730209350586e-01,6.626335978507995605e-01,6.647162437438964844e-01,6.620774269104003906e-01,6.507619619369506836e-01,6.348741054534912109e-01,6.192770004272460938e-01,5.681163072586059570e-01,5.109688639640808105e-01,4.374851584434509277e-01,3.505781888961791992e-01,2.970740795135498047e-01,2.672059535980224609e-01,2.515948414802551270e-01,2.490414381027221680e-01,2.549381852149963379e-01,2.632639408111572266e-01,2.945883274078369141e-01,3.344881832599639893e-01,3.774388432502746582e-01,4.049581587314605713e-01,4.707183539867401123e-01,4.879233539104461670e-01,5.147589445114135742e-01,5.369931459426879883e-01,5.557497739791870117e-01,5.723301768302917480e-01,5.825267434120178223e-01,5.940707921981811523e-01,6.143431663513183594e-01,6.281096339225769043e-01,6.361991167068481445e-01,6.438676714897155762e-01,6.499118208885192871e-01,6.562404632568359375e-01,6.577951312065124512e-01,6.597248315811157227e-01,6.596144437789916992e-01,6.594830751419067383e-01,6.593789458274841309e-01,6.593176722526550293e-01,6.591060161590576172e-01,6.588956713676452637e-01,6.585750579833984375e-01,6.574161648750305176e-01,6.554188728332519531e-01,6.522369384765625000e-01,6.490167379379272461e-01,6.441926956176757812e-01,6.403259038925170898e-01,6.306353211402893066e-01,6.031623482704162598e-01,5.957906246185302734e-01,6.114005446434020996e-01,5.966502428054809570e-01,5.878549218177795410e-01,5.267931222915649414e-01
5.115995407104492188e-01,4.894202351570129395e-01,5.142375826835632324e-01,4.909886419773101807e-01,4.925716519355773926e-01,5.011522769927978516e-01,5.197545289993286133e-01,5.277044773101806641e-01,5.348394513130187988e-01,5.396759510040283203e-01,5.445460081100463867e-01,5.496526956558227539e-01,5.546053051948547363e-01,5.589348673820495605e-01,5.625534653663635254e-01,5.652492642402648926e-01,5.675318241119384766e-01,5.691315531730651855e-01,5.702059864997863770e-01,5.706900358200073242e-01,5.707870721817016602e-01,5.707005858421325684e-01,5.705625414848327637e-01,5.704774260520935059e-01,5.702711343765258789e-01,5.721082687377929688e-01,5.693174004554748535e-01,5.590091943740844727e-01,5.458002090454101562e-01,5.337926149368286133e-01,4.849890768527984619e-01,4.382141828536987305e-01,3.827721178531646729e-01,3.222420513629913330e-01,2.788248062133789062e-01,2.552894949913024902e-01,2.469000816345214844e-01,2.472141683101654053e-01,2.518852353096008301e-01,2.592440247535705566e-01,2.884886264801025391e-01,3.265112638473510742e-01,3.465657234191894531e-01,3.980886936187744141e-01,4.133741855621337891e-01,4.405678212642669678e-01,4.514409005641937256e-01,4.747678041458129883e-01,4.894206523895263672e-01,4.984024465084075928e-01,5.107755064964294434e-01,5.174471139907836914e-01,5.330356359481811523e-01,5.439975857734680176e-01,5.492233037948608398e-01,5.555198788642883301e-01,5.623664259910583496e-01,5.651926994323730469e-01,5.674304962158203125e-01,5.668471455574035645e-01,5.673201680183410645e-01,5.671907663345336914e-01,5.670749545097351074e-01,5.670340061187744141e-01,5.670019984245300293e-01,5.669260025024414062e-01,5.666865110397338867e-01,5.661439895629882812e-01,5.646353960037231445e-01,5.622047781944274902e-01,5.591450929641723633e-01,5.555291175842285156e-01,5.535879731178283691e-01,5.454104542732238770e-01,5.213518142700195312e-01,5.172432065010070801e-01,5.382696390151977539e-01,5.279479622840881348e-01,5.395903587341308594e-01,4.964595735073089600e-01
4.905949831008911133e-01,4.557273387908935547e-01,4.713602066040039062e-01,4.409423172473907471e-01,4.362769722938537598e-01,4.406327605247497559e-01,4.540548622608184814e-01,4.581338763236999512e-01,4.624603092670440674e-01,4.647841751575469971e-01,4.673420786857604980e-01,4.701568186283111572e-01,4.729179441928863525e-01,4.755471050739288330e-01,4.778395593166351318e-01,4.795407950878143311e-01,4.808165729045867920e-01,4.817726016044616699e-01,4.823701083660125732e-01,4.826213419437408447e-01,4.826748371124267578e-01,4.826621413230895996e-01,4.825817942619323730e-01,4.824655652046203613e-01,4.822330772876739502e-01,4.837295413017272949e-01,4.819752871990203857e-01,4.748356938362121582e-01,4.659977555274963379e-01,4.562733769416809082e-01,4.150760173797607422e-01,3.828703761100769043e-01,3.414107561111450195e-01,2.988784313201904297e-01,2.646597027778625488e-01,2.470827102661132812e-01,2.410778999328613281e-01,2.407839298248291016e-01,2.442418336868286133e-01,2.573278546333312988e-01,2.759532332420349121e-01,3.018682003021240234e-01,3.285520672798156738e-01,3.460178971290588379e-01,3.760897517204284668e-01,3.814075589179992676e-01,3.978253602981567383e-01,4.117961823940277100e-01,4.196519553661346436e-01,4.269803166389465332e-01,4.354932010173797607e-01,4.498834908008575439e-01,4.576612114906311035e-01,4.629237055778503418e-01,4.676631987094879150e-01,4.727994799613952637e-01,4.776161909103393555e-01,4.777581393718719482e-01,4.797883629798889160e-01,4.799491465091705322e-01,4.799331724643707275e-01,4.796560108661651611e-01,4.796055853366851807e-01,4.795405864715576172e-01,4.795265793800354004e-01,4.795333147048950195e-01,4.794553220272064209e-01,4.793643653392791748e-01,4.787937700748443604e-01,4.777667820453643799e-01,4.768448472023010254e-01,4.752842187881469727e-01,4.752553999423980713e-01,4.694082736968994141e-01,4.494120776653289795e-01,4.481740593910217285e-01,4.717224538326263428e-01,4.687213897705078125e-01,4.949334859848022461e-01,4.690635502338409424e-01
4.694164097309112549e-01,4.224267005920410156e-01,4.285583794116973877e-01,3.950809836387634277e-01,3.841162323951721191e-01,3.856806755065917969e-01,3.960950970649719238e-01,3.990328311920166016e-01,4.020540416240692139e-01,4.032446742057800293e-01,4.044555723667144775e-01,4.056643247604370117e-01,4.066812396049499512e-01,4.076248407363891602e-01,4.084200263023376465e-01,4.090018868446350098e-01,4.096119403839111328e-01,4.100951552391052246e-01,4.102989137172698975e-01,4.103435575962066650e-01,4.103472828865051270e-01,4.102516174316406250e-01,4.101796150207519531e-01,4.100949764251708984e-01,4.098844826221466064e-01,4.109233021736145020e-01,4.092684388160705566e-01,4.045166075229644775e-01,3.997743427753448486e-01,3.922686278820037842e-01,3.594490289688110352e-01,3.391906917095184326e-01,3.078866899013519287e-01,2.800362706184387207e-01,2.510002851486206055e-01,2.413068115711212158e-01,2.377470731735229492e-01,2.364477217197418213e-01,2.386411130428314209e-01,2.539951801300048828e-01,2.690689563751220703e-01,2.829008698463439941e-01,2.980024814605712891e-01,3.189255893230438232e-01,3.283420205116271973e-01,3.397946655750274658e-01,3.506108522415161133e-01,3.603777289390563965e-01,3.647621273994445801e-01,3.732531368732452393e-01,3.791620731353759766e-01,3.867534399032592773e-01,3.932247459888458252e-01,3.960430622100830078e-01,4.012676179409027100e-01,4.055355191230773926e-01,4.067372679710388184e-01,4.082669615745544434e-01,4.078184366226196289e-01,4.080561697483062744e-01,4.079627394676208496e-01,4.078990221023559570e-01,4.078434407711029053e-01,4.077967107295989990e-01,4.077656865119934082e-01,4.077461361885070801e-01,4.077659845352172852e-01,4.076725840568542480e-01,4.072919189929962158e-01,4.064579606056213379e-01,4.056167006492614746e-01,4.045303463935852051e-01,4.051815271377563477e-01,4.014861881732940674e-01,3.856213390827178955e-01,3.876318633556365967e-01,4.134532511234283447e-01,4.176760911941528320e-01,4.559871852397918701e-01,4.460386633872985840e-01
4.513963460922241211e-01,3.938270807266235352e-01,3.929902315139770508e-01,3.573004603385925293e-01,3.413661718368530273e-01,3.406566977500915527e-01,3.481026291847229004e-01,3.498229980468750000e-01,3.515178859233856201e-01,3.519386053085327148e-01,3.524553179740905762e-01,3.529177010059356689e-01,3.534014821052551270e-01,3.538366258144378662e-01,3.541219234466552734e-01,3.542193770408630371e-01,3.542891144752502441e-01,3.541591763496398926e-01,3.540088236331939697e-01,3.539516925811767578e-01,3.539293408393859863e-01,3.538941144943237305e-01,3.538387417793273926e-01,3.537826538085937500e-01,3.536365628242492676e-01,3.542916774749755859e-01,3.530383706092834473e-01,3.510094881057739258e-01,3.463660478591918945e-01,3.406570553779602051e-01,3.185084164142608643e-01,3.068440556526184082e-01,2.852492034435272217e-01,2.617270946502685547e-01,2.419463098049163818e-01,2.345344424247741699e-01,2.315619885921478271e-01,2.320769727230072021e-01,2.357004284858703613e-01,2.466761171817779541e-01,2.562053501605987549e-01,2.621004581451416016e-01,2.776653766632080078e-01,2.921723723411560059e-01,2.962399721145629883e-01,3.044449090957641602e-01,3.156269192695617676e-01,3.129788935184478760e-01,3.213573098182678223e-01,3.260346651077270508e-01,3.344236910343170166e-01,3.392553627490997314e-01,3.432849049568176270e-01,3.452077507972717285e-01,3.485096096992492676e-01,3.512889444828033447e-01,3.511506915092468262e-01,3.523260951042175293e-01,3.524243831634521484e-01,3.524408340454101562e-01,3.522014021873474121e-01,3.522153496742248535e-01,3.521731495857238770e-01,3.521450459957122803e-01,3.521062731742858887e-01,3.520507812500000000e-01,3.520541191101074219e-01,3.520984053611755371e-01,3.520475029945373535e-01,3.519698083400726318e-01,3.517109751701354980e-01,3.512547612190246582e-01,3.520910739898681641e-01,3.494622707366943359e-01,3.362757563591003418e-01,3.391447961330413818e-01,3.652964234352111816e-01,3.756630122661590576e-01,4.224265515804290771e-01,4.258085489273071289e-01
4.349675476551055908e-01,3.689443171024322510e-01,3.612746298313140869e-01,3.251653909683227539e-01,3.061296343803405762e-01,3.047557771205902100e-01,3.108611702919006348e-01,3.122462630271911621e-01,3.134048283100128174e-01,3.134174346923828125e-01,3.133993446826934814e-01,3.133905529975891113e-01,3.134686350822448730e-01,3.135563135147094727e-01,3.135878443717956543e-01,3.136010169982910156e-01,3.135591447353363037e-01,3.135101497173309326e-01,3.135265707969665527e-01,3.135097622871398926e-01,3.134520053863525391e-01,3.134071826934814453e-01,3.133732378482818604e-01,3.133408427238464355e-01,3.132272362709045410e-01,3.136780560016632080e-01,3.127062916755676270e-01,3.122626543045043945e-01,3.094555735588073730e-01,3.042578697204589844e-01,2.900855541229248047e-01,2.805126011371612549e-01,2.666458487510681152e-01,2.490125000476837158e-01,2.336541712284088135e-01,2.286469638347625732e-01,2.287682890892028809e-01,2.301833033561706543e-01,2.290477454662322998e-01,2.401540279388427734e-01,2.446229159832000732e-01,2.460646033287048340e-01,2.584965229034423828e-01,2.676433920860290527e-01,2.757665812969207764e-01,2.797086834907531738e-01,2.812596559524536133e-01,2.842381894588470459e-01,2.882329821586608887e-01,2.952547669410705566e-01,2.980626225471496582e-01,3.027415275573730469e-01,3.051223158836364746e-01,3.082525134086608887e-01,3.100156784057617188e-01,3.111063539981842041e-01,3.123326599597930908e-01,3.122954368591308594e-01,3.122786581516265869e-01,3.122062087059020996e-01,3.122263550758361816e-01,3.122020363807678223e-01,3.121694624423980713e-01,3.121411502361297607e-01,3.121125102043151855e-01,3.120825886726379395e-01,3.120419383049011230e-01,3.119903802871704102e-01,3.119653165340423584e-01,3.118487000465393066e-01,3.117126822471618652e-01,3.114942908287048340e-01,3.122369050979614258e-01,3.104092478752136230e-01,2.992183864116668701e-01,3.025766611099243164e-01,3.288082778453826904e-01,3.441784977912902832e-01,3.968175351619720459e-01,4.100965261459350586e-01
4.212120175361633301e-01,3.491290211677551270e-01,3.364073038101196289e-01,2.999925315380096436e-01,2.791692018508911133e-01,2.769929170608520508e-01,2.819452881813049316e-01,2.831109166145324707e-01,2.839942574501037598e-01,2.838835716247558594e-01,2.838449478149414062e-01,2.838427424430847168e-01,2.838248014450073242e-01,2.838079333305358887e-01,2.837923765182495117e-01,2.837542891502380371e-01,2.837150096893310547e-01,2.836858034133911133e-01,2.836603224277496338e-01,2.836257219314575195e-01,2.835990488529205322e-01,2.835771441459655762e-01,2.835546731948852539e-01,2.835321426391601562e-01,2.834507524967193604e-01,2.835537195205688477e-01,2.831695079803466797e-01,2.829048335552215576e-01,2.813315987586975098e-01,2.775603830814361572e-01,2.695990204811096191e-01,2.619048953056335449e-01,2.508509457111358643e-01,2.436407506465911865e-01,2.286354005336761475e-01,2.254477143287658691e-01,2.216694355010986328e-01,2.226771414279937744e-01,2.251370847225189209e-01,2.300380766391754150e-01,2.320090532302856445e-01,2.391475141048431396e-01,2.417249679565429688e-01,2.523582577705383301e-01,2.541028857231140137e-01,2.580973505973815918e-01,2.592676281929016113e-01,2.645049989223480225e-01,2.647162079811096191e-01,2.696301043033599854e-01,2.729380726814270020e-01,2.757140696048736572e-01,2.774391472339630127e-01,2.797543108463287354e-01,2.808660268783569336e-01,2.815489470958709717e-01,2.822237312793731689e-01,2.828509807586669922e-01,2.827785015106201172e-01,2.827404141426086426e-01,2.827388048171997070e-01,2.827034592628479004e-01,2.826838195323944092e-01,2.826637625694274902e-01,2.826420068740844727e-01,2.826169729232788086e-01,2.825934290885925293e-01,2.825838625431060791e-01,2.825746238231658936e-01,2.825736999511718750e-01,2.825545072555541992e-01,2.824457883834838867e-01,2.830859422683715820e-01,2.817755341529846191e-01,2.718521654605865479e-01,2.751274108886718750e-01,3.007302284240722656e-01,3.195542097091674805e-01,3.762908577919006348e-01,3.975745439529418945e-01
4.091750979423522949e-01,3.324902653694152832e-01,3.159776031970977783e-01,2.799484729766845703e-01,2.584218084812164307e-01,2.558307349681854248e-01,2.600249648094177246e-01,2.610176205635070801e-01,2.617905139923095703e-01,2.617052197456359863e-01,2.616647481918334961e-01,2.616420388221740723e-01,2.616223692893981934e-01,2.616066336631774902e-01,2.615900039672851562e-01,2.615725994110107422e-01,2.615566253662109375e-01,2.615412175655364990e-01,2.615238130092620850e-01,2.615062594413757324e-01,2.614895999431610107e-01,2.614737749099731445e-01,2.614576220512390137e-01,2.614416182041168213e-01,2.613849043846130371e-01,2.613852024078369141e-01,2.615078687667846680e-01,2.614476084709167480e-01,2.601484060287475586e-01,2.581240534782409668e-01,2.540296912193298340e-01,2.469652891159057617e-01,2.395367622375488281e-01,2.330442667007446289e-01,2.238838970661163330e-01,2.208574414253234863e-01,2.198994457721710205e-01,2.183289825916290283e-01,2.205474376678466797e-01,2.225271463394165039e-01,2.248020172119140625e-01,2.252238392829895020e-01,2.308794558048248291e-01,2.343753576278686523e-01,2.410799264907836914e-01,2.422780096530914307e-01,2.449157536029815674e-01,2.469618320465087891e-01,2.484922707080841064e-01,2.502365112304687500e-01,2.537159323692321777e-01,2.552109956741333008e-01,2.569615244865417480e-01,2.581810951232910156e-01,2.589275836944580078e-01,2.597841024398803711e-01,2.602002620697021484e-01,2.604116201400756836e-01,2.607360482215881348e-01,2.607765197753906250e-01,2.608198225498199463e-01,2.608013749122619629e-01,2.607964277267456055e-01,2.607783675193786621e-01,2.607625722885131836e-01,2.607458233833312988e-01,2.607285380363464355e-01,2.607128024101257324e-01,2.606978118419647217e-01,2.606822252273559570e-01,2.606665492057800293e-01,2.605883479118347168e-01,2.611064016819000244e-01,2.600604295730590820e-01,2.511630058288574219e-01,2.544414401054382324e-01,2.794522047042846680e-01,3.009886145591735840e-01,3.605783581733703613e-01,3.876293897628784180e-01
3.991091847419738770e-01,3.188907206058502197e-01,2.997258901596069336e-01,2.643867731094360352e-01,2.423034608364105225e-01,2.394157350063323975e-01,2.430760860443115234e-01,2.439664006233215332e-01,2.446576654911041260e-01,2.445940673351287842e-01,2.445615231990814209e-01,2.445466518402099609e-01,2.445320188999176025e-01,2.445179224014282227e-01,2.445032894611358643e-01,2.444888651371002197e-01,2.444751262664794922e-01,2.444617450237274170e-01,2.444482147693634033e-01,2.444347143173217773e-01,2.444217801094055176e-01,2.444090247154235840e-01,2.443961501121520996e-01,2.443855702877044678e-01,2.443518042564392090e-01,2.442763149738311768e-01,2.444106340408325195e-01,2.443158626556396484e-01,2.432415187358856201e-01,2.420824468135833740e-01,2.402118742465972900e-01,2.345590591430664062e-01,2.298724651336669922e-01,2.265954315662384033e-01,2.198736667633056641e-01,2.176452875137329102e-01,2.158123254776000977e-01,2.148118019104003906e-01,2.128917872905731201e-01,2.173038423061370850e-01,2.172367870807647705e-01,2.190533876419067383e-01,2.216064631938934326e-01,2.243101000785827637e-01,2.282242476940155029e-01,2.306256294250488281e-01,2.320184409618377686e-01,2.335234284400939941e-01,2.349659800529479980e-01,2.360298931598663330e-01,2.382331192493438721e-01,2.396366894245147705e-01,2.406714558601379395e-01,2.412117719650268555e-01,2.419642210006713867e-01,2.424788773059844971e-01,2.430211901664733887e-01,2.433802783489227295e-01,2.436519861221313477e-01,2.437917590141296387e-01,2.438503205776214600e-01,2.438721060752868652e-01,2.438679039478302002e-01,2.438652515411376953e-01,2.438519895076751709e-01,2.438385486602783203e-01,2.438253462314605713e-01,2.438118159770965576e-01,2.437987625598907471e-01,2.437857389450073242e-01,2.437726557254791260e-01,2.437085509300231934e-01,2.441329061985015869e-01,2.432976067066192627e-01,2.352189421653747559e-01,2.385302186012268066e-01,2.629275321960449219e-01,2.863621115684509277e-01,3.479758203029632568e-01,3.796794712543487549e-01
3.908081650733947754e-01,3.077772259712219238e-01,2.866263985633850098e-01,2.519667148590087891e-01,2.295309901237487793e-01,2.264036238193511963e-01,2.296694815158843994e-01,2.304593324661254883e-01,2.310810387134552002e-01,2.310262024402618408e-01,2.309991717338562012e-01,2.309884727001190186e-01,2.309778928756713867e-01,2.309674918651580811e-01,2.309571504592895508e-01,2.309467792510986328e-01,2.309362888336181641e-01,2.309259176254272461e-01,2.309153079986572266e-01,2.309047877788543701e-01,2.308945953845977783e-01,2.308841645717620850e-01,2.308737933635711670e-01,2.308684885501861572e-01,2.308471500873565674e-01,2.308226525783538818e-01,2.309086322784423828e-01,2.308418452739715576e-01,2.300897836685180664e-01,2.298968136310577393e-01,2.286762893199920654e-01,2.244362235069274902e-01,2.206377387046813965e-01,2.181890904903411865e-01,2.133713364601135254e-01,2.123945653438568115e-01,2.121617197990417480e-01,2.101013064384460449e-01,2.101220786571502686e-01,2.119151949882507324e-01,2.121870517730712891e-01,2.138782143592834473e-01,2.148833572864532471e-01,2.173027098178863525e-01,2.171306610107421875e-01,2.209610342979431152e-01,2.219498157501220703e-01,2.229276299476623535e-01,2.246553301811218262e-01,2.251966595649719238e-01,2.259495556354522705e-01,2.272331416606903076e-01,2.278133332729339600e-01,2.281162738800048828e-01,2.287202179431915283e-01,2.291151881217956543e-01,2.295314669609069824e-01,2.298274040222167969e-01,2.300069034099578857e-01,2.302389740943908691e-01,2.303911149501800537e-01,2.304502129554748535e-01,2.304451763629913330e-01,2.304439842700958252e-01,2.304362654685974121e-01,2.304260730743408203e-01,2.304156720638275146e-01,2.304050922393798828e-01,2.303950488567352295e-01,2.303843200206756592e-01,2.303739488124847412e-01,2.303204238414764404e-01,2.306761443614959717e-01,2.299999594688415527e-01,2.225851714611053467e-01,2.259083986282348633e-01,2.498033344745635986e-01,2.745871543884277344e-01,3.377232551574707031e-01,3.731960654258728027e-01
3.838094770908355713e-01,2.985766232013702393e-01,2.758279740810394287e-01,2.418437004089355469e-01,2.191885411739349365e-01,2.158557474613189697e-01,2.188114523887634277e-01,2.195127010345458984e-01,2.200788855552673340e-01,2.200313210487365723e-01,2.200080156326293945e-01,2.199996709823608398e-01,2.199911773204803467e-01,2.199827134609222412e-01,2.199738621711730957e-01,2.199651598930358887e-01,2.199567258358001709e-01,2.199482321739196777e-01,2.199396193027496338e-01,2.199310660362243652e-01,2.199223935604095459e-01,2.199138700962066650e-01,2.199052572250366211e-01,2.198984324932098389e-01,2.198864817619323730e-01,2.198486626148223877e-01,2.199639379978179932e-01,2.197107672691345215e-01,2.193297147750854492e-01,2.193650603294372559e-01,2.185060083866119385e-01,2.155212759971618652e-01,2.140262722969055176e-01,2.119232416152954102e-01,2.087415754795074463e-01,2.071928381919860840e-01,2.071502506732940674e-01,2.057831287384033203e-01,2.056467831134796143e-01,2.052038609981536865e-01,2.077511548995971680e-01,2.082780599594116211e-01,2.096484005451202393e-01,2.104874551296234131e-01,2.109582424163818359e-01,2.128453254699707031e-01,2.138650119304656982e-01,2.142127454280853271e-01,2.149003446102142334e-01,2.161416411399841309e-01,2.164605855941772461e-01,2.166655659675598145e-01,2.172686457633972168e-01,2.176674604415893555e-01,2.181009650230407715e-01,2.184343039989471436e-01,2.186658680438995361e-01,2.190228104591369629e-01,2.191583514213562012e-01,2.192831635475158691e-01,2.194531559944152832e-01,2.195310890674591064e-01,2.195550799369812012e-01,2.195537388324737549e-01,2.195470035076141357e-01,2.195384800434112549e-01,2.195300161838531494e-01,2.195215523242950439e-01,2.195130288600921631e-01,2.195045650005340576e-01,2.194952964782714844e-01,2.194502651691436768e-01,2.197555303573608398e-01,2.192066013813018799e-01,2.123377323150634766e-01,2.156662940979003906e-01,2.391503155231475830e-01,2.649208009243011475e-01,3.292237222194671631e-01,3.678042590618133545e-01
3.778363466262817383e-01,2.908427715301513672e-01,2.668055891990661621e-01,2.334573268890380859e-01,2.106571197509765625e-01,2.071470618247985840e-01,2.098508477210998535e-01,2.104744017124176025e-01,2.109917700290679932e-01,2.109498381614685059e-01,2.109299302101135254e-01,2.109228372573852539e-01,2.109156250953674316e-01,2.109082937240600586e-01,2.109014093875885010e-01,2.108942270278930664e-01,2.108872532844543457e-01,2.108799815177917480e-01,2.108726799488067627e-01,2.108654975891113281e-01,2.108587622642517090e-01,2.108515501022338867e-01,2.108442187309265137e-01,2.108383178710937500e-01,2.108287215232849121e-01,2.108138203620910645e-01,2.108429372310638428e-01,2.107228636741638184e-01,2.106958031654357910e-01,2.106603682041168213e-01,2.100378274917602539e-01,2.085580825805664062e-01,2.069528996944427490e-01,2.056653499603271484e-01,2.037949562072753906e-01,2.020334899425506592e-01,2.017935514450073242e-01,2.019349932670593262e-01,2.017164826393127441e-01,2.021568417549133301e-01,2.019850611686706543e-01,2.027348577976226807e-01,2.044267654418945312e-01,2.047676444053649902e-01,2.062245607376098633e-01,2.059480547904968262e-01,2.068674266338348389e-01,2.072238624095916748e-01,2.070710659027099609e-01,2.080312371253967285e-01,2.080606222152709961e-01,2.083339095115661621e-01,2.085118293762207031e-01,2.091652154922485352e-01,2.093474268913269043e-01,2.096815407276153564e-01,2.099335193634033203e-01,2.100140452384948730e-01,2.102483510971069336e-01,2.102710306644439697e-01,2.104524970054626465e-01,2.105132937431335449e-01,2.105626761913299561e-01,2.105506062507629395e-01,2.105458378791809082e-01,2.105383872985839844e-01,2.105314433574676514e-01,2.105244994163513184e-01,2.105172872543334961e-01,2.105101644992828369e-01,2.105023860931396484e-01,2.104637920856475830e-01,2.107298672199249268e-01,2.102828323841094971e-01,2.038674950599670410e-01,2.071973383426666260e-01,2.303324341773986816e-01,2.568453550338745117e-01,3.220570683479309082e-01,3.632422089576721191e-01
