5.795702338218688965e-01,5.982286930084228516e-01,6.480356454849243164e-01,6.185641884803771973e-01,6.515633463859558105e-01,6.743718385696411133e-01,7.075763344764709473e-01,7.301660180091857910e-01,7.501367330551147461e-01,7.685757279396057129e-01,7.867045402526855469e-01,8.029253482818603516e-01,8.189265727996826172e-01,8.341143131256103516e-01,8.459055423736572266e-01,8.549929857254028320e-01,8.612017035484313965e-01,8.666809797286987305e-01,8.694666028022766113e-01,8.715744018554687500e-01,8.728051185607910156e-01,8.733472824096679688e-01,8.735409975051879883e-01,8.734959363937377930e-01,8.740148544311523438e-01,8.742973804473876953e-01,8.711510896682739258e-01,8.606203198432922363e-01,8.404449224472045898e-01,8.153055906295776367e-01,7.540500164031982422e-01,6.994981169700622559e-01,6.106731891632080078e-01,5.034763813018798828e-01,4.383701980113983154e-01,3.697305321693420410e-01,3.262399733066558838e-01,2.830651998519897461e-01,2.629768252372741699e-01,2.545963525772094727e-01,2.573754787445068359e-01,2.595449686050415039e-01,2.630461156368255615e-01,2.612878084182739258e-01,2.990074157714843750e-01,3.108791112899780273e-01,3.067482709884643555e-01,3.024285435676574707e-01,3.079330921173095703e-01,3.064033389091491699e-01,3.012002706527709961e-01,2.819780707359313965e-01,2.849787473678588867e-01,2.898316681385040283e-01,2.967729568481445312e-01,3.178867101669311523e-01,3.549845218658447266e-01,4.242235422134399414e-01,4.537676870822906494e-01,5.465853214263916016e-01,6.072794198989868164e-01,6.711416244506835938e-01,7.106890678405761719e-01,7.367168664932250977e-01,7.604203224182128906e-01,7.748188972473144531e-01,7.782104015350341797e-01,7.856348752975463867e-01,7.900066375732421875e-01,7.910315394401550293e-01,7.993883490562438965e-01,7.992658615112304688e-01,8.007721900939941406e-01,7.976282835006713867e-01,7.815513610839843750e-01,7.652013301849365234e-01,7.577964663505554199e-01,7.459362149238586426e-01,6.766505837440490723e-01,5.980495214462280273e-01
5.916154384613037109e-01,6.112030744552612305e-01,6.348635554313659668e-01,6.225447058677673340e-01,6.499801874160766602e-01,6.736614704132080078e-01,7.128706574440002441e-01,7.344685196876525879e-01,7.552269697189331055e-01,7.754621505737304688e-01,7.932409644126892090e-01,8.102239966392517090e-01,8.250707983970642090e-01,8.410222530364990234e-01,8.532792329788208008e-01,8.619813919067382812e-01,8.695371150970458984e-01,8.739725351333618164e-01,8.775790929794311523e-01,8.793591260910034180e-01,8.806486725807189941e-01,8.814745545387268066e-01,8.818974494934082031e-01,8.816098570823669434e-01,8.811331987380981445e-01,8.813076019287109375e-01,8.782370090484619141e-01,8.660612106323242188e-01,8.514493703842163086e-01,8.236494064331054688e-01,7.925639152526855469e-01,7.101001143455505371e-01,6.247324943542480469e-01,4.943112730979919434e-01,4.181126654148101807e-01,3.391866683959960938e-01,2.852053642272949219e-01,2.519608139991760254e-01,2.347471117973327637e-01,2.281529903411865234e-01,2.289972901344299316e-01,2.265174388885498047e-01,2.400740385055541992e-01,2.517048120498657227e-01,2.842670679092407227e-01,2.978131473064422607e-01,3.031592965126037598e-01,2.921060919761657715e-01,2.984945476055145264e-01,2.861683368682861328e-01,2.845411896705627441e-01,2.637888193130493164e-01,2.589537799358367920e-01,2.575116157531738281e-01,2.786339819431304932e-01,2.911577224731445312e-01,3.110832571983337402e-01,3.492913842201232910e-01,4.459987282752990723e-01,4.944032728672027588e-01,5.671753287315368652e-01,6.543242931365966797e-01,7.070680856704711914e-01,7.372012138366699219e-01,7.532300949096679688e-01,7.749255895614624023e-01,7.827492952346801758e-01,7.923166751861572266e-01,7.970345616340637207e-01,7.955697774887084961e-01,8.013818264007568359e-01,8.064113855361938477e-01,8.061232566833496094e-01,8.027921319007873535e-01,7.793421149253845215e-01,7.593289613723754883e-01,7.573385238647460938e-01,7.388334274291992188e-01,6.756533384323120117e-01,5.825817584991455078e-01
5.760110020637512207e-01,5.908902287483215332e-01,6.343258619308471680e-01,6.279860734939575195e-01,6.464068889617919922e-01,6.690381765365600586e-01,7.076365947723388672e-01,7.304211258888244629e-01,7.530205249786376953e-01,7.734233736991882324e-01,7.937982082366943359e-01,8.119136095046997070e-01,8.288815021514892578e-01,8.426451683044433594e-01,8.561212420463562012e-01,8.659185767173767090e-01,8.727936744689941406e-01,8.776047229766845703e-01,8.806565999984741211e-01,8.831241130828857422e-01,8.842967152595520020e-01,8.850240707397460938e-01,8.853195309638977051e-01,8.859282732009887695e-01,8.868590593338012695e-01,8.877536058425903320e-01,8.853162527084350586e-01,8.755282759666442871e-01,8.648127317428588867e-01,8.324774503707885742e-01,8.015751838684082031e-01,7.292343378067016602e-01,6.144248247146606445e-01,4.796805083751678467e-01,3.747849464416503906e-01,3.000231385231018066e-01,2.534251213073730469e-01,2.309768497943878174e-01,2.071406543254852295e-01,2.014326453208923340e-01,2.044970691204071045e-01,2.060138285160064697e-01,2.296674847602844238e-01,2.596142292022705078e-01,2.807489633560180664e-01,3.011146187782287598e-01,3.083833456039428711e-01,2.982462048530578613e-01,2.817019522190093994e-01,2.933139204978942871e-01,2.717629075050354004e-01,2.566938400268554688e-01,2.251712381839752197e-01,2.257589995861053467e-01,2.305459082126617432e-01,2.517215013504028320e-01,2.688101530075073242e-01,3.148308396339416504e-01,4.075734913349151611e-01,4.561279416084289551e-01,5.349069237709045410e-01,6.245719194412231445e-01,6.980724930763244629e-01,7.239042520523071289e-01,7.491361498832702637e-01,7.705211639404296875e-01,7.805294394493103027e-01,7.887120246887207031e-01,7.940477132797241211e-01,7.973086833953857422e-01,7.981101274490356445e-01,8.038229942321777344e-01,8.033427000045776367e-01,8.002070188522338867e-01,7.749828696250915527e-01,7.550556659698486328e-01,7.562013864517211914e-01,7.380266189575195312e-01,6.926057934761047363e-01,5.928919911384582520e-01
5.856293439865112305e-01,6.095347404479980469e-01,6.510720252990722656e-01,6.518872380256652832e-01,6.743697524070739746e-01,6.974390745162963867e-01,7.324488162994384766e-01,7.537956237792968750e-01,7.752491235733032227e-01,7.940109372138977051e-01,8.125058412551879883e-01,8.297313451766967773e-01,8.440529704093933105e-01,8.575364351272583008e-01,8.687928915023803711e-01,8.789941072463989258e-01,8.860358595848083496e-01,8.904826045036315918e-01,8.932614326477050781e-01,8.950710296630859375e-01,8.964805603027343750e-01,8.971008658409118652e-01,8.973083496093750000e-01,8.973680734634399414e-01,8.982536792755126953e-01,8.979784250259399414e-01,8.958743810653686523e-01,8.923935890197753906e-01,8.799831867218017578e-01,8.547732234001159668e-01,8.298238515853881836e-01,7.719441652297973633e-01,6.763303875923156738e-01,5.397167801856994629e-01,4.187694191932678223e-01,3.278013467788696289e-01,2.812438607215881348e-01,2.543998658657073975e-01,2.251268029212951660e-01,2.240193188190460205e-01,2.248673737049102783e-01,2.261401116847991943e-01,2.514949440956115723e-01,3.029885590076446533e-01,3.493242263793945312e-01,3.408775627613067627e-01,3.590159118175506592e-01,3.686230778694152832e-01,3.385642468929290771e-01,3.385877013206481934e-01,3.258628547191619873e-01,2.977096736431121826e-01,2.687040567398071289e-01,2.437902688980102539e-01,2.523654401302337646e-01,2.695549428462982178e-01,2.920505404472351074e-01,3.110860586166381836e-01,3.675723075866699219e-01,4.636472761631011963e-01,5.392729043960571289e-01,6.185324788093566895e-01,6.948080658912658691e-01,7.394633293151855469e-01,7.620446681976318359e-01,7.796589136123657227e-01,7.971920967102050781e-01,8.064274787902832031e-01,8.146377801895141602e-01,8.153617382049560547e-01,8.160384893417358398e-01,8.131091594696044922e-01,8.198972940444946289e-01,8.170224428176879883e-01,7.947071194648742676e-01,7.803941965103149414e-01,7.753079533576965332e-01,7.531656026840209961e-01,7.043176889419555664e-01,6.069110631942749023e-01
5.862388610839843750e-01,6.089724898338317871e-01,6.536803245544433594e-01,6.547660827636718750e-01,6.780843138694763184e-01,7.019339203834533691e-01,7.384442687034606934e-01,7.597759366035461426e-01,7.806831598281860352e-01,7.996261715888977051e-01,8.179717063903808594e-01,8.352563381195068359e-01,8.500531911849975586e-01,8.631909489631652832e-01,8.749899864196777344e-01,8.844103813171386719e-01,8.914954662322998047e-01,8.961791992187500000e-01,8.992636203765869141e-01,9.009844064712524414e-01,9.020895957946777344e-01,9.028447866439819336e-01,9.031140804290771484e-01,9.031668305397033691e-01,9.036517143249511719e-01,9.048591256141662598e-01,9.052274227142333984e-01,9.025027751922607422e-01,8.931738138198852539e-01,8.695120811462402344e-01,8.407993316650390625e-01,7.886556386947631836e-01,7.168214321136474609e-01,5.817041993141174316e-01,4.554454684257507324e-01,3.507395684719085693e-01,2.914310097694396973e-01,2.518256604671478271e-01,2.337714135646820068e-01,2.305426001548767090e-01,2.388200163841247559e-01,2.464832663536071777e-01,2.767482995986938477e-01,3.172148466110229492e-01,3.995402753353118896e-01,4.023748040199279785e-01,4.080173671245574951e-01,4.090265035629272461e-01,4.064437448978424072e-01,3.724807798862457275e-01,3.602545559406280518e-01,3.145619034767150879e-01,2.966038286685943604e-01,2.617061734199523926e-01,2.450191378593444824e-01,2.527408003807067871e-01,2.780390381813049316e-01,3.080596327781677246e-01,3.422237038612365723e-01,4.392450153827667236e-01,5.050426721572875977e-01,5.898237824440002441e-01,6.730299592018127441e-01,7.297202348709106445e-01,7.587756514549255371e-01,7.822759747505187988e-01,7.972626686096191406e-01,8.109826445579528809e-01,8.163760900497436523e-01,8.190029263496398926e-01,8.177235722541809082e-01,8.195985555648803711e-01,8.240888714790344238e-01,8.240559101104736328e-01,8.028903603553771973e-01,7.898351550102233887e-01,7.875460386276245117e-01,7.678933739662170410e-01,7.178938388824462891e-01,6.126399636268615723e-01
5.892091989517211914e-01,6.141219735145568848e-01,6.574169397354125977e-01,6.579464077949523926e-01,6.818148493766784668e-01,7.059261202812194824e-01,7.424403429031372070e-01,7.638154029846191406e-01,7.844156026840209961e-01,8.029772043228149414e-01,8.210766315460205078e-01,8.377193212509155273e-01,8.528631925582885742e-01,8.658937215805053711e-01,8.772037029266357422e-01,8.867897391319274902e-01,8.938255310058593750e-01,8.984438180923461914e-01,9.016292095184326172e-01,9.035806655883789062e-01,9.046262502670288086e-01,9.052567481994628906e-01,9.054816961288452148e-01,9.055815935134887695e-01,9.054803252220153809e-01,9.063165187835693359e-01,9.071148633956909180e-01,9.044582843780517578e-01,8.974483013153076172e-01,8.858757019042968750e-01,8.525065779685974121e-01,8.117979764938354492e-01,7.338916063308715820e-01,6.269819736480712891e-01,4.659862220287322998e-01,3.697832524776458740e-01,2.992291152477264404e-01,2.609791159629821777e-01,2.412920892238616943e-01,2.325852215290069580e-01,2.455022931098937988e-01,2.596611976623535156e-01,2.957982420921325684e-01,3.426848649978637695e-01,4.326487183570861816e-01,5.023899674415588379e-01,4.629648625850677490e-01,4.690797626972198486e-01,4.566625356674194336e-01,4.264930188655853271e-01,3.736453056335449219e-01,3.625015616416931152e-01,3.222594261169433594e-01,2.906972765922546387e-01,2.556300759315490723e-01,2.589853405952453613e-01,2.816125750541687012e-01,3.068225085735321045e-01,3.262950778007507324e-01,3.863766491413116455e-01,4.901925623416900635e-01,5.716371536254882812e-01,6.529657840728759766e-01,7.257283926010131836e-01,7.550181150436401367e-01,7.682877779006958008e-01,7.974463701248168945e-01,8.145467638969421387e-01,8.183208703994750977e-01,8.220754265785217285e-01,8.200546503067016602e-01,8.210124969482421875e-01,8.247356414794921875e-01,8.276966810226440430e-01,8.053343296051025391e-01,7.926329374313354492e-01,7.911757230758666992e-01,7.701017856597900391e-01,7.195704579353332520e-01,6.148957014083862305e-01
5.887280106544494629e-01,6.143669486045837402e-01,6.568012833595275879e-01,6.576663851737976074e-01,6.813176274299621582e-01,7.055898904800415039e-01,7.419078350067138672e-01,7.633273601531982422e-01,7.840609550476074219e-01,8.025951385498046875e-01,8.203086853027343750e-01,8.370760679244995117e-01,8.520724773406982422e-01,8.652585744857788086e-01,8.767313957214355469e-01,8.862706422805786133e-01,8.932356238365173340e-01,8.979353904724121094e-01,9.011544585227966309e-01,9.032230377197265625e-01,9.043701887130737305e-01,9.050068855285644531e-01,9.052340984344482422e-01,9.052559137344360352e-01,9.051952362060546875e-01,9.059397578239440918e-01,9.065017700195312500e-01,9.042257666587829590e-01,8.980710506439208984e-01,8.884090185165405273e-01,8.566631078720092773e-01,8.249151706695556641e-01,7.685414552688598633e-01,6.437543630599975586e-01,4.824965596199035645e-01,3.843408524990081787e-01,3.117285370826721191e-01,2.590103149414062500e-01,2.534080147743225098e-01,2.359015941619873047e-01,2.505386471748352051e-01,2.799777388572692871e-01,3.116328716278076172e-01,3.584752976894378662e-01,4.755557477474212646e-01,5.549988746643066406e-01,5.471318364143371582e-01,5.257815122604370117e-01,5.189130306243896484e-01,4.872727394104003906e-01,4.329425096511840820e-01,3.876750469207763672e-01,3.537747859954833984e-01,3.127459287643432617e-01,2.772779464721679688e-01,2.532438039779663086e-01,2.729845941066741943e-01,3.025714755058288574e-01,3.235642910003662109e-01,3.731637001037597656e-01,4.617264270782470703e-01,5.420452952384948730e-01,6.306933164596557617e-01,6.994831562042236328e-01,7.423635721206665039e-01,7.671619653701782227e-01,7.951841950416564941e-01,8.091334104537963867e-01,8.147703409194946289e-01,8.211649060249328613e-01,8.211655616760253906e-01,8.212184309959411621e-01,8.265562653541564941e-01,8.245745301246643066e-01,8.028493523597717285e-01,7.924491763114929199e-01,7.902191877365112305e-01,7.696635723114013672e-01,7.202958464622497559e-01,6.154637336730957031e-01
5.887537002563476562e-01,6.143562793731689453e-01,6.569753885269165039e-01,6.578222513198852539e-01,6.813722848892211914e-01,7.055995464324951172e-01,7.419757843017578125e-01,7.633659839630126953e-01,7.841252684593200684e-01,8.027312755584716797e-01,8.204541802406311035e-01,8.368873596191406250e-01,8.519613742828369141e-01,8.652217388153076172e-01,8.766924142837524414e-01,8.861923217773437500e-01,8.931939601898193359e-01,8.978419303894042969e-01,9.011031389236450195e-01,9.031971096992492676e-01,9.043800830841064453e-01,9.050228595733642578e-01,9.052658081054687500e-01,9.053067564964294434e-01,9.053175449371337891e-01,9.058091640472412109e-01,9.060176610946655273e-01,9.057365655899047852e-01,9.017698764801025391e-01,8.920528888702392578e-01,8.634319305419921875e-01,8.356786966323852539e-01,7.715370655059814453e-01,6.671633124351501465e-01,5.136744379997253418e-01,3.887458741664886475e-01,3.232012987136840820e-01,2.684053182601928711e-01,2.584850788116455078e-01,2.389154136180877686e-01,2.522889077663421631e-01,2.878916859626770020e-01,3.409933447837829590e-01,3.876684904098510742e-01,5.048320293426513672e-01,5.750873684883117676e-01,6.237559318542480469e-01,5.951822996139526367e-01,5.690385103225708008e-01,5.412052869796752930e-01,4.952972531318664551e-01,4.301105141639709473e-01,3.764072060585021973e-01,3.326882421970367432e-01,3.109331727027893066e-01,2.820877432823181152e-01,2.715467512607574463e-01,2.961357235908508301e-01,3.372055888175964355e-01,3.617900609970092773e-01,4.142579138278961182e-01,5.332733988761901855e-01,6.194569468498229980e-01,6.801373958587646484e-01,7.353176474571228027e-01,7.670793533325195312e-01,7.938297390937805176e-01,8.081104755401611328e-01,8.145462274551391602e-01,8.215564489364624023e-01,8.224555253982543945e-01,8.217741847038269043e-01,8.285185098648071289e-01,8.260084390640258789e-01,8.041696548461914062e-01,7.931528091430664062e-01,7.921741008758544922e-01,7.707049846649169922e-01,7.206583023071289062e-01,6.155993938446044922e-01
5.887330770492553711e-01,6.143198013305664062e-01,6.569504737854003906e-01,6.577835679054260254e-01,6.813434362411499023e-01,7.055723667144775391e-01,7.419348359107971191e-01,7.633390426635742188e-01,7.841010093688964844e-01,8.027129173278808594e-01,8.204678297042846680e-01,8.369159698486328125e-01,8.518258333206176758e-01,8.651649951934814453e-01,8.767174482345581055e-01,8.861409425735473633e-01,8.931357860565185547e-01,8.978178501129150391e-01,9.010538458824157715e-01,9.031689763069152832e-01,9.043698310852050781e-01,9.050208926200866699e-01,9.052604436874389648e-01,9.053040146827697754e-01,9.052492380142211914e-01,9.054458737373352051e-01,9.058384299278259277e-01,9.055776000022888184e-01,9.030671119689941406e-01,8.924174308776855469e-01,8.691909313201904297e-01,8.423933982849121094e-01,7.786898612976074219e-01,7.014009952545166016e-01,5.396527647972106934e-01,3.989229202270507812e-01,3.199118375778198242e-01,2.780646681785583496e-01,2.631614208221435547e-01,2.398863732814788818e-01,2.559812664985656738e-01,2.882399857044219971e-01,3.483712077140808105e-01,4.124314486980438232e-01,5.072545409202575684e-01,6.138858199119567871e-01,6.492344737052917480e-01,6.748157739639282227e-01,6.147757172584533691e-01,5.980777740478515625e-01,5.437106490135192871e-01,4.659325480461120605e-01,4.012546241283416748e-01,3.647521436214447021e-01,3.237107396125793457e-01,3.036182522773742676e-01,2.863696217536926270e-01,3.005031645298004150e-01,3.424654304981231689e-01,3.461085557937622070e-01,4.094046354293823242e-01,5.306619405746459961e-01,6.152354478836059570e-01,6.608641743659973145e-01,7.268597483634948730e-01,7.715463638305664062e-01,7.838331460952758789e-01,8.053086996078491211e-01,8.156789541244506836e-01,8.232482671737670898e-01,8.227081298828125000e-01,8.266872763633728027e-01,8.314846754074096680e-01,8.284007310867309570e-01,8.049652576446533203e-01,7.934968471527099609e-01,7.921874523162841797e-01,7.715290784835815430e-01,7.209690213203430176e-01,6.157678365707397461e-01
5.887261629104614258e-01,6.143088340759277344e-01,6.569378376007080078e-01,6.577691435813903809e-01,6.813269257545471191e-01,7.055541872978210449e-01,7.419204115867614746e-01,7.633181214332580566e-01,7.840822935104370117e-01,8.027039766311645508e-01,8.204585909843444824e-01,8.369137644767761230e-01,8.518290519714355469e-01,8.651090860366821289e-01,8.767033815383911133e-01,8.861720561981201172e-01,8.931173086166381836e-01,8.978028893470764160e-01,9.010584354400634766e-01,9.031590223312377930e-01,9.043627381324768066e-01,9.050205945968627930e-01,9.052632451057434082e-01,9.053171277046203613e-01,9.052762985229492188e-01,9.052327871322631836e-01,9.062887430191040039e-01,9.074196815490722656e-01,9.037377834320068359e-01,8.947080373764038086e-01,8.781961798667907715e-01,8.440477848052978516e-01,7.924895882606506348e-01,7.100201845169067383e-01,5.750364661216735840e-01,4.174478948116302490e-01,3.396289348602294922e-01,2.868514060974121094e-01,2.586504817008972168e-01,2.482538819313049316e-01,2.528758049011230469e-01,2.965165972709655762e-01,3.602267503738403320e-01,4.237490296363830566e-01,5.384359359741210938e-01,6.156178712844848633e-01,6.941311359405517578e-01,6.961462497711181641e-01,6.898212432861328125e-01,6.348620653152465820e-01,5.729377269744873047e-01,4.882726967334747314e-01,4.338344931602478027e-01,3.877361416816711426e-01,3.533962666988372803e-01,3.222397565841674805e-01,3.118285834789276123e-01,3.190729618072509766e-01,3.451503813266754150e-01,3.537407517433166504e-01,4.173653125762939453e-01,5.210878849029541016e-01,6.205052733421325684e-01,6.714417934417724609e-01,7.231916189193725586e-01,7.661174535751342773e-01,7.878593206405639648e-01,8.099930286407470703e-01,8.167273998260498047e-01,8.245524764060974121e-01,8.271582722663879395e-01,8.289077281951904297e-01,8.340194821357727051e-01,8.304104804992675781e-01,8.074942827224731445e-01,7.941519021987915039e-01,7.940977811813354492e-01,7.723388671875000000e-01,7.213345766067504883e-01,6.157765388488769531e-01
5.887191891670227051e-01,6.142978072166442871e-01,6.569250822067260742e-01,6.577544212341308594e-01,6.813108921051025391e-01,7.055374383926391602e-01,7.419031262397766113e-01,7.633032798767089844e-01,7.840654850006103516e-01,8.026869297027587891e-01,8.204486370086669922e-01,8.369042873382568359e-01,8.518205881118774414e-01,8.651015758514404297e-01,8.766873478889465332e-01,8.861626386642456055e-01,8.931198716163635254e-01,8.978000879287719727e-01,9.010530710220336914e-01,9.031602144241333008e-01,9.043619632720947266e-01,9.050196409225463867e-01,9.052625894546508789e-01,9.053145051002502441e-01,9.052884578704833984e-01,9.052533507347106934e-01,9.059694409370422363e-01,9.071900248527526855e-01,9.024997949600219727e-01,8.962163329124450684e-01,8.830913901329040527e-01,8.487724065780639648e-01,8.061823844909667969e-01,7.310516834259033203e-01,6.036663651466369629e-01,4.322553277015686035e-01,3.528276085853576660e-01,2.913609147071838379e-01,2.608821988105773926e-01,2.537701725959777832e-01,2.620018422603607178e-01,2.987931370735168457e-01,3.472847938537597656e-01,4.418413937091827393e-01,5.547608733177185059e-01,6.221719980239868164e-01,6.748690009117126465e-01,7.087122797966003418e-01,7.360736131668090820e-01,6.650188565254211426e-01,5.888519883155822754e-01,4.956112504005432129e-01,4.560205042362213135e-01,4.025115966796875000e-01,3.623777627944946289e-01,3.414685726165771484e-01,3.385255038738250732e-01,3.423318862915039062e-01,3.252286911010742188e-01,3.810786902904510498e-01,4.518148601055145264e-01,5.264289975166320801e-01,6.101152896881103516e-01,6.922392845153808594e-01,7.319880127906799316e-01,7.659046649932861328e-01,7.916125059127807617e-01,8.142791986465454102e-01,8.202235698699951172e-01,8.255006074905395508e-01,8.288738727569580078e-01,8.313525915145874023e-01,8.372089862823486328e-01,8.335539698600769043e-01,8.106256127357482910e-01,7.961201071739196777e-01,7.950733900070190430e-01,7.724039554595947266e-01,7.214482426643371582e-01,6.158739924430847168e-01
5.887123346328735352e-01,6.142864823341369629e-01,6.569122672080993652e-01,6.577396988868713379e-01,6.812946796417236328e-01,7.055209279060363770e-01,7.418864965438842773e-01,7.632869482040405273e-01,7.840501070022583008e-01,8.026716709136962891e-01,8.204342126846313477e-01,8.368924856185913086e-01,8.518093824386596680e-01,8.650916814804077148e-01,8.766789436340332031e-01,8.861559033393859863e-01,8.931143283843994141e-01,8.977966308593750000e-01,9.010511636734008789e-01,9.031593799591064453e-01,9.043613076210021973e-01,9.050191640853881836e-01,9.052623510360717773e-01,9.053190946578979492e-01,9.053177833557128906e-01,9.053146839141845703e-01,9.060176014900207520e-01,9.061118364334106445e-01,9.038219451904296875e-01,8.960238695144653320e-01,8.830025792121887207e-01,8.531595468521118164e-01,8.187400102615356445e-01,7.518366575241088867e-01,6.217705011367797852e-01,4.376108348369598389e-01,3.635639846324920654e-01,2.965294420719146729e-01,2.737593054771423340e-01,2.642691135406494141e-01,2.604382038116455078e-01,3.085757493972778320e-01,3.531219661235809326e-01,4.402064979076385498e-01,5.554187893867492676e-01,6.494655609130859375e-01,6.806394457817077637e-01,7.228813171386718750e-01,7.298480272293090820e-01,6.790288686752319336e-01,5.908025503158569336e-01,5.038307905197143555e-01,4.453727006912231445e-01,4.066426157951354980e-01,3.830600678920745850e-01,3.554461896419525146e-01,3.544379174709320068e-01,3.411491215229034424e-01,3.372038006782531738e-01,4.133172929286956787e-01,4.944024682044982910e-01,5.516520142555236816e-01,6.374075412750244141e-01,7.122026681900024414e-01,7.441149950027465820e-01,7.754631638526916504e-01,8.067871332168579102e-01,8.191479444503784180e-01,8.239400386810302734e-01,8.271292448043823242e-01,8.305542469024658203e-01,8.363964557647705078e-01,8.372688293457031250e-01,8.336685895919799805e-01,8.133698701858520508e-01,7.955577969551086426e-01,7.957341074943542480e-01,7.730753421783447266e-01,7.218775749206542969e-01,6.159562468528747559e-01
5.887053608894348145e-01,6.142750382423400879e-01,6.568989753723144531e-01,6.577244997024536133e-01,6.812784075736999512e-01,7.055042982101440430e-01,7.418699860572814941e-01,7.632707357406616211e-01,7.840342521667480469e-01,8.026564121246337891e-01,8.204201459884643555e-01,8.368794918060302734e-01,8.517979383468627930e-01,8.650817275047302246e-01,8.766704797744750977e-01,8.861492872238159180e-01,8.931096196174621582e-01,8.977935314178466797e-01,9.010490179061889648e-01,9.031582474708557129e-01,9.043606519699096680e-01,9.050188064575195312e-01,9.052620530128479004e-01,9.053189754486083984e-01,9.053232073783874512e-01,9.052679538726806641e-01,9.059607982635498047e-01,9.054335355758666992e-01,9.041582345962524414e-01,8.973328471183776855e-01,8.829156160354614258e-01,8.577382564544677734e-01,8.248066902160644531e-01,7.552404999732971191e-01,6.410340070724487305e-01,4.396501481533050537e-01,3.591047823429107666e-01,3.120194077491760254e-01,2.792139351367950439e-01,2.754652500152587891e-01,2.730432450771331787e-01,3.107408285140991211e-01,3.458542823791503906e-01,4.234279096126556396e-01,5.784796476364135742e-01,6.419529914855957031e-01,6.934362053871154785e-01,7.202025651931762695e-01,7.090459465980529785e-01,6.606796383857727051e-01,5.813902616500854492e-01,4.967742562294006348e-01,4.456618428230285645e-01,4.094104170799255371e-01,3.720905780792236328e-01,3.788415789604187012e-01,3.706784844398498535e-01,3.468879461288452148e-01,3.873490393161773682e-01,4.408372938632965088e-01,5.291617512702941895e-01,5.586205720901489258e-01,6.749379634857177734e-01,7.256792187690734863e-01,7.554557323455810547e-01,7.875571250915527344e-01,8.175632953643798828e-01,8.199660778045654297e-01,8.277863860130310059e-01,8.294710516929626465e-01,8.314105868339538574e-01,8.395448923110961914e-01,8.410471677780151367e-01,8.350517749786376953e-01,8.141474723815917969e-01,7.980898618698120117e-01,7.965925931930541992e-01,7.741244435310363770e-01,7.215290665626525879e-01,6.161174774169921875e-01
5.886983871459960938e-01,6.142637133598327637e-01,6.568858623504638672e-01,6.577092409133911133e-01,6.812617778778076172e-01,7.054877281188964844e-01,7.418534159660339355e-01,7.632542848587036133e-01,7.840181589126586914e-01,8.026409149169921875e-01,8.204058408737182617e-01,8.368667364120483398e-01,8.517864942550659180e-01,8.650715351104736328e-01,8.766619563102722168e-01,8.861424922943115234e-01,8.931049704551696777e-01,8.977903127670288086e-01,9.010466337203979492e-01,9.031568765640258789e-01,9.043598771095275879e-01,9.050183892250061035e-01,9.052620530128479004e-01,9.053189158439636230e-01,9.053232073783874512e-01,9.052984714508056641e-01,9.054234027862548828e-01,9.055508375167846680e-01,9.041824340820312500e-01,8.953244686126708984e-01,8.816944360733032227e-01,8.555515408515930176e-01,8.252167701721191406e-01,7.548617720603942871e-01,6.447427868843078613e-01,4.498596787452697754e-01,3.628048300743103027e-01,3.145226240158081055e-01,2.808648347854614258e-01,2.711842060089111328e-01,2.823990583419799805e-01,3.032160103321075439e-01,3.525650501251220703e-01,4.630972445011138916e-01,5.632398128509521484e-01,6.424474716186523438e-01,6.947247385978698730e-01,7.214995622634887695e-01,6.769257783889770508e-01,6.289220452308654785e-01,5.768408775329589844e-01,4.957988262176513672e-01,4.410321414470672607e-01,4.044512808322906494e-01,3.825214505195617676e-01,3.720420897006988525e-01,3.581579923629760742e-01,3.726967573165893555e-01,4.331825077533721924e-01,4.980025291442871094e-01,5.346478223800659180e-01,6.365405917167663574e-01,7.036489248275756836e-01,7.334309220314025879e-01,7.635471820831298828e-01,8.013465404510498047e-01,8.239674568176269531e-01,8.232117295265197754e-01,8.303406238555908203e-01,8.309423923492431641e-01,8.364332318305969238e-01,8.443767428398132324e-01,8.432003259658813477e-01,8.361602425575256348e-01,8.151802420616149902e-01,7.984513044357299805e-01,7.970281839370727539e-01,7.741274833679199219e-01,7.219624519348144531e-01,6.160683631896972656e-01
5.886908769607543945e-01,6.142519116401672363e-01,6.568725109100341797e-01,6.576939225196838379e-01,6.812449097633361816e-01,7.054706215858459473e-01,7.418364286422729492e-01,7.632377147674560547e-01,7.840020656585693359e-01,8.026254177093505859e-01,8.203914165496826172e-01,8.368535041809082031e-01,8.517746925354003906e-01,8.650612831115722656e-01,8.766530752182006836e-01,8.861356973648071289e-01,8.931001424789428711e-01,8.977872729301452637e-01,9.010445475578308105e-01,9.031555652618408203e-01,9.043592214584350586e-01,9.050179123878479004e-01,9.052618741989135742e-01,9.053158164024353027e-01,9.053333997726440430e-01,9.053026437759399414e-01,9.052910804748535156e-01,9.058040380477905273e-01,9.037724733352661133e-01,8.945198059082031250e-01,8.772866725921630859e-01,8.572769165039062500e-01,8.231902718544006348e-01,7.530494928359985352e-01,6.219710707664489746e-01,4.574484527111053467e-01,3.683199286460876465e-01,3.110551834106445312e-01,2.846378087997436523e-01,2.800652980804443359e-01,2.896308302879333496e-01,2.952097058296203613e-01,3.708136677742004395e-01,4.845301210880279541e-01,5.474169850349426270e-01,6.489463448524475098e-01,7.056517004966735840e-01,6.958343982696533203e-01,6.459753513336181641e-01,5.917831659317016602e-01,5.438057780265808105e-01,4.820324480533599854e-01,4.420565664768218994e-01,3.935644924640655518e-01,3.866141736507415771e-01,3.775387704372406006e-01,3.768596053123474121e-01,4.186629652976989746e-01,4.817012548446655273e-01,5.455507040023803711e-01,5.941222310066223145e-01,6.777462363243103027e-01,7.190760374069213867e-01,7.472888231277465820e-01,7.818048596382141113e-01,8.104856014251708984e-01,8.228193521499633789e-01,8.265909552574157715e-01,8.305085897445678711e-01,8.357623219490051270e-01,8.392184972763061523e-01,8.455836176872253418e-01,8.449329733848571777e-01,8.387873172760009766e-01,8.171770572662353516e-01,8.012573122978210449e-01,7.983603477478027344e-01,7.743020653724670410e-01,7.218452692031860352e-01,6.160899996757507324e-01
5.886828899383544922e-01,6.142392754554748535e-01,6.568582653999328613e-01,6.576781272888183594e-01,6.812277436256408691e-01,7.054533362388610840e-01,7.418193817138671875e-01,7.632206678390502930e-01,7.839856147766113281e-01,8.026095628738403320e-01,8.203766942024230957e-01,8.368400335311889648e-01,8.517627716064453125e-01,8.650509119033813477e-01,8.766440153121948242e-01,8.861287832260131836e-01,8.930953741073608398e-01,8.977841138839721680e-01,9.010421037673950195e-01,9.031541347503662109e-01,9.043585062026977539e-01,9.050174951553344727e-01,9.052619934082031250e-01,9.053179025650024414e-01,9.053329229354858398e-01,9.054327607154846191e-01,9.048101902008056641e-01,9.047214984893798828e-01,9.019611477851867676e-01,8.893432617187500000e-01,8.729759454727172852e-01,8.576180338859558105e-01,8.175231814384460449e-01,7.456984519958496094e-01,6.065188050270080566e-01,4.384945034980773926e-01,3.601665794849395752e-01,3.145257234573364258e-01,2.940490543842315674e-01,2.928182482719421387e-01,2.862129211425781250e-01,3.003419637680053711e-01,4.070513248443603516e-01,4.747168719768524170e-01,5.814200639724731445e-01,6.563558578491210938e-01,6.902860403060913086e-01,6.768720746040344238e-01,6.223944425582885742e-01,5.767040252685546875e-01,4.979383647441864014e-01,4.641995429992675781e-01,4.205001890659332275e-01,4.105215370655059814e-01,3.889261484146118164e-01,3.813187479972839355e-01,4.142373800277709961e-01,4.650970399379730225e-01,5.539302229881286621e-01,5.608363747596740723e-01,6.655942201614379883e-01,7.174229621887207031e-01,7.390473484992980957e-01,7.641848325729370117e-01,7.986894845962524414e-01,8.188081979751586914e-01,8.224346637725830078e-01,8.274683356285095215e-01,8.318238258361816406e-01,8.370918631553649902e-01,8.431333303451538086e-01,8.470515012741088867e-01,8.475140333175659180e-01,8.414996862411499023e-01,8.188413381576538086e-01,8.023538589477539062e-01,7.982025146484375000e-01,7.747398614883422852e-01,7.219304442405700684e-01,6.160300374031066895e-01
5.886744260787963867e-01,6.142261028289794922e-01,6.568431258201599121e-01,6.576610207557678223e-01,6.812096238136291504e-01,7.054351568222045898e-01,7.418013811111450195e-01,7.632036209106445312e-01,7.839688062667846680e-01,8.025933504104614258e-01,8.203616142272949219e-01,8.368264436721801758e-01,8.517509698867797852e-01,8.650404214859008789e-01,8.766350746154785156e-01,8.861215114593505859e-01,8.930904865264892578e-01,8.977808952331542969e-01,9.010397195816040039e-01,9.031528234481811523e-01,9.043577909469604492e-01,9.050170779228210449e-01,9.052618741989135742e-01,9.053196907043457031e-01,9.053477048873901367e-01,9.055087566375732422e-01,9.048249721527099609e-01,9.043345451354980469e-01,9.006420373916625977e-01,8.856416344642639160e-01,8.676196336746215820e-01,8.534792661666870117e-01,8.027878403663635254e-01,7.404878735542297363e-01,5.660982728004455566e-01,4.251275360584259033e-01,3.585608601570129395e-01,3.160263299942016602e-01,3.028749227523803711e-01,3.017851412296295166e-01,2.790736556053161621e-01,3.379938304424285889e-01,4.368400573730468750e-01,5.123804211616516113e-01,5.772986412048339844e-01,6.766257286071777344e-01,6.730786561965942383e-01,6.313552260398864746e-01,5.862264037132263184e-01,5.251641273498535156e-01,4.985119998455047607e-01,4.492321014404296875e-01,4.270272254943847656e-01,4.039916396141052246e-01,3.891870975494384766e-01,4.079447984695434570e-01,4.657753109931945801e-01,5.472596287727355957e-01,5.771023035049438477e-01,6.306664943695068359e-01,7.011077404022216797e-01,7.383104562759399414e-01,7.571221590042114258e-01,7.908604145050048828e-01,8.117431998252868652e-01,8.193922042846679688e-01,8.251551389694213867e-01,8.262263536453247070e-01,8.312444686889648438e-01,8.375943899154663086e-01,8.454185724258422852e-01,8.496054410934448242e-01,8.470623493194580078e-01,8.421145677566528320e-01,8.181240558624267578e-01,8.029078245162963867e-01,7.987207174301147461e-01,7.747306823730468750e-01,7.219485044479370117e-01,6.160848140716552734e-01
5.886659026145935059e-01,6.142122149467468262e-01,6.568274497985839844e-01,6.576429009437561035e-01,6.811901926994323730e-01,7.054157853126525879e-01,7.417825460433959961e-01,7.631853222846984863e-01,7.839514017105102539e-01,8.025767803192138672e-01,8.203462362289428711e-01,8.368123769760131836e-01,8.517382740974426270e-01,8.650296926498413086e-01,8.766258955001831055e-01,8.861143589019775391e-01,8.930854797363281250e-01,8.977776765823364258e-01,9.010373950004577637e-01,9.031513929367065430e-01,9.043569564819335938e-01,9.050166606903076172e-01,9.052617549896240234e-01,9.053255319595336914e-01,9.053448438644409180e-01,9.054384231567382812e-01,9.046814441680908203e-01,9.044796228408813477e-01,8.970472216606140137e-01,8.832204341888427734e-01,8.626099824905395508e-01,8.486977815628051758e-01,7.891228199005126953e-01,6.932899951934814453e-01,5.463349223136901855e-01,4.165059328079223633e-01,3.608514070510864258e-01,3.109543621540069580e-01,3.194131553173065186e-01,2.875818014144897461e-01,2.842385768890380859e-01,3.828810155391693115e-01,4.645042121410369873e-01,5.362523794174194336e-01,6.225978136062622070e-01,6.870177984237670898e-01,6.723882555961608887e-01,6.080824732780456543e-01,5.667808055877685547e-01,5.157909393310546875e-01,4.649509489536285400e-01,4.355968236923217773e-01,4.196517169475555420e-01,4.061734676361083984e-01,4.041649699211120605e-01,4.336774945259094238e-01,5.160579085350036621e-01,5.997632741928100586e-01,6.203751564025878906e-01,6.958752274513244629e-01,7.342329025268554688e-01,7.615075111389160156e-01,7.830998897552490234e-01,8.053792715072631836e-01,8.149628639221191406e-01,8.194020390510559082e-01,8.237297534942626953e-01,8.285558223724365234e-01,8.312041759490966797e-01,8.368504047393798828e-01,8.452515602111816406e-01,8.496123552322387695e-01,8.485032320022583008e-01,8.424364924430847168e-01,8.175728917121887207e-01,8.029329776763916016e-01,7.991048693656921387e-01,7.741334438323974609e-01,7.218797802925109863e-01,6.160185337066650391e-01
5.886570811271667480e-01,6.141979694366455078e-01,6.568113565444946289e-01,6.576243638992309570e-01,6.811698675155639648e-01,7.053949236869812012e-01,7.417625188827514648e-01,7.631659507751464844e-01,7.839328646659851074e-01,8.025593161582946777e-01,8.203303813934326172e-01,8.367983102798461914e-01,8.517255783081054688e-01,8.650183677673339844e-01,8.766162395477294922e-01,8.861069679260253906e-01,8.930804729461669922e-01,8.977743387222290039e-01,9.010350108146667480e-01,9.031499624252319336e-01,9.043560028076171875e-01,9.050163626670837402e-01,9.052616953849792480e-01,9.053310155868530273e-01,9.053637981414794922e-01,9.054137468338012695e-01,9.048241376876831055e-01,9.033887386322021484e-01,8.945096135139465332e-01,8.765800595283508301e-01,8.583934307098388672e-01,8.398785591125488281e-01,7.760050296783447266e-01,6.677095890045166016e-01,5.075715780258178711e-01,4.136824905872344971e-01,3.421032428741455078e-01,3.140717148780822754e-01,3.268219828605651855e-01,2.809019088745117188e-01,3.207764029502868652e-01,4.147254824638366699e-01,5.179239511489868164e-01,5.544918179512023926e-01,6.722120046615600586e-01,6.922265887260437012e-01,6.552860140800476074e-01,6.138517260551452637e-01,5.349065065383911133e-01,4.938371479511260986e-01,4.542494416236877441e-01,4.432525634765625000e-01,4.246568083763122559e-01,3.996524214744567871e-01,4.304061532020568848e-01,4.905702471733093262e-01,5.930684804916381836e-01,6.262375116348266602e-01,6.914076805114746094e-01,7.266214489936828613e-01,7.571449279785156250e-01,7.749732732772827148e-01,8.019734621047973633e-01,8.136749267578125000e-01,8.167858719825744629e-01,8.213986158370971680e-01,8.210377693176269531e-01,8.289302587509155273e-01,8.312850594520568848e-01,8.359133005142211914e-01,8.470314145088195801e-01,8.479633331298828125e-01,8.474109172821044922e-01,8.420163393020629883e-01,8.171026110649108887e-01,8.015331625938415527e-01,7.981208562850952148e-01,7.735936641693115234e-01,7.219033837318420410e-01,6.160790324211120605e-01
5.886485576629638672e-01,6.141838431358337402e-01,6.567949056625366211e-01,6.576049327850341797e-01,6.811488866806030273e-01,7.053738832473754883e-01,7.417414188385009766e-01,7.631452679634094238e-01,7.839130163192749023e-01,8.025405406951904297e-01,8.203131556510925293e-01,8.367831707000732422e-01,8.517123460769653320e-01,8.650068044662475586e-01,8.766064643859863281e-01,8.860993385314941406e-01,8.930749893188476562e-01,8.977710008621215820e-01,9.010324478149414062e-01,9.031484723091125488e-01,9.043552279472351074e-01,9.050159454345703125e-01,9.052616357803344727e-01,9.053322076797485352e-01,9.053668975830078125e-01,9.052432775497436523e-01,9.044663906097412109e-01,9.028314352035522461e-01,8.910953998565673828e-01,8.716502189636230469e-01,8.580865263938903809e-01,8.319901823997497559e-01,7.643624544143676758e-01,6.349550485610961914e-01,4.489060938358306885e-01,3.947755098342895508e-01,3.356706202030181885e-01,3.324911892414093018e-01,3.193967342376708984e-01,2.929632663726806641e-01,3.590360879898071289e-01,4.642833769321441650e-01,5.336556434631347656e-01,6.327916979789733887e-01,6.953634023666381836e-01,7.018896937370300293e-01,6.731305122375488281e-01,5.959928035736083984e-01,5.338039398193359375e-01,4.817246496677398682e-01,4.503796994686126709e-01,4.388533532619476318e-01,4.206180870532989502e-01,4.105727076530456543e-01,4.586033225059509277e-01,5.571493506431579590e-01,6.202664375305175781e-01,6.620557308197021484e-01,7.251324057579040527e-01,7.707136273384094238e-01,7.717308998107910156e-01,7.993550896644592285e-01,8.144611716270446777e-01,8.158469200134277344e-01,8.174580335617065430e-01,8.188242912292480469e-01,8.210194706916809082e-01,8.278288841247558594e-01,8.298272490501403809e-01,8.358460664749145508e-01,8.425771594047546387e-01,8.440077304840087891e-01,8.459489345550537109e-01,8.415163755416870117e-01,8.176782131195068359e-01,8.021171092987060547e-01,7.974944114685058594e-01,7.732938528060913086e-01,7.220665812492370605e-01,6.160635948181152344e-01
5.886403322219848633e-01,6.141703128814697266e-01,6.567786931991577148e-01,6.575862169265747070e-01,6.811280846595764160e-01,7.053524255752563477e-01,7.417200803756713867e-01,7.631244063377380371e-01,7.838923931121826172e-01,8.025205731391906738e-01,8.202946186065673828e-01,8.367667198181152344e-01,8.516982793807983398e-01,8.649945259094238281e-01,8.765959739685058594e-01,8.860911130905151367e-01,8.930695652961730957e-01,8.977671861648559570e-01,9.010298252105712891e-01,9.031469821929931641e-01,9.043543934822082520e-01,9.050154685974121094e-01,9.052615761756896973e-01,9.053289294242858887e-01,9.053756594657897949e-01,9.052773714065551758e-01,9.050286412239074707e-01,9.022705554962158203e-01,8.877071142196655273e-01,8.660106658935546875e-01,8.541895151138305664e-01,8.109276294708251953e-01,7.490352392196655273e-01,5.938299894332885742e-01,4.469679296016693115e-01,3.734469711780548096e-01,3.430278003215789795e-01,3.372213542461395264e-01,3.134668767452239990e-01,3.158875107765197754e-01,4.018521606922149658e-01,5.124444961547851562e-01,5.728373527526855469e-01,6.780567169189453125e-01,7.154795527458190918e-01,7.112809419631958008e-01,6.779716014862060547e-01,5.785642266273498535e-01,5.174368023872375488e-01,4.826614558696746826e-01,4.561533033847808838e-01,4.492194950580596924e-01,4.261938631534576416e-01,4.315192401409149170e-01,4.872720837593078613e-01,5.970745682716369629e-01,6.506168842315673828e-01,7.255179882049560547e-01,7.595514059066772461e-01,7.856590747833251953e-01,7.987945079803466797e-01,8.120229244232177734e-01,8.221591711044311523e-01,8.188642263412475586e-01,8.192911148071289062e-01,8.191228508949279785e-01,8.198586702346801758e-01,8.272079825401306152e-01,8.286001682281494141e-01,8.313809633255004883e-01,8.398739099502563477e-01,8.417611122131347656e-01,8.451104164123535156e-01,8.385172486305236816e-01,8.161486983299255371e-01,7.993540763854980469e-01,7.964531183242797852e-01,7.730339169502258301e-01,7.219337224960327148e-01,6.160693168640136719e-01
5.886323451995849609e-01,6.141573786735534668e-01,6.567634344100952148e-01,6.575683951377868652e-01,6.811078190803527832e-01,7.053316235542297363e-01,7.416988015174865723e-01,7.631029486656188965e-01,7.838711738586425781e-01,8.025000095367431641e-01,8.202754259109497070e-01,8.367488980293273926e-01,8.516820669174194336e-01,8.649804592132568359e-01,8.765844702720642090e-01,8.860820531845092773e-01,8.930628299713134766e-01,8.977621197700500488e-01,9.010255932807922363e-01,9.031435251235961914e-01,9.043517112731933594e-01,9.050131440162658691e-01,9.052596688270568848e-01,9.053217768669128418e-01,9.053834080696105957e-01,9.053715467453002930e-01,9.056468605995178223e-01,9.011111855506896973e-01,8.865156173706054688e-01,8.669604659080505371e-01,8.521822094917297363e-01,8.006857633590698242e-01,7.253035306930541992e-01,5.688856244087219238e-01,4.221490621566772461e-01,3.667342066764831543e-01,3.356982767581939697e-01,3.360243141651153564e-01,2.906804084777832031e-01,3.451237678527832031e-01,4.447031021118164062e-01,5.312943458557128906e-01,6.242687702178955078e-01,7.058362960815429688e-01,7.279265522956848145e-01,7.131949663162231445e-01,6.741037964820861816e-01,5.872927904129028320e-01,5.150609612464904785e-01,4.755984842777252197e-01,4.533922970294952393e-01,4.662956595420837402e-01,4.353115260601043701e-01,4.578479528427124023e-01,5.454710721969604492e-01,6.154528856277465820e-01,7.081832885742187500e-01,7.534139156341552734e-01,7.833917140960693359e-01,7.959043979644775391e-01,8.117192983627319336e-01,8.222319483757019043e-01,8.247408866882324219e-01,8.223625421524047852e-01,8.177847862243652344e-01,8.179104328155517578e-01,8.191662430763244629e-01,8.244869112968444824e-01,8.274123668670654297e-01,8.297815918922424316e-01,8.345045447349548340e-01,8.389104008674621582e-01,8.408976793289184570e-01,8.374583721160888672e-01,8.151265382766723633e-01,7.976190447807312012e-01,7.969007492065429688e-01,7.728714942932128906e-01,7.218329906463623047e-01,6.159027218818664551e-01
5.886242389678955078e-01,6.141442656517028809e-01,6.567476391792297363e-01,6.575500369071960449e-01,6.810864210128784180e-01,7.053081393241882324e-01,7.416741847991943359e-01,7.630776166915893555e-01,7.838453054428100586e-01,8.024734258651733398e-01,8.202494382858276367e-01,8.367242813110351562e-01,8.516588211059570312e-01,8.649591207504272461e-01,8.765656948089599609e-01,8.860664367675781250e-01,8.930499553680419922e-01,8.977520465850830078e-01,9.010163545608520508e-01,9.031350612640380859e-01,9.043438434600830078e-01,9.050056934356689453e-01,9.052529335021972656e-01,9.053205847740173340e-01,9.053833484649658203e-01,9.055355191230773926e-01,9.057965874671936035e-01,8.997520208358764648e-01,8.839842081069946289e-01,8.662520647048950195e-01,8.453561663627624512e-01,7.934261560440063477e-01,7.171116471290588379e-01,5.378954410552978516e-01,4.193295240402221680e-01,3.645368218421936035e-01,3.389569520950317383e-01,3.425449728965759277e-01,3.026810884475708008e-01,3.735266327857971191e-01,4.742237925529479980e-01,5.554389953613281250e-01,6.618421673774719238e-01,7.270605564117431641e-01,7.406635284423828125e-01,7.278537750244140625e-01,6.611222028732299805e-01,5.537895560264587402e-01,5.011390447616577148e-01,4.722461998462677002e-01,4.693327546119689941e-01,4.555256962776184082e-01,4.352618753910064697e-01,5.016927719116210938e-01,5.917196869850158691e-01,6.434609889984130859e-01,7.232342958450317383e-01,7.923084497451782227e-01,8.051843643188476562e-01,8.099032640457153320e-01,8.248682022094726562e-01,8.318356275558471680e-01,8.268084526062011719e-01,8.237184286117553711e-01,8.195793032646179199e-01,8.172924518585205078e-01,8.184213638305664062e-01,8.224573135375976562e-01,8.266249895095825195e-01,8.288930058479309082e-01,8.288586735725402832e-01,8.376640081405639648e-01,8.375626802444458008e-01,8.346593379974365234e-01,8.140579462051391602e-01,7.963396906852722168e-01,7.946033477783203125e-01,7.717718482017517090e-01,7.212640643119812012e-01,6.158611774444580078e-01
5.886119008064270020e-01,6.141279339790344238e-01,6.567282080650329590e-01,6.575314402580261230e-01,6.810674667358398438e-01,7.052878141403198242e-01,7.416555881500244141e-01,7.630637884140014648e-01,7.838372588157653809e-01,8.024724721908569336e-01,8.202588558197021484e-01,8.367471694946289062e-01,8.517019748687744141e-01,8.650193810462951660e-01,8.766282796859741211e-01,8.861198425292968750e-01,8.930932283401489258e-01,8.977882862091064453e-01,9.010556936264038086e-01,9.031848311424255371e-01,9.044004678726196289e-01,9.050682783126831055e-01,9.053184986114501953e-01,9.053905010223388672e-01,9.054529070854187012e-01,9.059863090515136719e-01,9.056525230407714844e-01,8.992916345596313477e-01,8.839508295059204102e-01,8.673206567764282227e-01,8.434678316116333008e-01,7.903342247009277344e-01,7.109248638153076172e-01,4.991056621074676514e-01,4.195151031017303467e-01,3.596643209457397461e-01,3.505470752716064453e-01,3.406295180320739746e-01,3.179508745670318604e-01,4.016069471836090088e-01,4.876897931098937988e-01,6.004879474639892578e-01,6.722007989883422852e-01,7.312197685241699219e-01,7.412914037704467773e-01,7.241242527961730957e-01,6.317858695983886719e-01,5.477417111396789551e-01,5.030289292335510254e-01,4.712536334991455078e-01,4.708988070487976074e-01,4.518818855285644531e-01,4.520954191684722900e-01,5.289853811264038086e-01,6.144779920578002930e-01,6.835236549377441406e-01,7.636580467224121094e-01,8.028779625892639160e-01,8.210657835006713867e-01,8.329514265060424805e-01,8.393570184707641602e-01,8.348907828330993652e-01,8.315944671630859375e-01,8.258411884307861328e-01,8.190010786056518555e-01,8.174023628234863281e-01,8.180238008499145508e-01,8.188453912734985352e-01,8.249241113662719727e-01,8.256176114082336426e-01,8.283195495605468750e-01,8.313600420951843262e-01,8.341346979141235352e-01,8.328664898872375488e-01,8.124547600746154785e-01,7.957746982574462891e-01,7.941713929176330566e-01,7.712800502777099609e-01,7.208823561668395996e-01,6.156042814254760742e-01
5.886181592941284180e-01,6.141351461410522461e-01,6.567325592041015625e-01,6.575460433959960938e-01,6.810927391052246094e-01,7.053464651107788086e-01,7.417649626731872559e-01,7.632211446762084961e-01,7.840203046798706055e-01,8.026669025421142578e-01,8.204542398452758789e-01,8.369388580322265625e-01,8.518706560134887695e-01,8.651565313339233398e-01,8.767379522323608398e-01,8.861939907073974609e-01,8.931599855422973633e-01,8.978885412216186523e-01,9.011782407760620117e-01,9.033067822456359863e-01,9.045197963714599609e-01,9.051827192306518555e-01,9.054272770881652832e-01,9.054903984069824219e-01,9.055678844451904297e-01,9.062457084655761719e-01,9.055314660072326660e-01,8.984434604644775391e-01,8.841221332550048828e-01,8.672321438789367676e-01,8.368318080902099609e-01,7.881066799163818359e-01,6.995539665222167969e-01,5.069805383682250977e-01,4.171917438507080078e-01,3.652883768081665039e-01,3.593698143959045410e-01,3.410189151763916016e-01,3.557245135307312012e-01,4.162062406539916992e-01,5.118394494056701660e-01,6.256152987480163574e-01,6.992468833923339844e-01,7.353786230087280273e-01,7.355963587760925293e-01,6.944448351860046387e-01,6.257046461105346680e-01,5.419089794158935547e-01,4.920524656772613525e-01,4.728364348411560059e-01,4.802422821521759033e-01,4.407940506935119629e-01,4.735316932201385498e-01,5.492995381355285645e-01,6.433421373367309570e-01,7.278407216072082520e-01,7.806867957115173340e-01,8.118032217025756836e-01,8.378450870513916016e-01,8.417043685913085938e-01,8.476600050926208496e-01,8.416823744773864746e-01,8.324865102767944336e-01,8.272804021835327148e-01,8.209181427955627441e-01,8.180390596389770508e-01,8.186203241348266602e-01,8.180836439132690430e-01,8.245513439178466797e-01,8.235167264938354492e-01,8.223186731338500977e-01,8.294556140899658203e-01,8.319954872131347656e-01,8.303542137145996094e-01,8.096632957458496094e-01,7.953827381134033203e-01,7.924688458442687988e-01,7.703574299812316895e-01,7.208854556083679199e-01,6.160136461257934570e-01
5.888017416000366211e-01,6.143116950988769531e-01,6.569857597351074219e-01,6.578012108802795410e-01,6.813393831253051758e-01,7.055063843727111816e-01,7.418475151062011719e-01,7.632272243499755859e-01,7.838840484619140625e-01,8.024016022682189941e-01,8.200699687004089355e-01,8.364220857620239258e-01,8.512636423110961914e-01,8.644667863845825195e-01,8.759486675262451172e-01,8.853857517242431641e-01,8.923838138580322266e-01,8.970942497253417969e-01,9.003560543060302734e-01,9.024785757064819336e-01,9.037010073661804199e-01,9.043444395065307617e-01,9.045752286911010742e-01,9.046405553817749023e-01,9.047062993049621582e-01,9.053945541381835938e-01,9.049735069274902344e-01,8.975438475608825684e-01,8.842515945434570312e-01,8.666316866874694824e-01,8.342887163162231445e-01,7.872893810272216797e-01,6.948881745338439941e-01,4.902810454368591309e-01,4.091601967811584473e-01,3.645137548446655273e-01,3.644617497920989990e-01,3.368429541587829590e-01,3.752807378768920898e-01,4.330286681652069092e-01,5.454097986221313477e-01,6.445079445838928223e-01,7.137638926506042480e-01,7.326641678810119629e-01,7.301390171051025391e-01,6.794902682304382324e-01,6.033422946929931641e-01,5.387267470359802246e-01,4.866609871387481689e-01,4.605874121189117432e-01,4.740388095378875732e-01,4.392968118190765381e-01,5.076436400413513184e-01,5.875077247619628906e-01,6.583338379859924316e-01,7.513239383697509766e-01,7.965515851974487305e-01,8.285593986511230469e-01,8.450687527656555176e-01,8.543337583541870117e-01,8.532109260559082031e-01,8.444584608078002930e-01,8.322514891624450684e-01,8.260509967803955078e-01,8.199089765548706055e-01,8.161033391952514648e-01,8.150343298912048340e-01,8.157479763031005859e-01,8.211698532104492188e-01,8.212301135063171387e-01,8.209102153778076172e-01,8.247640132904052734e-01,8.282231688499450684e-01,8.258249759674072266e-01,8.052774667739868164e-01,7.923802137374877930e-01,7.913199663162231445e-01,7.697235345840454102e-01,7.200169563293457031e-01,6.154164075851440430e-01
5.891578197479248047e-01,6.141805052757263184e-01,6.566538810729980469e-01,6.571519970893859863e-01,6.804437041282653809e-01,7.042943239212036133e-01,7.404217720031738281e-01,7.615297436714172363e-01,7.820328474044799805e-01,8.004187345504760742e-01,8.180023431777954102e-01,8.343549370765686035e-01,8.493285179138183594e-01,8.627442121505737305e-01,8.744819760322570801e-01,8.841428160667419434e-01,8.912273645401000977e-01,8.960007429122924805e-01,8.993607759475708008e-01,9.015438556671142578e-01,9.027554988861083984e-01,9.033968448638916016e-01,9.036449790000915527e-01,9.037232995033264160e-01,9.037774801254272461e-01,9.043960571289062500e-01,9.040338397026062012e-01,8.969469070434570312e-01,8.834464550018310547e-01,8.644492626190185547e-01,8.324691057205200195e-01,7.841228842735290527e-01,6.885290145874023438e-01,4.897493720054626465e-01,4.114453792572021484e-01,3.623719215393066406e-01,3.606447577476501465e-01,3.383171558380126953e-01,3.910007476806640625e-01,4.691281020641326904e-01,5.482488274574279785e-01,6.490489244461059570e-01,7.194554209709167480e-01,7.440435886383056641e-01,7.261734008789062500e-01,6.780682802200317383e-01,5.668112635612487793e-01,5.195867419242858887e-01,4.851619005203247070e-01,4.804329872131347656e-01,4.608871042728424072e-01,4.417024850845336914e-01,5.195464491844177246e-01,6.085443496704101562e-01,6.860468387603759766e-01,7.659764289855957031e-01,8.108053803443908691e-01,8.424216508865356445e-01,8.567119836807250977e-01,8.584896922111511230e-01,8.546340465545654297e-01,8.445799350738525391e-01,8.344461917877197266e-01,8.252741098403930664e-01,8.202356100082397461e-01,8.150818347930908203e-01,8.128218054771423340e-01,8.144961595535278320e-01,8.178417086601257324e-01,8.181955814361572266e-01,8.191480636596679688e-01,8.186012506484985352e-01,8.255300521850585938e-01,8.240492343902587891e-01,8.028324842453002930e-01,7.916542291641235352e-01,7.899036407470703125e-01,7.682355642318725586e-01,7.186965346336364746e-01,6.138080358505249023e-01
5.884084701538085938e-01,6.125022172927856445e-01,6.548575162887573242e-01,6.552618741989135742e-01,6.780967116355895996e-01,7.014935016632080078e-01,7.376150488853454590e-01,7.587720155715942383e-01,7.793217897415161133e-01,7.977049946784973145e-01,8.152704238891601562e-01,8.317418694496154785e-01,8.468415141105651855e-01,8.603421449661254883e-01,8.721712231636047363e-01,8.818708062171936035e-01,8.891118168830871582e-01,8.941251039505004883e-01,8.975707888603210449e-01,8.997683525085449219e-01,9.010018110275268555e-01,9.016674160957336426e-01,9.019205570220947266e-01,9.019888639450073242e-01,9.020258188247680664e-01,9.026418924331665039e-01,9.022390842437744141e-01,8.956903219223022461e-01,8.824151754379272461e-01,8.634235262870788574e-01,8.313741087913513184e-01,7.805502414703369141e-01,6.819450855255126953e-01,4.881354570388793945e-01,4.140085875988006592e-01,3.690859079360961914e-01,3.618437349796295166e-01,3.471329808235168457e-01,3.965024054050445557e-01,4.755900800228118896e-01,5.610757470130920410e-01,6.543633341789245605e-01,7.235920429229736328e-01,7.344350218772888184e-01,7.264062166213989258e-01,6.476891636848449707e-01,5.652099847793579102e-01,5.095278024673461914e-01,4.803511202335357666e-01,4.830376505851745605e-01,4.538675546646118164e-01,4.629131853580474854e-01,5.449091792106628418e-01,6.144165396690368652e-01,7.217512130737304688e-01,7.792774438858032227e-01,8.163399696350097656e-01,8.470267057418823242e-01,8.615833520889282227e-01,8.662966489791870117e-01,8.584172725677490234e-01,8.450748920440673828e-01,8.321802616119384766e-01,8.233323097229003906e-01,8.177263736724853516e-01,8.100863695144653320e-01,8.085392713546752930e-01,8.109127879142761230e-01,8.118093013763427734e-01,8.142919540405273438e-01,8.146537542343139648e-01,8.148012161254882812e-01,8.207377195358276367e-01,8.213160037994384766e-01,8.004302978515625000e-01,7.892223596572875977e-01,7.886841893196105957e-01,7.662743330001831055e-01,7.177218794822692871e-01,6.118791699409484863e-01
5.864672660827636719e-01,6.097785234451293945e-01,6.518779993057250977e-01,6.520060300827026367e-01,6.745827794075012207e-01,6.974255442619323730e-01,7.329920530319213867e-01,7.536317110061645508e-01,7.735042572021484375e-01,7.914427518844604492e-01,8.087491989135742188e-01,8.249930143356323242e-01,8.399553298950195312e-01,8.535103797912597656e-01,8.654161691665649414e-01,8.752063512802124023e-01,8.825134634971618652e-01,8.875590562820434570e-01,8.911032676696777344e-01,8.933019042015075684e-01,8.945308327674865723e-01,8.952187299728393555e-01,8.954724073410034180e-01,8.955291509628295898e-01,8.955572843551635742e-01,8.961330652236938477e-01,8.957927227020263672e-01,8.889617919921875000e-01,8.757514953613281250e-01,8.566684722900390625e-01,8.250682353973388672e-01,7.694640159606933594e-01,6.696382761001586914e-01,4.838265180587768555e-01,4.096136689186096191e-01,3.714852929115295410e-01,3.605018854141235352e-01,3.512563407421112061e-01,3.975786864757537842e-01,4.647171795368194580e-01,5.846874713897705078e-01,6.553853750228881836e-01,7.166948914527893066e-01,7.172070741653442383e-01,6.946587562561035156e-01,6.277099847793579102e-01,5.357715487480163574e-01,4.967146217823028564e-01,4.783126115798950195e-01,4.755323231220245361e-01,4.295246005058288574e-01,4.867540001869201660e-01,5.554445385932922363e-01,6.425749659538269043e-01,7.179814577102661133e-01,7.869012355804443359e-01,8.186450600624084473e-01,8.397569656372070312e-01,8.545917272567749023e-01,8.650133013725280762e-01,8.537786602973937988e-01,8.396091461181640625e-01,8.260152339935302734e-01,8.136790990829467773e-01,8.077954053878784180e-01,8.013929724693298340e-01,7.995184063911437988e-01,8.009166717529296875e-01,8.009804487228393555e-01,8.042982816696166992e-01,8.048961162567138672e-01,8.052517175674438477e-01,8.129937648773193359e-01,8.143179416656494141e-01,7.938377261161804199e-01,7.834489345550537109e-01,7.842606902122497559e-01,7.619068622589111328e-01,7.134174704551696777e-01,6.069687604904174805e-01
5.825380682945251465e-01,6.038829684257507324e-01,6.454453468322753906e-01,6.448017358779907227e-01,6.661981344223022461e-01,6.881846189498901367e-01,7.229016423225402832e-01,7.430784106254577637e-01,7.622796297073364258e-01,7.793442010879516602e-01,7.960616350173950195e-01,8.119972944259643555e-01,8.270341753959655762e-01,8.408883810043334961e-01,8.531081676483154297e-01,8.633357882499694824e-01,8.711284399032592773e-01,8.765025138854980469e-01,8.802334070205688477e-01,8.825734853744506836e-01,8.838870525360107422e-01,8.845275640487670898e-01,8.847193717956542969e-01,8.847402334213256836e-01,8.847498893737792969e-01,8.853833675384521484e-01,8.848353624343872070e-01,8.780022859573364258e-01,8.647153973579406738e-01,8.462257385253906250e-01,8.123937845230102539e-01,7.538302540779113770e-01,6.503753662109375000e-01,4.772846698760986328e-01,4.037303030490875244e-01,3.660829663276672363e-01,3.586143255233764648e-01,3.572543859481811523e-01,3.966308832168579102e-01,4.655513465404510498e-01,5.677462816238403320e-01,6.450845003128051758e-01,6.915561556816101074e-01,6.974672079086303711e-01,6.734596490859985352e-01,5.922185182571411133e-01,5.238595008850097656e-01,4.768357872962951660e-01,4.656006097793579102e-01,4.399168789386749268e-01,4.187789261341094971e-01,4.999293982982635498e-01,5.714424848556518555e-01,6.455479860305786133e-01,7.288386821746826172e-01,7.844612598419189453e-01,8.178049325942993164e-01,8.351110219955444336e-01,8.534961938858032227e-01,8.560395240783691406e-01,8.459763526916503906e-01,8.273892402648925781e-01,8.116658926010131836e-01,7.989428043365478516e-01,7.910524606704711914e-01,7.845225334167480469e-01,7.825676202774047852e-01,7.830497622489929199e-01,7.836695909500122070e-01,7.874419689178466797e-01,7.892779111862182617e-01,7.914818525314331055e-01,8.002375960350036621e-01,8.016721606254577637e-01,7.811310291290283203e-01,7.727352976799011230e-01,7.748947739601135254e-01,7.551335096359252930e-01,7.056745290756225586e-01,6.010522842407226562e-01
5.753738284111022949e-01,5.940440297126770020e-01,6.345350742340087891e-01,6.318070888519287109e-01,6.512067914009094238e-01,6.719570159912109375e-01,7.057639360427856445e-01,7.251148223876953125e-01,7.435631752014160156e-01,7.599275112152099609e-01,7.757306694984436035e-01,7.908979654312133789e-01,8.055438995361328125e-01,8.189387917518615723e-01,8.307869434356689453e-01,8.406683206558227539e-01,8.480863571166992188e-01,8.534069657325744629e-01,8.571304082870483398e-01,8.594415187835693359e-01,8.606564998626708984e-01,8.611899018287658691e-01,8.613165616989135742e-01,8.613225221633911133e-01,8.613134026527404785e-01,8.622915744781494141e-01,8.616801500320434570e-01,8.539482951164245605e-01,8.400287032127380371e-01,8.215035200119018555e-01,7.839976549148559570e-01,7.203792929649353027e-01,6.110916137695312500e-01,4.539402723312377930e-01,3.845467567443847656e-01,3.506770730018615723e-01,3.437947630882263184e-01,3.483489751815795898e-01,3.856444060802459717e-01,4.557351469993591309e-01,5.600838661193847656e-01,6.217062473297119141e-01,6.637061238288879395e-01,6.689713597297668457e-01,6.412829756736755371e-01,5.264716744422912598e-01,4.916296303272247314e-01,4.668354988098144531e-01,4.525483548641204834e-01,4.158727824687957764e-01,4.267233312129974365e-01,4.954195320606231689e-01,5.748492479324340820e-01,6.266125440597534180e-01,7.199333310127258301e-01,7.635006308555603027e-01,7.964278459548950195e-01,8.175108432769775391e-01,8.350537419319152832e-01,8.341407775878906250e-01,8.178480863571166992e-01,7.964831590652465820e-01,7.812976837158203125e-01,7.678967714309692383e-01,7.560205459594726562e-01,7.523860931396484375e-01,7.498155832290649414e-01,7.497935891151428223e-01,7.505311369895935059e-01,7.552520632743835449e-01,7.585228085517883301e-01,7.635403871536254883e-01,7.733323574066162109e-01,7.762560844421386719e-01,7.565019130706787109e-01,7.507287263870239258e-01,7.568497657775878906e-01,7.384491562843322754e-01,6.910271048545837402e-01,5.917123556137084961e-01
5.643813014030456543e-01,5.786228775978088379e-01,6.173463463783264160e-01,6.113581061363220215e-01,6.278060078620910645e-01,6.468135714530944824e-01,6.787365674972534180e-01,6.960879564285278320e-01,7.121248245239257812e-01,7.261288166046142578e-01,7.397772073745727539e-01,7.531896829605102539e-01,7.665069103240966797e-01,7.789275646209716797e-01,7.898097038269042969e-01,7.990614771842956543e-01,8.063990473747253418e-01,8.116837739944458008e-01,8.153738975524902344e-01,8.176422119140625000e-01,8.186882734298706055e-01,8.189524412155151367e-01,8.189725875854492188e-01,8.189491629600524902e-01,8.189039826393127441e-01,8.202902674674987793e-01,8.192437887191772461e-01,8.094575405120849609e-01,7.947794198989868164e-01,7.765976786613464355e-01,7.337495088577270508e-01,6.685296297073364258e-01,5.621432065963745117e-01,4.234186708927154541e-01,3.647405207157135010e-01,3.336969017982482910e-01,3.245972990989685059e-01,3.389807343482971191e-01,3.721961379051208496e-01,4.336766898632049561e-01,5.251370072364807129e-01,5.858666896820068359e-01,6.089659333229064941e-01,6.185592412948608398e-01,5.822787880897521973e-01,5.060920119285583496e-01,4.543006718158721924e-01,4.341677129268646240e-01,4.106555283069610596e-01,3.903726339340209961e-01,4.290837347507476807e-01,4.944820404052734375e-01,5.368644595146179199e-01,6.270728707313537598e-01,6.846126317977905273e-01,7.286999225616455078e-01,7.590460777282714844e-01,7.829182147979736328e-01,7.949156165122985840e-01,7.877805233001708984e-01,7.711997628211975098e-01,7.483499050140380859e-01,7.307077050209045410e-01,7.170680165290832520e-01,7.038805484771728516e-01,6.983246207237243652e-01,6.946488618850708008e-01,6.951662302017211914e-01,6.962075829505920410e-01,7.031697630882263184e-01,7.084680199623107910e-01,7.156084775924682617e-01,7.281315326690673828e-01,7.336153388023376465e-01,7.147823572158813477e-01,7.126401066780090332e-01,7.238626480102539062e-01,7.082911133766174316e-01,6.672192811965942383e-01,5.790352821350097656e-01
5.498362183570861816e-01,5.541183352470397949e-01,5.890443921089172363e-01,5.790375471115112305e-01,5.922479033470153809e-01,6.085581183433532715e-01,6.381733417510986328e-01,6.527647972106933594e-01,6.666593551635742188e-01,6.783933639526367188e-01,6.898015737533569336e-01,7.009339332580566406e-01,7.119190096855163574e-01,7.217568755149841309e-01,7.305906414985656738e-01,7.382035255432128906e-01,7.439008951187133789e-01,7.478585839271545410e-01,7.505385279655456543e-01,7.519969940185546875e-01,7.524072527885437012e-01,7.524713277816772461e-01,7.524425983428955078e-01,7.523800134658813477e-01,7.523047924041748047e-01,7.541009187698364258e-01,7.521035671234130859e-01,7.408702969551086426e-01,7.241119742393493652e-01,7.070586681365966797e-01,6.564226150512695312e-01,5.932071208953857422e-01,4.983663260936737061e-01,3.864936232566833496e-01,3.378497362136840820e-01,3.130154013633728027e-01,3.021072149276733398e-01,3.282081484794616699e-01,3.606705665588378906e-01,4.151382148265838623e-01,4.848413765430450439e-01,5.485059618949890137e-01,5.502426028251647949e-01,5.522621870040893555e-01,5.183460116386413574e-01,4.421938359737396240e-01,4.239206612110137939e-01,4.000231921672821045e-01,3.759671151638031006e-01,3.795402646064758301e-01,4.203430712223052979e-01,4.679720103740692139e-01,5.121191143989562988e-01,5.971576571464538574e-01,6.365576982498168945e-01,6.713376641273498535e-01,7.027382850646972656e-01,7.211916446685791016e-01,7.235192060470581055e-01,7.177718281745910645e-01,7.029492855072021484e-01,6.769835948944091797e-01,6.580038666725158691e-01,6.420586705207824707e-01,6.296177506446838379e-01,6.251478791236877441e-01,6.216040253639221191e-01,6.230845451354980469e-01,6.236716508865356445e-01,6.317437887191772461e-01,6.380916237831115723e-01,6.465953588485717773e-01,6.618906855583190918e-01,6.685816645622253418e-01,6.503051519393920898e-01,6.524640321731567383e-01,6.713854074478149414e-01,6.581705212593078613e-01,6.324056982994079590e-01,5.558667182922363281e-01
5.325871109962463379e-01,5.238308310508728027e-01,5.546788573265075684e-01,5.387867689132690430e-01,5.466826558113098145e-01,5.595364570617675781e-01,5.837622284889221191e-01,5.949369668960571289e-01,6.054002642631530762e-01,6.135229468345642090e-01,6.215358972549438477e-01,6.294610500335693359e-01,6.371103525161743164e-01,6.439329981803894043e-01,6.500946283340454102e-01,6.548271179199218750e-01,6.580513715744018555e-01,6.604510545730590820e-01,6.620019674301147461e-01,6.628224849700927734e-01,6.630265116691589355e-01,6.629868149757385254e-01,6.628828048706054688e-01,6.627949476242065430e-01,6.626465320587158203e-01,6.647504568099975586e-01,6.619969606399536133e-01,6.505120992660522461e-01,6.342478990554809570e-01,6.184289455413818359e-01,5.669258236885070801e-01,5.097937583923339844e-01,4.344885051250457764e-01,3.525932431221008301e-01,3.075750768184661865e-01,2.856661081314086914e-01,2.784890830516815186e-01,3.122625946998596191e-01,3.467807769775390625e-01,3.820668458938598633e-01,4.441608786582946777e-01,4.920652508735656738e-01,4.840494096279144287e-01,4.741574525833129883e-01,4.518242776393890381e-01,3.962311148643493652e-01,3.715037703514099121e-01,3.481961488723754883e-01,3.399430215358734131e-01,3.586266040802001953e-01,3.993524312973022461e-01,4.184285402297973633e-01,4.990915358066558838e-01,5.480390191078186035e-01,5.732493996620178223e-01,5.991529822349548340e-01,6.274240016937255859e-01,6.447263956069946289e-01,6.302974820137023926e-01,6.260367035865783691e-01,6.127449274063110352e-01,5.902460217475891113e-01,5.708335638046264648e-01,5.566683411598205566e-01,5.462633371353149414e-01,5.399751067161560059e-01,5.389715433120727539e-01,5.392324924468994141e-01,5.409765839576721191e-01,5.500838160514831543e-01,5.576004981994628906e-01,5.668662786483764648e-01,5.834948420524597168e-01,5.903351306915283203e-01,5.734065771102905273e-01,5.772196054458618164e-01,6.019203662872314453e-01,5.926755070686340332e-01,5.868798494338989258e-01,5.263471603393554688e-01
5.116007924079895020e-01,4.894222021102905273e-01,5.142400860786437988e-01,4.909917414188385010e-01,4.925753176212310791e-01,5.011563897132873535e-01,5.197589397430419922e-01,5.277091860771179199e-01,5.348450541496276855e-01,5.396821498870849609e-01,5.445525050163269043e-01,5.496597886085510254e-01,5.546131134033203125e-01,5.589432716369628906e-01,5.625625848770141602e-01,5.652586817741394043e-01,5.675418376922607422e-01,5.691418051719665527e-01,5.702167153358459473e-01,5.707014799118041992e-01,5.707985758781433105e-01,5.707126855850219727e-01,5.705748796463012695e-01,5.704902410507202148e-01,5.702837705612182617e-01,5.721416473388671875e-01,5.692238807678222656e-01,5.587324500083923340e-01,5.451982617378234863e-01,5.326382517814636230e-01,4.837428927421569824e-01,4.372515678405761719e-01,3.798826336860656738e-01,3.249215483665466309e-01,2.887637019157409668e-01,2.696818709373474121e-01,2.685064077377319336e-01,2.954108715057373047e-01,3.210358619689941406e-01,3.554874658584594727e-01,4.011965095996856689e-01,4.346105754375457764e-01,4.202890098094940186e-01,4.133318960666656494e-01,3.839222788810729980e-01,3.615671396255493164e-01,3.347816467285156250e-01,3.163588941097259521e-01,3.196501135826110840e-01,3.441343605518341064e-01,3.711786270141601562e-01,4.001544713973999023e-01,4.492524266242980957e-01,4.816445112228393555e-01,5.034274458885192871e-01,5.300498604774475098e-01,5.499783754348754883e-01,5.562488436698913574e-01,5.468665361404418945e-01,5.340826511383056641e-01,5.248221158981323242e-01,5.069308876991271973e-01,4.890639483928680420e-01,4.779994487762451172e-01,4.685038924217224121e-01,4.631780982017517090e-01,4.621261656284332275e-01,4.631014168262481689e-01,4.645072817802429199e-01,4.739416241645812988e-01,4.809359908103942871e-01,4.903872609138488770e-01,5.054199099540710449e-01,5.114827752113342285e-01,4.961445927619934082e-01,5.018019080162048340e-01,5.297871232032775879e-01,5.245871543884277344e-01,5.388346910476684570e-01,4.961853027343750000e-01
4.905963242053985596e-01,4.557293951511383057e-01,4.713630080223083496e-01,4.409453868865966797e-01,4.362804293632507324e-01,4.406366348266601562e-01,4.540594518184661865e-01,4.581390619277954102e-01,4.624655246734619141e-01,4.647897481918334961e-01,4.673478901386260986e-01,4.701628386974334717e-01,4.729242920875549316e-01,4.755539596080780029e-01,4.778468012809753418e-01,4.795485734939575195e-01,4.808250665664672852e-01,4.817812144756317139e-01,4.823791682720184326e-01,4.826309382915496826e-01,4.826848506927490234e-01,4.826723635196685791e-01,4.825923740863800049e-01,4.824762046337127686e-01,4.822435081005096436e-01,4.837412536144256592e-01,4.818197488784790039e-01,4.744085669517517090e-01,4.651885926723480225e-01,4.550701379776000977e-01,4.140287339687347412e-01,3.811780214309692383e-01,3.393967151641845703e-01,3.011719584465026855e-01,2.717483043670654297e-01,2.577548623085021973e-01,2.600524425506591797e-01,2.780527174472808838e-01,2.968512475490570068e-01,3.344455361366271973e-01,3.575637638568878174e-01,3.801174759864807129e-01,3.620288372039794922e-01,3.512156605720520020e-01,3.405905365943908691e-01,3.186693787574768066e-01,2.952619194984436035e-01,2.906589508056640625e-01,2.976775765419006348e-01,3.186033964157104492e-01,3.289285898208618164e-01,3.741990923881530762e-01,4.033977091312408447e-01,4.223006665706634521e-01,4.391519129276275635e-01,4.625821113586425781e-01,4.730748534202575684e-01,4.678224623203277588e-01,4.612832069396972656e-01,4.545244276523590088e-01,4.466483294963836670e-01,4.297940731048583984e-01,4.179186224937438965e-01,4.092833697795867920e-01,4.013048708438873291e-01,3.966313600540161133e-01,3.961040675640106201e-01,3.961434364318847656e-01,3.979616761207580566e-01,4.059246778488159180e-01,4.138585925102233887e-01,4.229011535644531250e-01,4.358982443809509277e-01,4.426891505718231201e-01,4.294188022613525391e-01,4.359610080718994141e-01,4.645130038261413574e-01,4.660248458385467529e-01,4.943172335624694824e-01,4.688260257244110107e-01
4.694176018238067627e-01,4.224286675453186035e-01,4.285608232021331787e-01,3.950837254524230957e-01,3.841193020343780518e-01,3.856842517852783203e-01,3.960987925529479980e-01,3.990368545055389404e-01,4.020583629608154297e-01,4.032492041587829590e-01,4.044606685638427734e-01,4.056697785854339600e-01,4.066870212554931641e-01,4.076309800148010254e-01,4.084263443946838379e-01,4.090085029602050781e-01,4.096186757087707520e-01,4.101022779941558838e-01,4.103066027164459229e-01,4.103515148162841797e-01,4.103555679321289062e-01,4.102600514888763428e-01,4.101883769035339355e-01,4.101039767265319824e-01,4.098926484584808350e-01,4.109173715114593506e-01,4.091722965240478516e-01,4.042415022850036621e-01,3.989008963108062744e-01,3.908480405807495117e-01,3.584888875484466553e-01,3.368984460830688477e-01,3.067297339439392090e-01,2.803910672664642334e-01,2.560349106788635254e-01,2.492753565311431885e-01,2.556735277175903320e-01,2.662817537784576416e-01,2.811502218246459961e-01,3.061544895172119141e-01,3.258717060089111328e-01,3.303146362304687500e-01,3.192975521087646484e-01,3.115959465503692627e-01,3.000016808509826660e-01,2.869061827659606934e-01,2.720276415348052979e-01,2.724757790565490723e-01,2.866284251213073730e-01,2.920081019401550293e-01,3.089528679847717285e-01,3.345015645027160645e-01,3.550600409507751465e-01,3.684578835964202881e-01,3.887267708778381348e-01,4.023722410202026367e-01,4.030472338199615479e-01,4.049330651760101318e-01,3.935207128524780273e-01,3.897510766983032227e-01,3.819608688354492188e-01,3.712491989135742188e-01,3.616816401481628418e-01,3.535625338554382324e-01,3.483681678771972656e-01,3.448747396469116211e-01,3.439389467239379883e-01,3.436738848686218262e-01,3.446517586708068848e-01,3.509691059589385986e-01,3.572852015495300293e-01,3.631502091884613037e-01,3.748977780342102051e-01,3.803448379039764404e-01,3.710399866104125977e-01,3.774951696395874023e-01,4.072757959365844727e-01,4.155229628086090088e-01,4.554485678672790527e-01,4.457214474678039551e-01
4.513974785804748535e-01,3.938289284706115723e-01,3.929924070835113525e-01,3.573028147220611572e-01,3.413689732551574707e-01,3.406598865985870361e-01,3.481058776378631592e-01,3.498265743255615234e-01,3.515215516090393066e-01,3.519425690174102783e-01,3.524591922760009766e-01,3.529217243194580078e-01,3.534056246280670166e-01,3.538409769535064697e-01,3.541267514228820801e-01,3.542243242263793945e-01,3.542943000793457031e-01,3.541647195816040039e-01,3.540145158767700195e-01,3.539575338363647461e-01,3.539353609085083008e-01,3.539004325866699219e-01,3.538452386856079102e-01,3.537890315055847168e-01,3.536427021026611328e-01,3.543062210083007812e-01,3.530173897743225098e-01,3.505825102329254150e-01,3.457943797111511230e-01,3.396392166614532471e-01,3.175494372844696045e-01,3.042618632316589355e-01,2.838648855686187744e-01,2.619697451591491699e-01,2.433504760265350342e-01,2.391392290592193604e-01,2.473911941051483154e-01,2.540883421897888184e-01,2.665968835353851318e-01,2.867739200592041016e-01,3.000110387802124023e-01,2.961701154708862305e-01,2.874176502227783203e-01,2.880099415779113770e-01,2.682889699935913086e-01,2.631362676620483398e-01,2.538157105445861816e-01,2.567313909530639648e-01,2.657857537269592285e-01,2.681907415390014648e-01,2.910665869712829590e-01,3.063788712024688721e-01,3.210539817810058594e-01,3.291765749454498291e-01,3.425818085670471191e-01,3.492789268493652344e-01,3.477264940738677979e-01,3.484471440315246582e-01,3.439853191375732422e-01,3.393607735633850098e-01,3.325417935848236084e-01,3.274822235107421875e-01,3.171448111534118652e-01,3.125118017196655273e-01,3.071281313896179199e-01,3.053024709224700928e-01,3.038717508316040039e-01,3.038168549537658691e-01,3.047133684158325195e-01,3.099902272224426270e-01,3.146050572395324707e-01,3.201100528240203857e-01,3.295316994190216064e-01,3.331951200962066650e-01,3.246224224567413330e-01,3.315265774726867676e-01,3.604418039321899414e-01,3.735071718692779541e-01,4.216998517513275146e-01,4.254804849624633789e-01
4.349685311317443848e-01,3.689458966255187988e-01,3.612763583660125732e-01,3.251672983169555664e-01,3.061319589614868164e-01,3.047580718994140625e-01,3.108636736869812012e-01,3.122491836547851562e-01,3.134074807167053223e-01,3.134203553199768066e-01,3.134026825428009033e-01,3.133940100669860840e-01,3.134719133377075195e-01,3.135598301887512207e-01,3.135914802551269531e-01,3.136049211025238037e-01,3.135631680488586426e-01,3.135140538215637207e-01,3.135307431221008301e-01,3.135139942169189453e-01,3.134565949440002441e-01,3.134119510650634766e-01,3.133780360221862793e-01,3.133454322814941406e-01,3.132312297821044922e-01,3.136948645114898682e-01,3.126965463161468506e-01,3.117882013320922852e-01,3.086963295936584473e-01,3.034344613552093506e-01,2.889332473278045654e-01,2.785213589668273926e-01,2.646521329879760742e-01,2.484388947486877441e-01,2.343804836273193359e-01,2.334279417991638184e-01,2.420449256896972656e-01,2.455363273620605469e-01,2.514520883560180664e-01,2.648106813430786133e-01,2.736549079418182373e-01,2.703856825828552246e-01,2.654899358749389648e-01,2.632821798324584961e-01,2.555052042007446289e-01,2.486864626407623291e-01,2.436147034168243408e-01,2.459743022918701172e-01,2.467578649520874023e-01,2.616722285747528076e-01,2.667660117149353027e-01,2.788567841053009033e-01,2.861600220203399658e-01,2.995972931385040283e-01,3.047024607658386230e-01,3.075067400932312012e-01,3.113955259323120117e-01,3.089868724346160889e-01,3.071054220199584961e-01,3.028990328311920166e-01,2.987703979015350342e-01,2.932784557342529297e-01,2.871847748756408691e-01,2.828562855720520020e-01,2.790727019309997559e-01,2.771163880825042725e-01,2.757003307342529297e-01,2.755720019340515137e-01,2.759811282157897949e-01,2.801991701126098633e-01,2.827550768852233887e-01,2.883205115795135498e-01,2.940898537635803223e-01,2.980080544948577881e-01,2.895959019660949707e-01,2.968291044235229492e-01,3.246625661849975586e-01,3.422350883483886719e-01,3.959873914718627930e-01,4.098118245601654053e-01
4.212127923965454102e-01,3.491301536560058594e-01,3.364087939262390137e-01,2.999942600727081299e-01,2.791711091995239258e-01,2.769950032234191895e-01,2.819473147392272949e-01,2.831132411956787109e-01,2.839965820312500000e-01,2.838859558105468750e-01,2.838472723960876465e-01,2.838452458381652832e-01,2.838273644447326660e-01,2.838107347488403320e-01,2.837952971458435059e-01,2.837575972080230713e-01,2.837181687355041504e-01,2.836889028549194336e-01,2.836634814739227295e-01,2.836290597915649414e-01,2.836025357246398926e-01,2.835805416107177734e-01,2.835583090782165527e-01,2.835356593132019043e-01,2.834535837173461914e-01,2.836015820503234863e-01,2.831168770790100098e-01,2.825554013252258301e-01,2.806170284748077393e-01,2.771303057670593262e-01,2.680949568748474121e-01,2.601436972618103027e-01,2.497774958610534668e-01,2.408999800682067871e-01,2.273986339569091797e-01,2.277319431304931641e-01,2.316967546939849854e-01,2.358607351779937744e-01,2.408271133899688721e-01,2.505760192871093750e-01,2.537382543087005615e-01,2.524574100971221924e-01,2.510961890220642090e-01,2.447143495082855225e-01,2.390837371349334717e-01,2.357015311717987061e-01,2.359716296195983887e-01,2.368991076946258545e-01,2.354463338851928711e-01,2.441747784614562988e-01,2.531039416790008545e-01,2.592339813709259033e-01,2.641938328742980957e-01,2.715101242065429688e-01,2.751333713531494141e-01,2.775986790657043457e-01,2.795069515705108643e-01,2.804694175720214844e-01,2.798070907592773438e-01,2.758305668830871582e-01,2.729340195655822754e-01,2.696226835250854492e-01,2.645256817340850830e-01,2.607743740081787109e-01,2.578949928283691406e-01,2.563547492027282715e-01,2.544877827167510986e-01,2.547313570976257324e-01,2.548237442970275879e-01,2.577316462993621826e-01,2.602604925632476807e-01,2.632238268852233887e-01,2.696771025657653809e-01,2.718424797058105469e-01,2.651302516460418701e-01,2.705589532852172852e-01,2.976232171058654785e-01,3.177756071090698242e-01,3.755385577678680420e-01,3.972594141960144043e-01
4.091758131980895996e-01,3.324913382530212402e-01,3.159789443016052246e-01,2.799499630928039551e-01,2.584233880043029785e-01,2.558324337005615234e-01,2.600266337394714355e-01,2.610192894935607910e-01,2.617923915386199951e-01,2.617071270942687988e-01,2.616667747497558594e-01,2.616443037986755371e-01,2.616247534751892090e-01,2.616089582443237305e-01,2.615924179553985596e-01,2.615749835968017578e-01,2.615591287612915039e-01,2.615437805652618408e-01,2.615264654159545898e-01,2.615087330341339111e-01,2.614924907684326172e-01,2.614767253398895264e-01,2.614604532718658447e-01,2.614445090293884277e-01,2.613869905471801758e-01,2.614461779594421387e-01,2.614118456840515137e-01,2.611300349235534668e-01,2.596576809883117676e-01,2.576376795768737793e-01,2.524980008602142334e-01,2.454200983047485352e-01,2.384117543697357178e-01,2.310376167297363281e-01,2.233908474445343018e-01,2.225752472877502441e-01,2.238534688949584961e-01,2.269131541252136230e-01,2.326141893863677979e-01,2.361183762550354004e-01,2.371608018875122070e-01,2.370782196521759033e-01,2.378329336643218994e-01,2.330884039402008057e-01,2.291657924652099609e-01,2.272840142250061035e-01,2.273214161396026611e-01,2.268415093421936035e-01,2.289494276046752930e-01,2.309502363204956055e-01,2.401717305183410645e-01,2.432267963886260986e-01,2.480209171772003174e-01,2.509925365447998047e-01,2.531782984733581543e-01,2.565894126892089844e-01,2.573054432868957520e-01,2.576311230659484863e-01,2.582493424415588379e-01,2.557899355888366699e-01,2.533067166805267334e-01,2.516033649444580078e-01,2.468540668487548828e-01,2.448228299617767334e-01,2.419632673263549805e-01,2.404238283634185791e-01,2.386398315429687500e-01,2.388637661933898926e-01,2.389628887176513672e-01,2.411103546619415283e-01,2.426168322563171387e-01,2.452235221862792969e-01,2.509623169898986816e-01,2.525745630264282227e-01,2.458069920539855957e-01,2.503200173377990723e-01,2.770285308361053467e-01,2.997201979160308838e-01,3.598589003086090088e-01,3.872186243534088135e-01
3.991099596023559570e-01,3.188914954662322998e-01,2.997271418571472168e-01,2.643877863883972168e-01,2.423047721385955811e-01,2.394172549247741699e-01,2.430774271488189697e-01,2.439679503440856934e-01,2.446592748165130615e-01,2.445958554744720459e-01,2.445633113384246826e-01,2.445483207702636719e-01,2.445337176322937012e-01,2.445197999477386475e-01,2.445051670074462891e-01,2.444907724857330322e-01,2.444771230220794678e-01,2.444637417793273926e-01,2.444500625133514404e-01,2.444371283054351807e-01,2.444241046905517578e-01,2.444114089012145996e-01,2.443983554840087891e-01,2.443879544734954834e-01,2.443536818027496338e-01,2.443403899669647217e-01,2.443252503871917725e-01,2.440988421440124512e-01,2.429398298263549805e-01,2.417244613170623779e-01,2.387644350528717041e-01,2.334586679935455322e-01,2.285241782665252686e-01,2.244202792644500732e-01,2.188729047775268555e-01,2.182969152927398682e-01,2.181895077228546143e-01,2.191649079322814941e-01,2.231430113315582275e-01,2.262080907821655273e-01,2.260254323482513428e-01,2.266920208930969238e-01,2.272290885448455811e-01,2.230531573295593262e-01,2.209044992923736572e-01,2.192264199256896973e-01,2.192646861076354980e-01,2.198539972305297852e-01,2.204025685787200928e-01,2.229400575160980225e-01,2.275237739086151123e-01,2.312748730182647705e-01,2.332926392555236816e-01,2.343547940254211426e-01,2.364909946918487549e-01,2.382856905460357666e-01,2.398615777492523193e-01,2.410310506820678711e-01,2.414187192916870117e-01,2.398112118244171143e-01,2.383133172988891602e-01,2.372230887413024902e-01,2.339496314525604248e-01,2.314732670783996582e-01,2.291810512542724609e-01,2.277449667453765869e-01,2.265143692493438721e-01,2.263581156730651855e-01,2.265107035636901855e-01,2.272889912128448486e-01,2.294461131095886230e-01,2.322280406951904297e-01,2.345391809940338135e-01,2.376616597175598145e-01,2.307446002960205078e-01,2.356952428817749023e-01,2.609194517135620117e-01,2.856265306472778320e-01,3.474282026290893555e-01,3.792721629142761230e-01
3.908087313175201416e-01,3.077780306339263916e-01,2.866274118423461914e-01,2.519677281379699707e-01,2.295320034027099609e-01,2.264048159122467041e-01,2.296706438064575195e-01,2.304605543613433838e-01,2.310823798179626465e-01,2.310276329517364502e-01,2.310005426406860352e-01,2.309898138046264648e-01,2.309793829917907715e-01,2.309691905975341797e-01,2.309586703777313232e-01,2.309484779834747314e-01,2.309381365776062012e-01,2.309276163578033447e-01,2.309171259403228760e-01,2.309066951274871826e-01,2.308963835239410400e-01,2.308858335018157959e-01,2.308754622936248779e-01,2.308704555034637451e-01,2.308493554592132568e-01,2.308676838874816895e-01,2.308439910411834717e-01,2.307010293006896973e-01,2.299027144908905029e-01,2.295529246330261230e-01,2.275163829326629639e-01,2.236412465572357178e-01,2.198581099510192871e-01,2.163338661193847656e-01,2.126438021659851074e-01,2.122359573841094971e-01,2.123920917510986328e-01,2.132870852947235107e-01,2.153508365154266357e-01,2.179513871669769287e-01,2.187818288803100586e-01,2.187515199184417725e-01,2.184016704559326172e-01,2.168945968151092529e-01,2.142317593097686768e-01,2.130864858627319336e-01,2.126401662826538086e-01,2.132361233234405518e-01,2.141781747341156006e-01,2.148687541484832764e-01,2.162622511386871338e-01,2.207485735416412354e-01,2.216569185256958008e-01,2.227502763271331787e-01,2.244365513324737549e-01,2.255759239196777344e-01,2.265141308307647705e-01,2.275876104831695557e-01,2.275927960872650146e-01,2.272114753723144531e-01,2.262447774410247803e-01,2.253025472164154053e-01,2.236841320991516113e-01,2.206797599792480469e-01,2.190276682376861572e-01,2.174765169620513916e-01,2.166056334972381592e-01,2.163605093955993652e-01,2.164103686809539795e-01,2.168442904949188232e-01,2.190086543560028076e-01,2.203570306301116943e-01,2.229505479335784912e-01,2.245468795299530029e-01,2.189958393573760986e-01,2.232523560523986816e-01,2.481014132499694824e-01,2.736254930496215820e-01,3.370428085327148438e-01,3.727932274341583252e-01
3.838099837303161621e-01,2.985772192478179932e-01,2.758288085460662842e-01,2.418445646762847900e-01,2.191894948482513428e-01,2.158568203449249268e-01,2.188123464584350586e-01,2.195138335227966309e-01,2.200799584388732910e-01,2.200323641300201416e-01,2.200094163417816162e-01,2.200008332729339600e-01,2.199921607971191406e-01,2.199839055538177490e-01,2.199751436710357666e-01,2.199667394161224365e-01,2.199582755565643311e-01,2.199496328830718994e-01,2.199411690235137939e-01,2.199326455593109131e-01,2.199240922927856445e-01,2.199156880378723145e-01,2.199069857597351074e-01,2.199000418186187744e-01,2.198880314826965332e-01,2.198813557624816895e-01,2.199115753173828125e-01,2.196817100048065186e-01,2.192522585391998291e-01,2.190836668014526367e-01,2.177677452564239502e-01,2.149003446102142334e-01,2.131805121898651123e-01,2.103884220123291016e-01,2.073304951190948486e-01,2.065356671810150146e-01,2.065558433532714844e-01,2.069063782691955566e-01,2.089429199695587158e-01,2.098580598831176758e-01,2.124569118022918701e-01,2.121826112270355225e-01,2.121326029300689697e-01,2.106429636478424072e-01,2.096796035766601562e-01,2.078000009059906006e-01,2.077985405921936035e-01,2.069407999515533447e-01,2.069670557975769043e-01,2.078066468238830566e-01,2.098352611064910889e-01,2.100462317466735840e-01,2.120474576950073242e-01,2.132165729999542236e-01,2.149515748023986816e-01,2.154724597930908203e-01,2.162337601184844971e-01,2.170735597610473633e-01,2.171910405158996582e-01,2.167981266975402832e-01,2.165948450565338135e-01,2.157748341560363770e-01,2.141869962215423584e-01,2.126919329166412354e-01,2.103094756603240967e-01,2.092899680137634277e-01,2.085989415645599365e-01,2.081590592861175537e-01,2.080977857112884521e-01,2.082326114177703857e-01,2.099290192127227783e-01,2.110700309276580811e-01,2.131542861461639404e-01,2.140959203243255615e-01,2.085836827754974365e-01,2.128889560699462891e-01,2.368327379226684570e-01,2.639684677124023438e-01,3.281428217887878418e-01,3.670579791069030762e-01
3.778367936611175537e-01,2.908435761928558350e-01,2.668063640594482422e-01,2.334578037261962891e-01,2.106577754020690918e-01,2.071479856967926025e-01,2.098517417907714844e-01,2.104754745960235596e-01,2.109927833080291748e-01,2.109509110450744629e-01,2.109308242797851562e-01,2.109237909317016602e-01,2.109166383743286133e-01,2.109095752239227295e-01,2.109024226665496826e-01,2.108955085277557373e-01,2.108884453773498535e-01,2.108810842037200928e-01,2.108740210533142090e-01,2.108668386936187744e-01,2.108597457408905029e-01,2.108526527881622314e-01,2.108456194400787354e-01,2.108396291732788086e-01,2.108303308486938477e-01,2.108297944068908691e-01,2.108228504657745361e-01,2.107106149196624756e-01,2.106491923332214355e-01,2.103965580463409424e-01,2.095577716827392578e-01,2.079591155052185059e-01,2.062698006629943848e-01,2.048706114292144775e-01,2.028507590293884277e-01,2.011239528656005859e-01,2.012038230895996094e-01,2.020682990550994873e-01,2.025115787982940674e-01,2.039346396923065186e-01,2.051304578781127930e-01,2.058141529560089111e-01,2.057481706142425537e-01,2.069164216518402100e-01,2.047698497772216797e-01,2.036693692207336426e-01,2.024973630905151367e-01,2.027673721313476562e-01,2.012079060077667236e-01,2.020148336887359619e-01,2.021875083446502686e-01,2.031325697898864746e-01,2.039248347282409668e-01,2.062751650810241699e-01,2.067821323871612549e-01,2.079727053642272949e-01,2.084483504295349121e-01,2.083449959754943848e-01,2.085706591606140137e-01,2.083811759948730469e-01,2.083954811096191406e-01,2.076843678951263428e-01,2.068130373954772949e-01,2.052098512649536133e-01,2.034143507480621338e-01,2.021957933902740479e-01,2.017644345760345459e-01,2.012192606925964355e-01,2.011000514030456543e-01,2.014783024787902832e-01,2.020817101001739502e-01,2.040101289749145508e-01,2.045353353023529053e-01,2.056024968624114990e-01,1.999190151691436768e-01,2.041634619235992432e-01,2.276724576950073242e-01,2.550334036350250244e-01,3.207061886787414551e-01,3.623486459255218506e-01
3.726797103881835938e-01,2.842504680156707764e-01,2.591608762741088867e-01,2.263986170291900635e-01,2.035065591335296631e-01,1.998414695262908936e-01,2.023387253284454346e-01,2.028938233852386475e-01,2.033700942993164062e-01,2.033327817916870117e-01,2.033151686191558838e-01,2.033091485500335693e-01,2.033031582832336426e-01,2.032970786094665527e-01,2.032912373542785645e-01,2.032851576805114746e-01,2.032791078090667725e-01,2.032729983329772949e-01,2.032671868801116943e-01,2.032610177993774414e-01,2.032551467418670654e-01,2.032490074634552002e-01,2.032429575920104980e-01,2.032378315925598145e-01,2.032312452793121338e-01,2.032217085361480713e-01,2.032187879085540771e-01,2.031704187393188477e-01,2.031292915344238281e-01,2.030195891857147217e-01,2.026727199554443359e-01,2.016335725784301758e-01,2.005656361579895020e-01,1.995182037353515625e-01,1.985700726509094238e-01,1.968893110752105713e-01,1.966509222984313965e-01,1.969939768314361572e-01,1.972795426845550537e-01,1.981015503406524658e-01,1.988881826400756836e-01,1.994763016700744629e-01,2.002474069595336914e-01,2.005189061164855957e-01,2.004491686820983887e-01,1.998698711395263672e-01,1.990337967872619629e-01,1.975530683994293213e-01,1.977039575576782227e-01,1.969453394412994385e-01,1.971406638622283936e-01,1.969296634197235107e-01,1.981137394905090332e-01,1.986840367317199707e-01,1.998155415058135986e-01,2.010287940502166748e-01,2.020040452480316162e-01,2.019604444503784180e-01,2.017450928688049316e-01,2.017858028411865234e-01,2.014891207218170166e-01,2.006229758262634277e-01,1.999770402908325195e-01,1.990294754505157471e-01,1.974059939384460449e-01,1.964486837387084961e-01,1.956796944141387939e-01,1.955756545066833496e-01,1.951195299625396729e-01,1.956734657287597656e-01,1.959411799907684326e-01,1.963462233543395996e-01,1.981580555438995361e-01,1.982089281082153320e-01,1.931619644165039062e-01,1.969483196735382080e-01,2.205303609371185303e-01,2.474873363971710205e-01,3.137066662311553955e-01,3.577535152435302734e-01
3.681832551956176758e-01,2.785648107528686523e-01,2.526054978370666504e-01,2.203787863254547119e-01,1.974307298660278320e-01,1.936296224594116211e-01,1.959545910358428955e-01,1.964496076107025146e-01,1.968902349472045898e-01,1.968570947647094727e-01,1.968412995338439941e-01,1.968363225460052490e-01,1.968310177326202393e-01,1.968257725238800049e-01,1.968208253383636475e-01,1.968156099319458008e-01,1.968104541301727295e-01,1.968054175376892090e-01,1.968001723289489746e-01,1.967950165271759033e-01,1.967898011207580566e-01,1.967850923538208008e-01,1.967796087265014648e-01,1.967744827270507812e-01,1.967695653438568115e-01,1.967599093914031982e-01,1.967520415782928467e-01,1.967446804046630859e-01,1.967231035232543945e-01,1.966635882854461670e-01,1.965908408164978027e-01,1.961027681827545166e-01,1.954089999198913574e-01,1.946889758110046387e-01,1.938695907592773438e-01,1.931348741054534912e-01,1.926401257514953613e-01,1.925675570964813232e-01,1.928169727325439453e-01,1.933321058750152588e-01,1.935784518718719482e-01,1.943055093288421631e-01,1.950827836990356445e-01,1.950305402278900146e-01,1.953063309192657471e-01,1.952773034572601318e-01,1.944988071918487549e-01,1.938029527664184570e-01,1.932075619697570801e-01,1.927913725376129150e-01,1.922535300254821777e-01,1.926869750022888184e-01,1.926377415657043457e-01,1.936919093132019043e-01,1.943581998348236084e-01,1.952128708362579346e-01,1.955366432666778564e-01,1.960652470588684082e-01,1.958214938640594482e-01,1.959169209003448486e-01,1.956407427787780762e-01,1.950165331363677979e-01,1.939601600170135498e-01,1.933594644069671631e-01,1.920410096645355225e-01,1.912434697151184082e-01,1.906391382217407227e-01,1.902150511741638184e-01,1.899652183055877686e-01,1.901278197765350342e-01,1.905201077461242676e-01,1.908030807971954346e-01,1.917789876461029053e-01,1.918568611145019531e-01,1.870094239711761475e-01,1.908109784126281738e-01,2.132533788681030273e-01,2.411286234855651855e-01,3.078235387802124023e-01,3.541638255119323730e-01
