5.834186077117919922e-01,5.977107882499694824e-01,6.267962455749511719e-01,6.188296675682067871e-01,6.430774331092834473e-01,6.537663936614990234e-01,6.840221285820007324e-01,7.024557590484619141e-01,7.179755568504333496e-01,7.333832979202270508e-01,7.466440200805664062e-01,7.608946561813354492e-01,7.762598991394042969e-01,7.892297506332397461e-01,8.010269403457641602e-01,8.107912540435791016e-01,8.175224065780639648e-01,8.214557766914367676e-01,8.253777027130126953e-01,8.276642560958862305e-01,8.288537263870239258e-01,8.294284343719482422e-01,8.296609520912170410e-01,8.297070264816284180e-01,8.297017812728881836e-01,8.297531604766845703e-01,8.298645019531250000e-01,8.309600353240966797e-01,8.269752264022827148e-01,8.199518918991088867e-01,7.996163368225097656e-01,7.820509672164916992e-01,7.430331707000732422e-01,7.061547636985778809e-01,6.456593871116638184e-01,5.498180985450744629e-01,4.949807226657867432e-01,4.577255249023437500e-01,4.050564169883728027e-01,3.659428954124450684e-01,3.371580243110656738e-01,3.367886543273925781e-01,3.415542840957641602e-01,3.647803068161010742e-01,3.747598826885223389e-01,4.141061902046203613e-01,4.651775658130645752e-01,5.134119391441345215e-01,5.595683455467224121e-01,5.833631157875061035e-01,5.680026412010192871e-01,5.639322996139526367e-01,5.467209219932556152e-01,5.253998637199401855e-01,4.834881722927093506e-01,4.740328192710876465e-01,4.254044890403747559e-01,3.838862478733062744e-01,3.629819154739379883e-01,3.419407904148101807e-01,3.297694921493530273e-01,3.177846074104309082e-01,3.126314282417297363e-01,3.075007200241088867e-01,3.072417974472045898e-01,3.082761168479919434e-01,3.254128694534301758e-01,3.392686545848846436e-01,3.747605085372924805e-01,4.109621644020080566e-01,4.348542094230651855e-01,4.885679185390472412e-01,5.420864224433898926e-01,5.763287544250488281e-01,5.784041881561279297e-01,5.996739268302917480e-01,6.257328987121582031e-01,6.399469375610351562e-01,5.821587443351745605e-01,5.313746929168701172e-01
5.795698761940002441e-01,5.982280969619750977e-01,6.480348110198974609e-01,6.185632348060607910e-01,6.515624523162841797e-01,6.743710041046142578e-01,7.075754404067993164e-01,7.301650643348693848e-01,7.501356601715087891e-01,7.685747146606445312e-01,7.867032289505004883e-01,8.029245138168334961e-01,8.189259171485900879e-01,8.341137170791625977e-01,8.459050655364990234e-01,8.549927473068237305e-01,8.612016439437866211e-01,8.666808605194091797e-01,8.694663047790527344e-01,8.715742826461791992e-01,8.728042840957641602e-01,8.733375072479248047e-01,8.735443949699401855e-01,8.735994100570678711e-01,8.736003637313842773e-01,8.736430406570434570e-01,8.738744258880615234e-01,8.737703561782836914e-01,8.699030876159667969e-01,8.615749478340148926e-01,8.473788499832153320e-01,8.241717815399169922e-01,7.877817153930664062e-01,7.328068614006042480e-01,6.550596952438354492e-01,5.363345146179199219e-01,4.584168195724487305e-01,3.993116617202758789e-01,3.351659178733825684e-01,2.925084829330444336e-01,2.637339532375335693e-01,2.601883411407470703e-01,2.692129611968994141e-01,2.895514667034149170e-01,3.070208430290222168e-01,3.559713661670684814e-01,4.121100306510925293e-01,4.792481064796447754e-01,5.406618118286132812e-01,5.763317346572875977e-01,5.882879495620727539e-01,5.692753791809082031e-01,5.560572147369384766e-01,5.386136770248413086e-01,4.887665808200836182e-01,4.171836376190185547e-01,3.880946636199951172e-01,3.340884745121002197e-01,2.983582019805908203e-01,2.695607841014862061e-01,2.502793371677398682e-01,2.381710708141326904e-01,2.331568896770477295e-01,2.275244891643524170e-01,2.226345241069793701e-01,2.316930890083312988e-01,2.409263253211975098e-01,2.619894146919250488e-01,2.967831492424011230e-01,3.281263709068298340e-01,3.866489827632904053e-01,4.277254343032836914e-01,5.105321407318115234e-01,5.390055775642395020e-01,5.712690949440002441e-01,5.837740898132324219e-01,6.053911447525024414e-01,6.229909062385559082e-01,5.926186442375183105e-01,5.385677814483642578e-01
5.916150212287902832e-01,6.112024784088134766e-01,6.348628401756286621e-01,6.225438714027404785e-01,6.499792933464050293e-01,6.736604571342468262e-01,7.128697633743286133e-01,7.344673871994018555e-01,7.552257776260375977e-01,7.754610776901245117e-01,7.932398319244384766e-01,8.102229833602905273e-01,8.250697255134582520e-01,8.410216569900512695e-01,8.532786369323730469e-01,8.619810342788696289e-01,8.695367574691772461e-01,8.739722371101379395e-01,8.775789737701416016e-01,8.793590068817138672e-01,8.806601762771606445e-01,8.814692497253417969e-01,8.816852569580078125e-01,8.817394375801086426e-01,8.817434310913085938e-01,8.817881941795349121e-01,8.824309110641479492e-01,8.823056221008300781e-01,8.784310817718505859e-01,8.704051375389099121e-01,8.573931455612182617e-01,8.316958546638488770e-01,8.099207878112792969e-01,7.512744665145874023e-01,6.506336927413940430e-01,5.209075808525085449e-01,4.380053877830505371e-01,3.698204755783081055e-01,2.989295125007629395e-01,2.641898393630981445e-01,2.317045629024505615e-01,2.270400822162628174e-01,2.342167198657989502e-01,2.496896982192993164e-01,2.636965513229370117e-01,3.241957426071166992e-01,3.782004415988922119e-01,4.972874522209167480e-01,5.458050966262817383e-01,6.008261442184448242e-01,6.336401700973510742e-01,5.980956554412841797e-01,5.874498486518859863e-01,5.569006204605102539e-01,5.142445564270019531e-01,4.249833226203918457e-01,3.795670270919799805e-01,3.322826921939849854e-01,2.826174497604370117e-01,2.450929880142211914e-01,2.224270701408386230e-01,2.116073369979858398e-01,1.994288861751556396e-01,1.937028467655181885e-01,1.886365115642547607e-01,1.935805082321166992e-01,2.066520452499389648e-01,2.291727960109710693e-01,2.613133192062377930e-01,2.748594582080841064e-01,3.396005630493164062e-01,4.044993221759796143e-01,4.715434610843658447e-01,5.211802721023559570e-01,5.388405323028564453e-01,5.517609119415283203e-01,5.833613872528076172e-01,5.906419754028320312e-01,5.716468095779418945e-01,5.165324807167053223e-01
5.760106444358825684e-01,5.908895134925842285e-01,6.343250274658203125e-01,6.279851794242858887e-01,6.464058160781860352e-01,6.690370440483093262e-01,7.076355218887329102e-01,7.304199337959289551e-01,7.530192136764526367e-01,7.734221220016479492e-01,7.937971949577331543e-01,8.119126558303833008e-01,8.288805484771728516e-01,8.426443338394165039e-01,8.561205863952636719e-01,8.659179806709289551e-01,8.727934360504150391e-01,8.776044845581054688e-01,8.806564807891845703e-01,8.831239938735961914e-01,8.842946290969848633e-01,8.850319385528564453e-01,8.853523731231689453e-01,8.853976726531982422e-01,8.854032158851623535e-01,8.854148387908935547e-01,8.860785365104675293e-01,8.859769105911254883e-01,8.839913606643676758e-01,8.779879808425903320e-01,8.655411005020141602e-01,8.384221792221069336e-01,8.106912374496459961e-01,7.524117231369018555e-01,6.503455638885498047e-01,4.875358939170837402e-01,3.977739214897155762e-01,3.344223201274871826e-01,2.672668099403381348e-01,2.360423505306243896e-01,2.023401260375976562e-01,2.023446857929229736e-01,2.076298296451568604e-01,2.279570102691650391e-01,2.531228661537170410e-01,3.128012418746948242e-01,3.954761922359466553e-01,5.004491806030273438e-01,5.848287940025329590e-01,6.193962097167968750e-01,6.627267599105834961e-01,6.647468209266662598e-01,6.180535554885864258e-01,5.740275382995605469e-01,5.221941471099853516e-01,4.527247846126556396e-01,3.661736845970153809e-01,3.283456861972808838e-01,2.715616822242736816e-01,2.250382900238037109e-01,2.029712200164794922e-01,1.873585879802703857e-01,1.715366542339324951e-01,1.688926815986633301e-01,1.640869379043579102e-01,1.615292727947235107e-01,1.711925268173217773e-01,1.938830316066741943e-01,2.220617532730102539e-01,2.447038590908050537e-01,2.838963866233825684e-01,3.771437406539916992e-01,4.441402852535247803e-01,5.053682327270507812e-01,5.173439383506774902e-01,5.326584577560424805e-01,5.678994655609130859e-01,5.841434001922607422e-01,5.829446911811828613e-01,5.234493017196655273e-01
5.856289267539978027e-01,6.095343828201293945e-01,6.510711312294006348e-01,6.518863439559936523e-01,6.743688583374023438e-01,6.974379420280456543e-01,7.324478626251220703e-01,7.537945508956909180e-01,7.752478718757629395e-01,7.940099239349365234e-01,8.125048875808715820e-01,8.297303915023803711e-01,8.440521955490112305e-01,8.575357198715209961e-01,8.687921762466430664e-01,8.789935111999511719e-01,8.860356807708740234e-01,8.904824256896972656e-01,8.932614326477050781e-01,8.950709104537963867e-01,8.964833617210388184e-01,8.971182107925415039e-01,8.974015712738037109e-01,8.974746465682983398e-01,8.974754810333251953e-01,8.974736928939819336e-01,8.975913524627685547e-01,8.981806039810180664e-01,8.969883918762207031e-01,8.915089368820190430e-01,8.786877393722534180e-01,8.552142381668090820e-01,8.286951184272766113e-01,7.740356922149658203e-01,6.974291801452636719e-01,5.207366347312927246e-01,4.294857680797576904e-01,3.541711568832397461e-01,2.860230505466461182e-01,2.481217980384826660e-01,2.153438329696655273e-01,2.133436203002929688e-01,2.230336070060729980e-01,2.436516284942626953e-01,2.707793414592742920e-01,3.377871811389923096e-01,4.445379376411437988e-01,5.583660602569580078e-01,6.217557787895202637e-01,6.816809773445129395e-01,7.235294580459594727e-01,7.390324473381042480e-01,7.225728631019592285e-01,6.561123132705688477e-01,5.988379120826721191e-01,5.200245380401611328e-01,4.454223215579986572e-01,3.732337355613708496e-01,3.341019749641418457e-01,2.744308710098266602e-01,2.318304777145385742e-01,2.063834369182586670e-01,1.900838613510131836e-01,1.847410798072814941e-01,1.802687942981719971e-01,1.740071177482604980e-01,1.785265207290649414e-01,1.990767121315002441e-01,2.267524302005767822e-01,2.545524835586547852e-01,3.057327866554260254e-01,3.588324785232543945e-01,4.715653955936431885e-01,5.243598222732543945e-01,5.442828536033630371e-01,5.638960003852844238e-01,5.893462896347045898e-01,6.040809154510498047e-01,5.950587391853332520e-01,5.333916544914245605e-01
5.862385034561157227e-01,6.089718937873840332e-01,6.536796092987060547e-01,6.547651886940002441e-01,6.780833005905151367e-01,7.019329071044921875e-01,7.384433746337890625e-01,7.597748041152954102e-01,7.806820869445800781e-01,7.996249794960021973e-01,8.179705142974853516e-01,8.352553844451904297e-01,8.500523567199707031e-01,8.631901741027832031e-01,8.749895095825195312e-01,8.844100236892700195e-01,8.914949893951416016e-01,8.961790800094604492e-01,8.992633819580078125e-01,9.009844064712524414e-01,9.020897150039672852e-01,9.028489589691162109e-01,9.030691385269165039e-01,9.031418561935424805e-01,9.031497836112976074e-01,9.031230211257934570e-01,9.031404256820678711e-01,9.040373563766479492e-01,9.041321277618408203e-01,8.989603519439697266e-01,8.867649435997009277e-01,8.701074123382568359e-01,8.417717218399047852e-01,7.898555994033813477e-01,7.029610276222229004e-01,5.421091318130493164e-01,4.350822269916534424e-01,3.600114583969116211e-01,2.930142879486083984e-01,2.503958940505981445e-01,2.189816832542419434e-01,2.140938937664031982e-01,2.269259691238403320e-01,2.432664334774017334e-01,2.823206782341003418e-01,3.541609048843383789e-01,4.568655490875244141e-01,5.848567485809326172e-01,6.714846491813659668e-01,7.074527740478515625e-01,7.522857785224914551e-01,7.758160829544067383e-01,7.936125993728637695e-01,7.405856847763061523e-01,6.640150547027587891e-01,5.862903594970703125e-01,5.101899504661560059e-01,4.363564848899841309e-01,3.621073067188262939e-01,3.117443025112152100e-01,2.535512745380401611e-01,2.275114655494689941e-01,2.055437564849853516e-01,1.894473135471343994e-01,1.873900592327117920e-01,1.802772283554077148e-01,1.866915822029113770e-01,1.963548958301544189e-01,2.183209061622619629e-01,2.484505176544189453e-01,2.853926420211791992e-01,3.519181013107299805e-01,4.702376127243041992e-01,5.327627062797546387e-01,5.369751453399658203e-01,5.730426907539367676e-01,6.038269996643066406e-01,6.176113486289978027e-01,6.079731583595275879e-01,5.369811058044433594e-01
5.892087817192077637e-01,6.141213178634643555e-01,6.574162244796752930e-01,6.579455137252807617e-01,6.818139553070068359e-01,7.059252858161926270e-01,7.424393892288208008e-01,7.638142108917236328e-01,7.844146490097045898e-01,8.029761910438537598e-01,8.210757374763488770e-01,8.377184271812438965e-01,8.528623580932617188e-01,8.658930659294128418e-01,8.772031068801879883e-01,8.867892026901245117e-01,8.938253521919250488e-01,8.984436988830566406e-01,9.016290903091430664e-01,9.035806655883789062e-01,9.046273231506347656e-01,9.052627086639404297e-01,9.055268764495849609e-01,9.055825471878051758e-01,9.055904150009155273e-01,9.055696725845336914e-01,9.055706262588500977e-01,9.062128067016601562e-01,9.064608812332153320e-01,9.003032445907592773e-01,8.888872861862182617e-01,8.737969994544982910e-01,8.443139791488647461e-01,7.961828112602233887e-01,7.200677394866943359e-01,5.485297441482543945e-01,4.415989518165588379e-01,3.651457428932189941e-01,2.972189784049987793e-01,2.477699220180511475e-01,2.198153734207153320e-01,2.181416153907775879e-01,2.357583343982696533e-01,2.435686588287353516e-01,2.909346222877502441e-01,3.716462552547454834e-01,4.932527840137481689e-01,6.039073467254638672e-01,7.051116824150085449e-01,7.495999932289123535e-01,7.842162847518920898e-01,8.168240785598754883e-01,8.141201734542846680e-01,8.024328947067260742e-01,7.230350971221923828e-01,6.434658765792846680e-01,5.763765573501586914e-01,5.025098919868469238e-01,4.074468314647674561e-01,3.477619290351867676e-01,2.859957218170166016e-01,2.532342076301574707e-01,2.219589352607727051e-01,2.047111093997955322e-01,1.991457045078277588e-01,1.910245716571807861e-01,1.969219148159027100e-01,2.012808620929718018e-01,2.257161438465118408e-01,2.525396943092346191e-01,2.928487658500671387e-01,3.600209057331085205e-01,4.603365957736968994e-01,5.295814871788024902e-01,5.406185984611511230e-01,5.704993009567260742e-01,6.111238598823547363e-01,6.202576160430908203e-01,6.088715791702270508e-01,5.385131835937500000e-01
5.887277126312255859e-01,6.143663525581359863e-01,6.568006277084350586e-01,6.576653718948364258e-01,6.813167929649353027e-01,7.055888772010803223e-01,7.419068813323974609e-01,7.633261680603027344e-01,7.840598821640014648e-01,8.025939464569091797e-01,8.203076124191284180e-01,8.370750546455383301e-01,8.520715236663818359e-01,8.652577400207519531e-01,8.767307400703430176e-01,8.862700462341308594e-01,8.932352066040039062e-01,8.979352712631225586e-01,9.011542797088623047e-01,9.032229185104370117e-01,9.043694734573364258e-01,9.050055742263793945e-01,9.052367210388183594e-01,9.052977561950683594e-01,9.053108096122741699e-01,9.053044915199279785e-01,9.053597450256347656e-01,9.059185385704040527e-01,9.059510231018066406e-01,9.001928567886352539e-01,8.898731470108032227e-01,8.741210699081420898e-01,8.461649417877197266e-01,8.000923991203308105e-01,7.185547351837158203e-01,5.499193668365478516e-01,4.441788792610168457e-01,3.676477074623107910e-01,2.972335219383239746e-01,2.509637475013732910e-01,2.226139307022094727e-01,2.203445434570312500e-01,2.332519590854644775e-01,2.450225651264190674e-01,3.112272620201110840e-01,4.001271426677703857e-01,5.025568008422851562e-01,6.236742138862609863e-01,7.223708629608154297e-01,7.726212739944458008e-01,8.057621717453002930e-01,8.396847844123840332e-01,8.489010930061340332e-01,8.287199735641479492e-01,8.016835451126098633e-01,7.068302631378173828e-01,6.374506950378417969e-01,5.551410913467407227e-01,4.737129211425781250e-01,3.846888542175292969e-01,3.239957988262176514e-01,2.730081677436828613e-01,2.469192147254943848e-01,2.233115136623382568e-01,2.073768675327301025e-01,2.041870355606079102e-01,2.005319595336914062e-01,2.110834121704101562e-01,2.270019948482513428e-01,2.457982599735260010e-01,3.047186732292175293e-01,3.721477389335632324e-01,4.657328426837921143e-01,5.207104086875915527e-01,5.444852709770202637e-01,5.742458105087280273e-01,6.073924899101257324e-01,6.203904151916503906e-01,6.110278964042663574e-01,5.396485924720764160e-01
5.887534022331237793e-01,6.143558621406555176e-01,6.569750308990478516e-01,6.578214168548583984e-01,6.813713312149047852e-01,7.055987119674682617e-01,7.419748902320861816e-01,7.633649706840515137e-01,7.841241359710693359e-01,8.027301430702209473e-01,8.204530477523803711e-01,8.368865251541137695e-01,8.519604206085205078e-01,8.652210235595703125e-01,8.766916990280151367e-01,8.861918449401855469e-01,8.931937217712402344e-01,8.978416919708251953e-01,9.011029005050659180e-01,9.031970500946044922e-01,9.043798446655273438e-01,9.050242304801940918e-01,9.052717685699462891e-01,9.053237438201904297e-01,9.053354859352111816e-01,9.053329229354858398e-01,9.053257107734680176e-01,9.059267044067382812e-01,9.056098461151123047e-01,8.997747898101806641e-01,8.894466757774353027e-01,8.736855983734130859e-01,8.477101325988769531e-01,8.038654923439025879e-01,7.181858420372009277e-01,5.539762973785400391e-01,4.466177523136138916e-01,3.644815087318420410e-01,2.981585264205932617e-01,2.530369460582733154e-01,2.263864576816558838e-01,2.279385626316070557e-01,2.385780215263366699e-01,2.504469156265258789e-01,3.160813748836517334e-01,4.112276434898376465e-01,5.264390707015991211e-01,6.461966037750244141e-01,7.297098636627197266e-01,7.908062338829040527e-01,8.302298188209533691e-01,8.529281020164489746e-01,8.616636395454406738e-01,8.559119701385498047e-01,8.243575692176818848e-01,7.838963866233825684e-01,6.858671903610229492e-01,6.189805865287780762e-01,5.160983800888061523e-01,4.292427003383636475e-01,3.528966903686523438e-01,3.146693706512451172e-01,2.746270298957824707e-01,2.439826130867004395e-01,2.214896678924560547e-01,2.120679318904876709e-01,2.081204354763031006e-01,2.220638692378997803e-01,2.286180555820465088e-01,2.601579129695892334e-01,3.105658292770385742e-01,3.862333893775939941e-01,4.796284437179565430e-01,5.389163494110107422e-01,5.509499907493591309e-01,5.742078423500061035e-01,6.162606477737426758e-01,6.260592937469482422e-01,6.133680939674377441e-01,5.398283600807189941e-01
5.887327194213867188e-01,6.143193244934082031e-01,6.569498777389526367e-01,6.577827930450439453e-01,6.813424825668334961e-01,7.055713534355163574e-01,7.419337034225463867e-01,7.633379101753234863e-01,7.841000556945800781e-01,8.027120828628540039e-01,8.204668760299682617e-01,8.369150161743164062e-01,8.518250584602355957e-01,8.651642799377441406e-01,8.767170310020446777e-01,8.861405849456787109e-01,8.931354284286499023e-01,8.978177309036254883e-01,9.010536670684814453e-01,9.031687974929809570e-01,9.043695926666259766e-01,9.050208926200866699e-01,9.052609801292419434e-01,9.053199291229248047e-01,9.053313732147216797e-01,9.053349494934082031e-01,9.053550362586975098e-01,9.058414697647094727e-01,9.057165384292602539e-01,9.000159502029418945e-01,8.893954753875732422e-01,8.735122680664062500e-01,8.487849235534667969e-01,8.040872812271118164e-01,7.193093299865722656e-01,5.565374493598937988e-01,4.457286596298217773e-01,3.657545149326324463e-01,2.993342280387878418e-01,2.547294199466705322e-01,2.291218936443328857e-01,2.307455837726593018e-01,2.496505677700042725e-01,2.616412341594696045e-01,3.293057680130004883e-01,4.262960851192474365e-01,5.526261329650878906e-01,6.592174172401428223e-01,7.381110191345214844e-01,7.977982163429260254e-01,8.432334065437316895e-01,8.702496290206909180e-01,8.689663410186767578e-01,8.663119077682495117e-01,8.451122045516967773e-01,8.221594095230102539e-01,7.510217428207397461e-01,6.600660085678100586e-01,5.743618011474609375e-01,4.615556895732879639e-01,3.973345756530761719e-01,3.420167565345764160e-01,3.013276457786560059e-01,2.635621428489685059e-01,2.376065254211425781e-01,2.206648290157318115e-01,2.154263556003570557e-01,2.278472483158111572e-01,2.367141246795654297e-01,2.704041302204132080e-01,3.237137496471405029e-01,4.089275598526000977e-01,4.882930815219879150e-01,5.570749044418334961e-01,5.534487366676330566e-01,5.775242447853088379e-01,6.237186789512634277e-01,6.313192248344421387e-01,6.144367456436157227e-01,5.402472615242004395e-01
5.887259244918823242e-01,6.143084764480590820e-01,6.569374203681945801e-01,6.577686071395874023e-01,6.813262701034545898e-01,7.055534124374389648e-01,7.419195771217346191e-01,7.633173465728759766e-01,7.840813398361206055e-01,8.027030229568481445e-01,8.204576969146728516e-01,8.369130492210388184e-01,8.518280982971191406e-01,8.651083707809448242e-01,8.767026662826538086e-01,8.861715197563171387e-01,8.931170105934143066e-01,8.978025913238525391e-01,9.010581970214843750e-01,9.031589031219482422e-01,9.043626785278320312e-01,9.050204753875732422e-01,9.052622318267822266e-01,9.053193330764770508e-01,9.053298234939575195e-01,9.053265452384948730e-01,9.053499698638916016e-01,9.058397412300109863e-01,9.057091474533081055e-01,9.000644087791442871e-01,8.893632888793945312e-01,8.737906813621520996e-01,8.485922217369079590e-01,8.041970729827880859e-01,7.191055417060852051e-01,5.564703941345214844e-01,4.444834589958190918e-01,3.671134710311889648e-01,2.993122935295104980e-01,2.568809092044830322e-01,2.318740487098693848e-01,2.400976717472076416e-01,2.545049190521240234e-01,2.713882029056549072e-01,3.475032448768615723e-01,4.486099481582641602e-01,5.703359246253967285e-01,6.656049489974975586e-01,7.453300952911376953e-01,8.109387159347534180e-01,8.502293229103088379e-01,8.761294484138488770e-01,8.832653760910034180e-01,8.742264509201049805e-01,8.589124679565429688e-01,8.297768831253051758e-01,8.011051416397094727e-01,7.052319049835205078e-01,6.209084391593933105e-01,4.770298004150390625e-01,4.219824671745300293e-01,3.681764006614685059e-01,3.227317035198211670e-01,2.833205163478851318e-01,2.486477196216583252e-01,2.333841025829315186e-01,2.203797101974487305e-01,2.286981940269470215e-01,2.350460588932037354e-01,2.838920354843139648e-01,3.483263254165649414e-01,4.233040213584899902e-01,5.051015615463256836e-01,5.640122294425964355e-01,5.693508386611938477e-01,5.842877626419067383e-01,6.366472244262695312e-01,6.359527707099914551e-01,6.160664558410644531e-01,5.403089523315429688e-01
5.887190103530883789e-01,6.142974495887756348e-01,6.569246053695678711e-01,6.577539443969726562e-01,6.813103556632995605e-01,7.055367827415466309e-01,7.419022321701049805e-01,7.633028030395507812e-01,7.840646505355834961e-01,8.026860356330871582e-01,8.204476833343505859e-01,8.369033336639404297e-01,8.518199920654296875e-01,8.651006221771240234e-01,8.766866922378540039e-01,8.861621022224426270e-01,8.931195735931396484e-01,8.977998495101928711e-01,9.010529518127441406e-01,9.031602144241333008e-01,9.043618440628051758e-01,9.050197005271911621e-01,9.052621722221374512e-01,9.053189754486083984e-01,9.053265452384948730e-01,9.053275585174560547e-01,9.053329229354858398e-01,9.058242440223693848e-01,9.057269096374511719e-01,9.001370072364807129e-01,8.891794681549072266e-01,8.732718229293823242e-01,8.475791215896606445e-01,8.032506108283996582e-01,7.155336141586303711e-01,5.568038821220397949e-01,4.450688362121582031e-01,3.621094226837158203e-01,3.019078969955444336e-01,2.598326802253723145e-01,2.353525757789611816e-01,2.403437793254852295e-01,2.567324638366699219e-01,2.885079383850097656e-01,3.564602136611938477e-01,4.673919677734375000e-01,5.975160598754882812e-01,6.939132809638977051e-01,7.556031942367553711e-01,8.149391412734985352e-01,8.596019744873046875e-01,8.798186779022216797e-01,8.889101743698120117e-01,8.812978267669677734e-01,8.644908666610717773e-01,8.443733453750610352e-01,8.134075403213500977e-01,7.616493105888366699e-01,6.282455325126647949e-01,5.048539042472839355e-01,4.296308159828186035e-01,3.811248838901519775e-01,3.305318951606750488e-01,3.019975423812866211e-01,2.599952518939971924e-01,2.407094836235046387e-01,2.312581539154052734e-01,2.432601153850555420e-01,2.408030927181243896e-01,2.916216254234313965e-01,3.681252598762512207e-01,4.338665008544921875e-01,5.231691002845764160e-01,5.710744857788085938e-01,5.855932831764221191e-01,5.968203544616699219e-01,6.439960002899169922e-01,6.368644833564758301e-01,6.182793974876403809e-01,5.409128665924072266e-01
5.887122154235839844e-01,6.142861247062683105e-01,6.569117307662963867e-01,6.577392816543579102e-01,6.812942624092102051e-01,7.055204510688781738e-01,7.418859601020812988e-01,7.632863521575927734e-01,7.840493917465209961e-01,8.026708364486694336e-01,8.204333782196044922e-01,8.368915915489196777e-01,8.518086671829223633e-01,8.650909662246704102e-01,8.766784667968750000e-01,8.861556053161621094e-01,8.931139111518859863e-01,8.977965116500854492e-01,9.010509252548217773e-01,9.031593799591064453e-01,9.043613672256469727e-01,9.050191640853881836e-01,9.052621126174926758e-01,9.053188562393188477e-01,9.053310751914978027e-01,9.053245782852172852e-01,9.054138660430908203e-01,9.055885076522827148e-01,9.058308005332946777e-01,8.990092873573303223e-01,8.885328769683837891e-01,8.728627562522888184e-01,8.462513685226440430e-01,8.005033135414123535e-01,7.166348695755004883e-01,5.542740225791931152e-01,4.455959200859069824e-01,3.583662509918212891e-01,3.027967214584350586e-01,2.643620967864990234e-01,2.407707571983337402e-01,2.487070262432098389e-01,2.560060620307922363e-01,3.033195137977600098e-01,3.776405453681945801e-01,5.007952451705932617e-01,6.156527996063232422e-01,7.090842723846435547e-01,7.684609889984130859e-01,8.228119015693664551e-01,8.654957413673400879e-01,8.844022750854492188e-01,8.925602436065673828e-01,8.877804875373840332e-01,8.715997934341430664e-01,8.481085896492004395e-01,8.273757100105285645e-01,7.632561922073364258e-01,6.497375965118408203e-01,5.187889337539672852e-01,4.454970359802246094e-01,3.818029165267944336e-01,3.370776772499084473e-01,3.067593574523925781e-01,2.634007930755615234e-01,2.473498880863189697e-01,2.379926145076751709e-01,2.459213137626647949e-01,2.450909912586212158e-01,3.089227676391601562e-01,3.734105229377746582e-01,4.693341255187988281e-01,5.238963961601257324e-01,5.812284946441650391e-01,5.939299464225769043e-01,6.010069847106933594e-01,6.448068618774414062e-01,6.386239528656005859e-01,6.192294359207153320e-01,5.416045784950256348e-01
5.887053012847900391e-01,6.142749190330505371e-01,6.568987965583801270e-01,6.577240824699401855e-01,6.812779903411865234e-01,7.055037617683410645e-01,7.418693304061889648e-01,7.632700204849243164e-01,7.840334773063659668e-01,8.026556968688964844e-01,8.204195499420166016e-01,8.368787765502929688e-01,8.517972826957702637e-01,8.650811910629272461e-01,8.766697645187377930e-01,8.861489892005920410e-01,8.931092023849487305e-01,8.977933526039123535e-01,9.010487794876098633e-01,9.031581878662109375e-01,9.043605327606201172e-01,9.050187468528747559e-01,9.052621126174926758e-01,9.053180217742919922e-01,9.053254127502441406e-01,9.053350687026977539e-01,9.054540991783142090e-01,9.055173397064208984e-01,9.054472446441650391e-01,8.982912302017211914e-01,8.875985741615295410e-01,8.720707893371582031e-01,8.448763489723205566e-01,7.988970279693603516e-01,7.159104347229003906e-01,5.452095270156860352e-01,4.367150366306304932e-01,3.636748194694519043e-01,2.980716228485107422e-01,2.655864953994750977e-01,2.392646074295043945e-01,2.588633298873901367e-01,2.555221915245056152e-01,3.228660225868225098e-01,4.252735078334808350e-01,5.125993490219116211e-01,6.339064836502075195e-01,7.251011133193969727e-01,7.878742218017578125e-01,8.329846858978271484e-01,8.684720396995544434e-01,8.874035477638244629e-01,8.945106267929077148e-01,8.866840600967407227e-01,8.742676377296447754e-01,8.515441417694091797e-01,8.268066048622131348e-01,7.675969004631042480e-01,6.622471809387207031e-01,5.161805748939514160e-01,4.361861050128936768e-01,3.805103302001953125e-01,3.396100997924804688e-01,2.967574298381805420e-01,2.626515030860900879e-01,2.452250123023986816e-01,2.440817952156066895e-01,2.466050088405609131e-01,2.689365148544311523e-01,3.129727840423583984e-01,3.950768709182739258e-01,4.858071208000183105e-01,5.517278313636779785e-01,5.862069725990295410e-01,5.956089496612548828e-01,6.121287941932678223e-01,6.485638022422790527e-01,6.434335112571716309e-01,6.168745160102844238e-01,5.422319173812866211e-01
5.886982679367065430e-01,6.142635345458984375e-01,6.568856835365295410e-01,6.577091813087463379e-01,6.812614202499389648e-01,7.054871916770935059e-01,7.418527603149414062e-01,7.632536888122558594e-01,7.840176820755004883e-01,8.026401996612548828e-01,8.204051852226257324e-01,8.368659019470214844e-01,8.517859578132629395e-01,8.650710582733154297e-01,8.766613602638244629e-01,8.861420154571533203e-01,8.931046724319458008e-01,8.977901935577392578e-01,9.010464549064636230e-01,9.031567573547363281e-01,9.043598771095275879e-01,9.050183892250061035e-01,9.052620530128479004e-01,9.053155183792114258e-01,9.053304195404052734e-01,9.053168296813964844e-01,9.053539037704467773e-01,9.053870439529418945e-01,9.050736427307128906e-01,8.962551355361938477e-01,8.856948614120483398e-01,8.684550523757934570e-01,8.424481153488159180e-01,7.905610799789428711e-01,6.987004280090332031e-01,5.425995588302612305e-01,4.286474883556365967e-01,3.547598719596862793e-01,2.962179780006408691e-01,2.676721811294555664e-01,2.542788088321685791e-01,2.621312141418457031e-01,2.622806429862976074e-01,3.430972993373870850e-01,4.559837579727172852e-01,5.395599007606506348e-01,6.514703035354614258e-01,7.459617257118225098e-01,7.990137934684753418e-01,8.440976142883300781e-01,8.731392621994018555e-01,8.886551856994628906e-01,8.965374827384948730e-01,8.875807523727416992e-01,8.713077306747436523e-01,8.587887287139892578e-01,8.207344412803649902e-01,7.696330547332763672e-01,6.357837915420532227e-01,5.157269835472106934e-01,4.331068694591522217e-01,3.786722719669342041e-01,3.396194279193878174e-01,2.832048833370208740e-01,2.557634115219116211e-01,2.468602955341339111e-01,2.450405061244964600e-01,2.424787580966949463e-01,2.813310623168945312e-01,3.264451622962951660e-01,4.147715866565704346e-01,5.069513320922851562e-01,5.759156942367553711e-01,5.962813496589660645e-01,6.004434227943420410e-01,6.216028332710266113e-01,6.504132747650146484e-01,6.425391435623168945e-01,6.181468963623046875e-01,5.423903465270996094e-01
5.886907577514648438e-01,6.142517328262329102e-01,6.568722724914550781e-01,6.576938629150390625e-01,6.812446117401123047e-01,7.054701447486877441e-01,7.418361306190490723e-01,7.632373571395874023e-01,7.840015292167663574e-01,8.026248216629028320e-01,8.203908205032348633e-01,8.368529081344604492e-01,8.517740368843078613e-01,8.650608062744140625e-01,8.766524791717529297e-01,8.861352205276489258e-01,8.931000232696533203e-01,8.977869749069213867e-01,9.010443687438964844e-01,9.031554460525512695e-01,9.043591022491455078e-01,9.050178527832031250e-01,9.052618741989135742e-01,9.053176641464233398e-01,9.053349494934082031e-01,9.054102897644042969e-01,9.051529169082641602e-01,9.055442214012145996e-01,9.027542471885681152e-01,8.950595855712890625e-01,8.821281790733337402e-01,8.637353181838989258e-01,8.380510807037353516e-01,7.864583134651184082e-01,6.804007887840270996e-01,5.345384478569030762e-01,4.197822213172912598e-01,3.496932387351989746e-01,2.946632504463195801e-01,2.680739462375640869e-01,2.734362781047821045e-01,2.657042443752288818e-01,2.835685312747955322e-01,3.752056360244750977e-01,4.657348990440368652e-01,5.963039994239807129e-01,6.862884163856506348e-01,7.573103308677673340e-01,8.140717744827270508e-01,8.552703857421875000e-01,8.792768120765686035e-01,8.915487527847290039e-01,8.949050903320312500e-01,8.855052590370178223e-01,8.712464570999145508e-01,8.594815731048583984e-01,8.164058327674865723e-01,7.490391731262207031e-01,6.379472017288208008e-01,5.089017748832702637e-01,4.321738183498382568e-01,3.736550807952880859e-01,3.354365229606628418e-01,2.696654200553894043e-01,2.513663768768310547e-01,2.404472827911376953e-01,2.421656250953674316e-01,2.433223128318786621e-01,2.924166619777679443e-01,3.528366088867187500e-01,4.205213189125061035e-01,5.172372460365295410e-01,5.854390859603881836e-01,6.111290454864501953e-01,6.135483980178833008e-01,6.367775201797485352e-01,6.583136320114135742e-01,6.425880789756774902e-01,6.178207993507385254e-01,5.422224402427673340e-01
5.886828303337097168e-01,6.142392158508300781e-01,6.568581461906433105e-01,6.576779484748840332e-01,6.812275052070617676e-01,7.054529786109924316e-01,7.418189048767089844e-01,7.632203698158264160e-01,7.839851379394531250e-01,8.026090860366821289e-01,8.203761577606201172e-01,8.368395566940307617e-01,8.517622351646423340e-01,8.650505542755126953e-01,8.766436576843261719e-01,8.861283063888549805e-01,8.930950760841369629e-01,8.977838754653930664e-01,9.010419845581054688e-01,9.031540751457214355e-01,9.043583869934082031e-01,9.050174951553344727e-01,9.052618741989135742e-01,9.053196907043457031e-01,9.053506851196289062e-01,9.054676890373229980e-01,9.049640893936157227e-01,9.044585824012756348e-01,9.015421867370605469e-01,8.912103176116943359e-01,8.789871931076049805e-01,8.629850149154663086e-01,8.315699100494384766e-01,7.741804122924804688e-01,6.478186845779418945e-01,5.029625892639160156e-01,4.055607616901397705e-01,3.381223082542419434e-01,2.976623773574829102e-01,2.790459990501403809e-01,2.767062485218048096e-01,2.624167799949645996e-01,3.234705328941345215e-01,4.125492870807647705e-01,5.099043250083923340e-01,6.105665564537048340e-01,7.199674248695373535e-01,7.775546312332153320e-01,8.202139139175415039e-01,8.586581945419311523e-01,8.846329450607299805e-01,8.953930735588073730e-01,8.946594595909118652e-01,8.853310346603393555e-01,8.722611069679260254e-01,8.579170107841491699e-01,8.138729333877563477e-01,7.491306066513061523e-01,6.194273233413696289e-01,4.999705255031585693e-01,4.218181669712066650e-01,3.729405999183654785e-01,3.247709870338439941e-01,2.655996978282928467e-01,2.531706690788269043e-01,2.358774840831756592e-01,2.422070801258087158e-01,2.472195625305175781e-01,3.001430928707122803e-01,3.619073033332824707e-01,4.354361295700073242e-01,5.264644622802734375e-01,5.898851156234741211e-01,6.282738447189331055e-01,6.233459711074829102e-01,6.423318982124328613e-01,6.573044061660766602e-01,6.466347575187683105e-01,6.183016896247863770e-01,5.419215559959411621e-01
5.886744856834411621e-01,6.142259836196899414e-01,6.568430662155151367e-01,6.576610803604125977e-01,6.812094449996948242e-01,7.054348587989807129e-01,7.418011426925659180e-01,7.632032036781311035e-01,7.839683294296264648e-01,8.025929331779479980e-01,8.203610181808471680e-01,8.368259072303771973e-01,8.517503738403320312e-01,8.650399446487426758e-01,8.766347169876098633e-01,8.861212134361267090e-01,8.930902481079101562e-01,8.977807760238647461e-01,9.010397195816040039e-01,9.031527638435363770e-01,9.043576717376708984e-01,9.050171375274658203e-01,9.052618741989135742e-01,9.053255319595336914e-01,9.053502082824707031e-01,9.053978919982910156e-01,9.048225879669189453e-01,9.041279554367065430e-01,8.998723030090332031e-01,8.880143165588378906e-01,8.708755373954772949e-01,8.577523231506347656e-01,8.142434358596801758e-01,7.529263496398925781e-01,6.161379814147949219e-01,4.798377156257629395e-01,3.957219719886779785e-01,3.285920619964599609e-01,2.970311045646667480e-01,2.816570401191711426e-01,2.658743560314178467e-01,2.764452099800109863e-01,3.743249773979187012e-01,4.583544433116912842e-01,5.515440106391906738e-01,6.650063991546630859e-01,7.481445074081420898e-01,7.995725870132446289e-01,8.402757644653320312e-01,8.736934661865234375e-01,8.907355070114135742e-01,8.981772661209106445e-01,8.953120708465576172e-01,8.865734338760375977e-01,8.726280331611633301e-01,8.561453819274902344e-01,8.145737648010253906e-01,7.521620988845825195e-01,5.856509208679199219e-01,5.016071796417236328e-01,4.172872900962829590e-01,3.729481101036071777e-01,3.171058893203735352e-01,2.643014192581176758e-01,2.522025108337402344e-01,2.359810769557952881e-01,2.410837113857269287e-01,2.489463984966278076e-01,3.061924576759338379e-01,3.579588532447814941e-01,4.486675262451171875e-01,5.347273349761962891e-01,5.898341536521911621e-01,6.272779703140258789e-01,6.246460080146789551e-01,6.449001431465148926e-01,6.578040719032287598e-01,6.452828645706176758e-01,6.184509396553039551e-01,5.421296954154968262e-01
5.886657834053039551e-01,6.142120361328125000e-01,6.568272709846496582e-01,6.576426625251770020e-01,6.811900734901428223e-01,7.054154276847839355e-01,7.417822480201721191e-01,7.631850242614746094e-01,7.839510440826416016e-01,8.025763630867004395e-01,8.203457593917846680e-01,8.368120193481445312e-01,8.517378568649291992e-01,8.650292158126831055e-01,8.766254186630249023e-01,8.861140012741088867e-01,8.930851817131042480e-01,8.977774381637573242e-01,9.010372757911682129e-01,9.031513333320617676e-01,9.043568968772888184e-01,9.050166606903076172e-01,9.052617549896240234e-01,9.053311944007873535e-01,9.053579568862915039e-01,9.054464101791381836e-01,9.049401283264160156e-01,9.033981561660766602e-01,8.983310461044311523e-01,8.844130039215087891e-01,8.667266368865966797e-01,8.517279028892517090e-01,8.005205392837524414e-01,7.133753895759582520e-01,5.903891921043395996e-01,4.587503373622894287e-01,3.799977898597717285e-01,3.130025863647460938e-01,3.117060065269470215e-01,2.854399681091308594e-01,2.642986774444580078e-01,3.194415867328643799e-01,4.053133726119995117e-01,5.138428211212158203e-01,5.772341489791870117e-01,7.146657705307006836e-01,7.790201306343078613e-01,8.198842406272888184e-01,8.598741888999938965e-01,8.836539387702941895e-01,8.949562311172485352e-01,8.998676538467407227e-01,8.960748910903930664e-01,8.887244462966918945e-01,8.746980428695678711e-01,8.505322337150573730e-01,8.132870197296142578e-01,7.430348992347717285e-01,5.931420922279357910e-01,4.988780617713928223e-01,4.207417368888854980e-01,3.648723065853118896e-01,3.158364295959472656e-01,2.701705694198608398e-01,2.512215375900268555e-01,2.325376272201538086e-01,2.383332848548889160e-01,2.555849850177764893e-01,3.118089437484741211e-01,3.534596562385559082e-01,4.423650801181793213e-01,5.295047163963317871e-01,5.996067523956298828e-01,6.245720386505126953e-01,6.219998598098754883e-01,6.415705680847167969e-01,6.593585014343261719e-01,6.416627764701843262e-01,6.181215047836303711e-01,5.415704250335693359e-01
5.886569619178771973e-01,6.141977906227111816e-01,6.568111181259155273e-01,6.576241254806518555e-01,6.811696887016296387e-01,7.053945660591125488e-01,7.417622208595275879e-01,7.631655931472778320e-01,7.839326262474060059e-01,8.025588989257812500e-01,8.203298449516296387e-01,8.367978334426879883e-01,8.517252206802368164e-01,8.650178909301757812e-01,8.766158819198608398e-01,8.861066102981567383e-01,8.930802345275878906e-01,8.977742195129394531e-01,9.010348916053771973e-01,9.031499624252319336e-01,9.043560028076171875e-01,9.050163626670837402e-01,9.052616357803344727e-01,9.053323268890380859e-01,9.053641557693481445e-01,9.053050279617309570e-01,9.043985605239868164e-01,9.031748771667480469e-01,8.942537307739257812e-01,8.792362213134765625e-01,8.642491102218627930e-01,8.419960737228393555e-01,7.859578132629394531e-01,6.840850114822387695e-01,5.449365377426147461e-01,4.354129731655120850e-01,3.566871285438537598e-01,3.174577057361602783e-01,3.038836121559143066e-01,2.703420519828796387e-01,2.885393798351287842e-01,3.613473773002624512e-01,4.713537096977233887e-01,5.366305708885192871e-01,6.604217290878295898e-01,7.543869018554687500e-01,7.994911670684814453e-01,8.430470228195190430e-01,8.749246001243591309e-01,8.943349719047546387e-01,8.975433707237243652e-01,9.024122953414916992e-01,8.981863260269165039e-01,8.919615745544433594e-01,8.770744204521179199e-01,8.529695868492126465e-01,8.142956495285034180e-01,7.450044751167297363e-01,5.976916551589965820e-01,4.884058535099029541e-01,4.185895621776580811e-01,3.664522171020507812e-01,3.136286139488220215e-01,2.680922150611877441e-01,2.477022111415863037e-01,2.287135124206542969e-01,2.327814102172851562e-01,2.571898698806762695e-01,3.001553416252136230e-01,3.488211035728454590e-01,4.361088871955871582e-01,5.227138400077819824e-01,5.860337018966674805e-01,6.229856014251708984e-01,6.267985105514526367e-01,6.344608068466186523e-01,6.542418003082275391e-01,6.382101774215698242e-01,6.186335682868957520e-01,5.416970849037170410e-01
5.886484384536743164e-01,6.141836643218994141e-01,6.567944884300231934e-01,6.576047539710998535e-01,6.811485290527343750e-01,7.053734660148620605e-01,7.417411208152770996e-01,7.631449699401855469e-01,7.839126586914062500e-01,8.025402426719665527e-01,8.203126192092895508e-01,8.367826938629150391e-01,8.517120480537414551e-01,8.650065064430236816e-01,8.766061067581176758e-01,8.860991597175598145e-01,8.930748701095581055e-01,8.977707624435424805e-01,9.010323882102966309e-01,9.031484127044677734e-01,9.043552279472351074e-01,9.050158858299255371e-01,9.052616953849792480e-01,9.053291082382202148e-01,9.053820371627807617e-01,9.053117632865905762e-01,9.048739671707153320e-01,9.030377864837646484e-01,8.920369744300842285e-01,8.728658556938171387e-01,8.598350286483764648e-01,8.278868794441223145e-01,7.775616049766540527e-01,6.491404175758361816e-01,4.936750531196594238e-01,4.204887747764587402e-01,3.450219631195068359e-01,3.278415799140930176e-01,3.095462918281555176e-01,2.867893576622009277e-01,3.159420490264892578e-01,4.135152399539947510e-01,5.186405181884765625e-01,6.046796441078186035e-01,7.182396650314331055e-01,7.817921638488769531e-01,8.260281085968017578e-01,8.631135821342468262e-01,8.862982392311096191e-01,8.963943719863891602e-01,9.022629261016845703e-01,9.026962518692016602e-01,9.005254507064819336e-01,8.922379612922668457e-01,8.787813186645507812e-01,8.547096252441406250e-01,8.165516853332519531e-01,7.464950084686279297e-01,6.175662875175476074e-01,4.989404976367950439e-01,4.171714782714843750e-01,3.703699409961700439e-01,3.249767422676086426e-01,2.707900106906890869e-01,2.478087544441223145e-01,2.289385497570037842e-01,2.263275384902954102e-01,2.604998350143432617e-01,2.933620810508728027e-01,3.393295407295227051e-01,4.152241945266723633e-01,5.110855102539062500e-01,5.639328956604003906e-01,6.190234422683715820e-01,6.255465745925903320e-01,6.292466521263122559e-01,6.476593613624572754e-01,6.371068954467773438e-01,6.194891333580017090e-01,5.416041016578674316e-01
5.886401534080505371e-01,6.141699552536010742e-01,6.567782163619995117e-01,6.575858592987060547e-01,6.811276674270629883e-01,7.053520083427429199e-01,7.417196631431579590e-01,7.631239891052246094e-01,7.838919162750244141e-01,8.025202155113220215e-01,8.202943801879882812e-01,8.367662429809570312e-01,8.516980409622192383e-01,8.649944067001342773e-01,8.765956759452819824e-01,8.860908746719360352e-01,8.930693268775939941e-01,8.977670669555664062e-01,9.010297060012817383e-01,9.031469225883483887e-01,9.043543338775634766e-01,9.050154089927673340e-01,9.052615761756896973e-01,9.053238034248352051e-01,9.053832888603210449e-01,9.053689241409301758e-01,9.056135416030883789e-01,9.017342329025268555e-01,8.904469013214111328e-01,8.716763854026794434e-01,8.566709756851196289e-01,8.142849802970886230e-01,7.486392259597778320e-01,6.216370463371276855e-01,4.787118434906005859e-01,3.986493945121765137e-01,3.441669940948486328e-01,3.235684335231781006e-01,2.912904322147369385e-01,2.983102798461914062e-01,3.551433980464935303e-01,4.825398623943328857e-01,5.440324544906616211e-01,6.782077550888061523e-01,7.613488435745239258e-01,8.088055849075317383e-01,8.477646112442016602e-01,8.796426653861999512e-01,8.947343826293945312e-01,8.990013599395751953e-01,9.029065370559692383e-01,9.049819111824035645e-01,9.026149511337280273e-01,8.958203792572021484e-01,8.830983638763427734e-01,8.561912178993225098e-01,8.202244043350219727e-01,7.546944022178649902e-01,6.435672044754028320e-01,5.163906216621398926e-01,4.356531500816345215e-01,3.775534033775329590e-01,3.249007165431976318e-01,2.746154963970184326e-01,2.479683756828308105e-01,2.309795320034027100e-01,2.281471490859985352e-01,2.593359351158142090e-01,2.741050720214843750e-01,3.213941156864166260e-01,4.074921011924743652e-01,4.815190434455871582e-01,5.575335025787353516e-01,6.003549695014953613e-01,6.175583600997924805e-01,6.113620400428771973e-01,6.423506140708923340e-01,6.360434293746948242e-01,6.182009577751159668e-01,5.415524244308471680e-01
5.886321067810058594e-01,6.141569614410400391e-01,6.567629575729370117e-01,6.575679183006286621e-01,6.811075210571289062e-01,7.053311467170715332e-01,7.416983842849731445e-01,7.631024122238159180e-01,7.838708162307739258e-01,8.024996519088745117e-01,8.202747702598571777e-01,8.367486000061035156e-01,8.516817092895507812e-01,8.649801611900329590e-01,8.765841722488403320e-01,8.860819339752197266e-01,8.930625915527343750e-01,8.977620601654052734e-01,9.010254740715026855e-01,9.031435251235961914e-01,9.043517112731933594e-01,9.050132036209106445e-01,9.052596688270568848e-01,9.053270220756530762e-01,9.053939580917358398e-01,9.054847359657287598e-01,9.057918190956115723e-01,9.006399512290954590e-01,8.877211809158325195e-01,8.707537651062011719e-01,8.526912927627563477e-01,8.102694153785705566e-01,7.438209652900695801e-01,5.948158502578735352e-01,4.563747048377990723e-01,3.793557286262512207e-01,3.365778326988220215e-01,3.201805353164672852e-01,2.883625626564025879e-01,3.256465792655944824e-01,4.054703414440155029e-01,5.170881152153015137e-01,6.019768714904785156e-01,7.164252400398254395e-01,7.887529730796813965e-01,8.299181461334228516e-01,8.699551820755004883e-01,8.893036842346191406e-01,8.985723257064819336e-01,9.015735387802124023e-01,9.028586149215698242e-01,9.054473638534545898e-01,9.025567173957824707e-01,8.980903029441833496e-01,8.887226581573486328e-01,8.623238205909729004e-01,8.301987648010253906e-01,7.631635665893554688e-01,6.701909303665161133e-01,5.259419679641723633e-01,4.586521983146667480e-01,3.884849548339843750e-01,3.252914547920227051e-01,2.866623997688293457e-01,2.507015168666839600e-01,2.285623848438262939e-01,2.269213795661926270e-01,2.508880496025085449e-01,2.666171193122863770e-01,3.188960552215576172e-01,3.847560286521911621e-01,4.597050249576568604e-01,5.383797287940979004e-01,5.973684191703796387e-01,5.991609096527099609e-01,5.995185375213623047e-01,6.434204578399658203e-01,6.339052915573120117e-01,6.169783473014831543e-01,5.409489870071411133e-01
5.886240005493164062e-01,6.141438484191894531e-01,6.567474007606506348e-01,6.575495004653930664e-01,6.810858845710754395e-01,7.053073048591613770e-01,7.416735291481018066e-01,7.630770206451416016e-01,7.838446497917175293e-01,8.024728298187255859e-01,8.202487230300903320e-01,8.367236852645874023e-01,8.516583442687988281e-01,8.649587631225585938e-01,8.765652775764465332e-01,8.860660791397094727e-01,8.930498361587524414e-01,8.977519273757934570e-01,9.010162353515625000e-01,9.031350016593933105e-01,9.043438434600830078e-01,9.050056934356689453e-01,9.052529335021972656e-01,9.053232669830322266e-01,9.053858518600463867e-01,9.057869315147399902e-01,9.054764509201049805e-01,9.002718925476074219e-01,8.875339031219482422e-01,8.698823451995849609e-01,8.485077619552612305e-01,8.055397272109985352e-01,7.330669760704040527e-01,5.590094923973083496e-01,4.458763599395751953e-01,3.750954866409301758e-01,3.409606814384460449e-01,3.327468037605285645e-01,2.989121079444885254e-01,3.455478549003601074e-01,4.450548589229583740e-01,5.326482057571411133e-01,6.630223989486694336e-01,7.571826577186584473e-01,8.159853219985961914e-01,8.522700667381286621e-01,8.806619644165039062e-01,8.947495818138122559e-01,8.983492851257324219e-01,9.028642177581787109e-01,9.043747186660766602e-01,9.057628512382507324e-01,9.038106203079223633e-01,8.986712694168090820e-01,8.909713029861450195e-01,8.662400245666503906e-01,8.438132405281066895e-01,7.855586409568786621e-01,6.875061988830566406e-01,5.576538443565368652e-01,4.622813165187835693e-01,4.020994901657104492e-01,3.335608541965484619e-01,3.039061427116394043e-01,2.530999183654785156e-01,2.310375869274139404e-01,2.236323058605194092e-01,2.424537241458892822e-01,2.586528658866882324e-01,3.120763897895812988e-01,3.499898910522460938e-01,4.408571124076843262e-01,5.187863111495971680e-01,5.782796144485473633e-01,5.902529358863830566e-01,6.015672683715820312e-01,6.351732611656188965e-01,6.288728713989257812e-01,6.139807105064392090e-01,5.410917997360229492e-01
5.886115431785583496e-01,6.141275167465209961e-01,6.567276120185852051e-01,6.575310826301574707e-01,6.810670495033264160e-01,7.052870988845825195e-01,7.416549324989318848e-01,7.630630135536193848e-01,7.838366031646728516e-01,8.024718761444091797e-01,8.202582001686096191e-01,8.367464542388916016e-01,8.517013788223266602e-01,8.650190830230712891e-01,8.766279220581054688e-01,8.861194849014282227e-01,8.930928707122802734e-01,8.977882266044616699e-01,9.010555744171142578e-01,9.031848311424255371e-01,9.044004082679748535e-01,9.050682187080383301e-01,9.053183794021606445e-01,9.053846597671508789e-01,9.054635167121887207e-01,9.060207605361938477e-01,9.053775668144226074e-01,8.996272683143615723e-01,8.874834775924682617e-01,8.707436919212341309e-01,8.432404994964599609e-01,8.029278516769409180e-01,7.195150852203369141e-01,5.525692701339721680e-01,4.340555071830749512e-01,3.732726275920867920e-01,3.441273868083953857e-01,3.374265730381011963e-01,3.198339045047760010e-01,3.756852149963378906e-01,4.655411243438720703e-01,5.938362479209899902e-01,6.850768327713012695e-01,7.773191332817077637e-01,8.296982645988464355e-01,8.602528572082519531e-01,8.840466737747192383e-01,8.955137133598327637e-01,9.019331932067871094e-01,9.032922983169555664e-01,9.052804708480834961e-01,9.057172536849975586e-01,9.051954150199890137e-01,9.025794267654418945e-01,8.928347826004028320e-01,8.728609085083007812e-01,8.490841388702392578e-01,7.935806512832641602e-01,7.120790481567382812e-01,5.891714096069335938e-01,4.789377748966217041e-01,4.101430177688598633e-01,3.527375459671020508e-01,3.215231299400329590e-01,2.632396221160888672e-01,2.339237928390502930e-01,2.211698591709136963e-01,2.271754145622253418e-01,2.604026198387145996e-01,2.924842834472656250e-01,3.450349569320678711e-01,4.145138859748840332e-01,5.118148922920227051e-01,5.571794509887695312e-01,5.818358063697814941e-01,5.974398851394653320e-01,6.270798444747924805e-01,6.258745193481445312e-01,6.124927997589111328e-01,5.405875444412231445e-01
5.886178612709045410e-01,6.141346693038940430e-01,6.567319631576538086e-01,6.575455665588378906e-01,6.810919642448425293e-01,7.053456902503967285e-01,7.417640686035156250e-01,7.632204294204711914e-01,7.840195298194885254e-01,8.026661872863769531e-01,8.204532861709594727e-01,8.369380235671997070e-01,8.518699407577514648e-01,8.651560544967651367e-01,8.767373561859130859e-01,8.861936330795288086e-01,8.931597471237182617e-01,8.978884220123291016e-01,9.011781215667724609e-01,9.033067226409912109e-01,9.045197963714599609e-01,9.051827192306518555e-01,9.054273366928100586e-01,9.054926633834838867e-01,9.055566191673278809e-01,9.061292409896850586e-01,9.057633876800537109e-01,8.997742533683776855e-01,8.881534934043884277e-01,8.703699111938476562e-01,8.417829871177673340e-01,8.011012077331542969e-01,7.146660685539245605e-01,5.376647710800170898e-01,4.297013878822326660e-01,3.705530762672424316e-01,3.542383313179016113e-01,3.314171433448791504e-01,3.461253345012664795e-01,3.902588784694671631e-01,4.944491088390350342e-01,6.268635988235473633e-01,7.253319025039672852e-01,7.923951148986816406e-01,8.436006307601928711e-01,8.679431676864624023e-01,8.882885575294494629e-01,8.987918496131896973e-01,9.029711484909057617e-01,9.049327969551086426e-01,9.054029583930969238e-01,9.062843918800354004e-01,9.063549041748046875e-01,9.039709568023681641e-01,8.960586786270141602e-01,8.778722286224365234e-01,8.510414361953735352e-01,8.029302358627319336e-01,7.477981448173522949e-01,6.222482323646545410e-01,5.061545372009277344e-01,4.300744533538818359e-01,3.611049652099609375e-01,3.204806149005889893e-01,2.707566618919372559e-01,2.392670214176177979e-01,2.271636128425598145e-01,2.271515727043151855e-01,2.638398408889770508e-01,2.785596549510955811e-01,3.143508136272430420e-01,4.019519984722137451e-01,4.913204014301300049e-01,5.471431612968444824e-01,5.624967217445373535e-01,5.946868658065795898e-01,6.143666505813598633e-01,6.196138262748718262e-01,6.110805869102478027e-01,5.409357547760009766e-01
5.888014435768127441e-01,6.143112778663635254e-01,6.569851636886596680e-01,6.578006744384765625e-01,6.813386082649230957e-01,7.055056095123291016e-01,7.418466210365295410e-01,7.632265686988830566e-01,7.838833332061767578e-01,8.024008274078369141e-01,8.200690746307373047e-01,8.364213705062866211e-01,8.512630462646484375e-01,8.644661903381347656e-01,8.759479522705078125e-01,8.853852748870849609e-01,8.923834562301635742e-01,8.970940709114074707e-01,9.003558158874511719e-01,9.024784564971923828e-01,9.037008285522460938e-01,9.043443202972412109e-01,9.045751094818115234e-01,9.046369194984436035e-01,9.046899676322937012e-01,9.052207469940185547e-01,9.049632549285888672e-01,8.989702463150024414e-01,8.864274024963378906e-01,8.672030568122863770e-01,8.399832248687744141e-01,7.962608337402343750e-01,7.072499990463256836e-01,5.299646854400634766e-01,4.196120202541351318e-01,3.719857931137084961e-01,3.568577170372009277e-01,3.357414305210113525e-01,3.642456531524658203e-01,4.113770723342895508e-01,5.309721231460571289e-01,6.533211469650268555e-01,7.509937286376953125e-01,8.012468814849853516e-01,8.494910001754760742e-01,8.731897473335266113e-01,8.919212818145751953e-01,9.005622267723083496e-01,9.028050899505615234e-01,9.042813777923583984e-01,9.044899940490722656e-01,9.056485295295715332e-01,9.063479900360107422e-01,9.030870199203491211e-01,8.972802162170410156e-01,8.874566555023193359e-01,8.569430112838745117e-01,8.197947740554809570e-01,7.518557906150817871e-01,6.581083536148071289e-01,5.171136856079101562e-01,4.474380016326904297e-01,3.762337863445281982e-01,3.195863962173461914e-01,2.777508497238159180e-01,2.481468915939331055e-01,2.235602736473083496e-01,2.240308225154876709e-01,2.518176138401031494e-01,2.730412483215332031e-01,3.096774220466613770e-01,3.862931728363037109e-01,4.730597734451293945e-01,5.336025953292846680e-01,5.491793751716613770e-01,5.774999260902404785e-01,6.082772016525268555e-01,6.193325519561767578e-01,6.083515882492065430e-01,5.399525165557861328e-01
5.891575217247009277e-01,6.141799092292785645e-01,6.566532254219055176e-01,6.571511626243591309e-01,6.804428100585937500e-01,7.042934894561767578e-01,7.404209375381469727e-01,7.615288496017456055e-01,7.820317745208740234e-01,8.004176616668701172e-01,8.180013298988342285e-01,8.343540430068969727e-01,8.493275642395019531e-01,8.627434968948364258e-01,8.744813799858093262e-01,8.841422796249389648e-01,8.912268877029418945e-01,8.960006237030029297e-01,8.993605375289916992e-01,9.015436172485351562e-01,9.027553796768188477e-01,9.033967256546020508e-01,9.036449193954467773e-01,9.037233591079711914e-01,9.037718772888183594e-01,9.043359756469726562e-01,9.041467308998107910e-01,8.981705904006958008e-01,8.856532573699951172e-01,8.662064075469970703e-01,8.391177654266357422e-01,7.917310595512390137e-01,6.994178295135498047e-01,5.226360559463500977e-01,4.229662120342254639e-01,3.691822290420532227e-01,3.539835810661315918e-01,3.375836610794067383e-01,3.763992190361022949e-01,4.471266567707061768e-01,5.433196425437927246e-01,6.663248538970947266e-01,7.657960653305053711e-01,8.144102096557617188e-01,8.536540269851684570e-01,8.826438188552856445e-01,8.959316015243530273e-01,9.006147384643554688e-01,9.025950431823730469e-01,9.036796092987060547e-01,9.035954475402832031e-01,9.043682217597961426e-01,9.048849344253540039e-01,9.023265838623046875e-01,8.963344097137451172e-01,8.895678520202636719e-01,8.602796792984008789e-01,8.350517153739929199e-01,7.849716544151306152e-01,6.798276901245117188e-01,5.516687631607055664e-01,4.524365663528442383e-01,3.934585452079772949e-01,3.254258632659912109e-01,2.976212501525878906e-01,2.522722482681274414e-01,2.281124889850616455e-01,2.251562178134918213e-01,2.481649518013000488e-01,2.638425230979919434e-01,3.087975382804870605e-01,3.559879064559936523e-01,4.662368893623352051e-01,5.293231010437011719e-01,5.477852821350097656e-01,5.718734264373779297e-01,6.064717769622802734e-01,6.169229745864868164e-01,6.074405312538146973e-01,5.382767319679260254e-01
5.884080529212951660e-01,6.125016212463378906e-01,6.548568606376647949e-01,6.552610397338867188e-01,6.780959367752075195e-01,7.014925479888916016e-01,7.376139760017395020e-01,7.587710618972778320e-01,7.793208956718444824e-01,7.977041006088256836e-01,8.152694702148437500e-01,8.317410945892333984e-01,8.468406796455383301e-01,8.603414297103881836e-01,8.721705079078674316e-01,8.818701505661010742e-01,8.891113996505737305e-01,8.941247463226318359e-01,8.975704908370971680e-01,8.997679948806762695e-01,9.010015726089477539e-01,9.016671180725097656e-01,9.019202589988708496e-01,9.019876122474670410e-01,9.020208120346069336e-01,9.024307727813720703e-01,9.022563695907592773e-01,8.962799310684204102e-01,8.832698464393615723e-01,8.645676374435424805e-01,8.383333683013916016e-01,7.864691019058227539e-01,6.963006854057312012e-01,5.150310397148132324e-01,4.171485006809234619e-01,3.730003237724304199e-01,3.558745086193084717e-01,3.434785306453704834e-01,3.763613700866699219e-01,4.569323062896728516e-01,5.678323507308959961e-01,6.847632527351379395e-01,7.728780508041381836e-01,8.257693052291870117e-01,8.587437868118286133e-01,8.827037811279296875e-01,8.939065337181091309e-01,8.998452425003051758e-01,9.013134837150573730e-01,9.017504453659057617e-01,9.018601775169372559e-01,9.023069143295288086e-01,9.024437069892883301e-01,9.017492532730102539e-01,8.994356393814086914e-01,8.896054029464721680e-01,8.668045997619628906e-01,8.408917188644409180e-01,7.879929542541503906e-01,6.994137763977050781e-01,5.765407681465148926e-01,4.673455357551574707e-01,4.027308821678161621e-01,3.450859785079956055e-01,3.106232881546020508e-01,2.561056613922119141e-01,2.346564531326293945e-01,2.250839173793792725e-01,2.397934198379516602e-01,2.602417469024658203e-01,3.013304471969604492e-01,3.539045751094818115e-01,4.604827165603637695e-01,5.251246690750122070e-01,5.378822684288024902e-01,5.660939812660217285e-01,6.056107878684997559e-01,6.125722527503967285e-01,6.072559952735900879e-01,5.359182953834533691e-01
5.864669680595397949e-01,6.097781062126159668e-01,6.518772840499877930e-01,6.520052552223205566e-01,6.745818853378295898e-01,6.974244117736816406e-01,7.329909801483154297e-01,7.536307573318481445e-01,7.735033035278320312e-01,7.914416790008544922e-01,8.087482452392578125e-01,8.249921798706054688e-01,8.399543762207031250e-01,8.535096645355224609e-01,8.654153347015380859e-01,8.752056956291198730e-01,8.825129270553588867e-01,8.875586390495300293e-01,8.911027908325195312e-01,8.933014869689941406e-01,8.945304751396179199e-01,8.952184915542602539e-01,8.954721093177795410e-01,8.955296277999877930e-01,8.955582976341247559e-01,8.959215879440307617e-01,8.956837654113769531e-01,8.898552656173706055e-01,8.764523863792419434e-01,8.565541505813598633e-01,8.297817707061767578e-01,7.746309638023376465e-01,6.835792064666748047e-01,5.022396445274353027e-01,4.127531647682189941e-01,3.702715635299682617e-01,3.602726459503173828e-01,3.433836996555328369e-01,3.772808313369750977e-01,4.626378417015075684e-01,5.886905193328857422e-01,6.859875917434692383e-01,7.665208578109741211e-01,8.234595656394958496e-01,8.547021150588989258e-01,8.778958916664123535e-01,8.889313936233520508e-01,8.938466310501098633e-01,8.951581716537475586e-01,8.953400850296020508e-01,8.952058553695678711e-01,8.954237699508666992e-01,8.959730267524719238e-01,8.959894180297851562e-01,8.932758569717407227e-01,8.854492902755737305e-01,8.644331097602844238e-01,8.364509344100952148e-01,7.854728698730468750e-01,7.240507006645202637e-01,5.978084802627563477e-01,4.837751984596252441e-01,4.124319851398468018e-01,3.503466248512268066e-01,3.078561425209045410e-01,2.652432322502136230e-01,2.389001548290252686e-01,2.287295460700988770e-01,2.369172275066375732e-01,2.575901746749877930e-01,2.958824038505554199e-01,3.447045087814331055e-01,4.466131329536437988e-01,5.126978158950805664e-01,5.295987725257873535e-01,5.567594766616821289e-01,6.026529669761657715e-01,6.084610223770141602e-01,6.019159555435180664e-01,5.311202406883239746e-01
5.825377702713012695e-01,6.038824319839477539e-01,6.454445123672485352e-01,6.448009014129638672e-01,6.661974191665649414e-01,6.881836652755737305e-01,7.229007482528686523e-01,7.430774569511413574e-01,7.622787952423095703e-01,7.793433070182800293e-01,7.960606813430786133e-01,8.119962215423583984e-01,8.270331621170043945e-01,8.408873081207275391e-01,8.531072735786437988e-01,8.633347749710083008e-01,8.711277246475219727e-01,8.765017390251159668e-01,8.802325129508972168e-01,8.825729489326477051e-01,8.838864564895629883e-01,8.845269680023193359e-01,8.847187757492065430e-01,8.847398757934570312e-01,8.847467899322509766e-01,8.851705789566040039e-01,8.850065469741821289e-01,8.787551522254943848e-01,8.659213185310363770e-01,8.457486629486083984e-01,8.169316053390502930e-01,7.561166286468505859e-01,6.573540568351745605e-01,4.907418191432952881e-01,4.036474227905273438e-01,3.687523305416107178e-01,3.551381528377532959e-01,3.477402925491333008e-01,3.807924687862396240e-01,4.657190442085266113e-01,5.828145742416381836e-01,6.718760728836059570e-01,7.545406818389892578e-01,8.126274347305297852e-01,8.426845073699951172e-01,8.670600652694702148e-01,8.795642256736755371e-01,8.824879527091979980e-01,8.842339515686035156e-01,8.841712474822998047e-01,8.841469287872314453e-01,8.840674161911010742e-01,8.853288292884826660e-01,8.859284520149230957e-01,8.822382092475891113e-01,8.757050037384033203e-01,8.651657700538635254e-01,8.288366794586181641e-01,7.894475460052490234e-01,7.141734957695007324e-01,6.173426508903503418e-01,4.797638654708862305e-01,4.166656732559204102e-01,3.514975309371948242e-01,3.072197437286376953e-01,2.680569291114807129e-01,2.403730154037475586e-01,2.267395555973052979e-01,2.307929694652557373e-01,2.502784132957458496e-01,2.933996319770812988e-01,3.412213325500488281e-01,4.333388507366180420e-01,4.970831573009490967e-01,5.127481818199157715e-01,5.446203947067260742e-01,5.880556106567382812e-01,6.011915802955627441e-01,5.943480730056762695e-01,5.259279608726501465e-01
5.753736495971679688e-01,5.940437316894531250e-01,6.345344781875610352e-01,6.318064332008361816e-01,6.512060165405273438e-01,6.719561219215393066e-01,7.057630419731140137e-01,7.251137495040893555e-01,7.435621619224548340e-01,7.599261999130249023e-01,7.757296562194824219e-01,7.908967733383178711e-01,8.055428266525268555e-01,8.189376592636108398e-01,8.307856917381286621e-01,8.406671285629272461e-01,8.480852842330932617e-01,8.534060716629028320e-01,8.571293950080871582e-01,8.594406843185424805e-01,8.606559634208679199e-01,8.611891269683837891e-01,8.613157272338867188e-01,8.613211512565612793e-01,8.613121509552001953e-01,8.620722889900207520e-01,8.619832992553710938e-01,8.543589115142822266e-01,8.405639529228210449e-01,8.208266496658325195e-01,7.869517803192138672e-01,7.226558923721313477e-01,6.171560883522033691e-01,4.603270292282104492e-01,3.859584927558898926e-01,3.501109480857849121e-01,3.397642374038696289e-01,3.414029181003570557e-01,3.711317777633666992e-01,4.601349532604217529e-01,5.771394968032836914e-01,6.677020192146301270e-01,7.270848751068115234e-01,7.844251394271850586e-01,8.221441507339477539e-01,8.424689769744873047e-01,8.569161891937255859e-01,8.591958880424499512e-01,8.606494665145874023e-01,8.603991270065307617e-01,8.602631092071533203e-01,8.601971864700317383e-01,8.612102270126342773e-01,8.615447878837585449e-01,8.578122258186340332e-01,8.496881723403930664e-01,8.416157364845275879e-01,8.033371567726135254e-01,7.714374065399169922e-01,7.138267755508422852e-01,5.912226438522338867e-01,4.678651392459869385e-01,4.008376598358154297e-01,3.514189720153808594e-01,2.967568039894104004e-01,2.691770195960998535e-01,2.454138398170471191e-01,2.233015596866607666e-01,2.263022065162658691e-01,2.437222003936767578e-01,2.841187119483947754e-01,3.319265544414520264e-01,4.151622951030731201e-01,4.748070836067199707e-01,4.908958375453948975e-01,5.256955027580261230e-01,5.712030529975891113e-01,5.847239494323730469e-01,5.804278254508972168e-01,5.179893374443054199e-01
5.643811225891113281e-01,5.786224603652954102e-01,6.173458099365234375e-01,6.113575696945190430e-01,6.278052926063537598e-01,6.468127965927124023e-01,6.787357330322265625e-01,6.960871219635009766e-01,7.121241092681884766e-01,7.261279225349426270e-01,7.397763133049011230e-01,7.531887292861938477e-01,7.665058374404907227e-01,7.789265513420104980e-01,7.898085117340087891e-01,7.990603446960449219e-01,8.063980340957641602e-01,8.116829395294189453e-01,8.153728246688842773e-01,8.176413178443908691e-01,8.186874389648437500e-01,8.189514875411987305e-01,8.189716339111328125e-01,8.189480304718017578e-01,8.189057707786560059e-01,8.201419711112976074e-01,8.194280862808227539e-01,8.099067211151123047e-01,7.943888902664184570e-01,7.765640020370483398e-01,7.367915511131286621e-01,6.694164276123046875e-01,5.645782351493835449e-01,4.199610352516174316e-01,3.680961430072784424e-01,3.347349762916564941e-01,3.200755119323730469e-01,3.316431045532226562e-01,3.714574575424194336e-01,4.514035880565643311e-01,5.425825119018554688e-01,6.310222148895263672e-01,6.879133582115173340e-01,7.418620586395263672e-01,7.803727984428405762e-01,8.033403754234313965e-01,8.140810728073120117e-01,8.165888786315917969e-01,8.175144791603088379e-01,8.175209760665893555e-01,8.173457980155944824e-01,8.172644972801208496e-01,8.183470964431762695e-01,8.179808855056762695e-01,8.171563744544982910e-01,8.106467723846435547e-01,7.980718612670898438e-01,7.616188526153564453e-01,7.290886640548706055e-01,6.639495491981506348e-01,5.567573308944702148e-01,4.495755732059478760e-01,3.787563145160675049e-01,3.388515710830688477e-01,2.925003170967102051e-01,2.644961774349212646e-01,2.354906797409057617e-01,2.218460440635681152e-01,2.209982872009277344e-01,2.382029294967651367e-01,2.751505374908447266e-01,3.167349100112915039e-01,3.918779194355010986e-01,4.481023550033569336e-01,4.589871466159820557e-01,4.928939342498779297e-01,5.419518947601318359e-01,5.571554899215698242e-01,5.585022568702697754e-01,5.075269341468811035e-01
5.498361587524414062e-01,5.541181564331054688e-01,5.890440940856933594e-01,5.790370702743530273e-01,5.922474265098571777e-01,6.085575819015502930e-01,6.381729245185852051e-01,6.527640223503112793e-01,6.666587591171264648e-01,6.783928871154785156e-01,6.898008584976196289e-01,7.009330987930297852e-01,7.119181752204895020e-01,7.217560410499572754e-01,7.305898070335388184e-01,7.382026910781860352e-01,7.439002394676208496e-01,7.478579282760620117e-01,7.505378723144531250e-01,7.519962787628173828e-01,7.524065971374511719e-01,7.524706125259399414e-01,7.524420619010925293e-01,7.523793578147888184e-01,7.523125410079956055e-01,7.540740966796875000e-01,7.519432306289672852e-01,7.405806779861450195e-01,7.233340740203857422e-01,7.066053152084350586e-01,6.580375432968139648e-01,5.932911634445190430e-01,5.010915398597717285e-01,3.879997134208679199e-01,3.342559933662414551e-01,3.114277124404907227e-01,2.979880273342132568e-01,3.247770071029663086e-01,3.721620738506317139e-01,4.228103458881378174e-01,5.116978883743286133e-01,5.910558700561523438e-01,6.385902166366577148e-01,6.809234023094177246e-01,7.223176360130310059e-01,7.416578531265258789e-01,7.469556331634521484e-01,7.496751546859741211e-01,7.503628730773925781e-01,7.502992749214172363e-01,7.501388788223266602e-01,7.498933672904968262e-01,7.504556775093078613e-01,7.508585453033447266e-01,7.482185959815979004e-01,7.423034906387329102e-01,7.268184423446655273e-01,6.946784257888793945e-01,6.565042734146118164e-01,5.869459509849548340e-01,5.258640646934509277e-01,4.101607203483581543e-01,3.475562334060668945e-01,3.084156513214111328e-01,2.748256325721740723e-01,2.510384321212768555e-01,2.283227145671844482e-01,2.171039879322052002e-01,2.158980965614318848e-01,2.340289950370788574e-01,2.639328837394714355e-01,2.983348071575164795e-01,3.646709918975830078e-01,4.141278266906738281e-01,4.196658134460449219e-01,4.512812793254852295e-01,5.015082955360412598e-01,5.157689452171325684e-01,5.281224846839904785e-01,4.883798658847808838e-01
5.325871706008911133e-01,5.238307714462280273e-01,5.546787381172180176e-01,5.387866497039794922e-01,5.466825962066650391e-01,5.595362186431884766e-01,5.837621092796325684e-01,5.949367284774780273e-01,6.054000258445739746e-01,6.135226488113403320e-01,6.215356588363647461e-01,6.294605731964111328e-01,6.371099352836608887e-01,6.439325809478759766e-01,6.500942111015319824e-01,6.548267602920532227e-01,6.580508947372436523e-01,6.604505777359008789e-01,6.620017290115356445e-01,6.628220677375793457e-01,6.630262136459350586e-01,6.629866361618041992e-01,6.628826856613159180e-01,6.627966165542602539e-01,6.626621484756469727e-01,6.647307872772216797e-01,6.616449356079101562e-01,6.497673988342285156e-01,6.328613162040710449e-01,6.187128424644470215e-01,5.649851560592651367e-01,5.098803043365478516e-01,4.358156621456146240e-01,3.487170338630676270e-01,3.105120062828063965e-01,2.869555354118347168e-01,2.784229218959808350e-01,3.098270595073699951e-01,3.531145453453063965e-01,3.966012001037597656e-01,4.738630652427673340e-01,5.319742560386657715e-01,5.695132613182067871e-01,6.087515354156494141e-01,6.393511295318603516e-01,6.545350551605224609e-01,6.598417162895202637e-01,6.599749922752380371e-01,6.606250405311584473e-01,6.605724692344665527e-01,6.604229211807250977e-01,6.601856350898742676e-01,6.601502895355224609e-01,6.626675724983215332e-01,6.623458266258239746e-01,6.541001796722412109e-01,6.384482383728027344e-01,6.201942563056945801e-01,5.669156312942504883e-01,5.141692161560058594e-01,4.526077508926391602e-01,3.743251860141754150e-01,3.149837851524353027e-01,2.870538830757141113e-01,2.566477060317993164e-01,2.329357862472534180e-01,2.219199240207672119e-01,2.076430618762969971e-01,2.104098200798034668e-01,2.268912792205810547e-01,2.502338290214538574e-01,2.797609865665435791e-01,3.384005725383758545e-01,3.775377869606018066e-01,3.808031678199768066e-01,4.057295322418212891e-01,4.532174468040466309e-01,4.671847224235534668e-01,4.919002056121826172e-01,4.653788805007934570e-01
5.116008520126342773e-01,4.894224107265472412e-01,5.142403841018676758e-01,4.909919202327728271e-01,4.925754964351654053e-01,5.011565089225769043e-01,5.197592377662658691e-01,5.277094244956970215e-01,5.348453521728515625e-01,5.396822094917297363e-01,5.445526838302612305e-01,5.496598482131958008e-01,5.546130537986755371e-01,5.589432716369628906e-01,5.625626444816589355e-01,5.652586221694946289e-01,5.675418376922607422e-01,5.691421031951904297e-01,5.702167153358459473e-01,5.707017183303833008e-01,5.707990527153015137e-01,5.707130432128906250e-01,5.705754160881042480e-01,5.704951286315917969e-01,5.702986121177673340e-01,5.721482634544372559e-01,5.689728260040283203e-01,5.578365325927734375e-01,5.441786050796508789e-01,5.301885604858398438e-01,4.810425937175750732e-01,4.375606179237365723e-01,3.802365362644195557e-01,3.205738663673400879e-01,2.899020910263061523e-01,2.699625194072723389e-01,2.703628242015838623e-01,2.977446317672729492e-01,3.241080939769744873e-01,3.836760222911834717e-01,4.282053709030151367e-01,4.682176113128662109e-01,4.943884611129760742e-01,5.297157764434814453e-01,5.556690096855163574e-01,5.642603635787963867e-01,5.685195326805114746e-01,5.678019523620605469e-01,5.686427950859069824e-01,5.682144165039062500e-01,5.681300163269042969e-01,5.679392218589782715e-01,5.676866173744201660e-01,5.695420503616333008e-01,5.686669349670410156e-01,5.590394735336303711e-01,5.477659106254577637e-01,5.392027497291564941e-01,4.842116832733154297e-01,4.481620490550994873e-01,4.025188982486724854e-01,3.441049754619598389e-01,2.906781136989593506e-01,2.690656781196594238e-01,2.446765303611755371e-01,2.224255502223968506e-01,2.143873274326324463e-01,2.033049762248992920e-01,2.028353214263916016e-01,2.174127399921417236e-01,2.376718521118164062e-01,2.629828751087188721e-01,3.082199096679687500e-01,3.388264477252960205e-01,3.405393958091735840e-01,3.638766705989837646e-01,4.055601656436920166e-01,4.202758669853210449e-01,4.566818177700042725e-01,4.435541927814483643e-01
4.905963540077209473e-01,4.557295739650726318e-01,4.713633060455322266e-01,4.409456551074981689e-01,4.362808763980865479e-01,4.406372308731079102e-01,4.540600180625915527e-01,4.581395685672760010e-01,4.624661803245544434e-01,4.647901654243469238e-01,4.673485159873962402e-01,4.701634049415588379e-01,4.729250371456146240e-01,4.755545854568481445e-01,4.778474569320678711e-01,4.795492589473724365e-01,4.808253347873687744e-01,4.817818105220794678e-01,4.823799133300781250e-01,4.826314747333526611e-01,4.826854467391967773e-01,4.826731085777282715e-01,4.825930595397949219e-01,4.824838042259216309e-01,4.822486639022827148e-01,4.837518036365509033e-01,4.810920059680938721e-01,4.728625118732452393e-01,4.637387394905090332e-01,4.526807963848114014e-01,4.119898080825805664e-01,3.802573382854461670e-01,3.380877077579498291e-01,2.985993325710296631e-01,2.711755633354187012e-01,2.547259926795959473e-01,2.667684555053710938e-01,2.802533507347106934e-01,3.094210028648376465e-01,3.423946499824523926e-01,3.849802613258361816e-01,4.060492217540740967e-01,4.313534796237945557e-01,4.547143578529357910e-01,4.723798632621765137e-01,4.787609577178955078e-01,4.797317981719970703e-01,4.810364246368408203e-01,4.807631671428680420e-01,4.806103110313415527e-01,4.805337488651275635e-01,4.804086089134216309e-01,4.803011715412139893e-01,4.815910160541534424e-01,4.801360368728637695e-01,4.754887819290161133e-01,4.687697589397430420e-01,4.590464532375335693e-01,4.172379970550537109e-01,3.938083946704864502e-01,3.594750165939331055e-01,3.080926835536956787e-01,2.708908915519714355e-01,2.522286772727966309e-01,2.323243319988250732e-01,2.154033482074737549e-01,2.081196308135986328e-01,1.996638476848602295e-01,1.958043873310089111e-01,2.066931128501892090e-01,2.243544459342956543e-01,2.443799078464508057e-01,2.778968811035156250e-01,3.056331872940063477e-01,3.062965869903564453e-01,3.264006376266479492e-01,3.630438745021820068e-01,3.820251226425170898e-01,4.258976578712463379e-01,4.243431389331817627e-01
4.694178700447082520e-01,4.224289953708648682e-01,4.285613298416137695e-01,3.950840532779693604e-01,3.841198682785034180e-01,3.856848478317260742e-01,3.960995078086853027e-01,3.990375995635986328e-01,4.020590186119079590e-01,4.032499790191650391e-01,4.044612944126129150e-01,4.056705236434936523e-01,4.066877961158752441e-01,4.076316952705383301e-01,4.084271490573883057e-01,4.090091884136199951e-01,4.096193909645080566e-01,4.101027548313140869e-01,4.103071987628936768e-01,4.103519916534423828e-01,4.103561043739318848e-01,4.102607965469360352e-01,4.101890027523040771e-01,4.101089835166931152e-01,4.098985791206359863e-01,4.108517169952392578e-01,4.089598059654235840e-01,4.036450386047363281e-01,3.960974514484405518e-01,3.865497410297393799e-01,3.573775589466094971e-01,3.329467773437500000e-01,3.052278161048889160e-01,2.728947401046752930e-01,2.529093027114868164e-01,2.446782588958740234e-01,2.591718435287475586e-01,2.717626690864562988e-01,2.881937623023986816e-01,3.237724304199218750e-01,3.446822166442871094e-01,3.588439524173736572e-01,3.752887547016143799e-01,3.982368409633636475e-01,4.031164050102233887e-01,4.079319238662719727e-01,4.085806012153625488e-01,4.090535938739776611e-01,4.087026119232177734e-01,4.086142182350158691e-01,4.085587263107299805e-01,4.084649682044982910e-01,4.081749320030212402e-01,4.091602265834808350e-01,4.071757197380065918e-01,4.058257341384887695e-01,4.023697376251220703e-01,3.923996984958648682e-01,3.632411956787109375e-01,3.490765094757080078e-01,3.176207840442657471e-01,2.833008766174316406e-01,2.554724812507629395e-01,2.350524067878723145e-01,2.233459949493408203e-01,2.103641033172607422e-01,2.026984989643096924e-01,1.946514844894409180e-01,1.914240419864654541e-01,1.990330815315246582e-01,2.139926254749298096e-01,2.273836433887481689e-01,2.534628510475158691e-01,2.758518755435943604e-01,2.768921256065368652e-01,2.899782061576843262e-01,3.256331682205200195e-01,3.491335511207580566e-01,4.001365303993225098e-01,4.086446464061737061e-01
4.513977766036987305e-01,3.938292860984802246e-01,3.929929435253143311e-01,3.573035001754760742e-01,3.413695693016052246e-01,3.406606614589691162e-01,3.481066524982452393e-01,3.498272895812988281e-01,3.515222072601318359e-01,3.519432246685028076e-01,3.524599969387054443e-01,3.529227375984191895e-01,3.534063696861267090e-01,3.538419604301452637e-01,3.541274666786193848e-01,3.542251288890838623e-01,3.542948961257934570e-01,3.541653156280517578e-01,3.540153503417968750e-01,3.539583683013916016e-01,3.539362549781799316e-01,3.539010882377624512e-01,3.538459539413452148e-01,3.537929058074951172e-01,3.536375463008880615e-01,3.543071150779724121e-01,3.530246615409851074e-01,3.494870662689208984e-01,3.447099924087524414e-01,3.374074101448059082e-01,3.168933391571044922e-01,2.972183227539062500e-01,2.795159518718719482e-01,2.582584023475646973e-01,2.400275170803070068e-01,2.382048070430755615e-01,2.506763935089111328e-01,2.608040273189544678e-01,2.684692144393920898e-01,2.968525290489196777e-01,3.094127178192138672e-01,3.239985108375549316e-01,3.366071879863739014e-01,3.487817347049713135e-01,3.511115908622741699e-01,3.526803851127624512e-01,3.525301218032836914e-01,3.531012535095214844e-01,3.527662754058837891e-01,3.527326881885528564e-01,3.526881933212280273e-01,3.526326119899749756e-01,3.524747192859649658e-01,3.525585830211639404e-01,3.520673215389251709e-01,3.516800105571746826e-01,3.493618965148925781e-01,3.408976197242736816e-01,3.258891105651855469e-01,3.101011514663696289e-01,2.860237360000610352e-01,2.692924439907073975e-01,2.379886209964752197e-01,2.253340482711791992e-01,2.127968370914459229e-01,2.043081223964691162e-01,1.959486603736877441e-01,1.917966902256011963e-01,1.872503459453582764e-01,1.941080689430236816e-01,2.026388347148895264e-01,2.168280780315399170e-01,2.362690269947052002e-01,2.527128458023071289e-01,2.504619359970092773e-01,2.636022567749023438e-01,2.976427972316741943e-01,3.204614520072937012e-01,3.768664896488189697e-01,3.952145874500274658e-01
4.349688589572906494e-01,3.689463734626770020e-01,3.612771034240722656e-01,3.251678943634033203e-01,3.061324357986450195e-01,3.047587275505065918e-01,3.108644485473632812e-01,3.122497200965881348e-01,3.134084343910217285e-01,3.134211897850036621e-01,3.134033381938934326e-01,3.133945465087890625e-01,3.134727180004119873e-01,3.135606050491333008e-01,3.135923743247985840e-01,3.136056363582611084e-01,3.135640621185302734e-01,3.135148882865905762e-01,3.135315477848052979e-01,3.135148882865905762e-01,3.134574592113494873e-01,3.134128451347351074e-01,3.133788704872131348e-01,3.133502006530761719e-01,3.132324218750000000e-01,3.136084079742431641e-01,3.129029572010040283e-01,3.101716637611389160e-01,3.066115379333496094e-01,3.012854456901550293e-01,2.875245809555053711e-01,2.729253768920898438e-01,2.593372762203216553e-01,2.444223463535308838e-01,2.307959496974945068e-01,2.347631156444549561e-01,2.428838312625885010e-01,2.444474101066589355e-01,2.628521323204040527e-01,2.727104723453521729e-01,2.851954102516174316e-01,2.927162647247314453e-01,3.015534877777099609e-01,3.089410662651062012e-01,3.115257322788238525e-01,3.127925395965576172e-01,3.127109110355377197e-01,3.126076757907867432e-01,3.125829696655273438e-01,3.125712871551513672e-01,3.125411570072174072e-01,3.125089406967163086e-01,3.123818635940551758e-01,3.123466670513153076e-01,3.127114176750183105e-01,3.129442930221557617e-01,3.102986216545104980e-01,3.055990338325500488e-01,2.972823381423950195e-01,2.825393676757812500e-01,2.668422460556030273e-01,2.487618625164031982e-01,2.303484082221984863e-01,2.177717685699462891e-01,2.087549567222595215e-01,1.994449496269226074e-01,1.916638910770416260e-01,1.881628930568695068e-01,1.844506859779357910e-01,1.909296810626983643e-01,1.953121423721313477e-01,2.081300318241119385e-01,2.206755280494689941e-01,2.357385456562042236e-01,2.304609715938568115e-01,2.438322901725769043e-01,2.743502557277679443e-01,2.989425063133239746e-01,3.589628934860229492e-01,3.850196003913879395e-01
4.212131798267364502e-01,3.491306900978088379e-01,3.364096879959106445e-01,2.999948859214782715e-01,2.791718244552612305e-01,2.769956588745117188e-01,2.819480001926422119e-01,2.831139266490936279e-01,2.839972376823425293e-01,2.838866710662841797e-01,2.838479876518249512e-01,2.838460803031921387e-01,2.838282585144042969e-01,2.838113307952880859e-01,2.837960720062255859e-01,2.837584614753723145e-01,2.837188243865966797e-01,2.836897969245910645e-01,2.836644351482391357e-01,2.836300134658813477e-01,2.836031913757324219e-01,2.835814356803894043e-01,2.835591435432434082e-01,2.835370302200317383e-01,2.834511995315551758e-01,2.837048172950744629e-01,2.832721173763275146e-01,2.815466523170471191e-01,2.787804901599884033e-01,2.756565213203430176e-01,2.654109597206115723e-01,2.555959224700927734e-01,2.464832365512847900e-01,2.345640361309051514e-01,2.268951535224914551e-01,2.286031842231750488e-01,2.321530878543853760e-01,2.383372187614440918e-01,2.460865974426269531e-01,2.554115653038024902e-01,2.627500593662261963e-01,2.704012691974639893e-01,2.763023972511291504e-01,2.795831859111785889e-01,2.827388644218444824e-01,2.824066281318664551e-01,2.830742895603179932e-01,2.830016613006591797e-01,2.829836606979370117e-01,2.829657793045043945e-01,2.829524874687194824e-01,2.829338312149047852e-01,2.828657031059265137e-01,2.826930284500122070e-01,2.830201387405395508e-01,2.828108668327331543e-01,2.806085944175720215e-01,2.782748937606811523e-01,2.741469740867614746e-01,2.604669332504272461e-01,2.501978874206542969e-01,2.394523918628692627e-01,2.236346006393432617e-01,2.123720645904541016e-01,2.042143344879150391e-01,1.970545947551727295e-01,1.888788938522338867e-01,1.855553090572357178e-01,1.834757626056671143e-01,1.865249574184417725e-01,1.902579665184020996e-01,1.969773769378662109e-01,2.127900123596191406e-01,2.219886779785156250e-01,2.196640074253082275e-01,2.281239032745361328e-01,2.565948963165283203e-01,2.820845246315002441e-01,3.450391888618469238e-01,3.767986297607421875e-01
4.091762006282806396e-01,3.324919342994689941e-01,3.159797787666320801e-01,2.799504995346069336e-01,2.584240436553955078e-01,2.558330297470092773e-01,2.600273191928863525e-01,2.610199749469757080e-01,2.617928981781005859e-01,2.617078423500061035e-01,2.616673409938812256e-01,2.616449594497680664e-01,2.616253495216369629e-01,2.616095542907714844e-01,2.615931034088134766e-01,2.615757882595062256e-01,2.615598440170288086e-01,2.615446448326110840e-01,2.615271210670471191e-01,2.615094780921936035e-01,2.614932358264923096e-01,2.614774703979492188e-01,2.614610791206359863e-01,2.614447474479675293e-01,2.613826990127563477e-01,2.615563869476318359e-01,2.612331509590148926e-01,2.600573897361755371e-01,2.582117319107055664e-01,2.558865547180175781e-01,2.482437789440155029e-01,2.417125105857849121e-01,2.342227101325988770e-01,2.265086472034454346e-01,2.208248078823089600e-01,2.235684394836425781e-01,2.229372859001159668e-01,2.298559248447418213e-01,2.361901402473449707e-01,2.415394186973571777e-01,2.454756796360015869e-01,2.501767277717590332e-01,2.562799453735351562e-01,2.568160891532897949e-01,2.594023346900939941e-01,2.605479359626770020e-01,2.610679864883422852e-01,2.609812617301940918e-01,2.609911561012268066e-01,2.610244154930114746e-01,2.609967887401580811e-01,2.609947621822357178e-01,2.609544992446899414e-01,2.608995437622070312e-01,2.611053884029388428e-01,2.608594894409179688e-01,2.594721913337707520e-01,2.581016421318054199e-01,2.551137804985046387e-01,2.455104291439056396e-01,2.371616661548614502e-01,2.307996451854705811e-01,2.159946858882904053e-01,2.081569433212280273e-01,1.995981335639953613e-01,1.931939125061035156e-01,1.870453655719757080e-01,1.843247413635253906e-01,1.813789308071136475e-01,1.842097043991088867e-01,1.855948865413665771e-01,1.931109130382537842e-01,2.060889899730682373e-01,2.117545306682586670e-01,2.089254260063171387e-01,2.144119739532470703e-01,2.432192862033843994e-01,2.707873582839965820e-01,3.346642255783081055e-01,3.698083162307739258e-01
3.991102576255798340e-01,3.188921809196472168e-01,2.997278571128845215e-01,2.643884122371673584e-01,2.423053383827209473e-01,2.394177317619323730e-01,2.430781722068786621e-01,2.439686059951782227e-01,2.446598708629608154e-01,2.445965111255645752e-01,2.445638477802276611e-01,2.445487976074218750e-01,2.445343136787414551e-01,2.445203065872192383e-01,2.445057928562164307e-01,2.444914579391479492e-01,2.444779276847839355e-01,2.444645464420318604e-01,2.444509267807006836e-01,2.444375455379486084e-01,2.444246709346771240e-01,2.444120049476623535e-01,2.443991899490356445e-01,2.443865239620208740e-01,2.443388402462005615e-01,2.444756925106048584e-01,2.441522479057312012e-01,2.435301840305328369e-01,2.424209415912628174e-01,2.409496605396270752e-01,2.351219356060028076e-01,2.312017083168029785e-01,2.253758609294891357e-01,2.195056080818176270e-01,2.160458266735076904e-01,2.175046503543853760e-01,2.179313302040100098e-01,2.173694968223571777e-01,2.261309325695037842e-01,2.290377318859100342e-01,2.333196997642517090e-01,2.360111773014068604e-01,2.389821708202362061e-01,2.412550151348114014e-01,2.416969835758209229e-01,2.429960370063781738e-01,2.437818944454193115e-01,2.440040707588195801e-01,2.440529465675354004e-01,2.440251410007476807e-01,2.440354824066162109e-01,2.440280020236968994e-01,2.440047860145568848e-01,2.439177930355072021e-01,2.441992461681365967e-01,2.435998916625976562e-01,2.430970966815948486e-01,2.429693043231964111e-01,2.396460771560668945e-01,2.319954037666320801e-01,2.272372841835021973e-01,2.226204276084899902e-01,2.118934094905853271e-01,2.032479643821716309e-01,1.950328350067138672e-01,1.900157034397125244e-01,1.854369640350341797e-01,1.827800571918487549e-01,1.794834136962890625e-01,1.798760294914245605e-01,1.838092207908630371e-01,1.902186870574951172e-01,1.943988204002380371e-01,2.038822770118713379e-01,1.999863684177398682e-01,2.073258757591247559e-01,2.326317131519317627e-01,2.626367211341857910e-01,3.266304731369018555e-01,3.644813597202301025e-01
3.908090591430664062e-01,3.077786564826965332e-01,2.866279184818267822e-01,2.519682347774505615e-01,2.295324802398681641e-01,2.264051735401153564e-01,2.296712100505828857e-01,2.304612398147583008e-01,2.310828566551208496e-01,2.310282886028289795e-01,2.310011982917785645e-01,2.309904098510742188e-01,2.309798300266265869e-01,2.309696376323699951e-01,2.309592068195343018e-01,2.309490740299224854e-01,2.309387028217315674e-01,2.309282124042510986e-01,2.309179604053497314e-01,2.309072911739349365e-01,2.308970987796783447e-01,2.308865189552307129e-01,2.308760583400726318e-01,2.308656275272369385e-01,2.308313548564910889e-01,2.309242188930511475e-01,2.306956350803375244e-01,2.303676903247833252e-01,2.295863628387451172e-01,2.283815741539001465e-01,2.243416011333465576e-01,2.217514812946319580e-01,2.180092632770538330e-01,2.121393084526062012e-01,2.106919884681701660e-01,2.110657095909118652e-01,2.111361622810363770e-01,2.132346332073211670e-01,2.165896296501159668e-01,2.203068137168884277e-01,2.223372459411621094e-01,2.240163683891296387e-01,2.254240512847900391e-01,2.275446951389312744e-01,2.285273373126983643e-01,2.293221652507781982e-01,2.299258708953857422e-01,2.304586172103881836e-01,2.305511534214019775e-01,2.305801808834075928e-01,2.305785715579986572e-01,2.305771112442016602e-01,2.305613458156585693e-01,2.305210828781127930e-01,2.305280566215515137e-01,2.303363084793090820e-01,2.302682995796203613e-01,2.302870452404022217e-01,2.280224859714508057e-01,2.233982682228088379e-01,2.183778882026672363e-01,2.141172289848327637e-01,2.085968255996704102e-01,1.982258558273315430e-01,1.922080218791961670e-01,1.867148578166961670e-01,1.836452186107635498e-01,1.806058585643768311e-01,1.781340837478637695e-01,1.773115992546081543e-01,1.827064454555511475e-01,1.846600472927093506e-01,1.901058852672576904e-01,1.958238482475280762e-01,1.931810975074768066e-01,1.988616287708282471e-01,2.247748672962188721e-01,2.534562945365905762e-01,3.185217976570129395e-01,3.599276542663574219e-01
3.838103115558624268e-01,2.985777258872985840e-01,2.758295238018035889e-01,2.418450713157653809e-01,2.191900312900543213e-01,2.158575356006622314e-01,2.188130319118499756e-01,2.195143401622772217e-01,2.200805842876434326e-01,2.200329601764678955e-01,2.200097441673278809e-01,2.200012803077697754e-01,2.199929356575012207e-01,2.199843525886535645e-01,2.199757993221282959e-01,2.199673652648925781e-01,2.199587225914001465e-01,2.199502289295196533e-01,2.199414670467376709e-01,2.199332118034362793e-01,2.199247181415557861e-01,2.199162244796752930e-01,2.199075222015380859e-01,2.198987305164337158e-01,2.198723256587982178e-01,2.199295163154602051e-01,2.197541594505310059e-01,2.196921110153198242e-01,2.193910777568817139e-01,2.184285223484039307e-01,2.159385085105895996e-01,2.138158977031707764e-01,2.112301588058471680e-01,2.081886529922485352e-01,2.053618431091308594e-01,2.057131230831146240e-01,2.059907019138336182e-01,2.066365778446197510e-01,2.080157399177551270e-01,2.114220857620239258e-01,2.136138975620269775e-01,2.145811915397644043e-01,2.162759900093078613e-01,2.169590294361114502e-01,2.177624404430389404e-01,2.183222770690917969e-01,2.189749479293823242e-01,2.193535566329956055e-01,2.196246087551116943e-01,2.196462154388427734e-01,2.196699082851409912e-01,2.196629047393798828e-01,2.196513414382934570e-01,2.196148037910461426e-01,2.196054458618164062e-01,2.195881605148315430e-01,2.196020185947418213e-01,2.195219695568084717e-01,2.184516787528991699e-01,2.154879868030548096e-01,2.115865945816040039e-01,2.079372406005859375e-01,2.017964720726013184e-01,1.964095830917358398e-01,1.885143518447875977e-01,1.850089430809020996e-01,1.817222535610198975e-01,1.796517372131347656e-01,1.771579980850219727e-01,1.754541695117950439e-01,1.789516508579254150e-01,1.811742484569549561e-01,1.857059299945831299e-01,1.877958178520202637e-01,1.847909390926361084e-01,1.908747255802154541e-01,2.153163254261016846e-01,2.460488379001617432e-01,3.114303946495056152e-01,3.548215627670288086e-01
3.778371810913085938e-01,2.908438444137573242e-01,2.668068408966064453e-01,2.334583401679992676e-01,2.106582224369049072e-01,2.071485221385955811e-01,2.098521590232849121e-01,2.104757428169250488e-01,2.109933495521545410e-01,2.109515666961669922e-01,2.109312415122985840e-01,2.109241783618927002e-01,2.109170556068420410e-01,2.109100222587585449e-01,2.109026908874511719e-01,2.108957767486572266e-01,2.108890116214752197e-01,2.108815908432006836e-01,2.108744084835052490e-01,2.108672559261322021e-01,2.108604609966278076e-01,2.108532786369323730e-01,2.108460366725921631e-01,2.108393013477325439e-01,2.108189165592193604e-01,2.108223140239715576e-01,2.107691764831542969e-01,2.107555270195007324e-01,2.105801701545715332e-01,2.099805176258087158e-01,2.086536586284637451e-01,2.068691849708557129e-01,2.049884200096130371e-01,2.036634981632232666e-01,2.004596292972564697e-01,2.002420425415039062e-01,2.009639143943786621e-01,2.016738057136535645e-01,2.025901973247528076e-01,2.038213610649108887e-01,2.056548595428466797e-01,2.070481181144714355e-01,2.078766822814941406e-01,2.088258564472198486e-01,2.092656195163726807e-01,2.097466289997100830e-01,2.098932862281799316e-01,2.102538347244262695e-01,2.105390429496765137e-01,2.106621563434600830e-01,2.106463611125946045e-01,2.106417119503021240e-01,2.106347382068634033e-01,2.106135487556457520e-01,2.105576992034912109e-01,2.105516791343688965e-01,2.106842994689941406e-01,2.104376852512359619e-01,2.096238434314727783e-01,2.082149982452392578e-01,2.052948176860809326e-01,2.017556726932525635e-01,1.979432404041290283e-01,1.922494471073150635e-01,1.862164735794067383e-01,1.825231909751892090e-01,1.802316009998321533e-01,1.779384315013885498e-01,1.762191951274871826e-01,1.745456755161285400e-01,1.757324635982513428e-01,1.796567440032958984e-01,1.795035600662231445e-01,1.822919249534606934e-01,1.784438490867614746e-01,1.842942535877227783e-01,2.076095938682556152e-01,2.370894253253936768e-01,3.046653270721435547e-01,3.508509099483489990e-01
3.726800680160522461e-01,2.842507362365722656e-01,2.591615021228790283e-01,2.263990044593811035e-01,2.035068273544311523e-01,1.998417675495147705e-01,2.023391127586364746e-01,2.028943002223968506e-01,2.033705413341522217e-01,2.033331692218780518e-01,2.033155560493469238e-01,2.033094465732574463e-01,2.033035457134246826e-01,2.032977044582366943e-01,2.032915055751800537e-01,2.032856047153472900e-01,2.032795548439025879e-01,2.032736539840698242e-01,2.032673656940460205e-01,2.032615244388580322e-01,2.032556235790252686e-01,2.032494544982910156e-01,2.032435238361358643e-01,2.032379806041717529e-01,2.032234072685241699e-01,2.032125890254974365e-01,2.032276391983032227e-01,2.032155394554138184e-01,2.031006217002868652e-01,2.029820084571838379e-01,2.021715939044952393e-01,2.009516656398773193e-01,1.997595131397247314e-01,1.986944377422332764e-01,1.970129609107971191e-01,1.961643695831298828e-01,1.960115730762481689e-01,1.969773173332214355e-01,1.970905065536499023e-01,1.982101202011108398e-01,1.988193094730377197e-01,2.008306682109832764e-01,2.010668814182281494e-01,2.019648551940917969e-01,2.021931111812591553e-01,2.024633586406707764e-01,2.026781737804412842e-01,2.027385234832763672e-01,2.029320895671844482e-01,2.030487954616546631e-01,2.030824422836303711e-01,2.030717432498931885e-01,2.030670940876007080e-01,2.030547559261322021e-01,2.030433714389801025e-01,2.029899060726165771e-01,2.031193077564239502e-01,2.028742432594299316e-01,2.023230493068695068e-01,2.013560831546783447e-01,1.995364129543304443e-01,1.959025263786315918e-01,1.929756402969360352e-01,1.893647015094757080e-01,1.843175292015075684e-01,1.807387471199035645e-01,1.779856979846954346e-01,1.766122579574584961e-01,1.749073565006256104e-01,1.738954484462738037e-01,1.736752390861511230e-01,1.729475855827331543e-01,1.767000854015350342e-01,1.776348352432250977e-01,1.748108565807342529e-01,1.789463162422180176e-01,2.030059695243835449e-01,2.297541499137878418e-01,2.968019843101501465e-01,3.458887338638305664e-01
