6.295633316040039062e-01,6.181961894035339355e-01,6.701827049255371094e-01,6.733874082565307617e-01,6.755894422531127930e-01,6.647129058837890625e-01,6.812946200370788574e-01,6.908842325210571289e-01,7.006894946098327637e-01,7.083117961883544922e-01,7.184640169143676758e-01,7.281653285026550293e-01,7.369232773780822754e-01,7.459609508514404297e-01,7.535145282745361328e-01,7.600321173667907715e-01,7.644876241683959961e-01,7.677810192108154297e-01,7.691990733146667480e-01,7.706949710845947266e-01,7.715019583702087402e-01,7.719173431396484375e-01,7.720131874084472656e-01,7.720365524291992188e-01,7.720388174057006836e-01,7.720369100570678711e-01,7.720367908477783203e-01,7.720367908477783203e-01,7.720463275909423828e-01,7.719942331314086914e-01,7.725114822387695312e-01,7.704020142555236816e-01,7.678357362747192383e-01,7.619619965553283691e-01,7.394816279411315918e-01,7.342402935028076172e-01,7.172152996063232422e-01,6.906986236572265625e-01,6.199873685836791992e-01,6.027862429618835449e-01,5.657833814620971680e-01,5.377811193466186523e-01,5.225811600685119629e-01,5.118613243103027344e-01,4.955366849899291992e-01,4.969199597835540771e-01,5.026569962501525879e-01,5.151407718658447266e-01,5.340728759765625000e-01,5.195360183715820312e-01,5.519033670425415039e-01,6.044166088104248047e-01,6.356877088546752930e-01,6.477344036102294922e-01,6.674703359603881836e-01,6.871610879898071289e-01,6.614863872528076172e-01,6.558710932731628418e-01,6.469380855560302734e-01,5.957830548286437988e-01,5.788847208023071289e-01,5.345196723937988281e-01,5.126699805259704590e-01,5.044846534729003906e-01,4.924527704715728760e-01,4.937721788883209229e-01,4.857491552829742432e-01,4.878757596015930176e-01,4.836344122886657715e-01,4.827202260494232178e-01,4.825585186481475830e-01,4.811157882213592529e-01,4.814754128456115723e-01,4.810839295387268066e-01,4.832481741905212402e-01,4.831133782863616943e-01,5.122317671775817871e-01,5.665560960769653320e-01,5.446867942810058594e-01,4.653319418430328369e-01
5.834181904792785645e-01,5.977103114128112793e-01,6.267958283424377441e-01,6.188292503356933594e-01,6.430768966674804688e-01,6.537660360336303711e-01,6.840217709541320801e-01,7.024555206298828125e-01,7.179753184318542480e-01,7.333831787109375000e-01,7.466440796852111816e-01,7.608947753906250000e-01,7.762598395347595215e-01,7.892297506332397461e-01,8.010270595550537109e-01,8.107913732528686523e-01,8.175226449966430664e-01,8.214559555053710938e-01,8.253777623176574707e-01,8.276643753051757812e-01,8.288536667823791504e-01,8.294283151626586914e-01,8.296608924865722656e-01,8.297070264816284180e-01,8.297190666198730469e-01,8.297178745269775391e-01,8.297177553176879883e-01,8.297177553176879883e-01,8.297157883644104004e-01,8.297861814498901367e-01,8.299310207366943359e-01,8.288455009460449219e-01,8.235639333724975586e-01,8.099704384803771973e-01,7.836376428604125977e-01,7.681460380554199219e-01,7.307975292205810547e-01,6.796357631683349609e-01,5.834336280822753906e-01,5.189372301101684570e-01,4.701166749000549316e-01,4.350433945655822754e-01,3.905604481697082520e-01,3.522637784481048584e-01,3.290423750877380371e-01,3.275684714317321777e-01,3.358159661293029785e-01,3.498237133026123047e-01,3.777530193328857422e-01,3.827908933162689209e-01,4.457416534423828125e-01,5.230231285095214844e-01,5.726580023765563965e-01,6.243706345558166504e-01,6.580060124397277832e-01,6.613695621490478516e-01,6.597984433174133301e-01,6.487511992454528809e-01,6.153002381324768066e-01,5.189461112022399902e-01,4.639679491519927979e-01,4.231253266334533691e-01,3.913684487342834473e-01,3.561636507511138916e-01,3.335220515727996826e-01,3.138794302940368652e-01,3.032523989677429199e-01,3.006256222724914551e-01,3.008623123168945312e-01,2.934323549270629883e-01,2.949351668357849121e-01,2.918082773685455322e-01,2.914006114006042480e-01,2.908134162425994873e-01,2.894769906997680664e-01,3.026803135871887207e-01,3.332309424877166748e-01,3.534622192382812500e-01,3.838391900062561035e-01,3.970862627029418945e-01
5.795694589614868164e-01,5.982273817062377930e-01,6.480341553688049316e-01,6.185625791549682617e-01,6.515617370605468750e-01,6.743703484535217285e-01,7.075747847557067871e-01,7.301647067070007324e-01,7.501353025436401367e-01,7.685745358467102051e-01,7.867033481597900391e-01,8.029245138168334961e-01,8.189258575439453125e-01,8.341138958930969238e-01,8.459053039550781250e-01,8.549927473068237305e-01,8.612017035484313965e-01,8.666809201240539551e-01,8.694663047790527344e-01,8.715744018554687500e-01,8.728044033050537109e-01,8.733375668525695801e-01,8.735443949699401855e-01,8.735995292663574219e-01,8.736075162887573242e-01,8.736066818237304688e-01,8.736065626144409180e-01,8.736065626144409180e-01,8.736088275909423828e-01,8.736648559570312500e-01,8.735899925231933594e-01,8.720703125000000000e-01,8.663541078567504883e-01,8.518328666687011719e-01,8.294552564620971680e-01,8.107560873031616211e-01,7.587134242057800293e-01,6.919755935668945312e-01,5.671522617340087891e-01,4.841515421867370605e-01,4.151857197284698486e-01,3.699879050254821777e-01,3.104349076747894287e-01,2.700156569480895996e-01,2.478018403053283691e-01,2.464064955711364746e-01,2.533279359340667725e-01,2.785794734954833984e-01,2.945569455623626709e-01,3.213943839073181152e-01,3.958863317966461182e-01,4.962583184242248535e-01,5.727800130844116211e-01,6.445666551589965820e-01,6.753377914428710938e-01,6.917192935943603516e-01,6.995260715484619141e-01,6.717871427536010742e-01,6.094611287117004395e-01,5.166959762573242188e-01,4.155625402927398682e-01,3.628012835979461670e-01,3.335272371768951416e-01,2.978628873825073242e-01,2.538335919380187988e-01,2.381175160408020020e-01,2.288783192634582520e-01,2.249550223350524902e-01,2.169872224330902100e-01,2.157330811023712158e-01,2.123840153217315674e-01,2.107877433300018311e-01,2.079661190509796143e-01,2.078174948692321777e-01,2.051008343696594238e-01,2.128703296184539795e-01,2.358497679233551025e-01,2.710365056991577148e-01,3.160793483257293701e-01,3.606500625610351562e-01
5.916145443916320801e-01,6.112017035484313965e-01,6.348620057106018066e-01,6.225427985191345215e-01,6.499783396720886230e-01,6.736598014831542969e-01,7.128690481185913086e-01,7.344668507575988770e-01,7.552255392074584961e-01,7.754606604576110840e-01,7.932398319244384766e-01,8.102229833602905273e-01,8.250700235366821289e-01,8.410217761993408203e-01,8.532788753509521484e-01,8.619812130928039551e-01,8.695368766784667969e-01,8.739724159240722656e-01,8.775790929794311523e-01,8.793591260910034180e-01,8.806601762771606445e-01,8.814693093299865723e-01,8.816851377487182617e-01,8.817394375801086426e-01,8.817477822303771973e-01,8.817470073699951172e-01,8.817465305328369141e-01,8.817465305328369141e-01,8.817483186721801758e-01,8.818305134773254395e-01,8.824589252471923828e-01,8.812335729598999023e-01,8.736264705657958984e-01,8.596922159194946289e-01,8.409564495086669922e-01,8.180197477340698242e-01,7.710973620414733887e-01,6.897599697113037109e-01,5.433760881423950195e-01,4.569405615329742432e-01,3.923349678516387939e-01,3.360065221786499023e-01,2.706730961799621582e-01,2.338178753852844238e-01,2.140815854072570801e-01,2.132048010826110840e-01,2.216555178165435791e-01,2.392645180225372314e-01,2.463293969631195068e-01,3.081511855125427246e-01,3.916717171669006348e-01,4.897401630878448486e-01,5.938873291015625000e-01,6.549853086471557617e-01,6.981496810913085938e-01,7.159489393234252930e-01,7.328550815582275391e-01,7.015114426612854004e-01,6.247879862785339355e-01,5.193471312522888184e-01,4.178202748298645020e-01,3.790284991264343262e-01,3.099915981292724609e-01,2.749149203300476074e-01,2.316086292266845703e-01,2.248923778533935547e-01,2.077045142650604248e-01,1.893031597137451172e-01,1.878913640975952148e-01,1.848317384719848633e-01,1.794751882553100586e-01,1.779042482376098633e-01,1.754095554351806641e-01,1.744378209114074707e-01,1.705137491226196289e-01,1.725386381149291992e-01,1.978241205215454102e-01,2.215132713317871094e-01,2.726435065269470215e-01,3.311718702316284180e-01
5.760099887847900391e-01,5.908886790275573730e-01,6.343241333961486816e-01,6.279842853546142578e-01,6.464048624038696289e-01,6.690363287925720215e-01,7.076346278190612793e-01,7.304193973541259766e-01,7.530188560485839844e-01,7.734218835830688477e-01,7.937971353530883789e-01,8.119125366210937500e-01,8.288806080818176270e-01,8.426445722579956055e-01,8.561206459999084473e-01,8.659182190895080566e-01,8.727934956550598145e-01,8.776046037673950195e-01,8.806565999984741211e-01,8.831241130828857422e-01,8.842948675155639648e-01,8.850319385528564453e-01,8.853523135185241699e-01,8.853976130485534668e-01,8.854048252105712891e-01,8.854037523269653320e-01,8.854033946990966797e-01,8.854033946990966797e-01,8.854101896286010742e-01,8.854839205741882324e-01,8.860932588577270508e-01,8.856981992721557617e-01,8.778404593467712402e-01,8.650017380714416504e-01,8.475327491760253906e-01,8.186129331588745117e-01,7.708330750465393066e-01,6.844236850738525391e-01,5.179650187492370605e-01,4.141953885555267334e-01,3.484433889389038086e-01,2.971708774566650391e-01,2.365360260009765625e-01,2.040299177169799805e-01,1.858201920986175537e-01,1.890105903148651123e-01,1.964134573936462402e-01,2.161789238452911377e-01,2.230328917503356934e-01,2.934067845344543457e-01,3.891423642635345459e-01,4.869037568569183350e-01,6.074997186660766602e-01,6.820645928382873535e-01,7.304465770721435547e-01,7.503021955490112305e-01,7.573604583740234375e-01,7.403015494346618652e-01,6.666051149368286133e-01,5.341804027557373047e-01,4.342626929283142090e-01,3.682377636432647705e-01,2.842826843261718750e-01,2.635730504989624023e-01,2.431618571281433105e-01,2.036729454994201660e-01,1.901645064353942871e-01,1.754749715328216553e-01,1.689315140247344971e-01,1.585590243339538574e-01,1.595702767372131348e-01,1.555365622043609619e-01,1.523162722587585449e-01,1.503074169158935547e-01,1.458445489406585693e-01,1.488552391529083252e-01,1.706989705562591553e-01,1.989610791206359863e-01,2.680911719799041748e-01,3.262906670570373535e-01
5.856283903121948242e-01,6.095334291458129883e-01,6.510701775550842285e-01,6.518852710723876953e-01,6.743677854537963867e-01,6.974371671676635742e-01,7.324469089508056641e-01,7.537939548492431641e-01,7.752474546432495117e-01,7.940095663070678711e-01,8.125047683715820312e-01,8.297303915023803711e-01,8.440523147583007812e-01,8.575358390808105469e-01,8.687924146652221680e-01,8.789937496185302734e-01,8.860356807708740234e-01,8.904824256896972656e-01,8.932614326477050781e-01,8.950709700584411621e-01,8.964834213256835938e-01,8.971182107925415039e-01,8.974015712738037109e-01,8.974746465682983398e-01,8.974814414978027344e-01,8.974800109863281250e-01,8.974796533584594727e-01,8.974796533584594727e-01,8.974889516830444336e-01,8.975464105606079102e-01,8.980103731155395508e-01,8.978950977325439453e-01,8.909408450126647949e-01,8.788930177688598633e-01,8.613747358322143555e-01,8.352736234664916992e-01,7.920501232147216797e-01,7.074394226074218750e-01,5.453945398330688477e-01,4.440453648567199707e-01,3.732609748840332031e-01,3.163399100303649902e-01,2.529501914978027344e-01,2.153175175189971924e-01,1.976187825202941895e-01,2.012827992439270020e-01,2.181492447853088379e-01,2.340498268604278564e-01,2.472280263900756836e-01,3.282048404216766357e-01,4.230693578720092773e-01,5.522557497024536133e-01,6.339746713638305664e-01,7.165012359619140625e-01,7.640359997749328613e-01,7.887002229690551758e-01,7.984125614166259766e-01,8.005862832069396973e-01,7.430533170700073242e-01,6.403458118438720703e-01,5.388290882110595703e-01,4.444852471351623535e-01,3.554137051105499268e-01,3.122181892395019531e-01,3.133039474487304688e-01,2.584259212017059326e-01,2.119021713733673096e-01,2.038052380084991455e-01,1.896704137325286865e-01,1.777753233909606934e-01,1.705224514007568359e-01,1.685086488723754883e-01,1.642186939716339111e-01,1.601445972919464111e-01,1.545872688293457031e-01,1.568288505077362061e-01,1.766267120838165283e-01,2.041868269443511963e-01,2.743258476257324219e-01,3.321964144706726074e-01
5.862379670143127441e-01,6.089708209037780762e-01,6.536785960197448730e-01,6.547640562057495117e-01,6.780822277069091797e-01,7.019318342208862305e-01,7.384423613548278809e-01,7.597741484642028809e-01,7.806816101074218750e-01,7.996246814727783203e-01,8.179705142974853516e-01,8.352553844451904297e-01,8.500524163246154785e-01,8.631901741027832031e-01,8.749895095825195312e-01,8.844099640846252441e-01,8.914951086044311523e-01,8.961790800094604492e-01,8.992635011672973633e-01,9.009845256805419922e-01,9.020897150039672852e-01,9.028489589691162109e-01,9.030691385269165039e-01,9.031417965888977051e-01,9.031516313552856445e-01,9.031503200531005859e-01,9.031499028205871582e-01,9.031497240066528320e-01,9.031557440757751465e-01,9.031929969787597656e-01,9.037417173385620117e-01,9.035293459892272949e-01,8.975722193717956543e-01,8.864176273345947266e-01,8.705864548683166504e-01,8.468569517135620117e-01,8.031740188598632812e-01,7.170199751853942871e-01,5.568196773529052734e-01,4.520559012889862061e-01,3.761721849441528320e-01,3.198624253273010254e-01,2.558906674385070801e-01,2.192746400833129883e-01,2.020730078220367432e-01,2.056123316287994385e-01,2.198703885078430176e-01,2.377400696277618408e-01,2.681615352630615234e-01,3.357058167457580566e-01,4.420183897018432617e-01,5.694515109062194824e-01,6.615746617317199707e-01,7.304034233093261719e-01,7.867450714111328125e-01,8.197822570800781250e-01,8.322558403015136719e-01,8.239572048187255859e-01,7.908935546875000000e-01,7.217401266098022461e-01,6.154541373252868652e-01,5.485121011734008789e-01,4.797364175319671631e-01,3.828280568122863770e-01,3.588102459907531738e-01,3.135040402412414551e-01,2.738687098026275635e-01,2.302529811859130859e-01,2.023234963417053223e-01,1.955905258655548096e-01,1.791332960128784180e-01,1.719306707382202148e-01,1.656464934349060059e-01,1.620079874992370605e-01,1.544464230537414551e-01,1.571468710899353027e-01,1.771587431430816650e-01,2.067692577838897705e-01,2.760630846023559570e-01,3.332817554473876953e-01
5.892081856727600098e-01,6.141204833984375000e-01,6.574152112007141113e-01,6.579444408416748047e-01,6.818128824234008789e-01,7.059241533279418945e-01,7.424383163452148438e-01,7.638134956359863281e-01,7.844141721725463867e-01,8.029756546020507812e-01,8.210755586624145508e-01,8.377181887626647949e-01,8.528622388839721680e-01,8.658931255340576172e-01,8.772031068801879883e-01,8.867893218994140625e-01,8.938254117965698242e-01,8.984436988830566406e-01,9.016290903091430664e-01,9.035806655883789062e-01,9.046272635459899902e-01,9.052627086639404297e-01,9.055268764495849609e-01,9.055826663970947266e-01,9.055951833724975586e-01,9.055936932563781738e-01,9.055932760238647461e-01,9.055929183959960938e-01,9.055998325347900391e-01,9.056257009506225586e-01,9.061391353607177734e-01,9.060150980949401855e-01,9.001958370208740234e-01,8.892470598220825195e-01,8.732628822326660156e-01,8.502340316772460938e-01,8.067061901092529297e-01,7.222177982330322266e-01,5.627582669258117676e-01,4.531272053718566895e-01,3.774988353252410889e-01,3.211951255798339844e-01,2.559391260147094727e-01,2.195461690425872803e-01,2.039908766746520996e-01,2.097657620906829834e-01,2.264012098312377930e-01,2.359203398227691650e-01,2.811892032623291016e-01,3.533641993999481201e-01,4.836353361606597900e-01,5.996103882789611816e-01,6.889890432357788086e-01,7.466829419136047363e-01,7.980675697326660156e-01,8.367370367050170898e-01,8.539975881576538086e-01,8.538545370101928711e-01,8.260360956192016602e-01,8.014599084854125977e-01,7.097483873367309570e-01,6.422811746597290039e-01,5.731655359268188477e-01,5.042405128479003906e-01,4.612989127635955811e-01,3.973768651485443115e-01,3.379480242729187012e-01,2.611529529094696045e-01,2.315634489059448242e-01,2.082300186157226562e-01,1.923821568489074707e-01,1.744150519371032715e-01,1.697330474853515625e-01,1.632077693939208984e-01,1.555006504058837891e-01,1.569584012031555176e-01,1.773373186588287354e-01,2.068410515785217285e-01,2.759868204593658447e-01,3.336960673332214355e-01
5.887271165847778320e-01,6.143653392791748047e-01,6.567995548248291016e-01,6.576644182205200195e-01,6.813156604766845703e-01,7.055878639221191406e-01,7.419058680534362793e-01,7.633254528045654297e-01,7.840591669082641602e-01,8.025934100151062012e-01,8.203073740005493164e-01,8.370748758316040039e-01,8.520715236663818359e-01,8.652575612068176270e-01,8.767307996749877930e-01,8.862702250480651855e-01,8.932352662086486816e-01,8.979352712631225586e-01,9.011542797088623047e-01,9.032229781150817871e-01,9.043694734573364258e-01,9.050056934356689453e-01,9.052367210388183594e-01,9.052978157997131348e-01,9.053110480308532715e-01,9.053096771240234375e-01,9.053089618682861328e-01,9.053072929382324219e-01,9.053084850311279297e-01,9.053366184234619141e-01,9.058331251144409180e-01,9.057019948959350586e-01,8.998941183090209961e-01,8.890262842178344727e-01,8.735636472702026367e-01,8.501471877098083496e-01,8.068972229957580566e-01,7.217934131622314453e-01,5.630319714546203613e-01,4.554023742675781250e-01,3.785599172115325928e-01,3.209624290466308594e-01,2.609061300754547119e-01,2.190168499946594238e-01,2.092843651771545410e-01,2.105195224285125732e-01,2.334272563457489014e-01,2.362155914306640625e-01,3.011605739593505859e-01,4.009106159210205078e-01,4.882885813713073730e-01,6.134321093559265137e-01,7.053080797195434570e-01,7.661780118942260742e-01,8.083220720291137695e-01,8.479099869728088379e-01,8.682508468627929688e-01,8.621866703033447266e-01,8.615727424621582031e-01,8.473860025405883789e-01,7.963506579399108887e-01,7.190921306610107422e-01,6.706361770629882812e-01,6.304459571838378906e-01,5.382632017135620117e-01,4.874496161937713623e-01,3.840263783931732178e-01,3.146603703498840332e-01,2.540168762207031250e-01,2.299919426441192627e-01,2.050935626029968262e-01,1.797055602073669434e-01,1.709101796150207520e-01,1.648404300212860107e-01,1.560266315937042236e-01,1.574566066265106201e-01,1.774373352527618408e-01,2.069895565509796143e-01,2.761517763137817383e-01,3.337897360324859619e-01
5.887528061866760254e-01,6.143547892570495605e-01,6.569738388061523438e-01,6.578204035758972168e-01,6.813699007034301758e-01,7.055975198745727539e-01,7.419736981391906738e-01,7.633641958236694336e-01,7.841234207153320312e-01,8.027297258377075195e-01,8.204528093338012695e-01,8.368863463401794434e-01,8.519602417945861816e-01,8.652209639549255371e-01,8.766916990280151367e-01,8.861918449401855469e-01,8.931937813758850098e-01,8.978418111801147461e-01,9.011030793190002441e-01,9.031971096992492676e-01,9.043798446655273438e-01,9.050242304801940918e-01,9.052717685699462891e-01,9.053237438201904297e-01,9.053357243537902832e-01,9.053342342376708984e-01,9.053333997726440430e-01,9.053321480751037598e-01,9.053303599357604980e-01,9.053391218185424805e-01,9.058490991592407227e-01,9.057394266128540039e-01,9.000656604766845703e-01,8.888801336288452148e-01,8.734974861145019531e-01,8.500573635101318359e-01,8.062937855720520020e-01,7.199135422706604004e-01,5.648785829544067383e-01,4.553886651992797852e-01,3.771332204341888428e-01,3.226066827774047852e-01,2.634489536285400391e-01,2.214558422565460205e-01,2.106603682041168213e-01,2.243444323539733887e-01,2.393386363983154297e-01,2.399319112300872803e-01,3.184595108032226562e-01,4.212307333946228027e-01,5.185660123825073242e-01,6.262980103492736816e-01,7.224950790405273438e-01,7.841761708259582520e-01,8.187158703804016113e-01,8.584890365600585938e-01,8.791316151618957520e-01,8.709120750427246094e-01,8.716347217559814453e-01,8.702310919761657715e-01,8.337802290916442871e-01,7.961536645889282227e-01,7.446514368057250977e-01,6.996243596076965332e-01,6.354212164878845215e-01,5.464685559272766113e-01,4.173494577407836914e-01,3.576276302337646484e-01,2.927652597427368164e-01,2.474882006645202637e-01,2.184013724327087402e-01,1.861470639705657959e-01,1.730057001113891602e-01,1.652718484401702881e-01,1.563911139965057373e-01,1.582032144069671631e-01,1.776334345340728760e-01,2.071391046047210693e-01,2.763044834136962891e-01,3.338828086853027344e-01
5.887321233749389648e-01,6.143183708190917969e-01,6.569488048553466797e-01,6.577817797660827637e-01,6.813412904739379883e-01,7.055702209472656250e-01,7.419326305389404297e-01,7.633370161056518555e-01,7.840992212295532227e-01,8.027114868164062500e-01,8.204665184020996094e-01,8.369147777557373047e-01,8.518249988555908203e-01,8.651642799377441406e-01,8.767169117927551270e-01,8.861404657363891602e-01,8.931354880332946777e-01,8.978177309036254883e-01,9.010536670684814453e-01,9.031687974929809570e-01,9.043695926666259766e-01,9.050208330154418945e-01,9.052609205245971680e-01,9.053199291229248047e-01,9.053306579589843750e-01,9.053287506103515625e-01,9.053269624710083008e-01,9.053207635879516602e-01,9.053196310997009277e-01,9.053977727890014648e-01,9.055560827255249023e-01,9.058434963226318359e-01,8.990964889526367188e-01,8.886542916297912598e-01,8.735238313674926758e-01,8.487286567687988281e-01,8.045363426208496094e-01,7.219892144203186035e-01,5.617685317993164062e-01,4.568541049957275391e-01,3.785863220691680908e-01,3.242314755916595459e-01,2.657859027385711670e-01,2.259675562381744385e-01,2.184041738510131836e-01,2.330701053142547607e-01,2.411315739154815674e-01,2.621073424816131592e-01,3.359284996986389160e-01,4.353565573692321777e-01,5.635356307029724121e-01,6.561127901077270508e-01,7.323225736618041992e-01,7.898417711257934570e-01,8.284588456153869629e-01,8.695111274719238281e-01,8.851208686828613281e-01,8.809609413146972656e-01,8.838884830474853516e-01,8.774400353431701660e-01,8.625585436820983887e-01,8.400584459304809570e-01,7.937395572662353516e-01,7.426477074623107910e-01,7.019048333168029785e-01,5.966911315917968750e-01,4.462464451789855957e-01,3.705693483352661133e-01,3.242921829223632812e-01,2.588770389556884766e-01,2.254647910594940186e-01,1.885690689086914062e-01,1.756439208984375000e-01,1.659517884254455566e-01,1.564931571483612061e-01,1.584049761295318604e-01,1.779183447360992432e-01,2.072897851467132568e-01,2.764578163623809814e-01,3.339784145355224609e-01
5.887252688407897949e-01,6.143074035644531250e-01,6.569364666938781738e-01,6.577673554420471191e-01,6.813250780105590820e-01,7.055522203445434570e-01,7.419185042381286621e-01,7.633163332939147949e-01,7.840806841850280762e-01,8.027024865150451660e-01,8.204571008682250977e-01,8.369125723838806152e-01,8.518279790878295898e-01,8.651082515716552734e-01,8.767025470733642578e-01,8.861714005470275879e-01,8.931168913841247559e-01,8.978027105331420898e-01,9.010581970214843750e-01,9.031587839126586914e-01,9.043626785278320312e-01,9.050204753875732422e-01,9.052622318267822266e-01,9.053192138671875000e-01,9.053306579589843750e-01,9.053285121917724609e-01,9.053239822387695312e-01,9.053225517272949219e-01,9.053128361701965332e-01,9.054394960403442383e-01,9.055154323577880859e-01,9.055888652801513672e-01,8.981712460517883301e-01,8.875427246093750000e-01,8.731378316879272461e-01,8.480865955352783203e-01,8.016966581344604492e-01,7.226119637489318848e-01,5.551789402961730957e-01,4.512488842010498047e-01,3.858650922775268555e-01,3.193811476230621338e-01,2.657799720764160156e-01,2.286941409111022949e-01,2.291867434978485107e-01,2.357081472873687744e-01,2.475701868534088135e-01,2.874422371387481689e-01,3.532556891441345215e-01,4.710361957550048828e-01,5.838321447372436523e-01,6.813180446624755859e-01,7.385185956954956055e-01,7.939636111259460449e-01,8.380061388015747070e-01,8.755915760993957520e-01,8.858287930488586426e-01,8.893094658851623535e-01,8.955823183059692383e-01,8.839547038078308105e-01,8.708189725875854492e-01,8.578480482101440430e-01,8.262628316879272461e-01,7.947713732719421387e-01,7.188182473182678223e-01,6.310542821884155273e-01,4.594731330871582031e-01,3.758241534233093262e-01,3.186317086219787598e-01,2.600519359111785889e-01,2.258799672126770020e-01,1.874991059303283691e-01,1.752438545227050781e-01,1.657240986824035645e-01,1.571239233016967773e-01,1.580570638179779053e-01,1.781105995178222656e-01,2.074483633041381836e-01,2.766107916831970215e-01,3.340744376182556152e-01
5.887183547019958496e-01,6.142963171005249023e-01,6.569235920906066895e-01,6.577526926994323730e-01,6.813089251518249512e-01,7.055355906486511230e-01,7.419013381004333496e-01,7.633016705513000488e-01,7.840636968612670898e-01,8.026853203773498535e-01,8.204470276832580566e-01,8.369028568267822266e-01,8.518197536468505859e-01,8.651005029678344727e-01,8.766865134239196777e-01,8.861620426177978516e-01,8.931196928024291992e-01,8.977998495101928711e-01,9.010529518127441406e-01,9.031602144241333008e-01,9.043618440628051758e-01,9.050197005271911621e-01,9.052621126174926758e-01,9.053192138671875000e-01,9.053306579589843750e-01,9.053284525871276855e-01,9.053288698196411133e-01,9.053251147270202637e-01,9.053964614868164062e-01,9.051156044006347656e-01,9.054676890373229980e-01,9.041032791137695312e-01,8.956810235977172852e-01,8.860597610473632812e-01,8.685412406921386719e-01,8.444275259971618652e-01,7.988529205322265625e-01,6.983948349952697754e-01,5.598136782646179199e-01,4.455855190753936768e-01,3.830365836620330811e-01,3.229459524154663086e-01,2.621045410633087158e-01,2.319503128528594971e-01,2.263437211513519287e-01,2.335442006587982178e-01,2.450094819068908691e-01,3.092367053031921387e-01,3.840296566486358643e-01,4.902033209800720215e-01,6.161453723907470703e-01,7.003902196884155273e-01,7.587338685989379883e-01,8.064068555831909180e-01,8.481339216232299805e-01,8.774701356887817383e-01,8.880465030670166016e-01,8.946567177772521973e-01,8.974215984344482422e-01,8.911001086235046387e-01,8.883542418479919434e-01,8.690570592880249023e-01,8.389720916748046875e-01,8.080558776855468750e-01,7.509527802467346191e-01,6.168306469917297363e-01,4.760049581527709961e-01,3.871712386608123779e-01,3.182284235954284668e-01,2.531668841838836670e-01,2.186968326568603516e-01,1.886687874794006348e-01,1.745679378509521484e-01,1.641971468925476074e-01,1.566898822784423828e-01,1.579544842243194580e-01,1.781916618347167969e-01,2.076133191585540771e-01,2.767698168754577637e-01,3.341709971427917480e-01
5.887115001678466797e-01,6.142852306365966797e-01,6.569107770919799805e-01,6.577379107475280762e-01,6.812928915023803711e-01,7.055190801620483398e-01,7.418848276138305664e-01,7.632852792739868164e-01,7.840484380722045898e-01,8.026700019836425781e-01,8.204330205917358398e-01,8.368911743164062500e-01,8.518081307411193848e-01,8.650907278060913086e-01,8.766782879829406738e-01,8.861554861068725586e-01,8.931139707565307617e-01,8.977965116500854492e-01,9.010509252548217773e-01,9.031593799591064453e-01,9.043613672256469727e-01,9.050191640853881836e-01,9.052620530128479004e-01,9.053191542625427246e-01,9.053306579589843750e-01,9.053275585174560547e-01,9.053229093551635742e-01,9.053414463996887207e-01,9.054520130157470703e-01,9.050787687301635742e-01,9.052094221115112305e-01,9.021768569946289062e-01,8.945535421371459961e-01,8.822987079620361328e-01,8.651704788208007812e-01,8.403799533843994141e-01,7.903939485549926758e-01,6.764361858367919922e-01,5.471264719963073730e-01,4.497407972812652588e-01,3.689803481101989746e-01,3.132898211479187012e-01,2.589651346206665039e-01,2.358526289463043213e-01,2.279888391494750977e-01,2.521641850471496582e-01,2.562941908836364746e-01,3.206570744514465332e-01,4.136007428169250488e-01,5.097205638885498047e-01,6.399720907211303711e-01,7.076390385627746582e-01,7.766012549400329590e-01,8.212208747863769531e-01,8.580476045608520508e-01,8.775867819786071777e-01,8.909832239151000977e-01,8.973503112792968750e-01,8.969787359237670898e-01,8.963169455528259277e-01,8.870073556900024414e-01,8.660258054733276367e-01,8.529485464096069336e-01,8.224318623542785645e-01,7.505221366882324219e-01,6.291865706443786621e-01,4.710044562816619873e-01,3.814548254013061523e-01,3.031636476516723633e-01,2.590343058109283447e-01,2.107006013393402100e-01,1.863304972648620605e-01,1.717749536037445068e-01,1.643420755863189697e-01,1.561168134212493896e-01,1.581928133964538574e-01,1.782222092151641846e-01,2.077794373035430908e-01,2.769216001033782959e-01,3.342631459236145020e-01
5.887047052383422852e-01,6.142739057540893555e-01,6.568977832794189453e-01,6.577229499816894531e-01,6.812767386436462402e-01,7.055027484893798828e-01,7.418683767318725586e-01,7.632689476013183594e-01,7.840325236320495605e-01,8.026551008224487305e-01,8.204189538955688477e-01,8.368782997131347656e-01,8.517969846725463867e-01,8.650808334350585938e-01,8.766697645187377930e-01,8.861488103866577148e-01,8.931092023849487305e-01,8.977932929992675781e-01,9.010487198829650879e-01,9.031581282615661621e-01,9.043605923652648926e-01,9.050187468528747559e-01,9.052620530128479004e-01,9.053191542625427246e-01,9.053305983543395996e-01,9.053250551223754883e-01,9.053281545639038086e-01,9.053244590759277344e-01,9.053502082824707031e-01,9.047920703887939453e-01,9.041266441345214844e-01,8.998015522956848145e-01,8.900658488273620605e-01,8.761125802993774414e-01,8.630580902099609375e-01,8.308831453323364258e-01,7.640826702117919922e-01,6.561856269836425781e-01,5.171326994895935059e-01,4.212049543857574463e-01,3.527769446372985840e-01,3.027999997138977051e-01,2.582031488418579102e-01,2.264181673526763916e-01,2.398791909217834473e-01,2.543730735778808594e-01,2.609034776687622070e-01,3.382908701896667480e-01,4.357551336288452148e-01,5.617871880531311035e-01,6.385492086410522461e-01,7.254198193550109863e-01,7.935649156570434570e-01,8.227005004882812500e-01,8.625733852386474609e-01,8.804405927658081055e-01,8.910448551177978516e-01,8.989877104759216309e-01,9.006627798080444336e-01,9.013603925704956055e-01,8.886437416076660156e-01,8.683000802993774414e-01,8.562003374099731445e-01,8.135879039764404297e-01,7.470908761024475098e-01,6.103677153587341309e-01,4.678012430667877197e-01,3.675290942192077637e-01,3.039141893386840820e-01,2.471538484096527100e-01,2.076427042484283447e-01,1.816471815109252930e-01,1.719677150249481201e-01,1.627724468708038330e-01,1.560040116310119629e-01,1.580966114997863770e-01,1.784593164920806885e-01,2.079427540302276611e-01,2.770644426345825195e-01,3.343577384948730469e-01
5.886976122856140137e-01,6.142624616622924805e-01,6.568846702575683594e-01,6.577078700065612793e-01,6.812602877616882324e-01,7.054861187934875488e-01,7.418518662452697754e-01,7.632527351379394531e-01,7.840167284011840820e-01,8.026396036148071289e-01,8.204046487808227539e-01,8.368653059005737305e-01,8.517855405807495117e-01,8.650708198547363281e-01,8.766610622406005859e-01,8.861418962478637695e-01,8.931046724319458008e-01,8.977901935577392578e-01,9.010465145111083984e-01,9.031566381454467773e-01,9.043598771095275879e-01,9.050183892250061035e-01,9.052620530128479004e-01,9.053191542625427246e-01,9.053304195404052734e-01,9.053268432617187500e-01,9.053330421447753906e-01,9.054151773452758789e-01,9.051589965820312500e-01,9.049572944641113281e-01,9.019805192947387695e-01,8.986943364143371582e-01,8.841921091079711914e-01,8.668701648712158203e-01,8.545382022857666016e-01,8.117098808288574219e-01,7.406198382377624512e-01,6.200689673423767090e-01,4.953163266181945801e-01,4.043987393379211426e-01,3.306191563606262207e-01,2.918080687522888184e-01,2.514296770095825195e-01,2.351400256156921387e-01,2.519481778144836426e-01,2.527475953102111816e-01,2.892326414585113525e-01,3.698940873146057129e-01,4.669199287891387939e-01,5.848463773727416992e-01,6.729981899261474609e-01,7.481814026832580566e-01,7.957270741462707520e-01,8.357118368148803711e-01,8.690764904022216797e-01,8.860975503921508789e-01,8.915935754776000977e-01,8.976733684539794922e-01,9.008450508117675781e-01,9.004551768302917480e-01,8.890283107757568359e-01,8.720690011978149414e-01,8.573339581489562988e-01,8.068436384201049805e-01,7.314732074737548828e-01,5.965268015861511230e-01,4.496968090534210205e-01,3.581572771072387695e-01,2.913986146450042725e-01,2.447077929973602295e-01,1.948463618755340576e-01,1.768511235713958740e-01,1.697584390640258789e-01,1.625272333621978760e-01,1.558117866516113281e-01,1.577298641204833984e-01,1.785611510276794434e-01,2.080864906311035156e-01,2.771915793418884277e-01,3.344454765319824219e-01
5.886902213096618652e-01,6.142510175704956055e-01,6.568711996078491211e-01,6.576927900314331055e-01,6.812436580657958984e-01,7.054693102836608887e-01,7.418348193168640137e-01,7.632364034652709961e-01,7.840007543563842773e-01,8.026241064071655273e-01,8.203902244567871094e-01,8.368523120880126953e-01,8.517736792564392090e-01,8.650604486465454102e-01,8.766522407531738281e-01,8.861351013183593750e-01,8.930998444557189941e-01,8.977869749069213867e-01,9.010442495346069336e-01,9.031554460525512695e-01,9.043591022491455078e-01,9.050177931785583496e-01,9.052619934082031250e-01,9.053190946578979492e-01,9.053303003311157227e-01,9.053314924240112305e-01,9.053471088409423828e-01,9.054681658744812012e-01,9.049834012985229492e-01,9.038954973220825195e-01,9.013918638229370117e-01,8.935952782630920410e-01,8.805759549140930176e-01,8.662918210029602051e-01,8.479883670806884766e-01,7.900295257568359375e-01,6.870154142379760742e-01,5.670653581619262695e-01,4.655873775482177734e-01,3.774831295013427734e-01,3.229725956916809082e-01,2.742925584316253662e-01,2.390124797821044922e-01,2.459685802459716797e-01,2.521728873252868652e-01,2.550653517246246338e-01,3.345507383346557617e-01,4.028259217739105225e-01,5.028384923934936523e-01,6.103801727294921875e-01,7.164089083671569824e-01,7.680218219757080078e-01,8.070695400238037109e-01,8.446288108825683594e-01,8.749848604202270508e-01,8.897690773010253906e-01,8.941385149955749512e-01,8.997176885604858398e-01,9.027349352836608887e-01,8.998060822486877441e-01,8.876137733459472656e-01,8.706931471824645996e-01,8.509196043014526367e-01,8.031607866287231445e-01,7.295730113983154297e-01,5.675197839736938477e-01,4.405495226383209229e-01,3.496445417404174805e-01,2.723486423492431641e-01,2.345956265926361084e-01,1.892573535442352295e-01,1.768008768558502197e-01,1.664349436759948730e-01,1.622074842453002930e-01,1.556450724601745605e-01,1.577969193458557129e-01,1.785390973091125488e-01,2.082030177116394043e-01,2.772965133190155029e-01,3.345288634300231934e-01
5.886822342872619629e-01,6.142382621765136719e-01,6.568572521209716797e-01,6.576766967773437500e-01,6.812263727188110352e-01,7.054516673088073730e-01,7.418179512023925781e-01,7.632194757461547852e-01,7.839841842651367188e-01,8.026082515716552734e-01,8.203755617141723633e-01,8.368389606475830078e-01,8.517618179321289062e-01,8.650503158569335938e-01,8.766433000564575195e-01,8.861281275749206543e-01,8.930948972702026367e-01,8.977838754653930664e-01,9.010419249534606934e-01,9.031540155410766602e-01,9.043584465980529785e-01,9.050174951553344727e-01,9.052619934082031250e-01,9.053190946578979492e-01,9.053294062614440918e-01,9.053295850753784180e-01,9.053423404693603516e-01,9.053846597671508789e-01,9.048405289649963379e-01,9.036728739738464355e-01,9.000786542892456055e-01,8.888320922851562500e-01,8.703376054763793945e-01,8.580471277236938477e-01,8.280870914459228516e-01,7.630689144134521484e-01,6.534062623977661133e-01,5.229534506797790527e-01,4.335750341415405273e-01,3.522437214851379395e-01,3.007692098617553711e-01,2.595061361789703369e-01,2.438296973705291748e-01,2.446336448192596436e-01,2.484320104122161865e-01,2.970131635665893555e-01,3.708289563655853271e-01,4.626790881156921387e-01,5.335117578506469727e-01,6.664047837257385254e-01,7.431724667549133301e-01,7.837623953819274902e-01,8.273863792419433594e-01,8.653897643089294434e-01,8.849394321441650391e-01,8.916311264038085938e-01,8.970404863357543945e-01,9.013546705245971680e-01,9.038647413253784180e-01,8.994657993316650391e-01,8.867074251174926758e-01,8.708927035331726074e-01,8.490530848503112793e-01,7.971205711364746094e-01,7.242187261581420898e-01,5.291188359260559082e-01,4.359144568443298340e-01,3.322377502918243408e-01,2.750238776206970215e-01,2.272417247295379639e-01,1.910922229290008545e-01,1.742331683635711670e-01,1.645017266273498535e-01,1.614480912685394287e-01,1.554833054542541504e-01,1.581853628158569336e-01,1.785145103931427002e-01,2.082801759243011475e-01,2.773706614971160889e-01,3.345901370048522949e-01
5.886739492416381836e-01,6.142251491546630859e-01,6.568422913551330566e-01,6.576598882675170898e-01,6.812085509300231934e-01,7.054336071014404297e-01,7.418001890182495117e-01,7.632023096084594727e-01,7.839674949645996094e-01,8.025921583175659180e-01,8.203604221343994141e-01,8.368254899978637695e-01,8.517498970031738281e-01,8.650395274162292480e-01,8.766344785690307617e-01,8.861209750175476074e-01,8.930901885032653809e-01,8.977805972099304199e-01,9.010396003723144531e-01,9.031527042388916016e-01,9.043576717376708984e-01,9.050171375274658203e-01,9.052618741989135742e-01,9.053190350532531738e-01,9.053269624710083008e-01,9.053343534469604492e-01,9.053294658660888672e-01,9.054213166236877441e-01,9.049525856971740723e-01,9.034277796745300293e-01,8.979112505912780762e-01,8.844830989837646484e-01,8.659976124763488770e-01,8.511381745338439941e-01,8.074499368667602539e-01,7.216639518737792969e-01,6.213478446006774902e-01,4.749129712581634521e-01,3.983475565910339355e-01,3.283996582031250000e-01,2.891560196876525879e-01,2.596903443336486816e-01,2.429248988628387451e-01,2.526625990867614746e-01,2.911978363990783691e-01,3.302431404590606689e-01,4.148620367050170898e-01,5.158249139785766602e-01,6.144443750381469727e-01,7.155787348747253418e-01,7.620392441749572754e-01,8.150895237922668457e-01,8.506944179534912109e-01,8.786005973815917969e-01,8.885343074798583984e-01,8.956364393234252930e-01,8.992292881011962891e-01,9.029774665832519531e-01,9.046874046325683594e-01,8.987972736358642578e-01,8.868026733398437500e-01,8.711440563201904297e-01,8.439147472381591797e-01,7.954740524291992188e-01,7.143061161041259766e-01,5.349628329277038574e-01,4.175534546375274658e-01,3.293994367122650146e-01,2.672170698642730713e-01,2.259041368961334229e-01,1.900528073310852051e-01,1.751605868339538574e-01,1.636405289173126221e-01,1.613377630710601807e-01,1.550566256046295166e-01,1.582715809345245361e-01,1.785916090011596680e-01,2.083178162574768066e-01,2.774111032485961914e-01,3.346168696880340576e-01
5.886653065681457520e-01,6.142112612724304199e-01,6.568263769149780273e-01,6.576418876647949219e-01,6.811891794204711914e-01,7.054144144058227539e-01,7.417813539505004883e-01,7.631841897964477539e-01,7.839502096176147461e-01,8.025755882263183594e-01,8.203451633453369141e-01,8.368115425109863281e-01,8.517374992370605469e-01,8.650287985801696777e-01,8.766251802444458008e-01,8.861137628555297852e-01,8.930850625038146973e-01,8.977773785591125488e-01,9.010371565818786621e-01,9.031512737274169922e-01,9.043568372726440430e-01,9.050166606903076172e-01,9.052618741989135742e-01,9.053190350532531738e-01,9.053292274475097656e-01,9.053345322608947754e-01,9.054154157638549805e-01,9.050511121749877930e-01,9.044021368026733398e-01,9.024053812026977539e-01,8.924589157104492188e-01,8.776122331619262695e-01,8.617373108863830566e-01,8.405584692955017090e-01,7.838088274002075195e-01,6.875888705253601074e-01,5.591693520545959473e-01,4.400549530982971191e-01,3.747670054435729980e-01,3.139008581638336182e-01,2.847896218299865723e-01,2.542617917060852051e-01,2.527373433113098145e-01,2.818357944488525391e-01,3.181625008583068848e-01,3.942427337169647217e-01,5.038028955459594727e-01,5.838336944580078125e-01,6.921907663345336914e-01,7.456551194190979004e-01,8.031617403030395508e-01,8.378714323043823242e-01,8.709149360656738281e-01,8.887803554534912109e-01,8.955414891242980957e-01,8.979625701904296875e-01,9.014520049095153809e-01,9.039359688758850098e-01,9.054076671600341797e-01,8.990624547004699707e-01,8.893003463745117188e-01,8.724894523620605469e-01,8.420643210411071777e-01,7.977768182754516602e-01,7.108483314514160156e-01,5.156267285346984863e-01,4.131349921226501465e-01,3.214078545570373535e-01,2.682889103889465332e-01,2.200686037540435791e-01,1.869357228279113770e-01,1.745470762252807617e-01,1.633053123950958252e-01,1.600915193557739258e-01,1.550669670104980469e-01,1.582416892051696777e-01,1.786815822124481201e-01,2.083206474781036377e-01,2.774196565151214600e-01,3.346119225025177002e-01
5.886564850807189941e-01,6.141970753669738770e-01,6.568104028701782227e-01,6.576231718063354492e-01,6.811687350273132324e-01,7.053937911987304688e-01,7.417613267898559570e-01,7.631647586822509766e-01,7.839317321777343750e-01,8.025581836700439453e-01,8.203291893005371094e-01,8.367974758148193359e-01,8.517248630523681641e-01,8.650175333023071289e-01,8.766154646873474121e-01,8.861064910888671875e-01,8.930801153182983398e-01,8.977741003036499023e-01,9.010348320007324219e-01,9.031499028205871582e-01,9.043560028076171875e-01,9.050163626670837402e-01,9.052616357803344727e-01,9.053189754486083984e-01,9.053313136100769043e-01,9.053459167480468750e-01,9.054901599884033203e-01,9.050596356391906738e-01,9.044358730316162109e-01,9.014852046966552734e-01,8.892744779586791992e-01,8.716254234313964844e-01,8.577994108200073242e-01,8.264256715774536133e-01,7.716906070709228516e-01,6.479735374450683594e-01,4.949575364589691162e-01,4.158014953136444092e-01,3.489422202110290527e-01,3.067200779914855957e-01,2.839564085006713867e-01,2.552726268768310547e-01,2.769446372985839844e-01,3.130388557910919189e-01,3.771730661392211914e-01,4.910136163234710693e-01,5.698046684265136719e-01,6.574345827102661133e-01,7.359426021575927734e-01,7.962269783020019531e-01,8.309175968170166016e-01,8.652129173278808594e-01,8.839280605316162109e-01,8.944755792617797852e-01,8.988705873489379883e-01,9.006135463714599609e-01,9.027290344238281250e-01,9.044938087463378906e-01,9.055807590484619141e-01,8.999031186103820801e-01,8.901083469390869141e-01,8.723390102386474609e-01,8.410682082176208496e-01,7.979977130889892578e-01,7.051592469215393066e-01,5.166025161743164062e-01,4.208454489707946777e-01,3.176569342613220215e-01,2.623782753944396973e-01,2.202872037887573242e-01,1.883304119110107422e-01,1.766564548015594482e-01,1.638233065605163574e-01,1.601312756538391113e-01,1.550743877887725830e-01,1.580951511859893799e-01,1.786857247352600098e-01,2.083036005496978760e-01,2.774025201797485352e-01,3.345915675163269043e-01
5.886480212211608887e-01,6.141830682754516602e-01,6.567938923835754395e-01,6.576039195060729980e-01,6.811478137969970703e-01,7.053727507591247559e-01,7.417404651641845703e-01,7.631441950798034668e-01,7.839118242263793945e-01,8.025394678115844727e-01,8.203120231628417969e-01,8.367820978164672852e-01,8.517115116119384766e-01,8.650062680244445801e-01,8.766059875488281250e-01,8.860988020896911621e-01,8.930747509002685547e-01,8.977707624435424805e-01,9.010322093963623047e-01,9.031484127044677734e-01,9.043552279472351074e-01,9.050158858299255371e-01,9.052616357803344727e-01,9.053187966346740723e-01,9.053366184234619141e-01,9.053433537483215332e-01,9.054030179977416992e-01,9.049457907676696777e-01,9.045859575271606445e-01,8.980988264083862305e-01,8.857254981994628906e-01,8.665671348571777344e-01,8.531970977783203125e-01,8.068346381187438965e-01,7.267749905586242676e-01,6.138675212860107422e-01,4.733399748802185059e-01,3.937259018421173096e-01,3.309663534164428711e-01,3.061016499996185303e-01,2.717875540256500244e-01,2.658756375312805176e-01,2.932189702987670898e-01,3.713909685611724854e-01,4.707378447055816650e-01,5.605947375297546387e-01,6.289324760437011719e-01,7.328134179115295410e-01,7.935020923614501953e-01,8.279631137847900391e-01,8.636302351951599121e-01,8.819001913070678711e-01,8.919661045074462891e-01,8.985117673873901367e-01,9.016599655151367188e-01,9.019713401794433594e-01,9.036743640899658203e-01,9.054248929023742676e-01,9.061498641967773438e-01,9.007948040962219238e-01,8.926985263824462891e-01,8.743197917938232422e-01,8.470297455787658691e-01,7.987715005874633789e-01,7.016124129295349121e-01,5.396369099617004395e-01,4.112693667411804199e-01,3.219724893569946289e-01,2.640962898731231689e-01,2.258398234844207764e-01,1.878270506858825684e-01,1.744486391544342041e-01,1.654014587402343750e-01,1.603116393089294434e-01,1.555832624435424805e-01,1.580620408058166504e-01,1.786297261714935303e-01,2.082687020301818848e-01,2.773694097995758057e-01,3.345617055892944336e-01
5.886398553848266602e-01,6.141695380210876465e-01,6.567776799201965332e-01,6.575850844383239746e-01,6.811268329620361328e-01,7.053512930870056152e-01,7.417188286781311035e-01,7.631232738494873047e-01,7.838914394378662109e-01,8.025196790695190430e-01,8.202938437461853027e-01,8.367658853530883789e-01,8.516974449157714844e-01,8.649939894676208496e-01,8.765957355499267578e-01,8.860906958580017090e-01,8.930691480636596680e-01,8.977669477462768555e-01,9.010297060012817383e-01,9.031468629837036133e-01,9.043543338775634766e-01,9.050154089927673340e-01,9.052616357803344727e-01,9.053186178207397461e-01,9.053449034690856934e-01,9.053596258163452148e-01,9.054782390594482422e-01,9.050682783126831055e-01,9.036751985549926758e-01,8.963416814804077148e-01,8.800016641616821289e-01,8.629451990127563477e-01,8.447833061218261719e-01,7.932265996932983398e-01,7.047790288925170898e-01,5.705785751342773438e-01,4.403295814990997314e-01,3.655929565429687500e-01,3.155848383903503418e-01,3.080806136131286621e-01,2.685021758079528809e-01,2.882473170757293701e-01,3.434176445007324219e-01,4.465797543525695801e-01,5.367095470428466797e-01,6.131432056427001953e-01,7.209001779556274414e-01,7.753554582595825195e-01,8.238983154296875000e-01,8.588292002677917480e-01,8.812860846519470215e-01,8.907110095024108887e-01,9.001355767250061035e-01,9.020705223083496094e-01,9.011798501014709473e-01,9.030029773712158203e-01,9.042836427688598633e-01,9.055452346801757812e-01,9.061065912246704102e-01,9.022836685180664062e-01,8.927429914474487305e-01,8.773601055145263672e-01,8.503773212432861328e-01,8.028357028961181641e-01,7.084458470344543457e-01,5.626651644706726074e-01,4.147952198982238770e-01,3.261297941207885742e-01,2.723692655563354492e-01,2.326763868331909180e-01,1.904967427253723145e-01,1.747024655342102051e-01,1.667322218418121338e-01,1.609016954898834229e-01,1.554160416126251221e-01,1.581164002418518066e-01,1.785904765129089355e-01,2.082182466983795166e-01,2.773206233978271484e-01,3.345258235931396484e-01
5.886318683624267578e-01,6.141566038131713867e-01,6.567626595497131348e-01,6.575675010681152344e-01,6.811067461967468262e-01,7.053305506706237793e-01,7.416979074478149414e-01,7.631020545959472656e-01,7.838701605796813965e-01,8.024991750717163086e-01,8.202744126319885254e-01,8.367480635643005371e-01,8.516813516616821289e-01,8.649799823760986328e-01,8.765839934349060059e-01,8.860816955566406250e-01,8.930623531341552734e-01,8.977619409561157227e-01,9.010254144668579102e-01,9.031435251235961914e-01,9.043517112731933594e-01,9.050130844116210938e-01,9.052597284317016602e-01,9.053158760070800781e-01,9.053365588188171387e-01,9.053575992584228516e-01,9.053397178649902344e-01,9.045519828796386719e-01,9.027997255325317383e-01,8.931871056556701660e-01,8.760826587677001953e-01,8.622385263442993164e-01,8.373612761497497559e-01,7.796700000762939453e-01,6.733394861221313477e-01,4.945308566093444824e-01,4.149468541145324707e-01,3.475033044815063477e-01,3.202989101409912109e-01,3.053171634674072266e-01,2.703064680099487305e-01,3.218981027603149414e-01,4.010739028453826904e-01,5.023142099380493164e-01,5.711926817893981934e-01,7.026346921920776367e-01,7.646822929382324219e-01,8.153144121170043945e-01,8.563619852066040039e-01,8.779307603836059570e-01,8.882715702056884766e-01,8.989425301551818848e-01,9.010276794433593750e-01,9.014345407485961914e-01,9.033367633819580078e-01,9.041184186935424805e-01,9.049509167671203613e-01,9.058664441108703613e-01,9.069790840148925781e-01,9.026935100555419922e-01,8.954966068267822266e-01,8.804057836532592773e-01,8.501276969909667969e-01,8.083456754684448242e-01,7.198637723922729492e-01,5.930269360542297363e-01,4.467900693416595459e-01,3.480058610439300537e-01,2.791491150856018066e-01,2.313502132892608643e-01,1.963918805122375488e-01,1.777095198631286621e-01,1.693282425403594971e-01,1.613851487636566162e-01,1.558856964111328125e-01,1.580232083797454834e-01,1.785356402397155762e-01,2.081587612628936768e-01,2.772624492645263672e-01,3.344847857952117920e-01
5.886238813400268555e-01,6.141436696052551270e-01,6.567469239234924316e-01,6.575490832328796387e-01,6.810854077339172363e-01,7.053070068359375000e-01,7.416732907295227051e-01,7.630766630172729492e-01,7.838443517684936523e-01,8.024724721908569336e-01,8.202484846115112305e-01,8.367233276367187500e-01,8.516582250595092773e-01,8.649585247039794922e-01,8.765650987625122070e-01,8.860660195350646973e-01,8.930497169494628906e-01,8.977519273757934570e-01,9.010162353515625000e-01,9.031349420547485352e-01,9.043439626693725586e-01,9.050056934356689453e-01,9.052529335021972656e-01,9.053070545196533203e-01,9.053262472152709961e-01,9.053391218185424805e-01,9.053256511688232422e-01,9.047803878784179688e-01,9.027298688888549805e-01,8.894711136817932129e-01,8.702127933502197266e-01,8.562705516815185547e-01,8.182939887046813965e-01,7.644081115722656250e-01,6.270305514335632324e-01,4.791043102741241455e-01,3.886068463325500488e-01,3.425450325012207031e-01,3.196337223052978516e-01,3.027358055114746094e-01,2.966124415397644043e-01,3.453694283962249756e-01,4.569238424301147461e-01,5.426151752471923828e-01,6.592463254928588867e-01,7.391514182090759277e-01,8.041185736656188965e-01,8.471404910087585449e-01,8.710471391677856445e-01,8.884859085083007812e-01,8.977375030517578125e-01,9.006667137145996094e-01,9.014796018600463867e-01,9.029951095581054688e-01,9.040930271148681641e-01,9.048909544944763184e-01,9.051707983016967773e-01,9.059145450592041016e-01,9.066329002380371094e-01,9.027608633041381836e-01,8.974276781082153320e-01,8.869225978851318359e-01,8.567081689834594727e-01,8.198309540748596191e-01,7.349442243576049805e-01,6.223558783531188965e-01,4.565050601959228516e-01,3.684835135936737061e-01,2.809462547302246094e-01,2.400016784667968750e-01,2.028056085109710693e-01,1.806151270866394043e-01,1.702511608600616455e-01,1.619355976581573486e-01,1.561277806758880615e-01,1.580211222171783447e-01,1.784731447696685791e-01,2.080946266651153564e-01,2.772014439105987549e-01,3.344431221485137939e-01
5.886115431785583496e-01,6.141274571418762207e-01,6.567275524139404297e-01,6.575307846069335938e-01,6.810667514801025391e-01,7.052869796752929688e-01,7.416547536849975586e-01,7.630629539489746094e-01,7.838364243507385254e-01,8.024715185165405273e-01,8.202578425407409668e-01,8.367464542388916016e-01,8.517012000083923340e-01,8.650187849998474121e-01,8.766278028488159180e-01,8.861193656921386719e-01,8.930929303169250488e-01,8.977881669998168945e-01,9.010555148124694824e-01,9.031848907470703125e-01,9.044002890586853027e-01,9.050681591033935547e-01,9.053183794021606445e-01,9.053766727447509766e-01,9.053871631622314453e-01,9.054943919181823730e-01,9.051770567893981934e-01,9.054896831512451172e-01,9.009851217269897461e-01,8.882851600646972656e-01,8.706923723220825195e-01,8.522894382476806641e-01,8.077287673950195312e-01,7.369225025177001953e-01,5.920622944831848145e-01,4.510865807533264160e-01,3.703539967536926270e-01,3.362683653831481934e-01,3.254660367965698242e-01,2.897698283195495605e-01,3.139300346374511719e-01,3.826948404312133789e-01,4.997327029705047607e-01,6.077225804328918457e-01,7.084814906120300293e-01,7.721059322357177734e-01,8.288646936416625977e-01,8.588306903839111328e-01,8.829221129417419434e-01,8.958595991134643555e-01,8.997897505760192871e-01,9.013820886611938477e-01,9.031643271446228027e-01,9.041453599929809570e-01,9.050030708312988281e-01,9.052946567535400391e-01,9.053274393081665039e-01,9.059491157531738281e-01,9.060781002044677734e-01,9.038622379302978516e-01,8.981893062591552734e-01,8.881741762161254883e-01,8.616571426391601562e-01,8.295684456825256348e-01,7.602704763412475586e-01,6.375531554222106934e-01,4.672945439815521240e-01,3.850518465042114258e-01,2.903762459754943848e-01,2.412437498569488525e-01,2.131148576736450195e-01,1.843462884426116943e-01,1.718225181102752686e-01,1.613664925098419189e-01,1.562193036079406738e-01,1.580562889575958252e-01,1.784076094627380371e-01,2.080302536487579346e-01,2.771378159523010254e-01,3.344025015830993652e-01
5.886179208755493164e-01,6.141346693038940430e-01,6.567320823669433594e-01,6.575455665588378906e-01,6.810920238494873047e-01,7.053454518318176270e-01,7.417641878128051758e-01,7.632203102111816406e-01,7.840194702148437500e-01,8.026661872863769531e-01,8.204534053802490234e-01,8.369380235671997070e-01,8.518699407577514648e-01,8.651558160781860352e-01,8.767372369766235352e-01,8.861936926841735840e-01,8.931599259376525879e-01,8.978885412216186523e-01,9.011782407760620117e-01,9.033069610595703125e-01,9.045199155807495117e-01,9.051827788352966309e-01,9.054274559020996094e-01,9.054847359657287598e-01,9.055124521255493164e-01,9.056888818740844727e-01,9.052540063858032227e-01,9.053695201873779297e-01,8.988583683967590332e-01,8.838561177253723145e-01,8.676414489746093750e-01,8.464457392692565918e-01,7.999268770217895508e-01,7.255698442459106445e-01,5.536710023880004883e-01,4.291990101337432861e-01,3.689406812191009521e-01,3.270459771156311035e-01,3.212824761867523193e-01,2.868696153163909912e-01,3.484428226947784424e-01,4.344036281108856201e-01,5.278407931327819824e-01,6.501950621604919434e-01,7.500506639480590820e-01,8.078253269195556641e-01,8.426112532615661621e-01,8.758757710456848145e-01,8.936756849288940430e-01,8.983008861541748047e-01,9.011049866676330566e-01,9.036923646926879883e-01,9.048418998718261719e-01,9.051813483238220215e-01,9.052654504776000977e-01,9.053508639335632324e-01,9.054154157638549805e-01,9.059187173843383789e-01,9.059113264083862305e-01,9.053767919540405273e-01,9.014142751693725586e-01,8.921566605567932129e-01,8.667968511581420898e-01,8.373181223869323730e-01,7.674574851989746094e-01,6.617685556411743164e-01,5.001561045646667480e-01,3.847189247608184814e-01,3.053496479988098145e-01,2.478084564208984375e-01,2.202827334403991699e-01,1.864828467369079590e-01,1.729035377502441406e-01,1.626640558242797852e-01,1.557917296886444092e-01,1.580636799335479736e-01,1.783501505851745605e-01,2.079663574695587158e-01,2.770735025405883789e-01,3.343624174594879150e-01
5.888015031814575195e-01,6.143113970756530762e-01,6.569853425025939941e-01,6.578007936477661133e-01,6.813386678695678711e-01,7.055057287216186523e-01,7.418468594551086426e-01,7.632266879081726074e-01,7.838836312294006348e-01,8.024010658264160156e-01,8.200694322586059570e-01,8.364217281341552734e-01,8.512635231018066406e-01,8.644665479660034180e-01,8.759485483169555664e-01,8.853856325149536133e-01,8.923839330673217773e-01,8.970943689346313477e-01,9.003561139106750488e-01,9.024788141250610352e-01,9.037013053894042969e-01,9.043445587158203125e-01,9.045752882957458496e-01,9.046382308006286621e-01,9.046677350997924805e-01,9.047973752021789551e-01,9.045571088790893555e-01,9.038577079772949219e-01,8.958032131195068359e-01,8.807965517044067383e-01,8.620972633361816406e-01,8.435979485511779785e-01,7.903214693069458008e-01,7.021135091781616211e-01,5.107734203338623047e-01,4.145525097846984863e-01,3.629423379898071289e-01,3.323062956333160400e-01,3.326384425163269043e-01,3.006550371646881104e-01,3.679586350917816162e-01,4.665781259536743164e-01,5.668134093284606934e-01,6.868028640747070312e-01,7.736715078353881836e-01,8.264058828353881836e-01,8.608335256576538086e-01,8.832581639289855957e-01,8.934089541435241699e-01,9.002237319946289062e-01,9.023287296295166016e-01,9.042116403579711914e-01,9.043812751770019531e-01,9.044414758682250977e-01,9.045436978340148926e-01,9.046323895454406738e-01,9.045787453651428223e-01,9.046593904495239258e-01,9.053103923797607422e-01,9.048790931701660156e-01,9.023522138595581055e-01,8.918910026550292969e-01,8.699956536293029785e-01,8.393266201019287109e-01,7.744221687316894531e-01,6.926211118698120117e-01,5.231180191040039062e-01,3.992430269718170166e-01,3.017159104347229004e-01,2.567209303379058838e-01,2.235819995403289795e-01,1.886442601680755615e-01,1.722268164157867432e-01,1.633180975914001465e-01,1.560798883438110352e-01,1.580570936203002930e-01,1.783429682254791260e-01,2.078967988491058350e-01,2.770116925239562988e-01,3.343229889869689941e-01
5.891576409339904785e-01,6.141803860664367676e-01,6.566536426544189453e-01,6.571517586708068848e-01,6.804434657096862793e-01,7.042939662933349609e-01,7.404216527938842773e-01,7.615295648574829102e-01,7.820326089859008789e-01,8.004184961318969727e-01,8.180021047592163086e-01,8.343549370765686035e-01,8.493285179138183594e-01,8.627439737319946289e-01,8.744819164276123047e-01,8.841427564620971680e-01,8.912276029586791992e-01,8.960011005401611328e-01,8.993608951568603516e-01,9.015442132949829102e-01,9.027557373046875000e-01,9.033970832824707031e-01,9.036453962326049805e-01,9.037295579910278320e-01,9.037628173828125000e-01,9.039036035537719727e-01,9.038530588150024414e-01,9.017361402511596680e-01,8.927617669105529785e-01,8.764151334762573242e-01,8.573964834213256836e-01,8.333613872528076172e-01,7.754472494125366211e-01,6.639520525932312012e-01,5.090306997299194336e-01,4.093644618988037109e-01,3.559904694557189941e-01,3.349429070949554443e-01,3.227231502532958984e-01,3.164001703262329102e-01,3.867032527923583984e-01,4.980800151824951172e-01,6.220170259475708008e-01,7.128461599349975586e-01,7.868728637695312500e-01,8.418705463409423828e-01,8.703187704086303711e-01,8.882633447647094727e-01,8.968266248703002930e-01,9.016208648681640625e-01,9.028676748275756836e-01,9.036269783973693848e-01,9.035747647285461426e-01,9.037157297134399414e-01,9.037201404571533203e-01,9.036743640899658203e-01,9.036405086517333984e-01,9.036177396774291992e-01,9.047631025314331055e-01,9.057794809341430664e-01,9.021258950233459473e-01,8.935308456420898438e-01,8.776189088821411133e-01,8.410536050796508789e-01,7.886351346969604492e-01,6.982462406158447266e-01,5.633032321929931641e-01,4.183757007122039795e-01,3.204578459262847900e-01,2.653857469558715820e-01,2.198590338230133057e-01,1.942382156848907471e-01,1.732341647148132324e-01,1.645455360412597656e-01,1.560494303703308105e-01,1.580364406108856201e-01,1.782645881175994873e-01,2.078331410884857178e-01,2.769525647163391113e-01,3.342826366424560547e-01
5.884083509445190430e-01,6.125023365020751953e-01,6.548575162887573242e-01,6.552618741989135742e-01,6.780967116355895996e-01,7.014935016632080078e-01,7.376149296760559082e-01,7.587718963623046875e-01,7.793217897415161133e-01,7.977050542831420898e-01,8.152707815170288086e-01,8.317424058914184570e-01,8.468421697616577148e-01,8.603427410125732422e-01,8.721718788146972656e-01,8.818718194961547852e-01,8.891127109527587891e-01,8.941260576248168945e-01,8.975718617439270020e-01,8.997694849967956543e-01,9.010031223297119141e-01,9.016687273979187012e-01,9.019219279289245605e-01,9.019969701766967773e-01,9.020197391510009766e-01,9.019497632980346680e-01,9.013649225234985352e-01,8.997739553451538086e-01,8.883565664291381836e-01,8.721523284912109375e-01,8.563356995582580566e-01,8.250847458839416504e-01,7.621766328811645508e-01,6.320529580116271973e-01,4.633915126323699951e-01,3.914785981178283691e-01,3.492491245269775391e-01,3.522508144378662109e-01,3.163954019546508789e-01,3.445452451705932617e-01,4.163592457771301270e-01,5.252637267112731934e-01,6.527564525604248047e-01,7.429323196411132812e-01,8.016937971115112305e-01,8.484102487564086914e-01,8.712129592895507812e-01,8.900743126869201660e-01,8.988268375396728516e-01,9.001634120941162109e-01,9.017447233200073242e-01,9.015941619873046875e-01,9.018357992172241211e-01,9.018434286117553711e-01,9.017913341522216797e-01,9.017958045005798340e-01,9.017573595046997070e-01,9.017114639282226562e-01,9.025022983551025391e-01,9.035278558731079102e-01,8.990194797515869141e-01,8.932102918624877930e-01,8.823058009147644043e-01,8.446097373962402344e-01,8.015234470367431641e-01,7.207274436950683594e-01,5.955835580825805664e-01,4.266165196895599365e-01,3.349098265171051025e-01,2.723718285560607910e-01,2.257463037967681885e-01,1.969511210918426514e-01,1.761382520198822021e-01,1.649446785449981689e-01,1.562146246433258057e-01,1.578661501407623291e-01,1.782035529613494873e-01,2.077733576297760010e-01,2.768969833850860596e-01,3.342456221580505371e-01
5.864674448966979980e-01,6.097789406776428223e-01,6.518781781196594238e-01,6.520065665245056152e-01,6.745833158493041992e-01,6.974260807037353516e-01,7.329925894737243652e-01,7.536324858665466309e-01,7.735050916671752930e-01,7.914435863494873047e-01,8.087502717971801758e-01,8.249944448471069336e-01,8.399567604064941406e-01,8.535119891166687012e-01,8.654178380966186523e-01,8.752082586288452148e-01,8.825155496597290039e-01,8.875609636306762695e-01,8.911052346229553223e-01,8.933038711547851562e-01,8.945329785346984863e-01,8.952207565307617188e-01,8.954745531082153320e-01,8.955383300781250000e-01,8.955848217010498047e-01,8.953439593315124512e-01,8.948596715927124023e-01,8.930907845497131348e-01,8.795053958892822266e-01,8.595681190490722656e-01,8.463137149810791016e-01,8.027648925781250000e-01,7.427577376365661621e-01,5.881744623184204102e-01,4.411674737930297852e-01,3.755976259708404541e-01,3.451630771160125732e-01,3.354265093803405762e-01,2.978104650974273682e-01,3.633671402931213379e-01,4.548814892768859863e-01,5.572373867034912109e-01,6.561995148658752441e-01,7.605756521224975586e-01,8.141565918922424316e-01,8.440750837326049805e-01,8.719421625137329102e-01,8.875227570533752441e-01,8.936975002288818359e-01,8.944582343101501465e-01,8.954229354858398438e-01,8.953453898429870605e-01,8.952980041503906250e-01,8.952450156211853027e-01,8.952510356903076172e-01,8.952425718307495117e-01,8.952216506004333496e-01,8.952226042747497559e-01,8.959040641784667969e-01,8.960980176925659180e-01,8.935052156448364258e-01,8.878214955329895020e-01,8.768878579139709473e-01,8.428441286087036133e-01,8.088336586952209473e-01,7.351747155189514160e-01,5.955252647399902344e-01,4.321756660938262939e-01,3.443484902381896973e-01,2.746419012546539307e-01,2.282252907752990723e-01,2.053325772285461426e-01,1.791995763778686523e-01,1.658509671688079834e-01,1.555091738700866699e-01,1.578926146030426025e-01,1.781410574913024902e-01,2.077214717864990234e-01,2.768485248088836670e-01,3.342103362083435059e-01
5.825388431549072266e-01,6.038837432861328125e-01,6.454460620880126953e-01,6.448028087615966797e-01,6.661996841430664062e-01,6.881859302520751953e-01,7.229031324386596680e-01,7.430800199508666992e-01,7.622815370559692383e-01,7.793465256690979004e-01,7.960638403892517090e-01,8.119997978210449219e-01,8.270364999771118164e-01,8.408907651901245117e-01,8.531112670898437500e-01,8.633387088775634766e-01,8.711320161819458008e-01,8.765062093734741211e-01,8.802372217178344727e-01,8.825775384902954102e-01,8.838914632797241211e-01,8.845320343971252441e-01,8.847241401672363281e-01,8.847448825836181641e-01,8.847953081130981445e-01,8.845019936561584473e-01,8.847142457962036133e-01,8.813149929046630859e-01,8.681557774543762207e-01,8.476368188858032227e-01,8.344997167587280273e-01,7.756767868995666504e-01,6.998491287231445312e-01,5.519828200340270996e-01,4.220401644706726074e-01,3.693319857120513916e-01,3.403491675853729248e-01,3.228603601455688477e-01,3.041675090789794922e-01,3.665414154529571533e-01,4.763188362121582031e-01,5.617695450782775879e-01,6.790671348571777344e-01,7.583178281784057617e-01,8.112860918045043945e-01,8.442379236221313477e-01,8.683201074600219727e-01,8.794374465942382812e-01,8.828567266464233398e-01,8.836745023727416992e-01,8.841496706008911133e-01,8.842195868492126465e-01,8.841780424118041992e-01,8.841445446014404297e-01,8.841242790222167969e-01,8.841042518615722656e-01,8.840710520744323730e-01,8.839752674102783203e-01,8.846557736396789551e-01,8.841977119445800781e-01,8.833554983139038086e-01,8.790922760963439941e-01,8.677371740341186523e-01,8.364194631576538086e-01,8.062267303466796875e-01,7.221009135246276855e-01,5.970765352249145508e-01,4.424147009849548340e-01,3.337996006011962891e-01,2.780427336692810059e-01,2.297747135162353516e-01,2.100145518779754639e-01,1.800949573516845703e-01,1.671860516071319580e-01,1.559655070304870605e-01,1.578316688537597656e-01,1.781398952007293701e-01,2.076806426048278809e-01,2.768076658248901367e-01,3.341814577579498291e-01
5.753749608993530273e-01,5.940455198287963867e-01,6.345366835594177246e-01,6.318091154098510742e-01,6.512090563774108887e-01,6.719594597816467285e-01,7.057662606239318848e-01,7.251173853874206543e-01,7.435660362243652344e-01,7.599308490753173828e-01,7.757347226142883301e-01,7.909021377563476562e-01,8.055483102798461914e-01,8.189438581466674805e-01,8.307921886444091797e-01,8.406745195388793945e-01,8.480929136276245117e-01,8.534141778945922852e-01,8.571377992630004883e-01,8.594492673873901367e-01,8.606646060943603516e-01,8.611985445022583008e-01,8.613252639770507812e-01,8.613381385803222656e-01,8.613739609718322754e-01,8.612875342369079590e-01,8.623132705688476562e-01,8.555523157119750977e-01,8.410712480545043945e-01,8.212102055549621582e-01,8.025329113006591797e-01,7.369059920310974121e-01,6.488839983940124512e-01,5.010582804679870605e-01,3.942337036132812500e-01,3.531804084777832031e-01,3.344227671623229980e-01,3.044929504394531250e-01,3.027427792549133301e-01,3.812934756278991699e-01,4.756780266761779785e-01,5.806658267974853516e-01,6.761988997459411621e-01,7.394442558288574219e-01,7.918312549591064453e-01,8.239142298698425293e-01,8.475952744483947754e-01,8.564662933349609375e-01,8.596209287643432617e-01,8.602746725082397461e-01,8.604015111923217773e-01,8.603534698486328125e-01,8.602550029754638672e-01,8.602274656295776367e-01,8.601901531219482422e-01,8.601554036140441895e-01,8.601053953170776367e-01,8.600225448608398438e-01,8.601626157760620117e-01,8.609098792076110840e-01,8.604218959808349609e-01,8.563318848609924316e-01,8.422499895095825195e-01,8.154063224792480469e-01,7.780693769454956055e-01,6.889771223068237305e-01,5.946632623672485352e-01,4.254071116447448730e-01,3.274645805358886719e-01,2.670767605304718018e-01,2.324877083301544189e-01,2.069251835346221924e-01,1.787848472595214844e-01,1.670187711715698242e-01,1.567442417144775391e-01,1.580882668495178223e-01,1.781676709651947021e-01,2.076605260372161865e-01,2.767752408981323242e-01,3.341591358184814453e-01
5.643827319145202637e-01,5.786251425743103027e-01,6.173489093780517578e-01,6.113611459732055664e-01,6.278096437454223633e-01,6.468175649642944336e-01,6.787409782409667969e-01,6.960926651954650879e-01,7.121302485466003418e-01,7.261347174644470215e-01,7.397834062576293945e-01,7.531961202621459961e-01,7.665133476257324219e-01,7.789347171783447266e-01,7.898179292678833008e-01,7.990704774856567383e-01,8.064088821411132812e-01,8.116943240165710449e-01,8.153851032257080078e-01,8.176538348197937012e-01,8.187008500099182129e-01,8.189655542373657227e-01,8.189862370491027832e-01,8.189753293991088867e-01,8.189827203750610352e-01,8.197054862976074219e-01,8.196170330047607422e-01,8.104540109634399414e-01,7.933762073516845703e-01,7.766808271408081055e-01,7.508374452590942383e-01,6.805202364921569824e-01,5.902168154716491699e-01,4.304649829864501953e-01,3.799793124198913574e-01,3.326578140258789062e-01,3.111594915390014648e-01,2.908724546432495117e-01,3.300220668315887451e-01,4.046877026557922363e-01,4.582796394824981689e-01,5.642088651657104492e-01,6.500827670097351074e-01,7.082647085189819336e-01,7.479253411293029785e-01,7.869570255279541016e-01,8.102030754089355469e-01,8.162273168563842773e-01,8.164261579513549805e-01,8.173928856849670410e-01,8.174628019332885742e-01,8.173557519912719727e-01,8.172710537910461426e-01,8.172123432159423828e-01,8.171539306640625000e-01,8.170964121818542480e-01,8.170311450958251953e-01,8.168711066246032715e-01,8.168889284133911133e-01,8.189291954040527344e-01,8.200578689575195312e-01,8.129286766052246094e-01,7.977609634399414062e-01,7.788627147674560547e-01,7.296470403671264648e-01,6.468765735626220703e-01,5.448982715606689453e-01,4.150232374668121338e-01,3.171075880527496338e-01,2.632140815258026123e-01,2.288694679737091064e-01,1.969661116600036621e-01,1.798861622810363770e-01,1.665962934494018555e-01,1.578256487846374512e-01,1.578565239906311035e-01,1.781873703002929688e-01,2.076213955879211426e-01,2.767516970634460449e-01,3.341428637504577637e-01
5.498381257057189941e-01,5.541217327117919922e-01,5.890482068061828613e-01,5.790417790412902832e-01,5.922525525093078613e-01,6.085628867149353027e-01,6.381789445877075195e-01,6.527712345123291016e-01,6.666663885116577148e-01,6.784013509750366211e-01,6.898103356361389160e-01,7.009431719779968262e-01,7.119291424751281738e-01,7.217679619789123535e-01,7.306022047996520996e-01,7.382167577743530273e-01,7.439154982566833496e-01,7.478740215301513672e-01,7.505548000335693359e-01,7.520145177841186523e-01,7.524254322052001953e-01,7.524900436401367188e-01,7.524619102478027344e-01,7.524038553237915039e-01,7.523748874664306641e-01,7.537968158721923828e-01,7.514157295227050781e-01,7.394712567329406738e-01,7.214564085006713867e-01,7.070695161819458008e-01,6.669904589653015137e-01,5.987768173217773438e-01,5.169004201889038086e-01,3.942286670207977295e-01,3.433638513088226318e-01,3.144981265068054199e-01,2.907693386077880859e-01,2.872390151023864746e-01,3.335177302360534668e-01,3.895848393440246582e-01,4.540284872055053711e-01,5.568177103996276855e-01,6.144008040428161621e-01,6.563003659248352051e-01,7.005560994148254395e-01,7.308611273765563965e-01,7.422462701797485352e-01,7.496986985206604004e-01,7.494860887527465820e-01,7.508220076560974121e-01,7.503216266632080078e-01,7.500952482223510742e-01,7.500352859497070312e-01,7.499551773071289062e-01,7.498735189437866211e-01,7.497923374176025391e-01,7.497011423110961914e-01,7.495451569557189941e-01,7.494119405746459961e-01,7.513209581375122070e-01,7.519251108169555664e-01,7.416022419929504395e-01,7.277703881263732910e-01,7.130527496337890625e-01,6.525540351867675781e-01,5.839914083480834961e-01,5.030824542045593262e-01,3.919589221477508545e-01,2.944380044937133789e-01,2.520833611488342285e-01,2.210258841514587402e-01,1.913553476333618164e-01,1.783267855644226074e-01,1.684324443340301514e-01,1.575888991355895996e-01,1.581766009330749512e-01,1.780642867088317871e-01,2.075891792774200439e-01,2.767336964607238770e-01,3.341302275657653809e-01
5.325893163681030273e-01,5.238343477249145508e-01,5.546831488609313965e-01,5.387921333312988281e-01,5.466887354850769043e-01,5.595432519912719727e-01,5.837697386741638184e-01,5.949451327323913574e-01,6.054092049598693848e-01,6.135329008102416992e-01,6.215466260910034180e-01,6.294723749160766602e-01,6.371229887008666992e-01,6.439459323883056641e-01,6.501081585884094238e-01,6.548429131507873535e-01,6.580681204795837402e-01,6.604686379432678223e-01,6.620204448699951172e-01,6.628413796424865723e-01,6.630462408065795898e-01,6.630071997642517090e-01,6.629037857055664062e-01,6.628249287605285645e-01,6.626706123352050781e-01,6.646113395690917969e-01,6.612626910209655762e-01,6.479831337928771973e-01,6.307300329208374023e-01,6.219849586486816406e-01,5.661269426345825195e-01,5.149472355842590332e-01,4.432050287723541260e-01,3.440501689910888672e-01,3.106138706207275391e-01,2.871952056884765625e-01,2.720013558864593506e-01,2.854946255683898926e-01,3.333286941051483154e-01,3.682197630405426025e-01,4.465417563915252686e-01,5.077730417251586914e-01,5.495457053184509277e-01,5.849641561508178711e-01,6.228877902030944824e-01,6.510479450225830078e-01,6.572383642196655273e-01,6.605754494667053223e-01,6.600353121757507324e-01,6.608681678771972656e-01,6.605517268180847168e-01,6.604034900665283203e-01,6.603021621704101562e-01,6.602147817611694336e-01,6.601279973983764648e-01,6.600412726402282715e-01,6.599652171134948730e-01,6.598419547080993652e-01,6.597990989685058594e-01,6.616824865341186523e-01,6.605726480484008789e-01,6.528503298759460449e-01,6.405401229858398438e-01,6.238046288490295410e-01,5.628472566604614258e-01,5.148857235908508301e-01,4.468985795974731445e-01,3.492836952209472656e-01,2.756388187408447266e-01,2.351031303405761719e-01,2.084774971008300781e-01,1.889118850231170654e-01,1.787619292736053467e-01,1.678951382637023926e-01,1.579672992229461670e-01,1.582776904106140137e-01,1.780810952186584473e-01,2.075867354869842529e-01,2.767204046249389648e-01,3.341233134269714355e-01
5.116033554077148438e-01,4.894264340400695801e-01,5.142452716827392578e-01,4.909976124763488770e-01,4.925819337368011475e-01,5.011637806892395020e-01,5.197671651840209961e-01,5.277177691459655762e-01,5.348551273345947266e-01,5.396931767463684082e-01,5.445641279220581055e-01,5.496720075607299805e-01,5.546269416809082031e-01,5.589579343795776367e-01,5.625786185264587402e-01,5.652750134468078613e-01,5.675592422485351562e-01,5.691599845886230469e-01,5.702357888221740723e-01,5.707212686538696289e-01,5.708189606666564941e-01,5.707337856292724609e-01,5.705962181091308594e-01,5.704994201660156250e-01,5.703213810920715332e-01,5.721287727355957031e-01,5.685009360313415527e-01,5.568252205848693848e-01,5.436239838600158691e-01,5.313906669616699219e-01,4.766850471496582031e-01,4.384880065917968750e-01,3.831128478050231934e-01,3.189465999603271484e-01,2.877989411354064941e-01,2.689912617206573486e-01,2.630654573440551758e-01,2.870496809482574463e-01,3.186330795288085938e-01,3.579829931259155273e-01,4.111114442348480225e-01,4.557689428329467773e-01,4.811522066593170166e-01,5.160194039344787598e-01,5.479526519775390625e-01,5.617899298667907715e-01,5.690643191337585449e-01,5.664753317832946777e-01,5.689813494682312012e-01,5.683978796005249023e-01,5.681588649749755859e-01,5.681027173995971680e-01,5.680112242698669434e-01,5.679251551628112793e-01,5.678391456604003906e-01,5.677531957626342773e-01,5.676718950271606445e-01,5.675380825996398926e-01,5.672278404235839844e-01,5.688351392745971680e-01,5.665080547332763672e-01,5.627381801605224609e-01,5.529745817184448242e-01,5.355712771415710449e-01,4.850400090217590332e-01,4.475963711738586426e-01,3.878263533115386963e-01,3.184598982334136963e-01,2.617562413215637207e-01,2.210429608821868896e-01,2.038578689098358154e-01,1.862020492553710938e-01,1.768468618392944336e-01,1.663085222244262695e-01,1.583566367626190186e-01,1.583342850208282471e-01,1.781503856182098389e-01,2.075846791267395020e-01,2.767105698585510254e-01,3.341208398342132568e-01
4.905986487865447998e-01,4.557332694530487061e-01,4.713680744171142578e-01,4.409510791301727295e-01,4.362870454788208008e-01,4.406442344188690186e-01,4.540677070617675781e-01,4.581481814384460449e-01,4.624751508235931396e-01,4.647999405860900879e-01,4.673584997653961182e-01,4.701740145683288574e-01,4.729360938072204590e-01,4.755662083625793457e-01,4.778594970703125000e-01,4.795624613761901855e-01,4.808395802974700928e-01,4.817968904972076416e-01,4.823955595493316650e-01,4.826480448246002197e-01,4.827021062374114990e-01,4.826900064945220947e-01,4.826105833053588867e-01,4.824962913990020752e-01,4.823068976402282715e-01,4.838876724243164062e-01,4.796871542930603027e-01,4.717631340026855469e-01,4.649843871593475342e-01,4.522115886211395264e-01,4.083157181739807129e-01,3.824643790721893311e-01,3.367609083652496338e-01,2.966073155403137207e-01,2.691473364830017090e-01,2.492215931415557861e-01,2.578317523002624512e-01,2.773788869380950928e-01,3.010169267654418945e-01,3.314023613929748535e-01,3.822214007377624512e-01,4.026268124580383301e-01,4.273832738399505615e-01,4.504063129425048828e-01,4.736953377723693848e-01,4.744707942008972168e-01,4.811481237411499023e-01,4.807200133800506592e-01,4.812876880168914795e-01,4.806548953056335449e-01,4.805320799350738525e-01,4.804706871509552002e-01,4.804003238677978516e-01,4.803282618522644043e-01,4.802562892436981201e-01,4.801841378211975098e-01,4.801191389560699463e-01,4.800192713737487793e-01,4.797725379467010498e-01,4.800590872764587402e-01,4.798610806465148926e-01,4.779322147369384766e-01,4.719493985176086426e-01,4.558984637260437012e-01,4.219994544982910156e-01,3.888991475105285645e-01,3.401105105876922607e-01,3.016608059406280518e-01,2.408338487148284912e-01,2.144515514373779297e-01,1.949052810668945312e-01,1.829176545143127441e-01,1.742859184741973877e-01,1.648145914077758789e-01,1.580045223236083984e-01,1.581222712993621826e-01,1.782577335834503174e-01,2.075762152671813965e-01,2.767056226730346680e-01,3.341216444969177246e-01
4.694201052188873291e-01,4.224323332309722900e-01,4.285655617713928223e-01,3.950886726379394531e-01,3.841251730918884277e-01,3.856904208660125732e-01,3.961056172847747803e-01,3.990439772605895996e-01,4.020663499832153320e-01,4.032578170299530029e-01,4.044696688652038574e-01,4.056793451309204102e-01,4.066975116729736328e-01,4.076418280601501465e-01,4.084376394748687744e-01,4.090200960636138916e-01,4.096307158470153809e-01,4.101147651672363281e-01,4.103198051452636719e-01,4.103649258613586426e-01,4.103696942329406738e-01,4.102746844291687012e-01,4.102031886577606201e-01,4.101182222366333008e-01,4.100890159606933594e-01,4.106753468513488770e-01,4.081482887268066406e-01,4.033994376659393311e-01,3.963839113712310791e-01,3.826924562454223633e-01,3.553146719932556152e-01,3.330855965614318848e-01,3.052949309349060059e-01,2.714404463768005371e-01,2.536969780921936035e-01,2.410633563995361328e-01,2.559819519519805908e-01,2.696506977081298828e-01,2.852346301078796387e-01,3.136349618434906006e-01,3.391193747520446777e-01,3.537896275520324707e-01,3.716847002506256104e-01,3.956102728843688965e-01,4.058803617954254150e-01,4.091557264328002930e-01,4.085031747817993164e-01,4.086492359638214111e-01,4.089508950710296631e-01,4.086892604827880859e-01,4.085849523544311523e-01,4.085176587104797363e-01,4.084618687629699707e-01,4.084051251411437988e-01,4.083480834960937500e-01,4.082909524440765381e-01,4.082376956939697266e-01,4.081619977951049805e-01,4.079429805278778076e-01,4.078889787197113037e-01,4.088478088378906250e-01,4.091397523880004883e-01,4.030028879642486572e-01,3.911319077014923096e-01,3.707560896873474121e-01,3.420746624469757080e-01,3.046956062316894531e-01,2.699744701385498047e-01,2.321747839450836182e-01,2.046586275100708008e-01,1.916795074939727783e-01,1.804963648319244385e-01,1.720631122589111328e-01,1.639523208141326904e-01,1.566765904426574707e-01,1.583744287490844727e-01,1.782085597515106201e-01,2.075881361961364746e-01,2.767141461372375488e-01,3.341217637062072754e-01
4.513995647430419922e-01,3.938319683074951172e-01,3.929965794086456299e-01,3.573074340820312500e-01,3.413741290569305420e-01,3.406651616096496582e-01,3.481120467185974121e-01,3.498329818248748779e-01,3.515281081199645996e-01,3.519491553306579590e-01,3.524661064147949219e-01,3.529293537139892578e-01,3.534134924411773682e-01,3.538492321968078613e-01,3.541353046894073486e-01,3.542333245277404785e-01,3.543035387992858887e-01,3.541742265224456787e-01,3.540245890617370605e-01,3.539677858352661133e-01,3.539457321166992188e-01,3.539111614227294922e-01,3.538562655448913574e-01,3.537952303886413574e-01,3.538001179695129395e-01,3.539901375770568848e-01,3.523063063621520996e-01,3.494002223014831543e-01,3.460122942924499512e-01,3.343882262706756592e-01,3.172886967658996582e-01,2.960391640663146973e-01,2.763393521308898926e-01,2.572205066680908203e-01,2.410370707511901855e-01,2.356005907058715820e-01,2.478321194648742676e-01,2.592672109603881836e-01,2.665245831012725830e-01,2.908265888690948486e-01,3.062094449996948242e-01,3.187612593173980713e-01,3.350405693054199219e-01,3.459959924221038818e-01,3.493787050247192383e-01,3.535403609275817871e-01,3.524070978164672852e-01,3.533341884613037109e-01,3.527344465255737305e-01,3.527373969554901123e-01,3.527067899703979492e-01,3.526588678359985352e-01,3.526174128055572510e-01,3.525765538215637207e-01,3.525358140468597412e-01,3.524951338768005371e-01,3.524552583694458008e-01,3.524172604084014893e-01,3.522950708866119385e-01,3.520256280899047852e-01,3.527738153934478760e-01,3.528791069984436035e-01,3.473564982414245605e-01,3.382712006568908691e-01,3.286518752574920654e-01,3.039726316928863525e-01,2.748580276966094971e-01,2.538432180881500244e-01,2.216675579547882080e-01,1.992329359054565430e-01,1.867201030254364014e-01,1.804684400558471680e-01,1.700984835624694824e-01,1.641333997249603271e-01,1.564200520515441895e-01,1.584156453609466553e-01,1.782096624374389648e-01,2.076119184494018555e-01,2.767247259616851807e-01,3.341300189495086670e-01
4.349706172943115234e-01,3.689487278461456299e-01,3.612800538539886475e-01,3.251709938049316406e-01,3.061359524726867676e-01,3.047623634338378906e-01,3.108685612678527832e-01,3.122539520263671875e-01,3.134128153324127197e-01,3.134259581565856934e-01,3.134083747863769531e-01,3.133998513221740723e-01,3.134778738021850586e-01,3.135662376880645752e-01,3.135981261730194092e-01,3.136114478111267090e-01,3.135702610015869141e-01,3.135211169719696045e-01,3.135382533073425293e-01,3.135216534137725830e-01,3.134645223617553711e-01,3.134199976921081543e-01,3.133863210678100586e-01,3.133598566055297852e-01,3.134052753448486328e-01,3.131405711174011230e-01,3.126939237117767334e-01,3.101482689380645752e-01,3.067442178726196289e-01,2.997149229049682617e-01,2.881743907928466797e-01,2.716977000236511230e-01,2.561568617820739746e-01,2.467356324195861816e-01,2.300576269626617432e-01,2.326755225658416748e-01,2.375071048736572266e-01,2.440649569034576416e-01,2.584000825881958008e-01,2.705992460250854492e-01,2.816810905933380127e-01,2.920377850532531738e-01,2.996604442596435547e-01,3.081750869750976562e-01,3.098170161247253418e-01,3.129326701164245605e-01,3.125925958156585693e-01,3.127505183219909668e-01,3.126543164253234863e-01,3.125681281089782715e-01,3.125488758087158203e-01,3.125258088111877441e-01,3.124957084655761719e-01,3.124661445617675781e-01,3.124364018440246582e-01,3.124070167541503906e-01,3.123773932456970215e-01,3.123662471771240234e-01,3.122963011264801025e-01,3.122040033340454102e-01,3.127015233039855957e-01,3.128592073917388916e-01,3.085037469863891602e-01,3.036159574985504150e-01,2.965844869613647461e-01,2.768501639366149902e-01,2.545235455036163330e-01,2.375115454196929932e-01,2.132875025272369385e-01,1.951592266559600830e-01,1.857290267944335938e-01,1.765160262584686279e-01,1.694896519184112549e-01,1.635777950286865234e-01,1.566211879253387451e-01,1.585191190242767334e-01,1.782661676406860352e-01,2.076378464698791504e-01,2.767530083656311035e-01,3.341347575187683105e-01
4.212146103382110596e-01,3.491326272487640381e-01,3.364120125770568848e-01,2.999974191188812256e-01,2.791742682456970215e-01,2.769984006881713867e-01,2.819511294364929199e-01,2.831171154975891113e-01,2.840004563331604004e-01,2.838903665542602539e-01,2.838518619537353516e-01,2.838496565818786621e-01,2.838322818279266357e-01,2.838156223297119141e-01,2.838004231452941895e-01,2.837625443935394287e-01,2.837234139442443848e-01,2.836943864822387695e-01,2.836691737174987793e-01,2.836346924304962158e-01,2.836083173751831055e-01,2.835867404937744141e-01,2.835642397403717041e-01,2.835415899753570557e-01,2.835392951965332031e-01,2.835323214530944824e-01,2.834643721580505371e-01,2.820438742637634277e-01,2.784825861454010010e-01,2.750450372695922852e-01,2.663143277168273926e-01,2.552616298198699951e-01,2.449385225772857666e-01,2.320913970470428467e-01,2.258003056049346924e-01,2.272810339927673340e-01,2.307663559913635254e-01,2.344633936882019043e-01,2.419329583644866943e-01,2.538526952266693115e-01,2.585817575454711914e-01,2.688812315464019775e-01,2.745780348777770996e-01,2.789416611194610596e-01,2.818162739276885986e-01,2.819759249687194824e-01,2.829133868217468262e-01,2.830482721328735352e-01,2.830111980438232422e-01,2.829851210117340088e-01,2.829610705375671387e-01,2.829394340515136719e-01,2.829180955886840820e-01,2.828965187072753906e-01,2.828751206398010254e-01,2.828537225723266602e-01,2.828322052955627441e-01,2.828169465065002441e-01,2.827804088592529297e-01,2.826323807239532471e-01,2.831136584281921387e-01,2.823814153671264648e-01,2.793669700622558594e-01,2.772184014320373535e-01,2.717234492301940918e-01,2.551599740982055664e-01,2.425760030746459961e-01,2.247830331325531006e-01,2.082211077213287354e-01,1.903115808963775635e-01,1.830178797245025635e-01,1.744653880596160889e-01,1.690075993537902832e-01,1.641873419284820557e-01,1.570497155189514160e-01,1.582847535610198975e-01,1.783257126808166504e-01,2.076880335807800293e-01,2.767566442489624023e-01,3.341690301895141602e-01
4.091773629188537598e-01,3.324934244155883789e-01,3.159816563129425049e-01,2.799525260925292969e-01,2.584261894226074219e-01,2.558354139328002930e-01,2.600296139717102051e-01,2.610223293304443359e-01,2.617955505847930908e-01,2.617104053497314453e-01,2.616699934005737305e-01,2.616479396820068359e-01,2.616281509399414062e-01,2.616126835346221924e-01,2.615963220596313477e-01,2.615789771080017090e-01,2.615632712841033936e-01,2.615481615066528320e-01,2.615306675434112549e-01,2.615133523941040039e-01,2.614968419075012207e-01,2.614815235137939453e-01,2.614651918411254883e-01,2.614522874355316162e-01,2.614351212978363037e-01,2.614870071411132812e-01,2.611788511276245117e-01,2.599368691444396973e-01,2.577577233314514160e-01,2.553849518299102783e-01,2.480608820915222168e-01,2.413818538188934326e-01,2.330108880996704102e-01,2.270765900611877441e-01,2.190118730068206787e-01,2.226309180259704590e-01,2.209487557411193848e-01,2.237241268157958984e-01,2.341188490390777588e-01,2.393284440040588379e-01,2.449120581150054932e-01,2.490786612033843994e-01,2.552025318145751953e-01,2.551038861274719238e-01,2.588231563568115234e-01,2.599818110466003418e-01,2.610751390457153320e-01,2.609728574752807617e-01,2.609897851943969727e-01,2.610373198986053467e-01,2.610051035881042480e-01,2.609908580780029297e-01,2.609740495681762695e-01,2.609576582908630371e-01,2.609412372112274170e-01,2.609247565269470215e-01,2.609087228775024414e-01,2.608972191810607910e-01,2.608709931373596191e-01,2.608111500740051270e-01,2.609965205192565918e-01,2.605878114700317383e-01,2.594293951988220215e-01,2.563878297805786133e-01,2.514743804931640625e-01,2.402901053428649902e-01,2.321446239948272705e-01,2.183429896831512451e-01,2.014467716217041016e-01,1.876462101936340332e-01,1.807346642017364502e-01,1.741130053997039795e-01,1.680140793323516846e-01,1.650472879409790039e-01,1.574171483516693115e-01,1.586661934852600098e-01,1.783991456031799316e-01,2.076568007469177246e-01,2.768217325210571289e-01,3.342112302780151367e-01
3.991112112998962402e-01,3.188935518264770508e-01,2.997293770313262939e-01,2.643899917602539062e-01,2.423071265220642090e-01,2.394193410873413086e-01,2.430799007415771484e-01,2.439704537391662598e-01,2.446618080139160156e-01,2.445985674858093262e-01,2.445663213729858398e-01,2.445513904094696045e-01,2.445370256900787354e-01,2.445229887962341309e-01,2.445083558559417725e-01,2.444940805435180664e-01,2.444803714752197266e-01,2.444672286510467529e-01,2.444538474082946777e-01,2.444407045841217041e-01,2.444278597831726074e-01,2.444150447845458984e-01,2.444023787975311279e-01,2.443946301937103271e-01,2.443603575229644775e-01,2.445368766784667969e-01,2.442211210727691650e-01,2.436145246028900146e-01,2.421280741691589355e-01,2.408517599105834961e-01,2.347820997238159180e-01,2.315340638160705566e-01,2.255458235740661621e-01,2.170937061309814453e-01,2.142657637596130371e-01,2.158639132976531982e-01,2.165771126747131348e-01,2.152458429336547852e-01,2.231725752353668213e-01,2.279205620288848877e-01,2.315643429756164551e-01,2.342036366462707520e-01,2.378760576248168945e-01,2.403295338153839111e-01,2.413544356822967529e-01,2.424051761627197266e-01,2.436678409576416016e-01,2.440370321273803711e-01,2.440535128116607666e-01,2.440278828144073486e-01,2.440407276153564453e-01,2.440300285816192627e-01,2.440176010131835938e-01,2.440046966075897217e-01,2.439917325973510742e-01,2.439791560173034668e-01,2.439663112163543701e-01,2.439559698104858398e-01,2.439363002777099609e-01,2.438736259937286377e-01,2.440673410892486572e-01,2.436752617359161377e-01,2.433277070522308350e-01,2.414212524890899658e-01,2.372636198997497559e-01,2.290050685405731201e-01,2.220340371131896973e-01,2.109556794166564941e-01,1.976815760135650635e-01,1.860330998897552490e-01,1.793732941150665283e-01,1.733967363834381104e-01,1.685687899589538574e-01,1.653637588024139404e-01,1.576387584209442139e-01,1.590275764465332031e-01,1.785116195678710938e-01,2.079050540924072266e-01,2.768893837928771973e-01,3.342401385307312012e-01
3.908098340034484863e-01,3.077797293663024902e-01,2.866291105747222900e-01,2.519693374633789062e-01,2.295338213443756104e-01,2.264066338539123535e-01,2.296727001667022705e-01,2.304628193378448486e-01,2.310844957828521729e-01,2.310298383235931396e-01,2.310028374195098877e-01,2.309922873973846436e-01,2.309820055961608887e-01,2.309716939926147461e-01,2.309612631797790527e-01,2.309512495994567871e-01,2.309408187866210938e-01,2.309305071830749512e-01,2.309201359748840332e-01,2.309096455574035645e-01,2.308993935585021973e-01,2.308890819549560547e-01,2.308786809444427490e-01,2.308644354343414307e-01,2.308395802974700928e-01,2.309175729751586914e-01,2.307597994804382324e-01,2.303320765495300293e-01,2.297171652317047119e-01,2.284291684627532959e-01,2.244036197662353516e-01,2.210101187229156494e-01,2.187658250331878662e-01,2.114734649658203125e-01,2.095397114753723145e-01,2.089660763740539551e-01,2.095987796783447266e-01,2.108491063117980957e-01,2.134409844875335693e-01,2.188889086246490479e-01,2.213276028633117676e-01,2.234244942665100098e-01,2.246855795383453369e-01,2.272781729698181152e-01,2.280470430850982666e-01,2.293187975883483887e-01,2.297524511814117432e-01,2.304489314556121826e-01,2.305625677108764648e-01,2.305887341499328613e-01,2.305836379528045654e-01,2.305789291858673096e-01,2.305690348148345947e-01,2.305592596530914307e-01,2.305488884449005127e-01,2.305386066436767578e-01,2.305285036563873291e-01,2.305183112621307373e-01,2.305063307285308838e-01,2.304573655128479004e-01,2.304677367210388184e-01,2.303166985511779785e-01,2.303163409233093262e-01,2.290390133857727051e-01,2.257222831249237061e-01,2.202123105525970459e-01,2.140423059463500977e-01,2.046312093734741211e-01,1.959121525287628174e-01,1.845190823078155518e-01,1.785827875137329102e-01,1.723488867282867432e-01,1.680995821952819824e-01,1.647125184535980225e-01,1.582602560520172119e-01,1.593570411205291748e-01,1.788534522056579590e-01,2.079443335533142090e-01,2.770123183727264404e-01,3.342565298080444336e-01
3.838109076023101807e-01,2.985786199569702148e-01,2.758304476737976074e-01,2.418461441993713379e-01,2.191911339759826660e-01,2.158584594726562500e-01,2.188141345977783203e-01,2.195157110691070557e-01,2.200818955898284912e-01,2.200343012809753418e-01,2.200112938880920410e-01,2.200029790401458740e-01,2.199944257736206055e-01,2.199859321117401123e-01,2.199774980545043945e-01,2.199689745903015137e-01,2.199605703353881836e-01,2.199520170688629150e-01,2.199435234069824219e-01,2.199351787567138672e-01,2.199268043041229248e-01,2.199181020259857178e-01,2.199098765850067139e-01,2.199011743068695068e-01,2.198763489723205566e-01,2.199231982231140137e-01,2.197228968143463135e-01,2.197005450725555420e-01,2.196970582008361816e-01,2.182903289794921875e-01,2.159096598625183105e-01,2.139206826686859131e-01,2.109007537364959717e-01,2.086260020732879639e-01,2.040814161300659180e-01,2.034614086151123047e-01,2.045480012893676758e-01,2.056463956832885742e-01,2.069463133811950684e-01,2.095189392566680908e-01,2.129232883453369141e-01,2.142179608345031738e-01,2.154959440231323242e-01,2.169645130634307861e-01,2.177388966083526611e-01,2.185128629207611084e-01,2.189702689647674561e-01,2.193503081798553467e-01,2.196252346038818359e-01,2.196570634841918945e-01,2.196758389472961426e-01,2.196655273437500000e-01,2.196566760540008545e-01,2.196478247642517090e-01,2.196394801139831543e-01,2.196311056613922119e-01,2.196224927902221680e-01,2.196141481399536133e-01,2.196043431758880615e-01,2.195684611797332764e-01,2.195497453212738037e-01,2.196952402591705322e-01,2.195849120616912842e-01,2.186940014362335205e-01,2.171395421028137207e-01,2.134113311767578125e-01,2.063933014869689941e-01,1.999286413192749023e-01,1.927771270275115967e-01,1.838103234767913818e-01,1.770516335964202881e-01,1.726738214492797852e-01,1.688242852687835693e-01,1.644301116466522217e-01,1.582372784614562988e-01,1.598289310932159424e-01,1.791670024394989014e-01,2.082304954528808594e-01,2.770465612411499023e-01,3.343186974525451660e-01
3.778376281261444092e-01,2.908445596694946289e-01,2.668077349662780762e-01,2.334594428539276123e-01,2.106591165065765381e-01,2.071495354175567627e-01,2.098532617092132568e-01,2.104769647121429443e-01,2.109945714473724365e-01,2.109525203704833984e-01,2.109324932098388672e-01,2.109254896640777588e-01,2.109185755252838135e-01,2.109114825725555420e-01,2.109043300151824951e-01,2.108971178531646729e-01,2.108902931213378906e-01,2.108832001686096191e-01,2.108760774135589600e-01,2.108690142631530762e-01,2.108621001243591309e-01,2.108548879623413086e-01,2.108479142189025879e-01,2.108404338359832764e-01,2.108228206634521484e-01,2.108122408390045166e-01,2.108472287654876709e-01,2.108120918273925781e-01,2.106812596321105957e-01,2.101934552192687988e-01,2.091101408004760742e-01,2.067929804325103760e-01,2.051067352294921875e-01,2.033076286315917969e-01,2.001829147338867188e-01,1.993073523044586182e-01,1.996797323226928711e-01,2.013665437698364258e-01,2.011121213436126709e-01,2.031406164169311523e-01,2.050019204616546631e-01,2.070049643516540527e-01,2.074608206748962402e-01,2.086652815341949463e-01,2.093318104743957520e-01,2.096551954746246338e-01,2.099718451499938965e-01,2.102433443069458008e-01,2.105633020401000977e-01,2.106643021106719971e-01,2.106504142284393311e-01,2.106448411941528320e-01,2.106373906135559082e-01,2.106296718120574951e-01,2.106225490570068359e-01,2.106156051158905029e-01,2.106086015701293945e-01,2.106017768383026123e-01,2.105953097343444824e-01,2.105732262134552002e-01,2.105109989643096924e-01,2.106307744979858398e-01,2.104718089103698730e-01,2.096749842166900635e-01,2.084328830242156982e-01,2.061372101306915283e-01,2.005151212215423584e-01,1.957496106624603271e-01,1.918085217475891113e-01,1.830086410045623779e-01,1.767638623714447021e-01,1.711102128028869629e-01,1.684185564517974854e-01,1.643263995647430420e-01,1.589906513690948486e-01,1.602661907672882080e-01,1.796219944953918457e-01,2.083520889282226562e-01,2.771371901035308838e-01,3.343402147293090820e-01
