3.447638154029846191e-01,2.521930634975433350e-01,2.301859855651855469e-01,2.032854557037353516e-01,1.823517680168151855e-01,1.791856884956359863e-01,1.833912730216979980e-01,1.858599781990051270e-01,1.890139281749725342e-01,1.919249594211578369e-01,1.949504315853118896e-01,1.980582177639007568e-01,2.012128829956054688e-01,2.042969763278961182e-01,2.072160243988037109e-01,2.098618149757385254e-01,2.119774520397186279e-01,2.135420441627502441e-01,2.146861255168914795e-01,2.155405282974243164e-01,2.161267995834350586e-01,2.164413034915924072e-01,2.165643870830535889e-01,2.166056036949157715e-01,2.166161835193634033e-01,2.166161835193634033e-01,2.166161835193634033e-01,2.166161835193634033e-01,2.166161835193634033e-01,2.166161835193634033e-01,2.166161835193634033e-01,2.166161835193634033e-01,2.166161835193634033e-01,2.166161835193634033e-01,2.166161835193634033e-01,2.166161835193634033e-01,2.166161835193634033e-01,2.166161835193634033e-01,2.166161835193634033e-01,2.166161835193634033e-01,2.166161835193634033e-01,2.166161835193634033e-01,2.166767120361328125e-01,2.165896296501159668e-01,2.157604694366455078e-01,2.141173779964447021e-01,2.119316458702087402e-01,2.085331082344055176e-01,2.041411399841308594e-01,1.990242600440979004e-01,1.931810677051544189e-01,1.818658113479614258e-01,1.775377392768859863e-01,1.720032393932342529e-01,1.697871983051300049e-01,1.687450110912322998e-01,1.674857437610626221e-01,1.694486141204833984e-01,1.727389991283416748e-01,1.775180697441101074e-01,1.830117106437683105e-01,1.919793188571929932e-01,1.979800760746002197e-01,2.032245695590972900e-01,2.063611447811126709e-01,2.103090584278106689e-01,2.130782902240753174e-01,2.141619920730590820e-01,2.134811878204345703e-01,2.122930586338043213e-01,2.101709544658660889e-01,2.076612710952758789e-01,2.052883505821228027e-01,2.018213868141174316e-01,1.938483417034149170e-01,1.963503062725067139e-01,2.193923592567443848e-01,2.475112378597259521e-01,3.176380097866058350e-01,3.671244978904724121e-01
3.447627425193786621e-01,2.521919012069702148e-01,2.301842272281646729e-01,2.032839357852935791e-01,1.823499798774719238e-01,1.791837215423583984e-01,1.833890676498413086e-01,1.858575642108917236e-01,1.890112459659576416e-01,1.919220387935638428e-01,1.949472725391387939e-01,1.980551481246948242e-01,2.012094259262084961e-01,2.042941749095916748e-01,2.072133123874664307e-01,2.098593413829803467e-01,2.119753956794738770e-01,2.135404944419860840e-01,2.146849334239959717e-01,2.155398428440093994e-01,2.161263823509216309e-01,2.164412140846252441e-01,2.165643572807312012e-01,2.166055738925933838e-01,2.166161835193634033e-01,2.166161835193634033e-01,2.166161835193634033e-01,2.166161835193634033e-01,2.166161835193634033e-01,2.166161835193634033e-01,2.166161835193634033e-01,2.166161835193634033e-01,2.166161835193634033e-01,2.166161835193634033e-01,2.166161835193634033e-01,2.166161835193634033e-01,2.166161835193634033e-01,2.166161835193634033e-01,2.166161835193634033e-01,2.166161835193634033e-01,2.166161835193634033e-01,2.166161835193634033e-01,2.166692912578582764e-01,2.168091237545013428e-01,2.160585522651672363e-01,2.143232524394989014e-01,2.121255099773406982e-01,2.089777290821075439e-01,2.047157883644104004e-01,1.992297172546386719e-01,1.921493113040924072e-01,1.821935772895812988e-01,1.767639815807342529e-01,1.718814969062805176e-01,1.696945130825042725e-01,1.686866581439971924e-01,1.676232516765594482e-01,1.691272258758544922e-01,1.727704703807830811e-01,1.771798431873321533e-01,1.829378306865692139e-01,1.916440427303314209e-01,1.981765925884246826e-01,2.034970223903656006e-01,2.066251039505004883e-01,2.102771699428558350e-01,2.130306363105773926e-01,2.141156494617462158e-01,2.134951651096343994e-01,2.122943103313446045e-01,2.101727426052093506e-01,2.076632976531982422e-01,2.052905559539794922e-01,2.018236219882965088e-01,1.938504278659820557e-01,1.963524818420410156e-01,2.193945646286010742e-01,2.475135028362274170e-01,3.176401257514953613e-01,3.671261966228485107e-01
3.447617292404174805e-01,2.521905303001403809e-01,2.301825582981109619e-01,2.032820284366607666e-01,1.823482215404510498e-01,1.791819036006927490e-01,1.833868920803070068e-01,1.858551800251007080e-01,1.890085637569427490e-01,1.919192671775817871e-01,1.949445307254791260e-01,1.980520188808441162e-01,2.012063860893249512e-01,2.042909264564514160e-01,2.072103023529052734e-01,2.098568081855773926e-01,2.119736075401306152e-01,2.135391235351562500e-01,2.146839201450347900e-01,2.155388891696929932e-01,2.161258757114410400e-01,2.164409756660461426e-01,2.165642380714416504e-01,2.166055142879486084e-01,2.166161835193634033e-01,2.166161835193634033e-01,2.166161835193634033e-01,2.166161835193634033e-01,2.166161835193634033e-01,2.166161835193634033e-01,2.166161835193634033e-01,2.166161835193634033e-01,2.166161835193634033e-01,2.166161835193634033e-01,2.166161835193634033e-01,2.166161835193634033e-01,2.166161835193634033e-01,2.166161835193634033e-01,2.166161835193634033e-01,2.166161835193634033e-01,2.166161835193634033e-01,2.166161835193634033e-01,2.166249454021453857e-01,2.168480157852172852e-01,2.159796953201293945e-01,2.140471339225769043e-01,2.118557989597320557e-01,2.091504633426666260e-01,2.040299177169799805e-01,1.993995308876037598e-01,1.928427219390869141e-01,1.825659573078155518e-01,1.765653491020202637e-01,1.714673638343811035e-01,1.702724397182464600e-01,1.682320535182952881e-01,1.677109301090240479e-01,1.688624918460845947e-01,1.723252236843109131e-01,1.772730648517608643e-01,1.831840872764587402e-01,1.917101740837097168e-01,1.981871128082275391e-01,2.032371461391448975e-01,2.065262496471405029e-01,2.102891802787780762e-01,2.130708396434783936e-01,2.141050994396209717e-01,2.134830355644226074e-01,2.122954726219177246e-01,2.101744711399078369e-01,2.076652050018310547e-01,2.052926719188690186e-01,2.018256485462188721e-01,1.938525140285491943e-01,1.963547170162200928e-01,2.193969786167144775e-01,2.475159168243408203e-01,3.176422417163848877e-01,3.671277165412902832e-01
3.447606861591339111e-01,2.521890401840209961e-01,2.301808893680572510e-01,2.032805681228637695e-01,1.823463141918182373e-01,1.791798770427703857e-01,1.833845674991607666e-01,1.858526468276977539e-01,1.890059113502502441e-01,1.919163167476654053e-01,1.949415206909179688e-01,1.980491280555725098e-01,2.012034058570861816e-01,2.042880356311798096e-01,2.072074711322784424e-01,2.098542153835296631e-01,2.119717895984649658e-01,2.135377526283264160e-01,2.146829664707183838e-01,2.155381143093109131e-01,2.161254286766052246e-01,2.164407372474670410e-01,2.165641486644744873e-01,2.166055142879486084e-01,2.166161835193634033e-01,2.166161835193634033e-01,2.166161835193634033e-01,2.166161835193634033e-01,2.166161835193634033e-01,2.166161835193634033e-01,2.166161835193634033e-01,2.166161835193634033e-01,2.166161835193634033e-01,2.166161835193634033e-01,2.166161835193634033e-01,2.166161835193634033e-01,2.166161835193634033e-01,2.166161835193634033e-01,2.166161835193634033e-01,2.166161835193634033e-01,2.166161835193634033e-01,2.166161835193634033e-01,2.166183590888977051e-01,2.168262600898742676e-01,2.161308526992797852e-01,2.142406105995178223e-01,2.120309770107269287e-01,2.091069221496582031e-01,2.045508921146392822e-01,1.987508535385131836e-01,1.930246949195861816e-01,1.826964616775512695e-01,1.766947209835052490e-01,1.715669929981231689e-01,1.704242825508117676e-01,1.687023639678955078e-01,1.673510670661926270e-01,1.691913306713104248e-01,1.722914278507232666e-01,1.773208081722259521e-01,1.831056475639343262e-01,1.915554702281951904e-01,1.981975138187408447e-01,2.033945918083190918e-01,2.067125737667083740e-01,2.102877795696258545e-01,2.131712436676025391e-01,2.141434252262115479e-01,2.135149538516998291e-01,2.122965455055236816e-01,2.101761102676391602e-01,2.076671421527862549e-01,2.052948772907257080e-01,2.018277645111083984e-01,1.938545405864715576e-01,1.963568329811096191e-01,2.193992733955383301e-01,2.475181519985198975e-01,3.176443576812744141e-01,3.671292960643768311e-01
3.447597622871398926e-01,2.521880269050598145e-01,2.301792204380035400e-01,2.032787501811981201e-01,1.823445856571197510e-01,1.791780292987823486e-01,1.833824515342712402e-01,1.858502626419067383e-01,1.890034377574920654e-01,1.919136941432952881e-01,1.949386298656463623e-01,1.980460584163665771e-01,2.012004554271697998e-01,2.042849659919738770e-01,2.072047293186187744e-01,2.098519504070281982e-01,2.119699716567993164e-01,2.135364115238189697e-01,2.146819233894348145e-01,2.155372798442840576e-01,2.161248922348022461e-01,2.164404690265655518e-01,2.165640890598297119e-01,2.166054844856262207e-01,2.166161835193634033e-01,2.166161835193634033e-01,2.166161835193634033e-01,2.166161835193634033e-01,2.166161835193634033e-01,2.166161835193634033e-01,2.166161835193634033e-01,2.166161835193634033e-01,2.166161835193634033e-01,2.166161835193634033e-01,2.166161835193634033e-01,2.166161835193634033e-01,2.166161835193634033e-01,2.166161835193634033e-01,2.166161835193634033e-01,2.166161835193634033e-01,2.166161835193634033e-01,2.166161835193634033e-01,2.166208624839782715e-01,2.168560624122619629e-01,2.160893976688385010e-01,2.141301929950714111e-01,2.123071849346160889e-01,2.094080448150634766e-01,2.041430473327636719e-01,1.992668211460113525e-01,1.928066909313201904e-01,1.820210218429565430e-01,1.767160296440124512e-01,1.713185906410217285e-01,1.695961356163024902e-01,1.682772636413574219e-01,1.671564877033233643e-01,1.688090264797210693e-01,1.726027727127075195e-01,1.762305200099945068e-01,1.825303137302398682e-01,1.916019320487976074e-01,1.979359388351440430e-01,2.029957473278045654e-01,2.062078416347503662e-01,2.101111412048339844e-01,2.131127417087554932e-01,2.140454947948455811e-01,2.134785652160644531e-01,2.122976183891296387e-01,2.101777195930480957e-01,2.076690196990966797e-01,2.052968442440032959e-01,2.018297612667083740e-01,1.938567161560058594e-01,1.963589489459991455e-01,2.194015681743621826e-01,2.475204169750213623e-01,3.176465034484863281e-01,3.671308457851409912e-01
3.447590470314025879e-01,2.521868348121643066e-01,2.301777601242065430e-01,2.032773494720458984e-01,1.823429465293884277e-01,1.791761517524719238e-01,1.833804845809936523e-01,1.858480870723724365e-01,1.890009045600891113e-01,1.919109523296356201e-01,1.949357688426971436e-01,1.980433762073516846e-01,2.011974453926086426e-01,2.042822241783142090e-01,2.072020471096038818e-01,2.098494172096252441e-01,2.119683325290679932e-01,2.135351300239562988e-01,2.146810293197631836e-01,2.155367136001586914e-01,2.161243855953216553e-01,2.164403200149536133e-01,2.165640294551849365e-01,2.166054546833038330e-01,2.166161835193634033e-01,2.166161835193634033e-01,2.166161835193634033e-01,2.166161835193634033e-01,2.166161835193634033e-01,2.166161835193634033e-01,2.166161835193634033e-01,2.166161835193634033e-01,2.166161835193634033e-01,2.166161835193634033e-01,2.166161835193634033e-01,2.166161835193634033e-01,2.166161835193634033e-01,2.166161835193634033e-01,2.166161835193634033e-01,2.166161835193634033e-01,2.166161835193634033e-01,2.166161835193634033e-01,2.166183888912200928e-01,2.168001830577850342e-01,2.161394357681274414e-01,2.144975662231445312e-01,2.124020457267761230e-01,2.096191942691802979e-01,2.046045958995819092e-01,1.990851759910583496e-01,1.923608183860778809e-01,1.818059384822845459e-01,1.769382655620574951e-01,1.724128723144531250e-01,1.699611544609069824e-01,1.675952374935150146e-01,1.687208116054534912e-01,1.689623594284057617e-01,1.721872985363006592e-01,1.756229400634765625e-01,1.834864914417266846e-01,1.917087435722351074e-01,1.984888315200805664e-01,2.026004195213317871e-01,2.067567408084869385e-01,2.103430628776550293e-01,2.131392955780029297e-01,2.139897942543029785e-01,2.135341167449951172e-01,2.122989892959594727e-01,2.101793289184570312e-01,2.076709270477294922e-01,2.052990794181823730e-01,2.018317878246307373e-01,1.938587725162506104e-01,1.963612139225006104e-01,2.194038629531860352e-01,2.475226819515228271e-01,3.176486492156982422e-01,3.671323657035827637e-01
3.447583317756652832e-01,2.521858811378479004e-01,2.301762104034423828e-01,2.032760679721832275e-01,1.823415160179138184e-01,1.791744530200958252e-01,1.833786070346832275e-01,1.858459115028381348e-01,1.889985799789428711e-01,1.919085383415222168e-01,1.949330568313598633e-01,1.980405449867248535e-01,2.011945843696594238e-01,2.042794525623321533e-01,2.071993649005889893e-01,2.098469138145446777e-01,2.119663059711456299e-01,2.135339081287384033e-01,2.146800160408020020e-01,2.155360281467437744e-01,2.161239087581634521e-01,2.164401113986968994e-01,2.165639400482177734e-01,2.166053652763366699e-01,2.166161835193634033e-01,2.166161835193634033e-01,2.166161835193634033e-01,2.166161835193634033e-01,2.166161835193634033e-01,2.166161835193634033e-01,2.166161835193634033e-01,2.166161835193634033e-01,2.166161835193634033e-01,2.166161835193634033e-01,2.166161835193634033e-01,2.166161835193634033e-01,2.166161835193634033e-01,2.166161835193634033e-01,2.166161835193634033e-01,2.166161835193634033e-01,2.166161835193634033e-01,2.166161835193634033e-01,2.166161835193634033e-01,2.168122529983520508e-01,2.162592113018035889e-01,2.146764695644378662e-01,2.126727700233459473e-01,2.098191082477569580e-01,2.053906917572021484e-01,1.999276876449584961e-01,1.928267180919647217e-01,1.833162009716033936e-01,1.781438589096069336e-01,1.723128259181976318e-01,1.688706278800964355e-01,1.696294248104095459e-01,1.690704822540283203e-01,1.693533360958099365e-01,1.725114881992340088e-01,1.766603887081146240e-01,1.845125854015350342e-01,1.909199953079223633e-01,1.976694464683532715e-01,2.032424807548522949e-01,2.064630389213562012e-01,2.100384533405303955e-01,2.131192386150360107e-01,2.141158282756805420e-01,2.135012745857238770e-01,2.123001515865325928e-01,2.101807892322540283e-01,2.076730728149414062e-01,2.053011357784271240e-01,2.018342316150665283e-01,1.938607096672058105e-01,1.963634788990020752e-01,2.194061577320098877e-01,2.475248277187347412e-01,3.176507949829101562e-01,3.671340644359588623e-01
3.447574675083160400e-01,2.521849274635314941e-01,2.301751375198364258e-01,2.032748758792877197e-01,1.823399662971496582e-01,1.791730821132659912e-01,1.833769977092742920e-01,1.858439743518829346e-01,1.889963150024414062e-01,1.919059455394744873e-01,1.949304640293121338e-01,1.980375647544860840e-01,2.011915445327758789e-01,2.042767107486724854e-01,2.071967720985412598e-01,2.098448574542999268e-01,2.119646966457366943e-01,2.135325074195861816e-01,2.146791517734527588e-01,2.155352830886840820e-01,2.161235809326171875e-01,2.164399027824401855e-01,2.165639102458953857e-01,2.166053652763366699e-01,2.166161835193634033e-01,2.166161835193634033e-01,2.166161835193634033e-01,2.166161835193634033e-01,2.166161835193634033e-01,2.166161835193634033e-01,2.166161835193634033e-01,2.166161835193634033e-01,2.166161835193634033e-01,2.166161835193634033e-01,2.166161835193634033e-01,2.166161835193634033e-01,2.166161835193634033e-01,2.166161835193634033e-01,2.166161835193634033e-01,2.166161835193634033e-01,2.166161835193634033e-01,2.166161835193634033e-01,2.166161835193634033e-01,2.168064117431640625e-01,2.162935435771942139e-01,2.148527503013610840e-01,2.126606106758117676e-01,2.105141282081604004e-01,2.062889039516448975e-01,1.998629868030548096e-01,1.943908929824829102e-01,1.856968700885772705e-01,1.797671914100646973e-01,1.733097434043884277e-01,1.715813279151916504e-01,1.708122789859771729e-01,1.709351539611816406e-01,1.700163483619689941e-01,1.732694208621978760e-01,1.779609322547912598e-01,1.829508244991302490e-01,1.936758756637573242e-01,1.980381309986114502e-01,2.038943767547607422e-01,2.067986726760864258e-01,2.103487253189086914e-01,2.131225764751434326e-01,2.140296101570129395e-01,2.135680019855499268e-01,2.123012542724609375e-01,2.101825475692749023e-01,2.076748907566070557e-01,2.053032517433166504e-01,2.018361091613769531e-01,1.938627958297729492e-01,1.963655650615692139e-01,2.194084823131561279e-01,2.475270330905914307e-01,3.176528811454772949e-01,3.671355843544006348e-01
3.447569012641906738e-01,2.521840929985046387e-01,2.301740646362304688e-01,2.032737433910369873e-01,1.823388040065765381e-01,1.791715919971466064e-01,1.833753287792205811e-01,1.858423650264739990e-01,1.889944374561309814e-01,1.919039785861968994e-01,1.949281990528106689e-01,1.980350315570831299e-01,2.011888921260833740e-01,2.042740583419799805e-01,2.071942389011383057e-01,2.098425626754760742e-01,2.119630277156829834e-01,2.135312259197235107e-01,2.146782875061035156e-01,2.155342996120452881e-01,2.161231637001037598e-01,2.164398133754730225e-01,2.165638506412506104e-01,2.166053652763366699e-01,2.166161835193634033e-01,2.166161835193634033e-01,2.166161835193634033e-01,2.166161835193634033e-01,2.166161835193634033e-01,2.166161835193634033e-01,2.166161835193634033e-01,2.166161835193634033e-01,2.166161835193634033e-01,2.166161835193634033e-01,2.166161835193634033e-01,2.166161835193634033e-01,2.166161835193634033e-01,2.166161835193634033e-01,2.166161835193634033e-01,2.166161835193634033e-01,2.166161835193634033e-01,2.166161835193634033e-01,2.166161835193634033e-01,2.168827354907989502e-01,2.165593504905700684e-01,2.154062688350677490e-01,2.135336101055145264e-01,2.113559246063232422e-01,2.068002223968505859e-01,2.010340988636016846e-01,1.959164440631866455e-01,1.870474815368652344e-01,1.831292510032653809e-01,1.760503947734832764e-01,1.753161847591400146e-01,1.718139350414276123e-01,1.735253632068634033e-01,1.730428040027618408e-01,1.761271655559539795e-01,1.770118474960327148e-01,1.846880018711090088e-01,1.935178637504577637e-01,2.010496556758880615e-01,2.023071050643920898e-01,2.066774666309356689e-01,2.109588682651519775e-01,2.132802009582519531e-01,2.141778171062469482e-01,2.135126888751983643e-01,2.123025059700012207e-01,2.101841568946838379e-01,2.076767385005950928e-01,2.053051888942718506e-01,2.018383443355560303e-01,1.938649117946624756e-01,1.963678002357482910e-01,2.194108366966247559e-01,2.475293874740600586e-01,3.176548480987548828e-01,3.671369850635528564e-01
3.447561562061309814e-01,2.521831989288330078e-01,2.301730811595916748e-01,2.032726705074310303e-01,1.823375821113586426e-01,1.791701316833496094e-01,1.833739280700683594e-01,1.858407557010650635e-01,1.889926195144653320e-01,1.919017434120178223e-01,1.949259042739868164e-01,1.980329155921936035e-01,2.011865675449371338e-01,2.042717635631561279e-01,2.071919143199920654e-01,2.098405063152313232e-01,2.119614481925964355e-01,2.135300338268280029e-01,2.146772146224975586e-01,2.155337631702423096e-01,2.161227166652679443e-01,2.164396047592163086e-01,2.165636718273162842e-01,2.166053652763366699e-01,2.166161835193634033e-01,2.166161835193634033e-01,2.166161835193634033e-01,2.166161835193634033e-01,2.166161835193634033e-01,2.166161835193634033e-01,2.166161835193634033e-01,2.166161835193634033e-01,2.166161835193634033e-01,2.166161835193634033e-01,2.166161835193634033e-01,2.166161835193634033e-01,2.166161835193634033e-01,2.166161835193634033e-01,2.166161835193634033e-01,2.166161835193634033e-01,2.166161835193634033e-01,2.166161835193634033e-01,2.166161835193634033e-01,2.169362306594848633e-01,2.166274785995483398e-01,2.152028083801269531e-01,2.139251828193664551e-01,2.128662467002868652e-01,2.072615027427673340e-01,2.021726965904235840e-01,1.982175409793853760e-01,1.906777918338775635e-01,1.857709288597106934e-01,1.783871650695800781e-01,1.772503554821014404e-01,1.741493940353393555e-01,1.771626174449920654e-01,1.753967404365539551e-01,1.762231886386871338e-01,1.792570948600769043e-01,1.881721317768096924e-01,1.952823996543884277e-01,1.999590098857879639e-01,2.043915092945098877e-01,2.076831459999084473e-01,2.104990184307098389e-01,2.133474946022033691e-01,2.142115831375122070e-01,2.136232554912567139e-01,2.123036980628967285e-01,2.101857960224151611e-01,2.076787054538726807e-01,2.053074538707733154e-01,2.018402516841888428e-01,1.938669383525848389e-01,1.963698565959930420e-01,2.194130420684814453e-01,2.475316524505615234e-01,3.176570832729339600e-01,3.671387434005737305e-01
3.447553515434265137e-01,2.521821856498718262e-01,2.301717996597290039e-01,2.032716274261474609e-01,1.823365390300750732e-01,1.791690587997436523e-01,1.833723485469818115e-01,1.858391463756561279e-01,1.889908909797668457e-01,1.918999850749969482e-01,1.949239969253540039e-01,1.980305910110473633e-01,2.011844217777252197e-01,2.042694687843322754e-01,2.071898281574249268e-01,2.098384797573089600e-01,2.119600474834442139e-01,2.135290503501892090e-01,2.146764397621154785e-01,2.155332565307617188e-01,2.161222398281097412e-01,2.164395749568939209e-01,2.165636420249938965e-01,2.166053354740142822e-01,2.166161835193634033e-01,2.166161835193634033e-01,2.166161835193634033e-01,2.166161835193634033e-01,2.166161835193634033e-01,2.166161835193634033e-01,2.166161835193634033e-01,2.166161835193634033e-01,2.166161835193634033e-01,2.166161835193634033e-01,2.166161835193634033e-01,2.166161835193634033e-01,2.166161835193634033e-01,2.166161835193634033e-01,2.166161835193634033e-01,2.166161835193634033e-01,2.166161835193634033e-01,2.166161835193634033e-01,2.166161835193634033e-01,2.168957889080047607e-01,2.164710164070129395e-01,2.155541777610778809e-01,2.141350805759429932e-01,2.127131521701812744e-01,2.076055109500885010e-01,2.041502594947814941e-01,2.030311524868011475e-01,1.944423317909240723e-01,1.886236667633056641e-01,1.811899840831756592e-01,1.787331104278564453e-01,1.774125099182128906e-01,1.782856881618499756e-01,1.779065728187561035e-01,1.794346570968627930e-01,1.834256947040557861e-01,1.850447058677673340e-01,1.986443996429443359e-01,2.011488676071166992e-01,2.057186365127563477e-01,2.071329653263092041e-01,2.120904326438903809e-01,2.135858833789825439e-01,2.145822048187255859e-01,2.135367393493652344e-01,2.123047411441802979e-01,2.101874947547912598e-01,2.076806128025054932e-01,2.053095102310180664e-01,2.018423676490783691e-01,1.938691139221191406e-01,1.963722109794616699e-01,2.194155454635620117e-01,2.475338876247406006e-01,3.176593482494354248e-01,3.671401739120483398e-01
3.447546362876892090e-01,2.521812319755554199e-01,2.301706969738006592e-01,2.032704651355743408e-01,1.823353171348571777e-01,1.791678071022033691e-01,1.833710372447967529e-01,1.858378052711486816e-01,1.889891922473907471e-01,1.918982565402984619e-01,1.949222981929779053e-01,1.980289518833160400e-01,2.011824846267700195e-01,2.042677104473114014e-01,2.071882784366607666e-01,2.098369896411895752e-01,2.119588255882263184e-01,2.135281264781951904e-01,2.146758735179901123e-01,2.155326604843139648e-01,2.161220312118530273e-01,2.164393961429595947e-01,2.165636420249938965e-01,2.166053354740142822e-01,2.166161835193634033e-01,2.166161835193634033e-01,2.166161835193634033e-01,2.166161835193634033e-01,2.166161835193634033e-01,2.166161835193634033e-01,2.166161835193634033e-01,2.166161835193634033e-01,2.166161835193634033e-01,2.166161835193634033e-01,2.166161835193634033e-01,2.166161835193634033e-01,2.166161835193634033e-01,2.166161835193634033e-01,2.166161835193634033e-01,2.166161835193634033e-01,2.166161835193634033e-01,2.166161835193634033e-01,2.166161835193634033e-01,2.168888449668884277e-01,2.164661586284637451e-01,2.161395549774169922e-01,2.154638171195983887e-01,2.136712074279785156e-01,2.088533043861389160e-01,2.052676379680633545e-01,2.041687071323394775e-01,1.983379125595092773e-01,1.912599802017211914e-01,1.840400993824005127e-01,1.816994249820709229e-01,1.816383302211761475e-01,1.835806965827941895e-01,1.804722249507904053e-01,1.817397475242614746e-01,1.834745109081268311e-01,1.890287995338439941e-01,1.985243558883666992e-01,2.042638361454010010e-01,2.055692374706268311e-01,2.079002261161804199e-01,2.119074165821075439e-01,2.139568328857421875e-01,2.145041525363922119e-01,2.136243581771850586e-01,2.123060226440429688e-01,2.101891636848449707e-01,2.076825797557830811e-01,2.053115665912628174e-01,2.018443644046783447e-01,1.938713490962982178e-01,1.963741183280944824e-01,2.194177806377410889e-01,2.475363016128540039e-01,3.176614642143249512e-01,3.671417832374572754e-01
3.447538316249847412e-01,2.521802186965942383e-01,2.301695644855499268e-01,2.032691538333892822e-01,1.823340058326721191e-01,1.791664063930511475e-01,1.833695471286773682e-01,1.858360469341278076e-01,1.889873445034027100e-01,1.918964982032775879e-01,1.949203908443450928e-01,1.980270445346832275e-01,2.011805474758148193e-01,2.042660713195800781e-01,2.071864902973175049e-01,2.098357379436492920e-01,2.119579315185546875e-01,2.135272920131683350e-01,2.146752178668975830e-01,2.155322134494781494e-01,2.161218225955963135e-01,2.164392173290252686e-01,2.165636420249938965e-01,2.166053354740142822e-01,2.166161835193634033e-01,2.166161835193634033e-01,2.166161835193634033e-01,2.166161835193634033e-01,2.166161835193634033e-01,2.166161835193634033e-01,2.166161835193634033e-01,2.166161835193634033e-01,2.166161835193634033e-01,2.166161835193634033e-01,2.166161835193634033e-01,2.166161835193634033e-01,2.166161835193634033e-01,2.166161835193634033e-01,2.166161835193634033e-01,2.166161835193634033e-01,2.166161835193634033e-01,2.166161835193634033e-01,2.166161835193634033e-01,2.167632281780242920e-01,2.164463996887207031e-01,2.163254320621490479e-01,2.159671187400817871e-01,2.136662006378173828e-01,2.098890542984008789e-01,2.081734836101531982e-01,2.053631842136383057e-01,2.017744183540344238e-01,1.939519643783569336e-01,1.868876218795776367e-01,1.824671626091003418e-01,1.837586760520935059e-01,1.869354546070098877e-01,1.832476556301116943e-01,1.841847598552703857e-01,1.851296424865722656e-01,1.909913420677185059e-01,1.975249052047729492e-01,2.037722468376159668e-01,2.049053609371185303e-01,2.072441279888153076e-01,2.113763689994812012e-01,2.136990129947662354e-01,2.142650485038757324e-01,2.135621607303619385e-01,2.123071551322937012e-01,2.101908326148986816e-01,2.076844573020935059e-01,2.053138017654418945e-01,2.018467783927917480e-01,1.938733756542205811e-01,1.963764429092407227e-01,2.194201946258544922e-01,2.475386559963226318e-01,3.176636695861816406e-01,3.671434223651885986e-01
3.447530269622802734e-01,2.521790862083435059e-01,2.301681637763977051e-01,2.032677829265594482e-01,1.823326647281646729e-01,1.791650354862213135e-01,1.833679676055908203e-01,1.858344674110412598e-01,1.889857947826385498e-01,1.918944716453552246e-01,1.949186027050018311e-01,1.980265378952026367e-01,2.011839449405670166e-01,2.042751908302307129e-01,2.071999609470367432e-01,2.098499238491058350e-01,2.119727432727813721e-01,2.135418057441711426e-01,2.146908044815063477e-01,2.155517637729644775e-01,2.161432504653930664e-01,2.164614498615264893e-01,2.165866494178771973e-01,2.166290879249572754e-01,2.166401147842407227e-01,2.166402637958526611e-01,2.166404128074645996e-01,2.166405916213989258e-01,2.166408598423004150e-01,2.166410386562347412e-01,2.166412174701690674e-01,2.166414260864257812e-01,2.166416049003601074e-01,2.166416645050048828e-01,2.166419327259063721e-01,2.166421711444854736e-01,2.166423499584197998e-01,2.166424393653869629e-01,2.166426479816436768e-01,2.166428267955780029e-01,2.166430354118347168e-01,2.166430950164794922e-01,2.166433632373809814e-01,2.167229652404785156e-01,2.166758775711059570e-01,2.169113755226135254e-01,2.162944078445434570e-01,2.140814661979675293e-01,2.115688323974609375e-01,2.100075781345367432e-01,2.073122560977935791e-01,2.041270732879638672e-01,1.960031986236572266e-01,1.905399858951568604e-01,1.859396100044250488e-01,1.875842213630676270e-01,1.902397572994232178e-01,1.886398494243621826e-01,1.844529807567596436e-01,1.878471374511718750e-01,1.897692382335662842e-01,2.001083195209503174e-01,2.033286988735198975e-01,2.068177759647369385e-01,2.085285186767578125e-01,2.117727100849151611e-01,2.138111889362335205e-01,2.142866253852844238e-01,2.135923504829406738e-01,2.123175561428070068e-01,2.102020084857940674e-01,2.076954841613769531e-01,2.053268551826477051e-01,2.018560469150543213e-01,1.938787102699279785e-01,1.963805854320526123e-01,2.194244265556335449e-01,2.475412786006927490e-01,3.176656961441040039e-01,3.671449422836303711e-01
3.447521924972534180e-01,2.521779835224151611e-01,2.301668524742126465e-01,2.032664418220520020e-01,1.823329031467437744e-01,1.791700720787048340e-01,1.833829581737518311e-01,1.858616173267364502e-01,1.890257298946380615e-01,1.919486224651336670e-01,1.949868202209472656e-01,1.981117725372314453e-01,2.012801170349121094e-01,2.043728828430175781e-01,2.072961926460266113e-01,2.099416851997375488e-01,2.120626866817474365e-01,2.136393189430236816e-01,2.147932648658752441e-01,2.156482636928558350e-01,2.162350416183471680e-01,2.165507972240447998e-01,2.166720330715179443e-01,2.167124748229980469e-01,2.167215049266815186e-01,2.167209088802337646e-01,2.167204916477203369e-01,2.167198956012725830e-01,2.167193293571472168e-01,2.167187631130218506e-01,2.167181670665740967e-01,2.167176008224487305e-01,2.167171537876129150e-01,2.167165279388427734e-01,2.167159914970397949e-01,2.167154550552368164e-01,2.167149782180786133e-01,2.167144417762756348e-01,2.167137861251831055e-01,2.167133986949920654e-01,2.167127728462219238e-01,2.167122364044189453e-01,2.167116701602935791e-01,2.167306840419769287e-01,2.167250216007232666e-01,2.169907391071319580e-01,2.160400152206420898e-01,2.139898538589477539e-01,2.122250199317932129e-01,2.110529243946075439e-01,2.077972590923309326e-01,2.058569788932800293e-01,1.986517310142517090e-01,1.927936673164367676e-01,1.900268197059631348e-01,1.893445849418640137e-01,1.904729604721069336e-01,1.920648813247680664e-01,1.840317547321319580e-01,1.852627396583557129e-01,1.941993236541748047e-01,1.985656619071960449e-01,2.035096287727355957e-01,2.058620452880859375e-01,2.081316411495208740e-01,2.105525434017181396e-01,2.134261131286621094e-01,2.144493162631988525e-01,2.136677801609039307e-01,2.123898267745971680e-01,2.102792263031005859e-01,2.077658772468566895e-01,2.053823471069335938e-01,2.019064128398895264e-01,1.939289569854736328e-01,1.964220702648162842e-01,2.194650173187255859e-01,2.475734055042266846e-01,3.177036345005035400e-01,3.672047257423400879e-01
3.447921872138977051e-01,2.522133588790893555e-01,2.302198112010955811e-01,2.033185064792633057e-01,1.823898851871490479e-01,1.792236566543579102e-01,1.834251582622528076e-01,1.858836412429809570e-01,1.890147328376770020e-01,1.918949782848358154e-01,1.948858797550201416e-01,1.979512572288513184e-01,2.010662853717803955e-01,2.041112184524536133e-01,2.069808840751647949e-01,2.096000909805297852e-01,2.117015421390533447e-01,2.132461071014404297e-01,2.143768370151519775e-01,2.152151465415954590e-01,2.157985866069793701e-01,2.161060571670532227e-01,2.162231802940368652e-01,2.162639498710632324e-01,2.162741720676422119e-01,2.162740826606750488e-01,2.162743210792541504e-01,2.162743210792541504e-01,2.162742316722869873e-01,2.162743210792541504e-01,2.162744104862213135e-01,2.162744104862213135e-01,2.162744402885437012e-01,2.162744104862213135e-01,2.162744104862213135e-01,2.162744104862213135e-01,2.162744104862213135e-01,2.162744104862213135e-01,2.162744998931884766e-01,2.162744402885437012e-01,2.162743508815765381e-01,2.162744104862213135e-01,2.162745296955108643e-01,2.162846028804779053e-01,2.162717878818511963e-01,2.165922522544860840e-01,2.157566249370574951e-01,2.141824066638946533e-01,2.124433219432830811e-01,2.115900516510009766e-01,2.086191475391387939e-01,2.053033411502838135e-01,1.989467442035675049e-01,1.933488249778747559e-01,1.926542222499847412e-01,1.917145252227783203e-01,1.932281553745269775e-01,1.921972036361694336e-01,1.866635978221893311e-01,1.845080256462097168e-01,1.917171180248260498e-01,1.990970373153686523e-01,2.029002308845520020e-01,2.049311399459838867e-01,2.074093818664550781e-01,2.103068828582763672e-01,2.132133245468139648e-01,2.133426964282989502e-01,2.133465111255645752e-01,2.120269238948822021e-01,2.099102139472961426e-01,2.074376940727233887e-01,2.050876617431640625e-01,2.016468644142150879e-01,1.937128603458404541e-01,1.962388753890991211e-01,2.193224132061004639e-01,2.474158406257629395e-01,3.175486922264099121e-01,3.670751750469207764e-01
3.448511362075805664e-01,2.522027492523193359e-01,2.301811277866363525e-01,2.032220065593719482e-01,1.822762191295623779e-01,1.790593862533569336e-01,1.832110583782196045e-01,1.856313049793243408e-01,1.887437105178833008e-01,1.916056871414184570e-01,1.945968866348266602e-01,1.976828873157501221e-01,2.008233070373535156e-01,2.039110362529754639e-01,2.068497240543365479e-01,2.095201015472412109e-01,2.116408348083496094e-01,2.131981551647186279e-01,2.143487036228179932e-01,2.152165770530700684e-01,2.157906293869018555e-01,2.160933315753936768e-01,2.162163555622100830e-01,2.162610590457916260e-01,2.162703573703765869e-01,2.162699997425079346e-01,2.162700593471527100e-01,2.162701487541198730e-01,2.162699103355407715e-01,2.162698209285736084e-01,2.162698507308959961e-01,2.162696123123168945e-01,2.162694633007049561e-01,2.162693142890930176e-01,2.162691354751586914e-01,2.162690758705139160e-01,2.162688076496124268e-01,2.162686884403228760e-01,2.162686288356781006e-01,2.162685394287109375e-01,2.162685096263885498e-01,2.162683010101318359e-01,2.162682116031646729e-01,2.162757217884063721e-01,2.162922322750091553e-01,2.164927124977111816e-01,2.156420052051544189e-01,2.141796946525573730e-01,2.128385901451110840e-01,2.118180990219116211e-01,2.096165120601654053e-01,2.062331140041351318e-01,2.005389928817749023e-01,1.951633691787719727e-01,1.942363381385803223e-01,1.924936771392822266e-01,1.938063800334930420e-01,1.937680542469024658e-01,1.855052113533020020e-01,1.872997879981994629e-01,1.914072632789611816e-01,1.998302042484283447e-01,2.028371691703796387e-01,2.041378319263458252e-01,2.078563570976257324e-01,2.094679772853851318e-01,2.130163609981536865e-01,2.135529816150665283e-01,2.133229374885559082e-01,2.120762169361114502e-01,2.099635303020477295e-01,2.074807882308959961e-01,2.051508724689483643e-01,2.016529142856597900e-01,1.937045156955718994e-01,1.962260007858276367e-01,2.192508876323699951e-01,2.473521232604980469e-01,3.174001872539520264e-01,3.668078780174255371e-01
3.447614908218383789e-01,2.520130574703216553e-01,2.300132215023040771e-01,2.030751705169677734e-01,1.821589767932891846e-01,1.788958013057708740e-01,1.830374896526336670e-01,1.854869723320007324e-01,1.886057257652282715e-01,1.914798021316528320e-01,1.944574415683746338e-01,1.975445747375488281e-01,2.006855905055999756e-01,2.037473022937774658e-01,2.066549658775329590e-01,2.092592120170593262e-01,2.113382816314697266e-01,2.129168212413787842e-01,2.140740156173706055e-01,2.149258553981781006e-01,2.154959142208099365e-01,2.158100903034210205e-01,2.159393727779388428e-01,2.159809470176696777e-01,2.159893512725830078e-01,2.159880697727203369e-01,2.159868776798248291e-01,2.159856259822845459e-01,2.159843742847442627e-01,2.159832715988159180e-01,2.159820199012756348e-01,2.159807980060577393e-01,2.159795463085174561e-01,2.159782946109771729e-01,2.159771025180816650e-01,2.159758806228637695e-01,2.159745693206787109e-01,2.159733772277832031e-01,2.159722149372100830e-01,2.159708440303802490e-01,2.159696519374847412e-01,2.159684300422668457e-01,2.159674465656280518e-01,2.159685790538787842e-01,2.159588932991027832e-01,2.161403298377990723e-01,2.155254781246185303e-01,2.140803337097167969e-01,2.129489481449127197e-01,2.120622396469116211e-01,2.100919187068939209e-01,2.064442038536071777e-01,2.019235789775848389e-01,1.968821883201599121e-01,1.958089768886566162e-01,1.944232881069183350e-01,1.943752467632293701e-01,1.931373476982116699e-01,1.856806278228759766e-01,1.882031857967376709e-01,1.928515732288360596e-01,1.991309821605682373e-01,2.020859420299530029e-01,2.055556178092956543e-01,2.077062427997589111e-01,2.099453210830688477e-01,2.122536003589630127e-01,2.135657370090484619e-01,2.131689786911010742e-01,2.119627296924591064e-01,2.099459767341613770e-01,2.074546217918395996e-01,2.051297128200531006e-01,2.016680538654327393e-01,1.937437951564788818e-01,1.962943673133850098e-01,2.193144559860229492e-01,2.472248673439025879e-01,3.171283900737762451e-01,3.663904070854187012e-01
3.446558117866516113e-01,2.518683969974517822e-01,2.299349308013916016e-01,2.030173242092132568e-01,1.821067333221435547e-01,1.787798106670379639e-01,1.828367114067077637e-01,1.851982474327087402e-01,1.881722211837768555e-01,1.909153461456298828e-01,1.937826871871948242e-01,1.967301964759826660e-01,1.997199356555938721e-01,2.027051746845245361e-01,2.055113315582275391e-01,2.079960405826568604e-01,2.100223898887634277e-01,2.115530371665954590e-01,2.126886546611785889e-01,2.134785354137420654e-01,2.140235602855682373e-01,2.143290638923645020e-01,2.144486606121063232e-01,2.144825160503387451e-01,2.144855260848999023e-01,2.144820094108581543e-01,2.144784331321716309e-01,2.144748568534851074e-01,2.144713997840881348e-01,2.144678533077239990e-01,2.144643068313598633e-01,2.144604623317718506e-01,2.144570350646972656e-01,2.144533991813659668e-01,2.144499123096466064e-01,2.144463658332824707e-01,2.144427001476287842e-01,2.144391834735870361e-01,2.144357860088348389e-01,2.144320011138916016e-01,2.144284844398498535e-01,2.144249379634857178e-01,2.144214808940887451e-01,2.144179046154022217e-01,2.144142985343933105e-01,2.146030068397521973e-01,2.141329050064086914e-01,2.127087712287902832e-01,2.118634879589080811e-01,2.110720574855804443e-01,2.091738581657409668e-01,2.050235867500305176e-01,2.020981013774871826e-01,1.969335675239562988e-01,1.955976784229278564e-01,1.972860693931579590e-01,1.956710517406463623e-01,1.919080018997192383e-01,1.874667406082153320e-01,1.883909106254577637e-01,1.907592117786407471e-01,1.987977921962738037e-01,2.022448182106018066e-01,2.042335569858551025e-01,2.053225338459014893e-01,2.093198895454406738e-01,2.112109959125518799e-01,2.124142646789550781e-01,2.117480337619781494e-01,2.106744945049285889e-01,2.088256478309631348e-01,2.065645456314086914e-01,2.043736875057220459e-01,2.011391818523406982e-01,1.934559345245361328e-01,1.961592137813568115e-01,2.190816104412078857e-01,2.471102774143218994e-01,3.166987895965576172e-01,3.656555414199829102e-01
3.442922830581665039e-01,2.514335215091705322e-01,2.295261025428771973e-01,2.026317417621612549e-01,1.816088855266571045e-01,1.781631112098693848e-01,1.821067333221435547e-01,1.843666136264801025e-01,1.871971786022186279e-01,1.897419989109039307e-01,1.923941373825073242e-01,1.950822472572326660e-01,1.978146135807037354e-01,2.004733085632324219e-01,2.029176354408264160e-01,2.051329910755157471e-01,2.069077193737030029e-01,2.081849575042724609e-01,2.091090083122253418e-01,2.098173499107360840e-01,2.103030383586883545e-01,2.105507552623748779e-01,2.106387615203857422e-01,2.106582820415496826e-01,2.106573581695556641e-01,2.106510102748870850e-01,2.106446623802185059e-01,2.106383442878723145e-01,2.106320261955261230e-01,2.106256484985351562e-01,2.106192409992218018e-01,2.106128931045532227e-01,2.106062769889831543e-01,2.106000185012817383e-01,2.105939388275146484e-01,2.105873525142669678e-01,2.105810940265655518e-01,2.105747759342193604e-01,2.105683982372283936e-01,2.105620503425598145e-01,2.105557620525360107e-01,2.105492949485778809e-01,2.105430960655212402e-01,2.105366885662078857e-01,2.105304300785064697e-01,2.107191383838653564e-01,2.103582024574279785e-01,2.090081572532653809e-01,2.079159617424011230e-01,2.082299292087554932e-01,2.063685953617095947e-01,2.012337148189544678e-01,2.008391320705413818e-01,1.950410008430480957e-01,1.950650811195373535e-01,1.947239637374877930e-01,1.947108805179595947e-01,1.886211931705474854e-01,1.871549785137176514e-01,1.875016689300537109e-01,1.908756196498870850e-01,1.972236633300781250e-01,2.009903490543365479e-01,2.007007002830505371e-01,2.026793658733367920e-01,2.056448757648468018e-01,2.081220746040344238e-01,2.086718678474426270e-01,2.082746028900146484e-01,2.071472704410552979e-01,2.054382860660552979e-01,2.034494280815124512e-01,2.016144394874572754e-01,1.986983418464660645e-01,1.913076043128967285e-01,1.944275200366973877e-01,2.173824608325958252e-01,2.457806169986724854e-01,3.151436448097229004e-01,3.647981286048889160e-01
3.433985412120819092e-01,2.505363821983337402e-01,2.286165654659271240e-01,2.016896307468414307e-01,1.804042160511016846e-01,1.767741143703460693e-01,1.804258525371551514e-01,1.823846995830535889e-01,1.848932504653930664e-01,1.871097087860107422e-01,1.893468499183654785e-01,1.916009485721588135e-01,1.939415633678436279e-01,1.962079703807830811e-01,1.982317566871643066e-01,1.999784409999847412e-01,2.013180851936340332e-01,2.023221552371978760e-01,2.030702531337738037e-01,2.036384642124176025e-01,2.039973437786102295e-01,2.041769921779632568e-01,2.042338848114013672e-01,2.042476832866668701e-01,2.042420804500579834e-01,2.042335569858551025e-01,2.042253017425537109e-01,2.042169570922851562e-01,2.042083740234375000e-01,2.041997909545898438e-01,2.041912376880645752e-01,2.041829824447631836e-01,2.041744291782379150e-01,2.041662037372589111e-01,2.041576504707336426e-01,2.041491866111755371e-01,2.041407525539398193e-01,2.041322588920593262e-01,2.041240930557250977e-01,2.041155099868774414e-01,2.041072547435760498e-01,2.040986716747283936e-01,2.040902674198150635e-01,2.040819227695465088e-01,2.040734291076660156e-01,2.042880356311798096e-01,2.039468884468078613e-01,2.026628851890563965e-01,2.020096182823181152e-01,2.017576694488525391e-01,2.002719044685363770e-01,1.959658265113830566e-01,1.963993012905120850e-01,1.927319467067718506e-01,1.913760900497436523e-01,1.906325817108154297e-01,1.900316774845123291e-01,1.847503185272216797e-01,1.845315694808959961e-01,1.864335834980010986e-01,1.878328919410705566e-01,1.930304765701293945e-01,1.958338916301727295e-01,1.956975460052490234e-01,1.972039043903350830e-01,2.007097899913787842e-01,2.022206187248229980e-01,2.026407718658447266e-01,2.021679878234863281e-01,2.013184726238250732e-01,1.999708414077758789e-01,1.982845962047576904e-01,1.968145966529846191e-01,1.943558752536773682e-01,1.874296367168426514e-01,1.908620595932006836e-01,2.140405774116516113e-01,2.425876557826995850e-01,3.120602369308471680e-01,3.628197908401489258e-01
3.417832851409912109e-01,2.487989366054534912e-01,2.269774973392486572e-01,1.996410787105560303e-01,1.781538724899291992e-01,1.742573380470275879e-01,1.775933206081390381e-01,1.792224943637847900e-01,1.812659204006195068e-01,1.830011606216430664e-01,1.847451925277709961e-01,1.865321695804595947e-01,1.883676052093505859e-01,1.900566518306732178e-01,1.914845108985900879e-01,1.927582919597625732e-01,1.938059628009796143e-01,1.945405006408691406e-01,1.951244175434112549e-01,1.955597996711730957e-01,1.958279013633728027e-01,1.959338188171386719e-01,1.959706842899322510e-01,1.959748864173889160e-01,1.959707736968994141e-01,1.959618926048278809e-01,1.959528923034667969e-01,1.959439218044281006e-01,1.959349811077117920e-01,1.959260702133178711e-01,1.959170997142791748e-01,1.959081590175628662e-01,1.958993375301361084e-01,1.958903670310974121e-01,1.958816051483154297e-01,1.958725452423095703e-01,1.958636641502380371e-01,1.958548426628112793e-01,1.958458423614501953e-01,1.958369910717010498e-01,1.958282589912414551e-01,1.958192288875579834e-01,1.958104670047760010e-01,1.958015561103820801e-01,1.957925856113433838e-01,1.960251331329345703e-01,1.957189142704010010e-01,1.946195662021636963e-01,1.946726739406585693e-01,1.946845054626464844e-01,1.918897330760955811e-01,1.902379393577575684e-01,1.888249814510345459e-01,1.876801252365112305e-01,1.865136027336120605e-01,1.858523488044738770e-01,1.844642460346221924e-01,1.810598373413085938e-01,1.803286075592041016e-01,1.832712590694427490e-01,1.840161085128784180e-01,1.877321004867553711e-01,1.892272233963012695e-01,1.900275349617004395e-01,1.909576058387756348e-01,1.933636665344238281e-01,1.943218111991882324e-01,1.947817206382751465e-01,1.942146122455596924e-01,1.936545968055725098e-01,1.925427615642547607e-01,1.912588477134704590e-01,1.902250945568084717e-01,1.883367300033569336e-01,1.821375787258148193e-01,1.858470737934112549e-01,2.089833915233612061e-01,2.375371158123016357e-01,3.073596060276031494e-01,3.603023886680603027e-01
3.397951126098632812e-01,2.462262511253356934e-01,2.240966856479644775e-01,1.966172456741333008e-01,1.750251948833465576e-01,1.708074808120727539e-01,1.737090051174163818e-01,1.748882532119750977e-01,1.765160560607910156e-01,1.778258383274078369e-01,1.791344583034515381e-01,1.804503202438354492e-01,1.817990541458129883e-01,1.829987168312072754e-01,1.840518116950988770e-01,1.849811673164367676e-01,1.856839060783386230e-01,1.861895620822906494e-01,1.865766048431396484e-01,1.868399977684020996e-01,1.869770288467407227e-01,1.870287954807281494e-01,1.870417594909667969e-01,1.870374083518981934e-01,1.870303452014923096e-01,1.870200634002685547e-01,1.870098114013671875e-01,1.869992613792419434e-01,1.869889795780181885e-01,1.869786679744720459e-01,1.869684457778930664e-01,1.869581639766693115e-01,1.869478523731231689e-01,1.869376897811889648e-01,1.869271695613861084e-01,1.869168877601623535e-01,1.869065761566162109e-01,1.868963539600372314e-01,1.868858337402343750e-01,1.868758201599121094e-01,1.868656277656555176e-01,1.868554353713989258e-01,1.868450343608856201e-01,1.868347823619842529e-01,1.868245601654052734e-01,1.870391070842742920e-01,1.866474449634552002e-01,1.860027909278869629e-01,1.857187747955322266e-01,1.865638494491577148e-01,1.831637322902679443e-01,1.831867396831512451e-01,1.823716163635253906e-01,1.790998280048370361e-01,1.821481287479400635e-01,1.785174012184143066e-01,1.777428090572357178e-01,1.777826845645904541e-01,1.751493215560913086e-01,1.763013005256652832e-01,1.793714463710784912e-01,1.807189285755157471e-01,1.815311312675476074e-01,1.825545132160186768e-01,1.832168996334075928e-01,1.852948963642120361e-01,1.856984496116638184e-01,1.861459314823150635e-01,1.855384111404418945e-01,1.850617229938507080e-01,1.843090653419494629e-01,1.833964288234710693e-01,1.827613711357116699e-01,1.813907027244567871e-01,1.758246123790740967e-01,1.798254847526550293e-01,2.027785778045654297e-01,2.308171391487121582e-01,3.015830218791961670e-01,3.563222587108612061e-01
3.375304341316223145e-01,2.429596781730651855e-01,2.204317450523376465e-01,1.928236782550811768e-01,1.710817813873291016e-01,1.665658950805664062e-01,1.689013540744781494e-01,1.697399318218231201e-01,1.709282100200653076e-01,1.718076467514038086e-01,1.726849079132080078e-01,1.735591292381286621e-01,1.744147837162017822e-01,1.751150190830230713e-01,1.757110059261322021e-01,1.762070357799530029e-01,1.765390038490295410e-01,1.768071055412292480e-01,1.769969165325164795e-01,1.771380007266998291e-01,1.772025823593139648e-01,1.772192120552062988e-01,1.772132813930511475e-01,1.772050559520721436e-01,1.771977245807647705e-01,1.771892011165618896e-01,1.771805882453918457e-01,1.771718859672546387e-01,1.771632432937622070e-01,1.771545708179473877e-01,1.771459579467773438e-01,1.771375536918640137e-01,1.771285533905029297e-01,1.771202683448791504e-01,1.771115064620971680e-01,1.771028339862823486e-01,1.770943105220794678e-01,1.770856380462646484e-01,1.770771145820617676e-01,1.770685315132141113e-01,1.770598590373992920e-01,1.770513355731964111e-01,1.770428717136383057e-01,1.770341694355010986e-01,1.770255863666534424e-01,1.772109866142272949e-01,1.768213212490081787e-01,1.766905784606933594e-01,1.764090359210968018e-01,1.765755712985992432e-01,1.743623316287994385e-01,1.747300624847412109e-01,1.752874851226806641e-01,1.725937426090240479e-01,1.735914349555969238e-01,1.719571650028228760e-01,1.699864268302917480e-01,1.716684401035308838e-01,1.702268719673156738e-01,1.698158383369445801e-01,1.729226708412170410e-01,1.734066307544708252e-01,1.736419796943664551e-01,1.743189692497253418e-01,1.754871308803558350e-01,1.759078800678253174e-01,1.767251789569854736e-01,1.763676106929779053e-01,1.763697266578674316e-01,1.759116947650909424e-01,1.754989326000213623e-01,1.749186515808105469e-01,1.746393740177154541e-01,1.736954748630523682e-01,1.688744723796844482e-01,1.728985905647277832e-01,1.956764161586761475e-01,2.232439815998077393e-01,2.950376272201538086e-01,3.514022827148437500e-01
3.348095715045928955e-01,2.394011020660400391e-01,2.160289883613586426e-01,1.884643435478210449e-01,1.666508316993713379e-01,1.618438661098480225e-01,1.636638939380645752e-01,1.641351580619812012e-01,1.649170517921447754e-01,1.654094159603118896e-01,1.659101545810699463e-01,1.664395034313201904e-01,1.669469773769378662e-01,1.673707962036132812e-01,1.677271425724029541e-01,1.680354773998260498e-01,1.682963967323303223e-01,1.684775352478027344e-01,1.686152517795562744e-01,1.686859130859375000e-01,1.687040030956268311e-01,1.687005758285522461e-01,1.686830818653106689e-01,1.686766445636749268e-01,1.686668097972869873e-01,1.686584055423736572e-01,1.686503887176513672e-01,1.686419546604156494e-01,1.686336398124694824e-01,1.686255335807800293e-01,1.686170101165771484e-01,1.686087548732757568e-01,1.686005890369415283e-01,1.685922145843505859e-01,1.685841381549835205e-01,1.685759425163269043e-01,1.685676276683807373e-01,1.685591638088226318e-01,1.685512661933898926e-01,1.685427129268646240e-01,1.685346662998199463e-01,1.685265600681304932e-01,1.685180366039276123e-01,1.685100197792053223e-01,1.685017049312591553e-01,1.686263084411621094e-01,1.683394014835357666e-01,1.683354079723358154e-01,1.683466732501983643e-01,1.679506301879882812e-01,1.667886376380920410e-01,1.669099032878875732e-01,1.668853759765625000e-01,1.668210029602050781e-01,1.659895777702331543e-01,1.653543114662170410e-01,1.638398170471191406e-01,1.645829975605010986e-01,1.659259796142578125e-01,1.636297106742858887e-01,1.663039028644561768e-01,1.660822629928588867e-01,1.661741137504577637e-01,1.663037240505218506e-01,1.678613424301147461e-01,1.676469147205352783e-01,1.683952212333679199e-01,1.680833995342254639e-01,1.680803596973419189e-01,1.678471267223358154e-01,1.675572693347930908e-01,1.672251522541046143e-01,1.671991050243377686e-01,1.665827929973602295e-01,1.623527705669403076e-01,1.664686203002929688e-01,1.888866722583770752e-01,2.161338031291961670e-01,2.880961298942565918e-01,3.462449014186859131e-01
3.321706652641296387e-01,2.359336912631988525e-01,2.114597260951995850e-01,1.838375627994537354e-01,1.619518399238586426e-01,1.568770110607147217e-01,1.583293974399566650e-01,1.584670543670654297e-01,1.590024232864379883e-01,1.592600047588348389e-01,1.595251858234405518e-01,1.597889363765716553e-01,1.600112020969390869e-01,1.602013111114501953e-01,1.603626906871795654e-01,1.604870855808258057e-01,1.605665981769561768e-01,1.606236398220062256e-01,1.606581211090087891e-01,1.606656014919281006e-01,1.606611311435699463e-01,1.606569588184356689e-01,1.606450974941253662e-01,1.606354415416717529e-01,1.606277525424957275e-01,1.606211662292480469e-01,1.606145501136779785e-01,1.606076955795288086e-01,1.606011092662811279e-01,1.605943739414215088e-01,1.605877876281738281e-01,1.605811119079589844e-01,1.605744659900665283e-01,1.605678796768188477e-01,1.605611443519592285e-01,1.605544388294219971e-01,1.605477333068847656e-01,1.605410873889923096e-01,1.605343520641326904e-01,1.605278253555297852e-01,1.605212688446044922e-01,1.605145633220672607e-01,1.605079472064971924e-01,1.605013310909271240e-01,1.604946255683898926e-01,1.605617105960845947e-01,1.604212820529937744e-01,1.603960990905761719e-01,1.604904532432556152e-01,1.602127254009246826e-01,1.596620678901672363e-01,1.596127152442932129e-01,1.598481237888336182e-01,1.591304242610931396e-01,1.594457924365997314e-01,1.586433351039886475e-01,1.582015156745910645e-01,1.585002839565277100e-01,1.586016714572906494e-01,1.579817533493041992e-01,1.583716273307800293e-01,1.593644917011260986e-01,1.595772504806518555e-01,1.596382558345794678e-01,1.603135466575622559e-01,1.602378487586975098e-01,1.604268848896026611e-01,1.602705717086791992e-01,1.602306365966796875e-01,1.601764559745788574e-01,1.601141989231109619e-01,1.599977314472198486e-01,1.601514518260955811e-01,1.598086953163146973e-01,1.560535132884979248e-01,1.602399349212646484e-01,1.822626590728759766e-01,2.098480165004730225e-01,2.817544937133789062e-01,3.413997590541839600e-01
3.293872475624084473e-01,2.325906753540039062e-01,2.067944407463073730e-01,1.795886456966400146e-01,1.574859023094177246e-01,1.522045135498046875e-01,1.534270942211151123e-01,1.533845663070678711e-01,1.537256836891174316e-01,1.538148820400238037e-01,1.538898348808288574e-01,1.539586782455444336e-01,1.540052294731140137e-01,1.540324687957763672e-01,1.540516316890716553e-01,1.540745496749877930e-01,1.540968120098114014e-01,1.541133224964141846e-01,1.541109383106231689e-01,1.540976762771606445e-01,1.540944576263427734e-01,1.540809571743011475e-01,1.540741622447967529e-01,1.540687382221221924e-01,1.540638804435729980e-01,1.540589630603790283e-01,1.540539860725402832e-01,1.540490686893463135e-01,1.540441811084747314e-01,1.540390849113464355e-01,1.540341675281524658e-01,1.540292799472808838e-01,1.540243625640869141e-01,1.540192663669586182e-01,1.540144681930541992e-01,1.540095210075378418e-01,1.540045440196990967e-01,1.539997160434722900e-01,1.539946198463439941e-01,1.539897918701171875e-01,1.539846956729888916e-01,1.539798378944396973e-01,1.539750099182128906e-01,1.539700031280517578e-01,1.539651453495025635e-01,1.539869308471679688e-01,1.539540290832519531e-01,1.539729833602905273e-01,1.539204716682434082e-01,1.537653207778930664e-01,1.536145210266113281e-01,1.535353064537048340e-01,1.536718606948852539e-01,1.535255908966064453e-01,1.529803276062011719e-01,1.530386209487915039e-01,1.525453627109527588e-01,1.530497074127197266e-01,1.531190276145935059e-01,1.531162261962890625e-01,1.530550718307495117e-01,1.530279517173767090e-01,1.538362801074981689e-01,1.532429456710815430e-01,1.534667909145355225e-01,1.539021134376525879e-01,1.538426280021667480e-01,1.539261043071746826e-01,1.537678539752960205e-01,1.537242531776428223e-01,1.536628603935241699e-01,1.536104083061218262e-01,1.538324952125549316e-01,1.537281870841979980e-01,1.503392457962036133e-01,1.545391976833343506e-01,1.761758029460906982e-01,2.040054202079772949e-01,2.758335471153259277e-01,3.369163274765014648e-01
3.268716931343078613e-01,2.293623387813568115e-01,2.026104927062988281e-01,1.756797432899475098e-01,1.533489823341369629e-01,1.479424834251403809e-01,1.489162743091583252e-01,1.487616598606109619e-01,1.489839553833007812e-01,1.490226387977600098e-01,1.490660309791564941e-01,1.490960121154785156e-01,1.491265594959259033e-01,1.491470336914062500e-01,1.491581797599792480e-01,1.491518020629882812e-01,1.491460204124450684e-01,1.491277217864990234e-01,1.491134464740753174e-01,1.491076052188873291e-01,1.491070985794067383e-01,1.491042375564575195e-01,1.491008996963500977e-01,1.490972340106964111e-01,1.490940153598785400e-01,1.490902006626129150e-01,1.490865945816040039e-01,1.490830183029174805e-01,1.490794420242309570e-01,1.490758061408996582e-01,1.490720212459564209e-01,1.490682661533355713e-01,1.490646004676818848e-01,1.490610241889953613e-01,1.490573883056640625e-01,1.490536630153656006e-01,1.490500271320343018e-01,1.490462422370910645e-01,1.490427255630493164e-01,1.490389108657836914e-01,1.490354239940643311e-01,1.490316390991210938e-01,1.490280628204345703e-01,1.490243077278137207e-01,1.490208506584167480e-01,1.490245461463928223e-01,1.490015983581542969e-01,1.490535736083984375e-01,1.489298641681671143e-01,1.489353775978088379e-01,1.488385796546936035e-01,1.488418281078338623e-01,1.488016843795776367e-01,1.490699648857116699e-01,1.488105058670043945e-01,1.487647891044616699e-01,1.484789550304412842e-01,1.482912898063659668e-01,1.487088799476623535e-01,1.484401524066925049e-01,1.484321057796478271e-01,1.487244069576263428e-01,1.487729549407958984e-01,1.490465402603149414e-01,1.487092077732086182e-01,1.490145325660705566e-01,1.489256024360656738e-01,1.489348709583282471e-01,1.489390134811401367e-01,1.489192545413970947e-01,1.488865911960601807e-01,1.488514840602874756e-01,1.490338742733001709e-01,1.490029096603393555e-01,1.457962691783905029e-01,1.497933864593505859e-01,1.710315048694610596e-01,1.990954875946044922e-01,2.706769108772277832e-01,3.329596519470214844e-01
3.244131803512573242e-01,2.263499200344085693e-01,1.987081766128540039e-01,1.722351908683776855e-01,1.498066782951354980e-01,1.444217860698699951e-01,1.453047990798950195e-01,1.451278924942016602e-01,1.453016400337219238e-01,1.453115046024322510e-01,1.453183591365814209e-01,1.453234851360321045e-01,1.453368365764617920e-01,1.453481316566467285e-01,1.453577280044555664e-01,1.453645527362823486e-01,1.453625559806823730e-01,1.453617215156555176e-01,1.453642845153808594e-01,1.453616023063659668e-01,1.453568339347839355e-01,1.453523039817810059e-01,1.453490257263183594e-01,1.453467309474945068e-01,1.453437805175781250e-01,1.453408300876617432e-01,1.453379094600677490e-01,1.453350782394409180e-01,1.453322768211364746e-01,1.453291773796081543e-01,1.453263163566589355e-01,1.453233659267425537e-01,1.453205347061157227e-01,1.453177034854888916e-01,1.453148722648620605e-01,1.453120410442352295e-01,1.453089714050292969e-01,1.453060507774353027e-01,1.453032493591308594e-01,1.453001797199249268e-01,1.452973186969757080e-01,1.452944576740264893e-01,1.452915370464324951e-01,1.452887356281280518e-01,1.452856659889221191e-01,1.452869772911071777e-01,1.452766656875610352e-01,1.452955305576324463e-01,1.452497243881225586e-01,1.453048586845397949e-01,1.451936066150665283e-01,1.452270150184631348e-01,1.451387703418731689e-01,1.450729668140411377e-01,1.451984345912933350e-01,1.451992094516754150e-01,1.449567973613739014e-01,1.451167166233062744e-01,1.449175775051116943e-01,1.452723443508148193e-01,1.452830135822296143e-01,1.451846957206726074e-01,1.450260579586029053e-01,1.452144980430603027e-01,1.452143192291259766e-01,1.452026069164276123e-01,1.452482342720031738e-01,1.452229321002960205e-01,1.452229321002960205e-01,1.451992690563201904e-01,1.451841294765472412e-01,1.451661884784698486e-01,1.453168094158172607e-01,1.453456282615661621e-01,1.423063874244689941e-01,1.461741030216217041e-01,1.670946478843688965e-01,1.953190565109252930e-01,2.667341828346252441e-01,3.298889398574829102e-01
3.222764432430267334e-01,2.239444851875305176e-01,1.955711841583251953e-01,1.694258451461791992e-01,1.469843089580535889e-01,1.415793597698211670e-01,1.423904895782470703e-01,1.422076523303985596e-01,1.423613131046295166e-01,1.423611938953399658e-01,1.423645019531250000e-01,1.423670649528503418e-01,1.423684358596801758e-01,1.423695683479309082e-01,1.423720717430114746e-01,1.423710584640502930e-01,1.423687040805816650e-01,1.423654854297637939e-01,1.423618495464324951e-01,1.423588693141937256e-01,1.423564255237579346e-01,1.423536837100982666e-01,1.423513591289520264e-01,1.423489153385162354e-01,1.423466503620147705e-01,1.423442661762237549e-01,1.423420608043670654e-01,1.423397362232208252e-01,1.423373818397521973e-01,1.423351466655731201e-01,1.423328816890716553e-01,1.423305869102478027e-01,1.423284113407135010e-01,1.423262357711791992e-01,1.423238813877105713e-01,1.423216462135314941e-01,1.423191428184509277e-01,1.423170566558837891e-01,1.423148512840270996e-01,1.423124074935913086e-01,1.423101425170898438e-01,1.423079669475555420e-01,1.423056423664093018e-01,1.423033177852630615e-01,1.423010826110839844e-01,1.423010826110839844e-01,1.422968506813049316e-01,1.422989964485168457e-01,1.422718465328216553e-01,1.422949135303497314e-01,1.422625482082366943e-01,1.422782242298126221e-01,1.421899497509002686e-01,1.422463655471801758e-01,1.422674357891082764e-01,1.423169970512390137e-01,1.422620415687561035e-01,1.421535313129425049e-01,1.421166956424713135e-01,1.421263813972473145e-01,1.422645449638366699e-01,1.422833204269409180e-01,1.422353088855743408e-01,1.423083245754241943e-01,1.422855854034423828e-01,1.422572731971740723e-01,1.422505080699920654e-01,1.422340273857116699e-01,1.422476470470428467e-01,1.422460377216339111e-01,1.422438919544219971e-01,1.422390341758728027e-01,1.423759460449218750e-01,1.424542367458343506e-01,1.395288705825805664e-01,1.432764232158660889e-01,1.639025509357452393e-01,1.922581493854522705e-01,2.634992003440856934e-01,3.274178504943847656e-01
3.203938007354736328e-01,2.218551337718963623e-01,1.929290592670440674e-01,1.670933961868286133e-01,1.447038650512695312e-01,1.392873227596282959e-01,1.400537490844726562e-01,1.398541331291198730e-01,1.399950683116912842e-01,1.399928927421569824e-01,1.399903297424316406e-01,1.399878859519958496e-01,1.399858593940734863e-01,1.399836838245391846e-01,1.399819552898406982e-01,1.399798691272735596e-01,1.399780213832855225e-01,1.399761736392974854e-01,1.399744749069213867e-01,1.399725675582885742e-01,1.399708092212677002e-01,1.399688422679901123e-01,1.399670541286468506e-01,1.399653851985931396e-01,1.399633884429931641e-01,1.399615406990051270e-01,1.399597823619842529e-01,1.399579942226409912e-01,1.399560868740081787e-01,1.399542689323425293e-01,1.399526000022888184e-01,1.399507522583007812e-01,1.399489045143127441e-01,1.399470567703247070e-01,1.399451494216918945e-01,1.399434804916381836e-01,1.399416327476501465e-01,1.399398446083068848e-01,1.399380266666412354e-01,1.399361789226531982e-01,1.399343609809875488e-01,1.399325430393218994e-01,1.399308145046234131e-01,1.399290859699249268e-01,1.399272084236145020e-01,1.399258673191070557e-01,1.399231851100921631e-01,1.399198174476623535e-01,1.399142444133758545e-01,1.399227380752563477e-01,1.399197578430175781e-01,1.399202346801757812e-01,1.399037837982177734e-01,1.398918330669403076e-01,1.398756206035614014e-01,1.398977041244506836e-01,1.398836374282836914e-01,1.398947834968566895e-01,1.398259401321411133e-01,1.398844718933105469e-01,1.398567557334899902e-01,1.399163305759429932e-01,1.399109065532684326e-01,1.398659050464630127e-01,1.398692131042480469e-01,1.398974359035491943e-01,1.398901343345642090e-01,1.398909389972686768e-01,1.398791372776031494e-01,1.398818492889404297e-01,1.398800909519195557e-01,1.398781538009643555e-01,1.399982273578643799e-01,1.401056349277496338e-01,1.372748911380767822e-01,1.409432291984558105e-01,1.613335311412811279e-01,1.898497939109802246e-01,2.609488964080810547e-01,3.254370093345642090e-01
3.187942802906036377e-01,2.200917899608612061e-01,1.907559931278228760e-01,1.651805639266967773e-01,1.428311467170715332e-01,1.374024748802185059e-01,1.381375193595886230e-01,1.379313170909881592e-01,1.380607187747955322e-01,1.380591988563537598e-01,1.380576789379119873e-01,1.380561590194702148e-01,1.380546689033508301e-01,1.380531191825866699e-01,1.380516886711120605e-01,1.380502581596374512e-01,1.380487978458404541e-01,1.380472481250762939e-01,1.380458772182464600e-01,1.380442678928375244e-01,1.380427479743957520e-01,1.380412876605987549e-01,1.380399465560913086e-01,1.380383670330047607e-01,1.380369067192077637e-01,1.380355656147003174e-01,1.380337774753570557e-01,1.380325257778167725e-01,1.380308866500854492e-01,1.380295157432556152e-01,1.380278468132019043e-01,1.380263566970825195e-01,1.380249559879302979e-01,1.380234956741333008e-01,1.380219757556915283e-01,1.380205154418945312e-01,1.380191743373870850e-01,1.380175948143005371e-01,1.380161345005035400e-01,1.380144953727722168e-01,1.380130052566528320e-01,1.380115747451782227e-01,1.380099654197692871e-01,1.380086541175842285e-01,1.380071043968200684e-01,1.380057036876678467e-01,1.380041837692260742e-01,1.380023360252380371e-01,1.380007266998291016e-01,1.380003094673156738e-01,1.379989981651306152e-01,1.379979252815246582e-01,1.379954218864440918e-01,1.379883289337158203e-01,1.379846036434173584e-01,1.379971802234649658e-01,1.379925310611724854e-01,1.379917860031127930e-01,1.379849314689636230e-01,1.379549801349639893e-01,1.379742920398712158e-01,1.379785239696502686e-01,1.379761397838592529e-01,1.379820704460144043e-01,1.379786729812622070e-01,1.379767060279846191e-01,1.379776597023010254e-01,1.379718482494354248e-01,1.379727423191070557e-01,1.379700899124145508e-01,1.379686295986175537e-01,1.379672884941101074e-01,1.380712687969207764e-01,1.381999850273132324e-01,1.354462504386901855e-01,1.390586495399475098e-01,1.592408418655395508e-01,1.878712475299835205e-01,2.588329315185546875e-01,3.238382935523986816e-01
3.174704909324645996e-01,2.186171114444732666e-01,1.889508366584777832e-01,1.635880768299102783e-01,1.412799656391143799e-01,1.358397901058197021e-01,1.365567743778228760e-01,1.363447308540344238e-01,1.364658474922180176e-01,1.364645659923553467e-01,1.364632546901702881e-01,1.364621520042419434e-01,1.364606916904449463e-01,1.364595592021942139e-01,1.364583671092987061e-01,1.364571750164031982e-01,1.364557743072509766e-01,1.364546716213226318e-01,1.364533305168151855e-01,1.364521086215972900e-01,1.364510059356689453e-01,1.364495754241943359e-01,1.364485025405883789e-01,1.364471316337585449e-01,1.364458799362182617e-01,1.364447176456451416e-01,1.364434063434600830e-01,1.364421546459197998e-01,1.364408731460571289e-01,1.364397108554840088e-01,1.364384293556213379e-01,1.364372372627258301e-01,1.364360749721527100e-01,1.364348232746124268e-01,1.364334523677825928e-01,1.364322602748870850e-01,1.364308893680572510e-01,1.364297568798065186e-01,1.364285051822662354e-01,1.364274024963378906e-01,1.364259421825408936e-01,1.364248394966125488e-01,1.364235579967498779e-01,1.364223659038543701e-01,1.364211142063140869e-01,1.364198029041290283e-01,1.364184916019439697e-01,1.364171802997589111e-01,1.364161670207977295e-01,1.364148855209350586e-01,1.364136338233947754e-01,1.364125907421112061e-01,1.364110708236694336e-01,1.364099681377410889e-01,1.364084184169769287e-01,1.364088654518127441e-01,1.364053189754486084e-01,1.364068984985351562e-01,1.364009678363800049e-01,1.364020109176635742e-01,1.364006400108337402e-01,1.363996565341949463e-01,1.363991498947143555e-01,1.363979876041412354e-01,1.363961100578308105e-01,1.363958418369293213e-01,1.363937854766845703e-01,1.363929808139801025e-01,1.363915503025054932e-01,1.363903880119323730e-01,1.363890469074249268e-01,1.363877058029174805e-01,1.364801824092864990e-01,1.366251707077026367e-01,1.339369118213653564e-01,1.375027596950531006e-01,1.575168967247009277e-01,1.862286329269409180e-01,2.570734322071075439e-01,3.225139379501342773e-01
3.163574039936065674e-01,2.173764407634735107e-01,1.874330639839172363e-01,1.622490286827087402e-01,1.399784684181213379e-01,1.345266699790954590e-01,1.352290809154510498e-01,1.350123286247253418e-01,1.351262927055358887e-01,1.351251900196075439e-01,1.351242661476135254e-01,1.351231038570404053e-01,1.351221501827239990e-01,1.351208686828613281e-01,1.351198852062225342e-01,1.351188719272613525e-01,1.351178288459777832e-01,1.351169347763061523e-01,1.351157724857330322e-01,1.351146399974822998e-01,1.351135969161987305e-01,1.351124644279479980e-01,1.351115107536315918e-01,1.351105570793151855e-01,1.351095139980316162e-01,1.351083517074584961e-01,1.351072490215301514e-01,1.351062357425689697e-01,1.351052224636077881e-01,1.351041495800018311e-01,1.351032853126525879e-01,1.351021528244018555e-01,1.351009905338287354e-01,1.350998878479003906e-01,1.350989043712615967e-01,1.350978016853332520e-01,1.350967586040496826e-01,1.350959241390228271e-01,1.350947022438049316e-01,1.350937783718109131e-01,1.350926756858825684e-01,1.350916922092437744e-01,1.350905895233154297e-01,1.350895166397094727e-01,1.350885927677154541e-01,1.350873708724975586e-01,1.350864171981811523e-01,1.350853443145751953e-01,1.350843310356140137e-01,1.350831687450408936e-01,1.350821256637573242e-01,1.350810527801513672e-01,1.350801587104797363e-01,1.350790858268737793e-01,1.350779831409454346e-01,1.350769996643066406e-01,1.350760459899902344e-01,1.350748836994171143e-01,1.350738406181335449e-01,1.350728869438171387e-01,1.350716650485992432e-01,1.350706517696380615e-01,1.350696086883544922e-01,1.350687146186828613e-01,1.350676119327545166e-01,1.350664496421813965e-01,1.350654661655426025e-01,1.350643932819366455e-01,1.350633800029754639e-01,1.350623667240142822e-01,1.350612044334411621e-01,1.350602209568023682e-01,1.351433396339416504e-01,1.353014707565307617e-01,1.326688528060913086e-01,1.361963450908660889e-01,1.560706794261932373e-01,1.848423480987548828e-01,2.555860280990600586e-01,3.213972449302673340e-01
3.154068887233734131e-01,2.163174748420715332e-01,1.861384510993957520e-01,1.611066758632659912e-01,1.388702392578125000e-01,1.334075331687927246e-01,1.340979039669036865e-01,1.338769793510437012e-01,1.339849233627319336e-01,1.339842379093170166e-01,1.339832544326782227e-01,1.339823603630065918e-01,1.339815258979797363e-01,1.339804828166961670e-01,1.339795887470245361e-01,1.339787244796752930e-01,1.339778304100036621e-01,1.339769363403320312e-01,1.339760422706604004e-01,1.339750587940216064e-01,1.339741945266723633e-01,1.339732706546783447e-01,1.339724361896514893e-01,1.339715421199798584e-01,1.339704394340515137e-01,1.339695453643798828e-01,1.339688003063201904e-01,1.339679062366485596e-01,1.339669823646545410e-01,1.339661180973052979e-01,1.339652836322784424e-01,1.339644491672515869e-01,1.339634954929351807e-01,1.339626014232635498e-01,1.339615881443023682e-01,1.339608132839202881e-01,1.339598894119262695e-01,1.339590549468994141e-01,1.339579522609710693e-01,1.339571475982666016e-01,1.339564621448516846e-01,1.339552998542785645e-01,1.339545249938964844e-01,1.339536607265472412e-01,1.339527666568756104e-01,1.339518427848815918e-01,1.339508593082427979e-01,1.339498758316040039e-01,1.339490115642547607e-01,1.339480578899383545e-01,1.339472830295562744e-01,1.339462995529174805e-01,1.339454650878906250e-01,1.339446902275085449e-01,1.339435875415802002e-01,1.339426934719085693e-01,1.339417397975921631e-01,1.339411139488220215e-01,1.339401304721832275e-01,1.339392364025115967e-01,1.339382231235504150e-01,1.339373290538787842e-01,1.339364349842071533e-01,1.339355707168579102e-01,1.339347660541534424e-01,1.339337527751922607e-01,1.339327991008758545e-01,1.339319348335266113e-01,1.339310407638549805e-01,1.339302062988281250e-01,1.339293718338012695e-01,1.339283287525177002e-01,1.340041458606719971e-01,1.341729164123535156e-01,1.315885484218597412e-01,1.350832283496856689e-01,1.548396944999694824e-01,1.836564242839813232e-01,2.543112933635711670e-01,3.204424977302551270e-01
3.145852386951446533e-01,2.154016494750976562e-01,1.850208640098571777e-01,1.601206660270690918e-01,1.379151940345764160e-01,1.324419379234313965e-01,1.331226825714111328e-01,1.328981816768646240e-01,1.330009400844573975e-01,1.330002546310424805e-01,1.329994797706604004e-01,1.329986155033111572e-01,1.329979300498962402e-01,1.329968869686126709e-01,1.329962909221649170e-01,1.329954862594604492e-01,1.329946517944335938e-01,1.329938173294067383e-01,1.329931020736694336e-01,1.329922080039978027e-01,1.329916417598724365e-01,1.329907476902008057e-01,1.329899132251739502e-01,1.329892277717590332e-01,1.329884827136993408e-01,1.329876482486724854e-01,1.329868733882904053e-01,1.329861283302307129e-01,1.329853236675262451e-01,1.329844892024993896e-01,1.329838633537292480e-01,1.329829692840576172e-01,1.329821944236755371e-01,1.329813301563262939e-01,1.329805552959442139e-01,1.329798102378845215e-01,1.329791545867919922e-01,1.329781711101531982e-01,1.329774260520935059e-01,1.329768300056457520e-01,1.329759955406188965e-01,1.329752802848815918e-01,1.329743564128875732e-01,1.329735517501831055e-01,1.329728662967681885e-01,1.329721212387084961e-01,1.329713761806488037e-01,1.329704821109771729e-01,1.329696476459503174e-01,1.329690217971801758e-01,1.329681873321533203e-01,1.329674422740936279e-01,1.329666078090667725e-01,1.329658627510070801e-01,1.329650282859802246e-01,1.329643428325653076e-01,1.329635679721832275e-01,1.329626739025115967e-01,1.329618394374847412e-01,1.329611539840698242e-01,1.329602897167205811e-01,1.329596340656280518e-01,1.329588592052459717e-01,1.329580843448638916e-01,1.329572498798370361e-01,1.329564452171325684e-01,1.329557895660400391e-01,1.329550147056579590e-01,1.329541206359863281e-01,1.329533755779266357e-01,1.329526603221893311e-01,1.329519152641296387e-01,1.330215632915496826e-01,1.331990063190460205e-01,1.306572854518890381e-01,1.341236531734466553e-01,1.537784636020660400e-01,1.826295256614685059e-01,2.532060742378234863e-01,3.196159601211547852e-01
3.138669431209564209e-01,2.146016955375671387e-01,1.840461492538452148e-01,1.592603325843811035e-01,1.370836496353149414e-01,1.316005289554595947e-01,1.322730183601379395e-01,1.320451796054840088e-01,1.321434080600738525e-01,1.321428120136260986e-01,1.321421265602111816e-01,1.321415603160858154e-01,1.321409046649932861e-01,1.321401000022888184e-01,1.321394145488739014e-01,1.321386992931365967e-01,1.321379542350769043e-01,1.321373581886291504e-01,1.321367621421813965e-01,1.321360170841217041e-01,1.321353614330291748e-01,1.321346163749694824e-01,1.321339905261993408e-01,1.321334242820739746e-01,1.321327686309814453e-01,1.321319043636322021e-01,1.321312785148620605e-01,1.321305930614471436e-01,1.321298778057098389e-01,1.321291327476501465e-01,1.321285665035247803e-01,1.321278214454650879e-01,1.321271061897277832e-01,1.321264207363128662e-01,1.321257054805755615e-01,1.321250200271606445e-01,1.321243345737457275e-01,1.321237683296203613e-01,1.321228742599487305e-01,1.321222484111785889e-01,1.321217715740203857e-01,1.321210563182830811e-01,1.321203708648681641e-01,1.321197152137756348e-01,1.321190595626831055e-01,1.321182847023010254e-01,1.321175992488861084e-01,1.321169137954711914e-01,1.321161687374114990e-01,1.321155428886413574e-01,1.321148276329040527e-01,1.321141719818115234e-01,1.321134865283966064e-01,1.321127116680145264e-01,1.321121156215667725e-01,1.321114897727966309e-01,1.321108639240264893e-01,1.321099996566772461e-01,1.321093738079071045e-01,1.321086287498474121e-01,1.321081519126892090e-01,1.321073472499847412e-01,1.321067512035369873e-01,1.321059465408325195e-01,1.321053802967071533e-01,1.321048140525817871e-01,1.321038603782653809e-01,1.321031749248504639e-01,1.321026086807250977e-01,1.321018338203430176e-01,1.321011483669281006e-01,1.321005523204803467e-01,1.321651637554168701e-01,1.323500871658325195e-01,1.298455595970153809e-01,1.332875788211822510e-01,1.528543531894683838e-01,1.817319095134735107e-01,2.522386312484741211e-01,3.188933134078979492e-01
3.132335841655731201e-01,2.138964533805847168e-01,1.831885874271392822e-01,1.585029959678649902e-01,1.363527476787567139e-01,1.308606266975402832e-01,1.315258443355560303e-01,1.312955021858215332e-01,1.313898265361785889e-01,1.313892602920532227e-01,1.313886642456054688e-01,1.313879787921905518e-01,1.313873231410980225e-01,1.313866674900054932e-01,1.313861310482025146e-01,1.313855648040771484e-01,1.313847899436950684e-01,1.313842535018920898e-01,1.313837468624114990e-01,1.313830614089965820e-01,1.313825249671936035e-01,1.313818693161010742e-01,1.313813328742980957e-01,1.313807070255279541e-01,1.313801109790802002e-01,1.313793063163757324e-01,1.313789188861846924e-01,1.313783228397369385e-01,1.313777863979339600e-01,1.313771307468414307e-01,1.313764750957489014e-01,1.313757896423339844e-01,1.313751637935638428e-01,1.313746273517608643e-01,1.313740015029907227e-01,1.313733756542205811e-01,1.313728392124176025e-01,1.313721835613250732e-01,1.313716769218444824e-01,1.313708722591400146e-01,1.313703656196594238e-01,1.313698887825012207e-01,1.313692331314086914e-01,1.313686668872833252e-01,1.313678622245788574e-01,1.313673257827758789e-01,1.313667595386505127e-01,1.313660740852355957e-01,1.313655078411102295e-01,1.313650310039520264e-01,1.313643455505371094e-01,1.313638389110565186e-01,1.313631236553192139e-01,1.313625276088714600e-01,1.313620209693908691e-01,1.313613951206207275e-01,1.313607096672058105e-01,1.313599944114685059e-01,1.313595175743103027e-01,1.313588917255401611e-01,1.313583254814147949e-01,1.313576698303222656e-01,1.313571631908416748e-01,1.313565075397491455e-01,1.313559114933013916e-01,1.313552558422088623e-01,1.313546895980834961e-01,1.313540935516357422e-01,1.313535869121551514e-01,1.313528418540954590e-01,1.313522756099700928e-01,1.313516795635223389e-01,1.314120292663574219e-01,1.316035091876983643e-01,1.291320025920867920e-01,1.325527727603912354e-01,1.520419120788574219e-01,1.809404492378234863e-01,2.513841986656188965e-01,3.182561695575714111e-01
3.126705884933471680e-01,2.132702171802520752e-01,1.824279129505157471e-01,1.578315496444702148e-01,1.357054412364959717e-01,1.302044689655303955e-01,1.308639645576477051e-01,1.306311786174774170e-01,1.307217776775360107e-01,1.307212412357330322e-01,1.307205855846405029e-01,1.307200193405151367e-01,1.307197213172912598e-01,1.307190060615539551e-01,1.307186186313629150e-01,1.307180821895599365e-01,1.307174265384674072e-01,1.307170689105987549e-01,1.307164132595062256e-01,1.307159066200256348e-01,1.307154893875122070e-01,1.307148039340972900e-01,1.307143270969390869e-01,1.307137608528137207e-01,1.307131648063659668e-01,1.307126283645629883e-01,1.307120621204376221e-01,1.307116448879241943e-01,1.307110488414764404e-01,1.307104229927062988e-01,1.307098865509033203e-01,1.307094097137451172e-01,1.307088434696197510e-01,1.307083368301391602e-01,1.307078301906585693e-01,1.307074725627899170e-01,1.307066679000854492e-01,1.307061612606048584e-01,1.307055950164794922e-01,1.307051479816436768e-01,1.307044923305511475e-01,1.307040750980377197e-01,1.307035684585571289e-01,1.307030618190765381e-01,1.307023763656616211e-01,1.307019889354705811e-01,1.307013630867004395e-01,1.307008564472198486e-01,1.307003200054168701e-01,1.306997835636138916e-01,1.306991577148437500e-01,1.306985914707183838e-01,1.306981742382049561e-01,1.306974589824676514e-01,1.306970715522766113e-01,1.306965649127960205e-01,1.306960582733154297e-01,1.306954920291900635e-01,1.306950747966766357e-01,1.306942999362945557e-01,1.306938230991363525e-01,1.306933462619781494e-01,1.306927800178527832e-01,1.306921839714050293e-01,1.306917369365692139e-01,1.306912302970886230e-01,1.306907832622528076e-01,1.306901574134826660e-01,1.306895911693572998e-01,1.306889057159423828e-01,1.306885182857513428e-01,1.306879818439483643e-01,1.307447254657745361e-01,1.309415400028228760e-01,1.284997165203094482e-01,1.319016814231872559e-01,1.513219475746154785e-01,1.802372634410858154e-01,2.506238222122192383e-01,3.176896870136260986e-01
3.121666908264160156e-01,2.127099335193634033e-01,1.817485988140106201e-01,1.572314798831939697e-01,1.351280808448791504e-01,1.296189427375793457e-01,1.302732825279235840e-01,1.300384104251861572e-01,1.301257610321044922e-01,1.301252543926239014e-01,1.301249265670776367e-01,1.301242709159851074e-01,1.301238834857940674e-01,1.301233172416687012e-01,1.301229894161224365e-01,1.301225125789642334e-01,1.301218569278717041e-01,1.301214993000030518e-01,1.301209926605224609e-01,1.301205158233642578e-01,1.301199197769165039e-01,1.301194727420806885e-01,1.301190555095672607e-01,1.301186382770538330e-01,1.301181614398956299e-01,1.301175653934478760e-01,1.301172077655792236e-01,1.301165521144866943e-01,1.301161348819732666e-01,1.301156580448150635e-01,1.301150918006896973e-01,1.301147341728210449e-01,1.301142573356628418e-01,1.301138103008270264e-01,1.301133632659912109e-01,1.301127970218658447e-01,1.301122903823852539e-01,1.301119327545166016e-01,1.301114261150360107e-01,1.301109790802001953e-01,1.301105022430419922e-01,1.301100254058837891e-01,1.301094889640808105e-01,1.301090121269226074e-01,1.301084458827972412e-01,1.301079392433166504e-01,1.301074326038360596e-01,1.301069557666778564e-01,1.301065385341644287e-01,1.301060616970062256e-01,1.301055848598480225e-01,1.301051676273345947e-01,1.301046311855316162e-01,1.301041245460510254e-01,1.301037967205047607e-01,1.301032006740570068e-01,1.301026642322540283e-01,1.301022171974182129e-01,1.301018297672271729e-01,1.301014125347137451e-01,1.301009356975555420e-01,1.301003098487854004e-01,1.300998926162719727e-01,1.300994157791137695e-01,1.300989985466003418e-01,1.300985515117645264e-01,1.300979256629943848e-01,1.300975382328033447e-01,1.300970017910003662e-01,1.300965547561645508e-01,1.300960779190063477e-01,1.300956606864929199e-01,1.301491260528564453e-01,1.303507089614868164e-01,1.279353797435760498e-01,1.313208937644958496e-01,1.506793797016143799e-01,1.796080172061920166e-01,2.499428391456604004e-01,3.171827197074890137e-01
3.118184208869934082e-01,2.123118042945861816e-01,1.813253760337829590e-01,1.568610668182373047e-01,1.347560584545135498e-01,1.292505562305450439e-01,1.299235820770263672e-01,1.296933591365814209e-01,1.297777891159057617e-01,1.297775208950042725e-01,1.297772228717803955e-01,1.297767162322998047e-01,1.297760903835296631e-01,1.297757029533386230e-01,1.297752261161804199e-01,1.297747194766998291e-01,1.297743022441864014e-01,1.297740042209625244e-01,1.297735869884490967e-01,1.297730505466461182e-01,1.297725141048431396e-01,1.297721862792968750e-01,1.297717094421386719e-01,1.297713518142700195e-01,1.297709047794342041e-01,1.297704577445983887e-01,1.297699213027954102e-01,1.297697126865386963e-01,1.297692358493804932e-01,1.297686994075775146e-01,1.297682225704193115e-01,1.297679245471954346e-01,1.297674477100372314e-01,1.297669112682342529e-01,1.297664642333984375e-01,1.297661364078521729e-01,1.297657787799835205e-01,1.297651529312133789e-01,1.297648549079895020e-01,1.297644078731536865e-01,1.297641098499298096e-01,1.297634541988372803e-01,1.297630667686462402e-01,1.297626793384552002e-01,1.297623217105865479e-01,1.297618150711059570e-01,1.297613978385925293e-01,1.297609210014343262e-01,1.297606825828552246e-01,1.297601163387298584e-01,1.297596096992492676e-01,1.297592818737030029e-01,1.297588348388671875e-01,1.297582685947418213e-01,1.297578215599060059e-01,1.297574937343597412e-01,1.297569870948791504e-01,1.297564804553985596e-01,1.297560632228851318e-01,1.297555863857269287e-01,1.297552287578582764e-01,1.297547817230224609e-01,1.297544836997985840e-01,1.297540068626403809e-01,1.297534406185150146e-01,1.297530233860015869e-01,1.297526359558105469e-01,1.297521591186523438e-01,1.297518014907836914e-01,1.297514736652374268e-01,1.297509372234344482e-01,1.297504901885986328e-01,1.298029720783233643e-01,1.300064325332641602e-01,1.276075243949890137e-01,1.309843063354492188e-01,1.502359807491302490e-01,1.792212128639221191e-01,2.494851946830749512e-01,3.168776631355285645e-01
3.111398816108703613e-01,2.116870284080505371e-01,1.807511746883392334e-01,1.563099026679992676e-01,1.342020034790039062e-01,1.286921203136444092e-01,1.293114423751831055e-01,1.290592551231384277e-01,1.291371881961822510e-01,1.291368305683135986e-01,1.291365325450897217e-01,1.291360557079315186e-01,1.291357278823852539e-01,1.291352808475494385e-01,1.291349232196807861e-01,1.291344463825225830e-01,1.291339695453643799e-01,1.291336715221405029e-01,1.291332840919494629e-01,1.291328966617584229e-01,1.291324496269226074e-01,1.291320323944091797e-01,1.291316151618957520e-01,1.291311681270599365e-01,1.291308999061584473e-01,1.291304528713226318e-01,1.291301548480987549e-01,1.291298568248748779e-01,1.291292905807495117e-01,1.291289627552032471e-01,1.291285157203674316e-01,1.291280984878540039e-01,1.291276216506958008e-01,1.291274130344390869e-01,1.291272044181823730e-01,1.291267275810241699e-01,1.291262507438659668e-01,1.291259229183197021e-01,1.291255056858062744e-01,1.291250884532928467e-01,1.291247308254241943e-01,1.291242539882659912e-01,1.291236877441406250e-01,1.291234791278839111e-01,1.291231811046600342e-01,1.291227042675018311e-01,1.291222274303436279e-01,1.291220188140869141e-01,1.291216313838958740e-01,1.291212737560272217e-01,1.291208863258361816e-01,1.291205286979675293e-01,1.291201114654541016e-01,1.291196942329406738e-01,1.291192471981048584e-01,1.291188895702362061e-01,1.291185617446899414e-01,1.291181743144989014e-01,1.291177272796630859e-01,1.291174292564392090e-01,1.291170120239257812e-01,1.291166543960571289e-01,1.291162371635437012e-01,1.291158795356750488e-01,1.291154623031616211e-01,1.291149854660034180e-01,1.291146576404571533e-01,1.291142702102661133e-01,1.291139721870422363e-01,1.291135847568511963e-01,1.291130781173706055e-01,1.291128098964691162e-01,1.291632354259490967e-01,1.293483972549438477e-01,1.269495785236358643e-01,1.303479373455047607e-01,1.497489809989929199e-01,1.785836517810821533e-01,2.489463388919830322e-01,3.162116110324859619e-01
3.148867189884185791e-01,2.120696902275085449e-01,1.826684176921844482e-01,1.585097312927246094e-01,1.351012885570526123e-01,1.294089257717132568e-01,1.298452615737915039e-01,1.296213865280151367e-01,1.297031044960021973e-01,1.297028064727783203e-01,1.297024786472320557e-01,1.297021210193634033e-01,1.297017633914947510e-01,1.297013461589813232e-01,1.297010183334350586e-01,1.297007203102111816e-01,1.297002136707305908e-01,1.296998262405395508e-01,1.296996474266052246e-01,1.296992003917694092e-01,1.296989321708679199e-01,1.296984851360321045e-01,1.296982169151306152e-01,1.296978294849395752e-01,1.296974122524261475e-01,1.296969950199127197e-01,1.296968162059783936e-01,1.296964585781097412e-01,1.296959817409515381e-01,1.296955645084381104e-01,1.296952366828918457e-01,1.296948790550231934e-01,1.296945214271545410e-01,1.296942532062530518e-01,1.296937465667724609e-01,1.296934485435485840e-01,1.296930313110351562e-01,1.296927630901336670e-01,1.296923458576202393e-01,1.296919584274291992e-01,1.296916007995605469e-01,1.296913325786590576e-01,1.296910047531127930e-01,1.296906173229217529e-01,1.296902596950531006e-01,1.296899616718292236e-01,1.296894848346710205e-01,1.296892166137695312e-01,1.296890079975128174e-01,1.296884715557098389e-01,1.296881437301635742e-01,1.296878457069396973e-01,1.296874582767486572e-01,1.296872496604919434e-01,1.296867132186889648e-01,1.296864151954650879e-01,1.296860277652740479e-01,1.296856701374053955e-01,1.296854019165039062e-01,1.296849846839904785e-01,1.296846866607666016e-01,1.296842396259307861e-01,1.296840608119964600e-01,1.296836137771606445e-01,1.296833157539367676e-01,1.296828687191009521e-01,1.296823918819427490e-01,1.296819746494293213e-01,1.296817064285278320e-01,1.296813786029815674e-01,1.296811103820800781e-01,1.296806931495666504e-01,1.297214627265930176e-01,1.299290359020233154e-01,1.277341246604919434e-01,1.309969127178192139e-01,1.498534381389617920e-01,1.788348853588104248e-01,2.511991858482360840e-01,3.164351284503936768e-01
3.202417492866516113e-01,2.136642038822174072e-01,1.759435534477233887e-01,1.545634269714355469e-01,1.335858404636383057e-01,1.276831626892089844e-01,1.283465623855590820e-01,1.280921995639801025e-01,1.281662583351135254e-01,1.281658709049224854e-01,1.281655728816986084e-01,1.281653642654418945e-01,1.281648874282836914e-01,1.281647086143493652e-01,1.281642913818359375e-01,1.281640231609344482e-01,1.281637549400329590e-01,1.281633973121643066e-01,1.281630396842956543e-01,1.281627714633941650e-01,1.281625032424926758e-01,1.281621754169464111e-01,1.281616985797882080e-01,1.281613707542419434e-01,1.281610429286956787e-01,1.281607449054718018e-01,1.281605362892150879e-01,1.281601190567016602e-01,1.281599402427673340e-01,1.281595826148986816e-01,1.281591057777404785e-01,1.281588077545166016e-01,1.281585991382598877e-01,1.281583607196807861e-01,1.281579732894897461e-01,1.281577348709106445e-01,1.281572282314300537e-01,1.281569302082061768e-01,1.281566619873046875e-01,1.281563937664031982e-01,1.281560659408569336e-01,1.281557083129882812e-01,1.281554996967315674e-01,1.281550824642181396e-01,1.281548142433166504e-01,1.281545460224151611e-01,1.281542778015136719e-01,1.281538605690002441e-01,1.281534731388092041e-01,1.281532645225524902e-01,1.281529963016510010e-01,1.281525790691375732e-01,1.281523108482360840e-01,1.281519830226898193e-01,1.281516253948211670e-01,1.281512975692749023e-01,1.281509697437286377e-01,1.281507313251495361e-01,1.281502544879913330e-01,1.281499862670898438e-01,1.281496882438659668e-01,1.281493604183197021e-01,1.281490027904510498e-01,1.281487643718719482e-01,1.281484365463256836e-01,1.281482279300689697e-01,1.281479299068450928e-01,1.281474828720092773e-01,1.281471848487854004e-01,1.281468868255615234e-01,1.281465590000152588e-01,1.281462609767913818e-01,1.281685829162597656e-01,1.284448504447937012e-01,1.258989870548248291e-01,1.288001239299774170e-01,1.495799422264099121e-01,1.731261610984802246e-01,2.493332326412200928e-01,3.113791942596435547e-01
3.096936345100402832e-01,2.064531147480010986e-01,1.697978079319000244e-01,1.503065824508666992e-01,1.352153420448303223e-01,1.277408599853515625e-01,1.272585391998291016e-01,1.270285844802856445e-01,1.271136403083801270e-01,1.271135509014129639e-01,1.271131038665771484e-01,1.271128058433532715e-01,1.271125972270965576e-01,1.271124184131622314e-01,1.271120607852935791e-01,1.271119117736816406e-01,1.271115243434906006e-01,1.271112561225891113e-01,1.271109879016876221e-01,1.271107792854309082e-01,1.271105706691741943e-01,1.271103620529174805e-01,1.271100342273712158e-01,1.271097362041473389e-01,1.271094679832458496e-01,1.271091997623443604e-01,1.271089613437652588e-01,1.271086633205413818e-01,1.271083950996398926e-01,1.271081268787384033e-01,1.271078288555145264e-01,1.271075308322906494e-01,1.271074116230010986e-01,1.271072328090667725e-01,1.271069645881652832e-01,1.271065771579742432e-01,1.271062791347503662e-01,1.271059513092041016e-01,1.271058022975921631e-01,1.271054148674011230e-01,1.271052658557891846e-01,1.271049976348876953e-01,1.271046698093414307e-01,1.271043717861175537e-01,1.271041929721832275e-01,1.271039843559265137e-01,1.271036267280578613e-01,1.271034181118011475e-01,1.271030306816101074e-01,1.271028220653533936e-01,1.271026134490966797e-01,1.271022856235504150e-01,1.271020770072937012e-01,1.271018087863922119e-01,1.271014213562011719e-01,1.271011233329772949e-01,1.271009147167205811e-01,1.271006464958190918e-01,1.271003782749176025e-01,1.271001696586608887e-01,1.270999610424041748e-01,1.270996332168579102e-01,1.270993053913116455e-01,1.270990967750549316e-01,1.270987391471862793e-01,1.270985305309295654e-01,1.270983219146728516e-01,1.270980536937713623e-01,1.270977854728698730e-01,1.270975768566131592e-01,1.270971298217773438e-01,1.270968317985534668e-01,1.271213889122009277e-01,1.273247599601745605e-01,1.248666346073150635e-01,1.229495406150817871e-01,1.377097368240356445e-01,1.726505458354949951e-01,2.519681453704833984e-01,3.331215083599090576e-01
3.062298893928527832e-01,2.007246017456054688e-01,1.694778203964233398e-01,1.528030037879943848e-01,1.370809376239776611e-01,1.295677125453948975e-01,1.311962902545928955e-01,1.311149597167968750e-01,1.311938464641571045e-01,1.311934590339660645e-01,1.311933696269989014e-01,1.311931610107421875e-01,1.311928927898406982e-01,1.311925947666168213e-01,1.311923861503601074e-01,1.311920583248138428e-01,1.311917603015899658e-01,1.311915218830108643e-01,1.311913728713989258e-01,1.311910450458526611e-01,1.311907470226287842e-01,1.311904788017272949e-01,1.311902105808258057e-01,1.311900019645690918e-01,1.311896741390228271e-01,1.311895549297332764e-01,1.311894357204437256e-01,1.311891674995422363e-01,1.311887204647064209e-01,1.311884522438049316e-01,1.311882436275482178e-01,1.311879754066467285e-01,1.311876177787780762e-01,1.311875879764556885e-01,1.311873197555541992e-01,1.311870515346527100e-01,1.311868727207183838e-01,1.311865746974945068e-01,1.311862468719482422e-01,1.311860382556915283e-01,1.311858594417572021e-01,1.311855316162109375e-01,1.311852335929870605e-01,1.311850249767303467e-01,1.311846673488616943e-01,1.311843395233154297e-01,1.311842501163482666e-01,1.311840116977691650e-01,1.311838030815124512e-01,1.311836242675781250e-01,1.311833560466766357e-01,1.311831474304199219e-01,1.311828792095184326e-01,1.311825513839721680e-01,1.311823427677154541e-01,1.311821341514587402e-01,1.311817765235900879e-01,1.311815381050109863e-01,1.311812996864318848e-01,1.311810314655303955e-01,1.311807334423065186e-01,1.311803162097930908e-01,1.311801075935363770e-01,1.311799883842468262e-01,1.311797499656677246e-01,1.311794519424438477e-01,1.311792135238647461e-01,1.311790049076080322e-01,1.311787962913513184e-01,1.311784982681274414e-01,1.311782896518707275e-01,1.311780810356140137e-01,1.312125325202941895e-01,1.314878761768341064e-01,1.279841363430023193e-01,1.284947693347930908e-01,1.471056342124938965e-01,1.686577200889587402e-01,2.794322967529296875e-01,3.499420881271362305e-01
3.475446701049804688e-01,2.508257031440734863e-01,2.128696739673614502e-01,1.775578558444976807e-01,1.580640971660614014e-01,1.525785923004150391e-01,1.536130011081695557e-01,1.534857749938964844e-01,1.535280346870422363e-01,1.535279154777526855e-01,1.535276770591735840e-01,1.535274088382720947e-01,1.535271704196929932e-01,1.535271406173706055e-01,1.535269021987915039e-01,1.535267233848571777e-01,1.535264849662780762e-01,1.535263657569885254e-01,1.535261571407318115e-01,1.535260081291198730e-01,1.535257995128631592e-01,1.535256505012512207e-01,1.535254716873168945e-01,1.535252630710601807e-01,1.535251140594482422e-01,1.535249948501586914e-01,1.535247266292572021e-01,1.535244286060333252e-01,1.535243988037109375e-01,1.535241007804870605e-01,1.535239815711975098e-01,1.535238325595855713e-01,1.535235643386840820e-01,1.535234749317169189e-01,1.535232067108154297e-01,1.535229682922363281e-01,1.535227894783020020e-01,1.535227000713348389e-01,1.535226702690124512e-01,1.535223722457885742e-01,1.535221934318542480e-01,1.535220742225646973e-01,1.535220146179199219e-01,1.535216271877288818e-01,1.535216271877288818e-01,1.535213887691497803e-01,1.535212993621826172e-01,1.535210311412811279e-01,1.535208225250244141e-01,1.535206437110900879e-01,1.535204648971557617e-01,1.535201966762542725e-01,1.535201966762542725e-01,1.535199582576751709e-01,1.535198092460632324e-01,1.535195112228393555e-01,1.535194516181945801e-01,1.535192430019378662e-01,1.535190045833587646e-01,1.535189151763916016e-01,1.535187363624572754e-01,1.535184979438781738e-01,1.535183787345886230e-01,1.535180807113647461e-01,1.535178422927856445e-01,1.535176634788513184e-01,1.535174548625946045e-01,1.535174250602722168e-01,1.535171866416931152e-01,1.535168588161468506e-01,1.535167694091796875e-01,1.535165607929229736e-01,1.535574793815612793e-01,1.535922884941101074e-01,1.508497595787048340e-01,1.549083888530731201e-01,1.623889505863189697e-01,1.791514456272125244e-01,2.733386754989624023e-01,3.525872230529785156e-01
