5.884726047515869141e-01,6.138983368873596191e-01,6.564633250236511230e-01,6.572207212448120117e-01,6.807270050048828125e-01,7.049429416656494141e-01,7.413111925125122070e-01,7.627179026603698730e-01,7.834934592247009277e-01,8.021330833435058594e-01,8.199249505996704102e-01,8.364280462265014648e-01,8.513945341110229492e-01,8.647265434265136719e-01,8.763748407363891602e-01,8.859133124351501465e-01,8.929368257522583008e-01,8.976853489875793457e-01,9.009730219841003418e-01,9.031087160110473633e-01,9.043347835540771484e-01,9.050054550170898438e-01,9.052593708038330078e-01,9.053182601928710938e-01,9.053307771682739258e-01,9.053288698196411133e-01,9.053283333778381348e-01,9.053283333778381348e-01,9.053283333778381348e-01,9.053283333778381348e-01,9.053283333778381348e-01,9.053283333778381348e-01,9.053283333778381348e-01,9.053283333778381348e-01,9.053283333778381348e-01,9.053283333778381348e-01,9.053283333778381348e-01,9.053283333778381348e-01,9.053283333778381348e-01,9.053283333778381348e-01,9.053298830986022949e-01,9.053326845169067383e-01,9.055466651916503906e-01,9.056591391563415527e-01,9.052667617797851562e-01,9.016947746276855469e-01,8.946604728698730469e-01,8.872032165527343750e-01,8.752483725547790527e-01,8.587036132812500000e-01,8.229907751083374023e-01,7.640882730484008789e-01,7.013683319091796875e-01,6.562317609786987305e-01,6.159012913703918457e-01,6.066545844078063965e-01,6.097334623336791992e-01,6.188125014305114746e-01,6.411008834838867188e-01,6.823193430900573730e-01,7.292259931564331055e-01,7.919237017631530762e-01,8.396180868148803711e-01,8.636797666549682617e-01,8.814771175384521484e-01,8.916162252426147461e-01,8.964199423789978027e-01,9.001566171646118164e-01,8.986032605171203613e-01,8.951026201248168945e-01,8.888538479804992676e-01,8.804025650024414062e-01,8.711078763008117676e-01,8.582282066345214844e-01,8.296720385551452637e-01,8.087019920349121094e-01,8.011064529418945312e-01,7.750983238220214844e-01,7.223886251449584961e-01,6.163011193275451660e-01
5.884658098220825195e-01,6.138872504234313965e-01,6.564501523971557617e-01,6.572055220603942871e-01,6.807101368904113770e-01,7.049251198768615723e-01,7.412922382354736328e-01,7.627008557319641113e-01,7.834740877151489258e-01,8.021126985549926758e-01,8.199118375778198242e-01,8.364155292510986328e-01,8.513832092285156250e-01,8.647162914276123047e-01,8.763558268547058105e-01,8.859017491340637207e-01,8.929387331008911133e-01,8.976817727088928223e-01,9.009665846824645996e-01,9.031096696853637695e-01,9.043335914611816406e-01,9.050043821334838867e-01,9.052593708038330078e-01,9.053182601928710938e-01,9.053307175636291504e-01,9.053288698196411133e-01,9.053283333778381348e-01,9.053283333778381348e-01,9.053283333778381348e-01,9.053283333778381348e-01,9.053283333778381348e-01,9.053283333778381348e-01,9.053283333778381348e-01,9.053283333778381348e-01,9.053283333778381348e-01,9.053283333778381348e-01,9.053283333778381348e-01,9.053283333778381348e-01,9.053283333778381348e-01,9.053283333778381348e-01,9.053250551223754883e-01,9.053386449813842773e-01,9.054362773895263672e-01,9.056235551834106445e-01,9.050120115280151367e-01,9.019341468811035156e-01,8.963251113891601562e-01,8.853847980499267578e-01,8.732070922851562500e-01,8.550307750701904297e-01,8.275139331817626953e-01,7.540001273155212402e-01,6.989656686782836914e-01,6.544868946075439453e-01,6.146097183227539062e-01,5.988046526908874512e-01,5.935702323913574219e-01,6.082078218460083008e-01,6.371747255325317383e-01,6.800174713134765625e-01,7.303978204727172852e-01,7.929676175117492676e-01,8.372969627380371094e-01,8.610472083091735840e-01,8.805378079414367676e-01,8.916561603546142578e-01,8.970328569412231445e-01,9.003748893737792969e-01,8.986630439758300781e-01,8.950709700584411621e-01,8.888535499572753906e-01,8.804326653480529785e-01,8.711175918579101562e-01,8.582204580307006836e-01,8.296884298324584961e-01,8.087202310562133789e-01,8.011192083358764648e-01,7.751101255416870117e-01,7.223999500274658203e-01,6.163099408149719238e-01
5.884587764739990234e-01,6.138759255409240723e-01,6.564371585845947266e-01,6.571903228759765625e-01,6.806933283805847168e-01,7.049080133438110352e-01,7.412747144699096680e-01,7.626827955245971680e-01,7.834564447402954102e-01,8.020948171615600586e-01,8.198945522308349609e-01,8.364008665084838867e-01,8.513687849044799805e-01,8.647037148475646973e-01,8.763449192047119141e-01,8.858929872512817383e-01,8.929314017295837402e-01,8.976773023605346680e-01,9.009639024734497070e-01,9.031083583831787109e-01,9.043330550193786621e-01,9.050038456916809082e-01,9.052593111991882324e-01,9.053181409835815430e-01,9.053306579589843750e-01,9.053288698196411133e-01,9.053283333778381348e-01,9.053283333778381348e-01,9.053283333778381348e-01,9.053283333778381348e-01,9.053283333778381348e-01,9.053283333778381348e-01,9.053283333778381348e-01,9.053283333778381348e-01,9.053283333778381348e-01,9.053283333778381348e-01,9.053283333778381348e-01,9.053283333778381348e-01,9.053283333778381348e-01,9.053283333778381348e-01,9.053294658660888672e-01,9.053260684013366699e-01,9.053416252136230469e-01,9.058228731155395508e-01,9.055479764938354492e-01,9.027307033538818359e-01,8.965861797332763672e-01,8.868104219436645508e-01,8.745081424713134766e-01,8.561437726020812988e-01,8.193984627723693848e-01,7.566407918930053711e-01,6.949664950370788574e-01,6.491422057151794434e-01,6.088196039199829102e-01,5.930727124214172363e-01,5.936136841773986816e-01,6.058301925659179688e-01,6.349042057991027832e-01,6.752898693084716797e-01,7.284362316131591797e-01,7.914398908615112305e-01,8.362979888916015625e-01,8.604004383087158203e-01,8.808467388153076172e-01,8.912054300308227539e-01,8.970266580581665039e-01,9.004112482070922852e-01,8.987033367156982422e-01,8.951140046119689941e-01,8.888612985610961914e-01,8.804391622543334961e-01,8.711243867874145508e-01,8.582285046577453613e-01,8.297023177146911621e-01,8.087347745895385742e-01,8.011319041252136230e-01,7.751231789588928223e-01,7.224109172821044922e-01,6.163163185119628906e-01
5.884519219398498535e-01,6.138651967048645020e-01,6.564244031906127930e-01,6.571753621101379395e-01,6.806769371032714844e-01,7.048908472061157227e-01,7.412574887275695801e-01,7.626655697822570801e-01,7.834390997886657715e-01,8.020775914192199707e-01,8.198782801628112793e-01,8.363854885101318359e-01,8.513550162315368652e-01,8.646911382675170898e-01,8.763340115547180176e-01,8.858845829963684082e-01,8.929255008697509766e-01,8.976731896400451660e-01,9.009611010551452637e-01,9.031067490577697754e-01,9.043320417404174805e-01,9.050033092498779297e-01,9.052591323852539062e-01,9.053180217742919922e-01,9.053307175636291504e-01,9.053288698196411133e-01,9.053283333778381348e-01,9.053283333778381348e-01,9.053283333778381348e-01,9.053283333778381348e-01,9.053283333778381348e-01,9.053283333778381348e-01,9.053283333778381348e-01,9.053283333778381348e-01,9.053283333778381348e-01,9.053283333778381348e-01,9.053283333778381348e-01,9.053283333778381348e-01,9.053283333778381348e-01,9.053283333778381348e-01,9.053264856338500977e-01,9.053232669830322266e-01,9.053153991699218750e-01,9.056531190872192383e-01,9.057142734527587891e-01,9.025326371192932129e-01,8.959921598434448242e-01,8.868749141693115234e-01,8.737457990646362305e-01,8.541008234024047852e-01,8.223079442977905273e-01,7.586123943328857422e-01,6.964167356491088867e-01,6.446822881698608398e-01,6.103865504264831543e-01,5.923712849617004395e-01,5.935289263725280762e-01,6.034001111984252930e-01,6.331060528755187988e-01,6.755943298339843750e-01,7.304974198341369629e-01,7.926973104476928711e-01,8.374791145324707031e-01,8.596185445785522461e-01,8.803013563156127930e-01,8.912403583526611328e-01,8.969218134880065918e-01,9.004693031311035156e-01,8.986601829528808594e-01,8.951394557952880859e-01,8.888666033744812012e-01,8.804463148117065430e-01,8.711318969726562500e-01,8.582385778427124023e-01,8.297142982482910156e-01,8.087478876113891602e-01,8.011451363563537598e-01,7.751355171203613281e-01,7.224209904670715332e-01,6.163235306739807129e-01
5.884453654289245605e-01,6.138542890548706055e-01,6.564117074012756348e-01,6.571605801582336426e-01,6.806606054306030273e-01,7.048738598823547363e-01,7.412405014038085938e-01,7.626485824584960938e-01,7.834221124649047852e-01,8.020607233047485352e-01,8.198621273040771484e-01,8.363704085350036621e-01,8.513412475585937500e-01,8.646788597106933594e-01,8.763231039047241211e-01,8.858760595321655273e-01,8.929196596145629883e-01,8.976691961288452148e-01,9.009581208229064941e-01,9.031050205230712891e-01,9.043310284614562988e-01,9.050028324127197266e-01,9.052590131759643555e-01,9.053180217742919922e-01,9.053307175636291504e-01,9.053288698196411133e-01,9.053283333778381348e-01,9.053283333778381348e-01,9.053283333778381348e-01,9.053283333778381348e-01,9.053283333778381348e-01,9.053283333778381348e-01,9.053283333778381348e-01,9.053283333778381348e-01,9.053283333778381348e-01,9.053283333778381348e-01,9.053283333778381348e-01,9.053283333778381348e-01,9.053283333778381348e-01,9.053283333778381348e-01,9.053283929824829102e-01,9.053307175636291504e-01,9.053819179534912109e-01,9.056457281112670898e-01,9.058550596237182617e-01,9.028321504592895508e-01,8.964277505874633789e-01,8.873129487037658691e-01,8.749051094055175781e-01,8.544998168945312500e-01,8.224089145660400391e-01,7.606430649757385254e-01,6.966959238052368164e-01,6.477380394935607910e-01,6.129937171936035156e-01,5.967088341712951660e-01,5.936921238899230957e-01,6.045848727226257324e-01,6.342369914054870605e-01,6.758797168731689453e-01,7.307218313217163086e-01,7.926189303398132324e-01,8.373886346817016602e-01,8.600304126739501953e-01,8.808518648147583008e-01,8.915476799011230469e-01,8.970285654067993164e-01,9.005401134490966797e-01,8.988401889801025391e-01,8.951286077499389648e-01,8.888732194900512695e-01,8.804531097412109375e-01,8.711398243904113770e-01,8.582480549812316895e-01,8.297260999679565430e-01,8.087606430053710938e-01,8.011577129364013672e-01,7.751480937004089355e-01,7.224313020706176758e-01,6.163308024406433105e-01
5.884392261505126953e-01,6.138442158699035645e-01,6.563994288444519043e-01,6.571462154388427734e-01,6.806447505950927734e-01,7.048575878143310547e-01,7.412239313125610352e-01,7.626318931579589844e-01,7.834054231643676758e-01,8.020442724227905273e-01,8.198463916778564453e-01,8.363556861877441406e-01,8.513278961181640625e-01,8.646667003631591797e-01,8.763124942779541016e-01,8.858674764633178711e-01,8.929135203361511230e-01,8.976653218269348145e-01,9.009552001953125000e-01,9.031034708023071289e-01,9.043302536010742188e-01,9.050022363662719727e-01,9.052590131759643555e-01,9.053180217742919922e-01,9.053307175636291504e-01,9.053288698196411133e-01,9.053283333778381348e-01,9.053283333778381348e-01,9.053283333778381348e-01,9.053283333778381348e-01,9.053283333778381348e-01,9.053283333778381348e-01,9.053283333778381348e-01,9.053283333778381348e-01,9.053283333778381348e-01,9.053283333778381348e-01,9.053283333778381348e-01,9.053283333778381348e-01,9.053283333778381348e-01,9.053283333778381348e-01,9.053279161453247070e-01,9.053301811218261719e-01,9.053345918655395508e-01,9.056318402290344238e-01,9.057457447052001953e-01,9.026057720184326172e-01,8.969866633415222168e-01,8.887486457824707031e-01,8.756347894668579102e-01,8.561133742332458496e-01,8.237133622169494629e-01,7.622173428535461426e-01,7.008504271507263184e-01,6.528167128562927246e-01,6.134112477302551270e-01,5.963636636734008789e-01,5.929704308509826660e-01,6.080926656723022461e-01,6.362414360046386719e-01,6.743886470794677734e-01,7.281689643859863281e-01,7.917869091033935547e-01,8.376340866088867188e-01,8.588218688964843750e-01,8.791515827178955078e-01,8.911739587783813477e-01,8.970237970352172852e-01,9.002951383590698242e-01,8.987253904342651367e-01,8.951226472854614258e-01,8.888769149780273438e-01,8.804599642753601074e-01,8.711479902267456055e-01,8.582578301429748535e-01,8.297376632690429688e-01,8.087736368179321289e-01,8.011704683303833008e-01,7.751605510711669922e-01,7.224414348602294922e-01,6.163378953933715820e-01
5.884337425231933594e-01,6.138346791267395020e-01,6.563882231712341309e-01,6.571323871612548828e-01,6.806294322013854980e-01,7.048418521881103516e-01,7.412078380584716797e-01,7.626157999038696289e-01,7.833893299102783203e-01,8.020279407501220703e-01,8.198310732841491699e-01,8.363413810729980469e-01,8.513145446777343750e-01,8.646548986434936523e-01,8.763022422790527344e-01,8.858591318130493164e-01,8.929077386856079102e-01,8.976613283157348633e-01,9.009524583816528320e-01,9.031016230583190918e-01,9.043291807174682617e-01,9.050017595291137695e-01,9.052589535713195801e-01,9.053179025650024414e-01,9.053307175636291504e-01,9.053288698196411133e-01,9.053283333778381348e-01,9.053283333778381348e-01,9.053283333778381348e-01,9.053283333778381348e-01,9.053283333778381348e-01,9.053283333778381348e-01,9.053283333778381348e-01,9.053283333778381348e-01,9.053283333778381348e-01,9.053283333778381348e-01,9.053283333778381348e-01,9.053283333778381348e-01,9.053283333778381348e-01,9.053283333778381348e-01,9.053286314010620117e-01,9.053317904472351074e-01,9.053432941436767578e-01,9.055383205413818359e-01,9.058096408843994141e-01,9.029766917228698730e-01,8.974044322967529297e-01,8.898400068283081055e-01,8.776128888130187988e-01,8.573628664016723633e-01,8.251696825027465820e-01,7.648106813430786133e-01,7.102332115173339844e-01,6.629279851913452148e-01,6.179952621459960938e-01,5.976924896240234375e-01,6.073816418647766113e-01,6.107082962989807129e-01,6.339694857597351074e-01,6.709383726119995117e-01,7.318705916404724121e-01,7.940400838851928711e-01,8.373151421546936035e-01,8.592386245727539062e-01,8.809803128242492676e-01,8.910783529281616211e-01,8.970490694046020508e-01,9.000440835952758789e-01,8.988049030303955078e-01,8.950940370559692383e-01,8.888814449310302734e-01,8.804668188095092773e-01,8.711558580398559570e-01,8.582674264907836914e-01,8.297493457794189453e-01,8.087865114212036133e-01,8.011832237243652344e-01,7.751728892326354980e-01,7.224516272544860840e-01,6.163450479507446289e-01
5.884287953376770020e-01,6.138263940811157227e-01,6.563782691955566406e-01,6.571201086044311523e-01,6.806154251098632812e-01,7.048269510269165039e-01,7.411924004554748535e-01,7.626001238822937012e-01,7.833734750747680664e-01,8.020124435424804688e-01,8.198160529136657715e-01,8.363276124000549316e-01,8.513018488883972168e-01,8.646434545516967773e-01,8.762921094894409180e-01,8.858510851860046387e-01,8.929021358489990234e-01,8.976577520370483398e-01,9.009497165679931641e-01,9.031001329421997070e-01,9.043283462524414062e-01,9.050012826919555664e-01,9.052587747573852539e-01,9.053179025650024414e-01,9.053307175636291504e-01,9.053288698196411133e-01,9.053283333778381348e-01,9.053283333778381348e-01,9.053283333778381348e-01,9.053283333778381348e-01,9.053283333778381348e-01,9.053283333778381348e-01,9.053283333778381348e-01,9.053283333778381348e-01,9.053283333778381348e-01,9.053283333778381348e-01,9.053283333778381348e-01,9.053283333778381348e-01,9.053283333778381348e-01,9.053283333778381348e-01,9.053284525871276855e-01,9.053274393081665039e-01,9.053356647491455078e-01,9.055968523025512695e-01,9.059411883354187012e-01,9.031519889831542969e-01,8.989910483360290527e-01,8.913598060607910156e-01,8.804364204406738281e-01,8.604183197021484375e-01,8.292854428291320801e-01,7.766265869140625000e-01,7.215386629104614258e-01,6.681567430496215820e-01,6.242130994796752930e-01,6.134788990020751953e-01,6.181171536445617676e-01,6.209394931793212891e-01,6.365420818328857422e-01,6.766105294227600098e-01,7.371467351913452148e-01,7.885057926177978516e-01,8.349769115447998047e-01,8.609067201614379883e-01,8.805992603302001953e-01,8.908240795135498047e-01,8.972855806350708008e-01,9.004555940628051758e-01,8.987028598785400391e-01,8.950926661491394043e-01,8.888845443725585938e-01,8.804736137390136719e-01,8.711639642715454102e-01,8.582769632339477539e-01,8.297608494758605957e-01,8.087992072105407715e-01,8.011959791183471680e-01,7.751852273941040039e-01,7.224619984626770020e-01,6.163522005081176758e-01
5.884242057800292969e-01,6.138188838958740234e-01,6.563690900802612305e-01,6.571097373962402344e-01,6.806030869483947754e-01,7.048137187957763672e-01,7.411785721778869629e-01,7.625856399536132812e-01,7.833585739135742188e-01,8.019974231719970703e-01,8.198017477989196777e-01,8.363142013549804688e-01,8.512894511222839355e-01,8.646324872970581055e-01,8.762820959091186523e-01,8.858432769775390625e-01,8.928964138031005859e-01,8.976540565490722656e-01,9.009470939636230469e-01,9.030987024307250977e-01,9.043275713920593262e-01,9.050009250640869141e-01,9.052587747573852539e-01,9.053179025650024414e-01,9.053307771682739258e-01,9.053288698196411133e-01,9.053283333778381348e-01,9.053283333778381348e-01,9.053283333778381348e-01,9.053283333778381348e-01,9.053283333778381348e-01,9.053283333778381348e-01,9.053283333778381348e-01,9.053283333778381348e-01,9.053283333778381348e-01,9.053283333778381348e-01,9.053283333778381348e-01,9.053283333778381348e-01,9.053283333778381348e-01,9.053283333778381348e-01,9.053284525871276855e-01,9.053245782852172852e-01,9.053270816802978516e-01,9.055653810501098633e-01,9.058643579483032227e-01,9.039390087127685547e-01,9.000087976455688477e-01,8.938293457031250000e-01,8.840080499649047852e-01,8.650995492935180664e-01,8.353610038757324219e-01,7.904398441314697266e-01,7.398042678833007812e-01,6.770349740982055664e-01,6.366770267486572266e-01,6.318156123161315918e-01,6.349087953567504883e-01,6.268444061279296875e-01,6.516681909561157227e-01,6.811058521270751953e-01,7.315127253532409668e-01,7.979934811592102051e-01,8.329725861549377441e-01,8.596351742744445801e-01,8.797252178192138672e-01,8.895058631896972656e-01,8.966560363769531250e-01,8.996592164039611816e-01,8.985792398452758789e-01,8.950671553611755371e-01,8.888979554176330566e-01,8.804803490638732910e-01,8.711719512939453125e-01,8.582864999771118164e-01,8.297724723815917969e-01,8.088121414184570312e-01,8.012087345123291016e-01,7.751977443695068359e-01,7.224720716476440430e-01,6.163594722747802734e-01
5.884199142456054688e-01,6.138118505477905273e-01,6.563605070114135742e-01,6.570998430252075195e-01,6.805920600891113281e-01,7.048023939132690430e-01,7.411666512489318848e-01,7.625728845596313477e-01,7.833453416824340820e-01,8.019835352897644043e-01,8.197880983352661133e-01,8.363014459609985352e-01,8.512777090072631836e-01,8.646217584609985352e-01,8.762728571891784668e-01,8.858355283737182617e-01,8.928911685943603516e-01,8.976505994796752930e-01,9.009444117546081543e-01,9.030970335006713867e-01,9.043266773223876953e-01,9.050004482269287109e-01,9.052587747573852539e-01,9.053179025650024414e-01,9.053307771682739258e-01,9.053288698196411133e-01,9.053283333778381348e-01,9.053283333778381348e-01,9.053283333778381348e-01,9.053283333778381348e-01,9.053283333778381348e-01,9.053283333778381348e-01,9.053283333778381348e-01,9.053283333778381348e-01,9.053283333778381348e-01,9.053283333778381348e-01,9.053283333778381348e-01,9.053283333778381348e-01,9.053283333778381348e-01,9.053283333778381348e-01,9.053283333778381348e-01,9.053238630294799805e-01,9.053269028663635254e-01,9.056681394577026367e-01,9.063442945480346680e-01,9.046311378479003906e-01,9.017457365989685059e-01,8.969624042510986328e-01,8.854879140853881836e-01,8.677033185958862305e-01,8.448179960250854492e-01,8.066843748092651367e-01,7.706835269927978516e-01,7.087602019309997559e-01,6.667841672897338867e-01,6.466320753097534180e-01,6.559836864471435547e-01,6.589517593383789062e-01,6.688203811645507812e-01,6.899123787879943848e-01,7.390825748443603516e-01,8.016697168350219727e-01,8.412842750549316406e-01,8.616434335708618164e-01,8.807165026664733887e-01,8.919857740402221680e-01,8.974963426589965820e-01,9.000805616378784180e-01,8.984239101409912109e-01,8.950643539428710938e-01,8.888926506042480469e-01,8.804869055747985840e-01,8.711797595024108887e-01,8.582962155342102051e-01,8.297842144966125488e-01,8.088248968124389648e-01,8.012216091156005859e-01,7.752102017402648926e-01,7.224823832511901855e-01,6.163665056228637695e-01
5.884153246879577637e-01,6.138043403625488281e-01,6.563522815704345703e-01,6.570906639099121094e-01,6.805819869041442871e-01,7.047917246818542480e-01,7.411556839942932129e-01,7.625619173049926758e-01,7.833336591720581055e-01,8.019713759422302246e-01,8.197761178016662598e-01,8.362897038459777832e-01,8.512667417526245117e-01,8.646115660667419434e-01,8.762639760971069336e-01,8.858286738395690918e-01,8.928860425949096680e-01,8.976472616195678711e-01,9.009419083595275879e-01,9.030956029891967773e-01,9.043258428573608398e-01,9.050000905990600586e-01,9.052586555480957031e-01,9.053179025650024414e-01,9.053307175636291504e-01,9.053288698196411133e-01,9.053283333778381348e-01,9.053283333778381348e-01,9.053283333778381348e-01,9.053283333778381348e-01,9.053283333778381348e-01,9.053283333778381348e-01,9.053283333778381348e-01,9.053283333778381348e-01,9.053283333778381348e-01,9.053283333778381348e-01,9.053283333778381348e-01,9.053283333778381348e-01,9.053283333778381348e-01,9.053283333778381348e-01,9.053283333778381348e-01,9.053260087966918945e-01,9.053196907043457031e-01,9.056577682495117188e-01,9.062126874923706055e-01,9.044342041015625000e-01,9.028286933898925781e-01,9.003511667251586914e-01,8.902124166488647461e-01,8.753420114517211914e-01,8.552159070968627930e-01,8.272362947463989258e-01,7.897557020187377930e-01,7.285857200622558594e-01,6.933810710906982422e-01,6.766905784606933594e-01,6.882321834564208984e-01,6.853569149971008301e-01,6.901751756668090820e-01,7.020761370658874512e-01,7.563192844390869141e-01,8.065131306648254395e-01,8.398173451423645020e-01,8.610552549362182617e-01,8.804605603218078613e-01,8.902310729026794434e-01,8.968163728713989258e-01,9.000982046127319336e-01,8.987172842025756836e-01,8.951312303543090820e-01,8.888977766036987305e-01,8.804938793182373047e-01,8.711879253387451172e-01,8.583055734634399414e-01,8.297958374023437500e-01,8.088376522064208984e-01,8.012344837188720703e-01,7.752225399017333984e-01,7.224925756454467773e-01,6.163737177848815918e-01
5.884100794792175293e-01,6.137965321540832520e-01,6.563438773155212402e-01,6.570806503295898438e-01,6.805716753005981445e-01,7.047814130783081055e-01,7.411453723907470703e-01,7.625515460968017578e-01,7.833231687545776367e-01,8.019609451293945312e-01,8.197659254074096680e-01,8.362796306610107422e-01,8.512568473815917969e-01,8.646024465560913086e-01,8.762557506561279297e-01,8.858219981193542480e-01,8.928813338279724121e-01,8.976441621780395508e-01,9.009397029876708984e-01,9.030944108963012695e-01,9.043250083923339844e-01,9.049996137619018555e-01,9.052584171295166016e-01,9.053179025650024414e-01,9.053307771682739258e-01,9.053288698196411133e-01,9.053283333778381348e-01,9.053283333778381348e-01,9.053283333778381348e-01,9.053283333778381348e-01,9.053283333778381348e-01,9.053283333778381348e-01,9.053283333778381348e-01,9.053283333778381348e-01,9.053283333778381348e-01,9.053283333778381348e-01,9.053283333778381348e-01,9.053283333778381348e-01,9.053283333778381348e-01,9.053283333778381348e-01,9.053283333778381348e-01,9.053291082382202148e-01,9.053171873092651367e-01,9.056292176246643066e-01,9.058222770690917969e-01,9.046725034713745117e-01,9.035838246345520020e-01,9.003843069076538086e-01,8.911523222923278809e-01,8.807155489921569824e-01,8.705583810806274414e-01,8.471755981445312500e-01,8.116081953048706055e-01,7.531785964965820312e-01,7.209283709526062012e-01,7.023528814315795898e-01,7.137902975082397461e-01,7.121871709823608398e-01,7.110738158226013184e-01,7.333376407623291016e-01,7.607961893081665039e-01,8.145651817321777344e-01,8.465228080749511719e-01,8.664683103561401367e-01,8.810377120971679688e-01,8.940486311912536621e-01,8.981893062591552734e-01,9.004304409027099609e-01,8.986191153526306152e-01,8.951123356819152832e-01,8.889132738113403320e-01,8.805005550384521484e-01,8.711957931518554688e-01,8.583153486251831055e-01,8.298074007034301758e-01,8.088505268096923828e-01,8.012472987174987793e-01,7.752351164817810059e-01,7.225031256675720215e-01,6.163809895515441895e-01
5.884047150611877441e-01,6.137879490852355957e-01,6.563339829444885254e-01,6.570696830749511719e-01,6.805603504180908203e-01,7.047700881958007812e-01,7.411345243453979492e-01,7.625411748886108398e-01,7.833131551742553711e-01,8.019508123397827148e-01,8.197559118270874023e-01,8.362699747085571289e-01,8.512474894523620605e-01,8.645938634872436523e-01,8.762477636337280273e-01,8.858155012130737305e-01,8.928760290145874023e-01,8.976398706436157227e-01,9.009363651275634766e-01,9.030915498733520508e-01,9.043227434158325195e-01,9.049974679946899414e-01,9.052566289901733398e-01,9.053159356117248535e-01,9.053289294242858887e-01,9.053270220756530762e-01,9.053264856338500977e-01,9.053264856338500977e-01,9.053264856338500977e-01,9.053264856338500977e-01,9.053264856338500977e-01,9.053264856338500977e-01,9.053264856338500977e-01,9.053264260292053223e-01,9.053264260292053223e-01,9.053264260292053223e-01,9.053263664245605469e-01,9.053264260292053223e-01,9.053264260292053223e-01,9.053263664245605469e-01,9.053263664245605469e-01,9.053239226341247559e-01,9.053071737289428711e-01,9.055463075637817383e-01,9.055774211883544922e-01,9.052321910858154297e-01,9.054827690124511719e-01,9.025300741195678711e-01,8.933544158935546875e-01,8.843758106231689453e-01,8.731157779693603516e-01,8.584695458412170410e-01,8.299641609191894531e-01,7.736464142799377441e-01,7.378092408180236816e-01,7.372636198997497559e-01,7.496270537376403809e-01,7.402746677398681641e-01,7.272549867630004883e-01,7.382594943046569824e-01,7.757471799850463867e-01,8.203195333480834961e-01,8.551189899444580078e-01,8.686807155609130859e-01,8.825606107711791992e-01,8.931990861892700195e-01,8.977056145668029785e-01,9.008113145828247070e-01,8.987067937850952148e-01,8.951250314712524414e-01,8.888975977897644043e-01,8.805061578750610352e-01,8.712029457092285156e-01,8.583244085311889648e-01,8.298187851905822754e-01,8.088634014129638672e-01,8.012604117393493652e-01,7.752475738525390625e-01,7.225136160850524902e-01,6.163883805274963379e-01
5.883989334106445312e-01,6.137783527374267578e-01,6.563230156898498535e-01,6.570565700531005859e-01,6.805448532104492188e-01,7.047537565231323242e-01,7.411180734634399414e-01,7.625248432159423828e-01,7.832968235015869141e-01,8.019347190856933594e-01,8.197407722473144531e-01,8.362548351287841797e-01,8.512324094772338867e-01,8.645795583724975586e-01,8.762348890304565430e-01,8.858036994934082031e-01,8.928658366203308105e-01,8.976315855979919434e-01,9.009283185005187988e-01,9.030838608741760254e-01,9.043152332305908203e-01,9.049903154373168945e-01,9.052499532699584961e-01,9.053096175193786621e-01,9.053227305412292480e-01,9.053210020065307617e-01,9.053205251693725586e-01,9.053205251693725586e-01,9.053205251693725586e-01,9.053205847740173340e-01,9.053206443786621094e-01,9.053206443786621094e-01,9.053206443786621094e-01,9.053207635879516602e-01,9.053207635879516602e-01,9.053207635879516602e-01,9.053208827972412109e-01,9.053208827972412109e-01,9.053209424018859863e-01,9.053209424018859863e-01,9.053210616111755371e-01,9.053168892860412598e-01,9.052999019622802734e-01,9.053381681442260742e-01,9.054986238479614258e-01,9.054928421974182129e-01,9.058699011802673340e-01,9.031995534896850586e-01,8.939707875251770020e-01,8.853202462196350098e-01,8.769030570983886719e-01,8.699941635131835938e-01,8.422385454177856445e-01,7.913674116134643555e-01,7.497705221176147461e-01,7.564684152603149414e-01,7.723813056945800781e-01,7.613743543624877930e-01,7.425161004066467285e-01,7.518426775932312012e-01,7.917158603668212891e-01,8.216528892517089844e-01,8.581161499023437500e-01,8.733304738998413086e-01,8.817110061645507812e-01,8.940985202789306641e-01,8.988587856292724609e-01,9.001963138580322266e-01,8.988776803016662598e-01,8.951086401939392090e-01,8.889009356498718262e-01,8.805018663406372070e-01,8.711988925933837891e-01,8.583241701126098633e-01,8.298216462135314941e-01,8.088690042495727539e-01,8.012666106224060059e-01,7.752528786659240723e-01,7.225154638290405273e-01,6.163892149925231934e-01
5.883880853652954102e-01,6.137646436691284180e-01,6.563071012496948242e-01,6.570428609848022461e-01,6.805316209793090820e-01,7.047392129898071289e-01,7.411049604415893555e-01,7.625174522399902344e-01,7.832963466644287109e-01,8.019421696662902832e-01,8.197586536407470703e-01,8.362863063812255859e-01,8.512831926345825195e-01,8.646475076675415039e-01,8.763045072555541992e-01,8.858630657196044922e-01,8.929134607315063477e-01,8.976705074310302734e-01,9.009686708450317383e-01,9.031347036361694336e-01,9.043724536895751953e-01,9.050532579421997070e-01,9.053155779838562012e-01,9.053769111633300781e-01,9.053902626037597656e-01,9.053887128829956055e-01,9.053885936737060547e-01,9.053888320922851562e-01,9.053890705108642578e-01,9.053893685340881348e-01,9.053896665573120117e-01,9.053899049758911133e-01,9.053901433944702148e-01,9.053904414176940918e-01,9.053906202316284180e-01,9.053910970687866211e-01,9.053912758827209473e-01,9.053914546966552734e-01,9.053918123245239258e-01,9.053920507431030273e-01,9.053922891616821289e-01,9.053920507431030273e-01,9.053688049316406250e-01,9.053250551223754883e-01,9.056184291839599609e-01,9.061433076858520508e-01,9.064998626708984375e-01,9.031311869621276855e-01,8.964148163795471191e-01,8.875066041946411133e-01,8.809814453125000000e-01,8.737004995346069336e-01,8.511558771133422852e-01,8.065595030784606934e-01,7.670350670814514160e-01,7.752177715301513672e-01,7.846423387527465820e-01,7.833601832389831543e-01,7.546533346176147461e-01,7.655729651451110840e-01,7.902419567108154297e-01,8.318343162536621094e-01,8.605083227157592773e-01,8.746916055679321289e-01,8.851519823074340820e-01,8.937201499938964844e-01,8.980654478073120117e-01,9.001750946044921875e-01,8.988631963729858398e-01,8.951437473297119141e-01,8.889727592468261719e-01,8.805782794952392578e-01,8.712865114212036133e-01,8.583955764770507812e-01,8.298875689506530762e-01,8.089154958724975586e-01,8.012968301773071289e-01,7.752715945243835449e-01,7.225142121315002441e-01,6.163887977600097656e-01
5.883948206901550293e-01,6.137733459472656250e-01,6.563138961791992188e-01,6.570606827735900879e-01,6.805603504180908203e-01,7.048008441925048828e-01,7.412179708480834961e-01,7.626783847808837891e-01,7.834837436676025391e-01,8.021420836448669434e-01,8.199605941772460938e-01,8.364858627319335938e-01,8.514600992202758789e-01,8.647927045822143555e-01,8.764215111732482910e-01,8.859449625015258789e-01,8.929835557937622070e-01,8.977724909782409668e-01,9.010932445526123047e-01,9.032581448554992676e-01,9.044928550720214844e-01,9.051687717437744141e-01,9.054248332977294922e-01,9.054827690124511719e-01,9.054937958717346191e-01,9.054912328720092773e-01,9.054899215698242188e-01,9.054890871047973633e-01,9.054880738258361816e-01,9.054872989654541016e-01,9.054865241050720215e-01,9.054855108261108398e-01,9.054846763610839844e-01,9.054838418960571289e-01,9.054829478263854980e-01,9.054820537567138672e-01,9.054811596870422363e-01,9.054803848266601562e-01,9.054794311523437500e-01,9.054787158966064453e-01,9.054777622222900391e-01,9.054750204086303711e-01,9.054574966430664062e-01,9.054257273674011230e-01,9.055089950561523438e-01,9.060389399528503418e-01,9.061014056205749512e-01,9.027248620986938477e-01,8.967417478561401367e-01,8.890343904495239258e-01,8.831905722618103027e-01,8.795006275177001953e-01,8.566507101058959961e-01,8.172149658203125000e-01,7.863022089004516602e-01,7.885570526123046875e-01,7.932038903236389160e-01,7.978168129920959473e-01,7.655273675918579102e-01,7.594633102416992188e-01,8.086576461791992188e-01,8.364441394805908203e-01,8.586043119430541992e-01,8.727031946182250977e-01,8.849309682846069336e-01,8.910387754440307617e-01,8.968851566314697266e-01,9.008014798164367676e-01,8.989580869674682617e-01,8.952497839927673340e-01,8.890857100486755371e-01,8.807121515274047852e-01,8.714123368263244629e-01,8.585567474365234375e-01,8.301157951354980469e-01,8.091617822647094727e-01,8.015522956848144531e-01,7.755194306373596191e-01,7.227985262870788574e-01,6.167845726013183594e-01
5.885775089263916016e-01,6.139506697654724121e-01,6.565671563148498535e-01,6.573171615600585938e-01,6.808090806007385254e-01,7.049656510353088379e-01,7.413063049316406250e-01,7.626910209655761719e-01,7.833571434020996094e-01,8.018846511840820312e-01,8.195858001708984375e-01,8.359763622283935547e-01,8.508599996566772461e-01,8.641110658645629883e-01,8.756408691406250000e-01,8.851383924484252930e-01,8.922113180160522461e-01,8.969810605049133301e-01,9.002740383148193359e-01,9.024296998977661133e-01,9.036751389503479004e-01,9.043315649032592773e-01,9.045727252960205078e-01,9.046297073364257812e-01,9.046418070793151855e-01,9.046393632888793945e-01,9.046379327774047852e-01,9.046369791030883789e-01,9.046361446380615234e-01,9.046353101730346680e-01,9.046343564987182617e-01,9.046334028244018555e-01,9.046324491500854492e-01,9.046314954757690430e-01,9.046307802200317383e-01,9.046298265457153320e-01,9.046289920806884766e-01,9.046279788017272949e-01,9.046271443367004395e-01,9.046261310577392578e-01,9.046251773834228516e-01,9.046244621276855469e-01,9.046170711517333984e-01,9.046273231506347656e-01,9.046865701675415039e-01,9.050896167755126953e-01,9.052239656448364258e-01,9.024208188056945801e-01,8.963590860366821289e-01,8.903999924659729004e-01,8.864260315895080566e-01,8.812612891197204590e-01,8.573930263519287109e-01,8.222088813781738281e-01,7.968066334724426270e-01,8.041903972625732422e-01,8.097124099731445312e-01,8.036907315254211426e-01,7.759177684783935547e-01,7.669374942779541016e-01,7.973541021347045898e-01,8.334323763847351074e-01,8.558448553085327148e-01,8.695386648178100586e-01,8.811713457107543945e-01,8.903357982635498047e-01,8.963372707366943359e-01,8.988295793533325195e-01,8.982110023498535156e-01,8.945107460021972656e-01,8.882725238800048828e-01,8.798923492431640625e-01,8.706172704696655273e-01,8.577919006347656250e-01,8.292595148086547852e-01,8.083081245422363281e-01,8.009113073348999023e-01,7.746577262878417969e-01,7.219793796539306641e-01,6.162486672401428223e-01
5.889348983764648438e-01,6.138234734535217285e-01,6.562410593032836914e-01,6.566765308380126953e-01,6.799240112304687500e-01,7.037630677223205566e-01,7.398910522460937500e-01,7.610048055648803711e-01,7.815122604370117188e-01,7.999094724655151367e-01,8.175226449966430664e-01,8.339129090309143066e-01,8.489228487014770508e-01,8.623849153518676758e-01,8.741685152053833008e-01,8.838955163955688477e-01,8.910560607910156250e-01,8.958871364593505859e-01,8.992760181427001953e-01,9.014961123466491699e-01,9.027299880981445312e-01,9.033838510513305664e-01,9.036418199539184570e-01,9.037147760391235352e-01,9.037276506423950195e-01,9.037255048751831055e-01,9.037240743637084961e-01,9.037228822708129883e-01,9.037218093872070312e-01,9.037207365036010742e-01,9.037197828292846680e-01,9.037186503410339355e-01,9.037175774574279785e-01,9.037166833877563477e-01,9.037154316902160645e-01,9.037144184112548828e-01,9.037133455276489258e-01,9.037123322486877441e-01,9.037111997604370117e-01,9.037101864814758301e-01,9.037091135978698730e-01,9.037081003189086914e-01,9.037035703659057617e-01,9.036824703216552734e-01,9.037352800369262695e-01,9.039313793182373047e-01,9.039114713668823242e-01,9.008630514144897461e-01,8.956847786903381348e-01,8.916262388229370117e-01,8.886550664901733398e-01,8.833777904510498047e-01,8.587511777877807617e-01,8.239610791206359863e-01,8.061131238937377930e-01,8.116950988769531250e-01,8.117761611938476562e-01,8.148363828659057617e-01,7.819812297821044922e-01,7.744368314743041992e-01,7.972265481948852539e-01,8.332219719886779785e-01,8.543578386306762695e-01,8.659541606903076172e-01,8.809875845909118652e-01,8.884537816047668457e-01,8.958503603935241699e-01,8.988099098205566406e-01,8.974015712738037109e-01,8.937663435935974121e-01,8.875979185104370117e-01,8.793132305145263672e-01,8.700975179672241211e-01,8.571828603744506836e-01,8.286669254302978516e-01,8.075653314590454102e-01,8.000973463058471680e-01,7.738298177719116211e-01,7.208222150802612305e-01,6.147259473800659180e-01
5.881909728050231934e-01,6.121511459350585938e-01,6.544500589370727539e-01,6.547904014587402344e-01,6.775817871093750000e-01,7.009668946266174316e-01,7.370861172676086426e-01,7.582455873489379883e-01,7.788020372390747070e-01,7.971987128257751465e-01,8.147950768470764160e-01,8.312975168228149414e-01,8.464379310607910156e-01,8.599839210510253906e-01,8.718597888946533203e-01,8.816282153129577637e-01,8.889313936233520508e-01,8.940092325210571289e-01,8.974872827529907227e-01,8.997220396995544434e-01,9.009764194488525391e-01,9.016553163528442383e-01,9.019185304641723633e-01,9.019808769226074219e-01,9.019877910614013672e-01,9.019807577133178711e-01,9.019740819931030273e-01,9.019681215286254883e-01,9.019619822502136230e-01,9.019559025764465332e-01,9.019498825073242188e-01,9.019438028335571289e-01,9.019377231597900391e-01,9.019316434860229492e-01,9.019254446029663086e-01,9.019196629524230957e-01,9.019135236740112305e-01,9.019073247909545898e-01,9.019013643264770508e-01,9.018952846527099609e-01,9.018893241882324219e-01,9.018837809562683105e-01,9.018770456314086914e-01,9.018717408180236816e-01,9.018597602844238281e-01,9.020817279815673828e-01,9.022022485733032227e-01,8.990663886070251465e-01,8.949400186538696289e-01,8.918445110321044922e-01,8.887972831726074219e-01,8.814303874969482422e-01,8.632060289382934570e-01,8.280381560325622559e-01,8.136549592018127441e-01,8.168139457702636719e-01,8.191896080970764160e-01,8.091788291931152344e-01,7.836073637008666992e-01,7.727773785591125488e-01,8.014818429946899414e-01,8.299517035484313965e-01,8.483705520629882812e-01,8.638678789138793945e-01,8.819531202316284180e-01,8.865844011306762695e-01,8.928356170654296875e-01,8.971842527389526367e-01,8.958939313888549805e-01,8.923194408416748047e-01,8.862752318382263184e-01,8.778344392776489258e-01,8.685766458511352539e-01,8.557828664779663086e-01,8.273836970329284668e-01,8.065276145935058594e-01,7.989602088928222656e-01,7.723748087882995605e-01,7.195355296134948730e-01,6.129437685012817383e-01
5.862549543380737305e-01,6.094365119934082031e-01,6.514797210693359375e-01,6.515442132949829102e-01,6.740758419036865234e-01,6.969118118286132812e-01,7.324777245521545410e-01,7.531206607818603516e-01,7.730051279067993164e-01,7.909483909606933594e-01,8.082786798477172852e-01,8.245595693588256836e-01,8.395540118217468262e-01,8.531526327133178711e-01,8.651056289672851562e-01,8.749625682830810547e-01,8.823385238647460938e-01,8.874382972717285156e-01,8.910185694694519043e-01,8.932577371597290039e-01,8.945043087005615234e-01,8.952068090438842773e-01,8.954710960388183594e-01,8.955259919166564941e-01,8.955247998237609863e-01,8.955136537551879883e-01,8.955039381980895996e-01,8.954948186874389648e-01,8.954856991767883301e-01,8.954768180847167969e-01,8.954675197601318359e-01,8.954585790634155273e-01,8.954493999481201172e-01,8.954403400421142578e-01,8.954313397407531738e-01,8.954220414161682129e-01,8.954130411148071289e-01,8.954039812088012695e-01,8.953949809074401855e-01,8.953859806060791016e-01,8.953768014907836914e-01,8.953679203987121582e-01,8.953579068183898926e-01,8.953468799591064453e-01,8.953430652618408203e-01,8.955880403518676758e-01,8.957362174987792969e-01,8.929491043090820312e-01,8.888772726058959961e-01,8.866282701492309570e-01,8.831915855407714844e-01,8.733901977539062500e-01,8.568497896194458008e-01,8.260492682456970215e-01,8.130141496658325195e-01,8.278394937515258789e-01,8.198183774948120117e-01,8.008708953857421875e-01,7.841092348098754883e-01,7.717906236648559570e-01,7.928332090377807617e-01,8.243365287780761719e-01,8.453825712203979492e-01,8.573700189590454102e-01,8.734804391860961914e-01,8.821941614151000977e-01,8.877030611038208008e-01,8.915172219276428223e-01,8.896156549453735352e-01,8.863399028778076172e-01,8.804742097854614258e-01,8.723133206367492676e-01,8.629349470138549805e-01,8.499904870986938477e-01,8.217667937278747559e-01,8.014980554580688477e-01,7.943664193153381348e-01,7.679723501205444336e-01,7.155231833457946777e-01,6.079446673393249512e-01
5.823475718498229980e-01,6.035623550415039062e-01,6.450691819190979004e-01,6.443614959716796875e-01,6.657204627990722656e-01,6.876934170722961426e-01,7.224068045616149902e-01,7.425897717475891113e-01,7.618008852005004883e-01,7.788747549057006836e-01,7.956088185310363770e-01,8.115688562393188477e-01,8.266276121139526367e-01,8.405228257179260254e-01,8.527939915657043457e-01,8.630765080451965332e-01,8.709474802017211914e-01,8.763785362243652344e-01,8.801475167274475098e-01,8.825261592864990234e-01,8.838642835617065430e-01,8.845199346542358398e-01,8.847223520278930664e-01,8.847400546073913574e-01,8.847296237945556641e-01,8.847068548202514648e-01,8.846859335899353027e-01,8.846657872200012207e-01,8.846457004547119141e-01,8.846254348754882812e-01,8.846053481101989746e-01,8.845851421356201172e-01,8.845649957656860352e-01,8.845447897911071777e-01,8.845245838165283203e-01,8.845046162605285645e-01,8.844842910766601562e-01,8.844642639160156250e-01,8.844441771507263184e-01,8.844240307807922363e-01,8.844038844108581543e-01,8.843837976455688477e-01,8.843636512756347656e-01,8.843422532081604004e-01,8.843204975128173828e-01,8.845931291580200195e-01,8.847093582153320312e-01,8.819543123245239258e-01,8.778197765350341797e-01,8.771880865097045898e-01,8.733387589454650879e-01,8.633240461349487305e-01,8.495296239852905273e-01,8.218966722488403320e-01,8.123548626899719238e-01,8.201597929000854492e-01,8.147574663162231445e-01,7.925791740417480469e-01,7.779365777969360352e-01,7.647732496261596680e-01,7.866595983505249023e-01,8.145194053649902344e-01,8.336271047592163086e-01,8.435411453247070312e-01,8.592649102210998535e-01,8.703250288963317871e-01,8.779594302177429199e-01,8.806543946266174316e-01,8.787574768066406250e-01,8.755192756652832031e-01,8.697096705436706543e-01,8.618787527084350586e-01,8.528810739517211914e-01,8.399171829223632812e-01,8.112030029296875000e-01,7.921313047409057617e-01,7.858328819274902344e-01,7.610107660293579102e-01,7.075315713882446289e-01,6.019657850265502930e-01
5.752030014991760254e-01,5.937515497207641602e-01,6.341878175735473633e-01,6.314077377319335938e-01,6.507643461227416992e-01,6.714980006217956543e-01,7.052971124649047852e-01,7.246528863906860352e-01,7.431021928787231445e-01,7.594755887985229492e-01,7.753043174743652344e-01,7.904908061027526855e-01,8.051491975784301758e-01,8.185938596725463867e-01,8.304777145385742188e-01,8.404326438903808594e-01,8.479121923446655273e-01,8.532876372337341309e-01,8.570485115051269531e-01,8.593987822532653809e-01,8.606390953063964844e-01,8.611888885498046875e-01,8.613228797912597656e-01,8.613271713256835938e-01,8.612954020500183105e-01,8.612561225891113281e-01,8.612189888954162598e-01,8.611819744110107422e-01,8.611451387405395508e-01,8.611083030700683594e-01,8.610714673995971680e-01,8.610345721244812012e-01,8.609975576400756836e-01,8.609609007835388184e-01,8.609240055084228516e-01,8.608869910240173340e-01,8.608503341674804688e-01,8.608132600784301758e-01,8.607764840126037598e-01,8.607395887374877930e-01,8.607028722763061523e-01,8.606659770011901855e-01,8.606293201446533203e-01,8.605899810791015625e-01,8.605592250823974609e-01,8.610178232192993164e-01,8.610494136810302734e-01,8.573900461196899414e-01,8.547123074531555176e-01,8.535128831863403320e-01,8.483749628067016602e-01,8.384419679641723633e-01,8.265305757522583008e-01,8.058556914329528809e-01,7.978861331939697266e-01,7.959809899330139160e-01,7.893028259277343750e-01,7.703150510787963867e-01,7.570853233337402344e-01,7.558066844940185547e-01,7.679596543312072754e-01,7.878302335739135742e-01,8.077960014343261719e-01,8.220207691192626953e-01,8.353019356727600098e-01,8.497762680053710938e-01,8.558607697486877441e-01,8.571708798408508301e-01,8.555991053581237793e-01,8.522900938987731934e-01,8.466913700103759766e-01,8.389571905136108398e-01,8.302854895591735840e-01,8.173282742500305176e-01,7.881352901458740234e-01,7.704366445541381836e-01,7.674725055694580078e-01,7.442967891693115234e-01,6.928665637969970703e-01,5.924770832061767578e-01
5.642400383949279785e-01,5.783783793449401855e-01,6.170501708984375000e-01,6.110101938247680664e-01,6.274173855781555176e-01,6.464135646820068359e-01,6.783355474472045898e-01,6.956857442855834961e-01,7.117330431938171387e-01,7.257442474365234375e-01,7.394046783447265625e-01,7.528253793716430664e-01,7.661425471305847168e-01,7.786092758178710938e-01,7.895404100418090820e-01,7.988300919532775879e-01,8.062316179275512695e-01,8.115679621696472168e-01,8.153001070022583008e-01,8.176034688949584961e-01,8.186863660812377930e-01,8.189612627029418945e-01,8.189839720726013184e-01,8.189594149589538574e-01,8.189107179641723633e-01,8.188502788543701172e-01,8.187910914421081543e-01,8.187325000762939453e-01,8.186736106872558594e-01,8.186149597167968750e-01,8.185564279556274414e-01,8.184975385665893555e-01,8.184388875961303711e-01,8.183801174163818359e-01,8.183215856552124023e-01,8.182629942893981934e-01,8.182044029235839844e-01,8.181457519531250000e-01,8.180870413780212402e-01,8.180284500122070312e-01,8.179697990417480469e-01,8.179111480712890625e-01,8.178526163101196289e-01,8.177903890609741211e-01,8.177207708358764648e-01,8.184098601341247559e-01,8.181552886962890625e-01,8.140611648559570312e-01,8.137058615684509277e-01,8.139607310295104980e-01,8.031059503555297852e-01,7.952316999435424805e-01,7.804936170578002930e-01,7.654599547386169434e-01,7.634725570678710938e-01,7.616197466850280762e-01,7.513659000396728516e-01,7.291212677955627441e-01,7.223567962646484375e-01,7.187464833259582520e-01,7.320545911788940430e-01,7.477623224258422852e-01,7.629100084304809570e-01,7.791957855224609375e-01,7.956587076187133789e-01,8.065237998962402344e-01,8.117874860763549805e-01,8.137286305427551270e-01,8.121470212936401367e-01,8.096598386764526367e-01,8.044694662094116211e-01,7.972476482391357422e-01,7.896851897239685059e-01,7.776893973350524902e-01,7.482758164405822754e-01,7.333763241767883301e-01,7.347855567932128906e-01,7.137697935104370117e-01,6.688020229339599609e-01,5.797390341758728027e-01
5.497258305549621582e-01,5.539394617080688477e-01,5.888150334358215332e-01,5.787630677223205566e-01,5.919249057769775391e-01,6.082158088684082031e-01,6.378278732299804688e-01,6.524371504783630371e-01,6.663273572921752930e-01,6.780743598937988281e-01,6.894958019256591797e-01,7.006323337554931641e-01,7.116304636001586914e-01,7.215073108673095703e-01,7.303650379180908203e-01,7.380291223526000977e-01,7.437801957130432129e-01,7.477822303771972656e-01,7.504922151565551758e-01,7.519893050193786621e-01,7.524188756942749023e-01,7.524856328964233398e-01,7.524608969688415527e-01,7.523981928825378418e-01,7.523306608200073242e-01,7.522459626197814941e-01,7.521634697914123535e-01,7.520813941955566406e-01,7.519991397857666016e-01,7.519171833992004395e-01,7.518351078033447266e-01,7.517530918121337891e-01,7.516708374023437500e-01,7.515890002250671387e-01,7.515071630477905273e-01,7.514249086380004883e-01,7.513427734375000000e-01,7.512608170509338379e-01,7.511789798736572266e-01,7.510969638824462891e-01,7.510149478912353516e-01,7.509330511093139648e-01,7.508511543273925781e-01,7.507645487785339355e-01,7.506585121154785156e-01,7.514868974685668945e-01,7.501715421676635742e-01,7.471613883972167969e-01,7.461897730827331543e-01,7.493816614151000977e-01,7.338770031929016113e-01,7.302246093750000000e-01,7.165186405181884766e-01,6.954787969589233398e-01,7.100769281387329102e-01,6.976835727691650391e-01,6.862746477127075195e-01,6.741312146186828613e-01,6.639817953109741211e-01,6.557997465133666992e-01,6.810389757156372070e-01,6.916205883026123047e-01,7.002050280570983887e-01,7.163991332054138184e-01,7.323217391967773438e-01,7.425397038459777832e-01,7.450563311576843262e-01,7.465623617172241211e-01,7.442810535430908203e-01,7.413881421089172363e-01,7.366784811019897461e-01,7.303551435470581055e-01,7.243944406509399414e-01,7.131592631340026855e-01,6.837498545646667480e-01,6.730267405509948730e-01,6.819151043891906738e-01,6.631150245666503906e-01,6.338075995445251465e-01,5.564997196197509766e-01
5.325055122375488281e-01,5.236893892288208008e-01,5.544985532760620117e-01,5.385861396789550781e-01,5.464484095573425293e-01,5.593031048774719238e-01,5.835229754447937012e-01,5.946952700614929199e-01,6.051705479621887207e-01,6.133012771606445312e-01,6.213220953941345215e-01,6.292485594749450684e-01,6.369143128395080566e-01,6.437645554542541504e-01,6.499384045600891113e-01,6.547483205795288086e-01,6.579810380935668945e-01,6.604129076004028320e-01,6.619827151298522949e-01,6.628238558769226074e-01,6.630425453186035156e-01,6.630053520202636719e-01,6.629032492637634277e-01,6.628199219703674316e-01,6.627383232116699219e-01,6.626484394073486328e-01,6.625608205795288086e-01,6.624734401702880859e-01,6.623860597610473633e-01,6.622989177703857422e-01,6.622116565704345703e-01,6.621242761611938477e-01,6.620371341705322266e-01,6.619498133659362793e-01,6.618627309799194336e-01,6.617754101753234863e-01,6.616882681846618652e-01,6.616013050079345703e-01,6.615142822265625000e-01,6.614270210266113281e-01,6.613398790359497070e-01,6.612528562545776367e-01,6.611658334732055664e-01,6.610704660415649414e-01,6.609415411949157715e-01,6.617956757545471191e-01,6.597368121147155762e-01,6.588436961174011230e-01,6.577841043472290039e-01,6.589856147766113281e-01,6.437990665435791016e-01,6.447703838348388672e-01,6.354493498802185059e-01,6.245590448379516602e-01,6.274288892745971680e-01,6.220766305923461914e-01,6.063158512115478516e-01,6.034357547760009766e-01,5.937386155128479004e-01,5.872272253036499023e-01,6.085572242736816406e-01,6.161568164825439453e-01,6.233165264129638672e-01,6.334493160247802734e-01,6.457362174987792969e-01,6.527749896049499512e-01,6.570367813110351562e-01,6.563465595245361328e-01,6.555768251419067383e-01,6.524270772933959961e-01,6.491836905479431152e-01,6.444008946418762207e-01,6.405521035194396973e-01,6.308816075325012207e-01,6.034253239631652832e-01,5.960476994514465332e-01,6.116501688957214355e-01,5.968600511550903320e-01,5.880174636840820312e-01,5.268831849098205566e-01
5.115485787391662598e-01,4.893339574337005615e-01,5.141251683235168457e-01,4.908667802810668945e-01,4.924279153347015381e-01,5.010098218917846680e-01,5.196074843406677246e-01,5.275505781173706055e-01,5.347127318382263184e-01,5.395544767379760742e-01,5.444240570068359375e-01,5.495250225067138672e-01,5.544999837875366211e-01,5.588400363922119141e-01,5.624923110008239746e-01,5.652009844779968262e-01,5.675030946731567383e-01,5.691177845001220703e-01,5.702107548713684082e-01,5.707105398178100586e-01,5.708138942718505859e-01,5.707355737686157227e-01,5.705932378768920898e-01,5.705246925354003906e-01,5.704282522201538086e-01,5.703398585319519043e-01,5.702528357505798340e-01,5.701660513877868652e-01,5.700793266296386719e-01,5.699926614761352539e-01,5.699060559272766113e-01,5.698194503784179688e-01,5.697329640388488770e-01,5.696464180946350098e-01,5.695598125457763672e-01,5.694733262062072754e-01,5.693867206573486328e-01,5.693003535270690918e-01,5.692139267921447754e-01,5.691275000572204590e-01,5.690411329269409180e-01,5.689547657966613770e-01,5.688683986663818359e-01,5.687712430953979492e-01,5.686181783676147461e-01,5.691694617271423340e-01,5.677765607833862305e-01,5.666896700859069824e-01,5.683549642562866211e-01,5.661136507987976074e-01,5.535796284675598145e-01,5.563209056854248047e-01,5.452579855918884277e-01,5.509589314460754395e-01,5.442765355110168457e-01,5.394675731658935547e-01,5.247595906257629395e-01,5.226917266845703125e-01,5.317789912223815918e-01,5.216299891471862793e-01,5.342696309089660645e-01,5.381054878234863281e-01,5.434535145759582520e-01,5.487067103385925293e-01,5.584565401077270508e-01,5.623638033866882324e-01,5.663062930107116699e-01,5.655186772346496582e-01,5.648433566093444824e-01,5.623597502708435059e-01,5.592948198318481445e-01,5.556847453117370605e-01,5.537633299827575684e-01,5.455890893936157227e-01,5.215367078781127930e-01,5.174252390861511230e-01,5.384486913681030273e-01,5.280975103378295898e-01,5.396986007690429688e-01,4.965247809886932373e-01
4.905616939067840576e-01,4.556730687618255615e-01,4.712975025177001953e-01,4.408683776855468750e-01,4.361960887908935547e-01,4.405660927295684814e-01,4.539880156517028809e-01,4.580788016319274902e-01,4.624006152153015137e-01,4.647296965122222900e-01,4.672789573669433594e-01,4.700899422168731689e-01,4.728617370128631592e-01,4.754913449287414551e-01,4.778000712394714355e-01,4.795256555080413818e-01,4.808045327663421631e-01,4.817737042903900146e-01,4.823791682720184326e-01,4.826439917087554932e-01,4.826955795288085938e-01,4.826884269714355469e-01,4.826100468635559082e-01,4.825101196765899658e-01,4.824272394180297852e-01,4.823535084724426270e-01,4.822806119918823242e-01,4.822078347206115723e-01,4.821350276470184326e-01,4.820623397827148438e-01,4.819898307323455811e-01,4.819169938564300537e-01,4.818444848060607910e-01,4.817717075347900391e-01,4.816992878913879395e-01,4.816265702247619629e-01,4.815539717674255371e-01,4.814814627170562744e-01,4.814090430736541748e-01,4.813363552093505859e-01,4.812639951705932617e-01,4.811915457248687744e-01,4.811190068721771240e-01,4.810394346714019775e-01,4.809038937091827393e-01,4.811240136623382568e-01,4.807674884796142578e-01,4.802763462066650391e-01,4.808158874511718750e-01,4.788306951522827148e-01,4.732466340065002441e-01,4.713869690895080566e-01,4.691160917282104492e-01,4.712238311767578125e-01,4.711190462112426758e-01,4.643026292324066162e-01,4.558973312377929688e-01,4.557486474514007568e-01,4.556926190853118896e-01,4.558333158493041992e-01,4.533392488956451416e-01,4.620496034622192383e-01,4.663991928100585938e-01,4.708476364612579346e-01,4.767636656761169434e-01,4.784688353538513184e-01,4.792023003101348877e-01,4.792623519897460938e-01,4.788920581340789795e-01,4.778773486614227295e-01,4.769386649131774902e-01,4.753842353820800781e-01,4.753675460815429688e-01,4.695288538932800293e-01,4.495295882225036621e-01,4.482991397380828857e-01,4.718520045280456543e-01,4.688222110271453857e-01,4.950166046619415283e-01,4.691045284271240234e-01
4.694039225578308105e-01,4.224052727222442627e-01,4.285271167755126953e-01,3.950429558753967285e-01,3.840754926204681396e-01,3.856432437896728516e-01,3.960565030574798584e-01,3.989946544170379639e-01,4.020250141620635986e-01,4.032198488712310791e-01,4.044324457645416260e-01,4.056468904018402100e-01,4.066694676876068115e-01,4.076162576675415039e-01,4.084144234657287598e-01,4.090031087398529053e-01,4.096092581748962402e-01,4.101034700870513916e-01,4.103163778781890869e-01,4.103606343269348145e-01,4.103702306747436523e-01,4.102732241153717041e-01,4.102020859718322754e-01,4.101297855377197266e-01,4.100671410560607910e-01,4.100086092948913574e-01,4.099504053592681885e-01,4.098930358886718750e-01,4.098352789878845215e-01,4.097776710987091064e-01,4.097201824188232422e-01,4.096626043319702148e-01,4.096051454544067383e-01,4.095476567745208740e-01,4.094901978969573975e-01,4.094325006008148193e-01,4.093751311302185059e-01,4.093177616596221924e-01,4.092602431774139404e-01,4.092029035091400146e-01,4.091454744338989258e-01,4.090882539749145508e-01,4.090308845043182373e-01,4.089708328247070312e-01,4.088635444641113281e-01,4.088509380817413330e-01,4.088988304138183594e-01,4.092993140220642090e-01,4.090203642845153809e-01,4.074149131774902344e-01,4.064547419548034668e-01,4.035471081733703613e-01,4.029793143272399902e-01,4.062244892120361328e-01,3.996713757514953613e-01,3.994149565696716309e-01,3.936903476715087891e-01,3.926428556442260742e-01,3.947356343269348145e-01,3.993101716041564941e-01,3.981441259384155273e-01,3.979694843292236328e-01,4.037061631679534912e-01,4.017626047134399414e-01,4.045646488666534424e-01,4.078415036201477051e-01,4.078132808208465576e-01,4.083152711391448975e-01,4.072255194187164307e-01,4.065275788307189941e-01,4.056849479675292969e-01,4.045996367931365967e-01,4.052509069442749023e-01,4.015551209449768066e-01,3.856900632381439209e-01,3.876987397670745850e-01,4.135286211967468262e-01,4.177336692810058594e-01,4.560346603393554688e-01,4.460686147212982178e-01
4.513875246047973633e-01,3.938158154487609863e-01,3.929797708988189697e-01,3.572876453399658203e-01,3.413590192794799805e-01,3.406520187854766846e-01,3.481005132198333740e-01,3.498204052448272705e-01,3.515138030052185059e-01,3.519319295883178711e-01,3.524484038352966309e-01,3.529155850410461426e-01,3.533976376056671143e-01,3.538356423377990723e-01,3.541315197944641113e-01,3.542276024818420410e-01,3.543028831481933594e-01,3.541787862777709961e-01,3.540246486663818359e-01,3.539654016494750977e-01,3.539442420005798340e-01,3.539102673530578613e-01,3.538556098937988281e-01,3.538023829460144043e-01,3.537613749504089355e-01,3.537197411060333252e-01,3.536786735057830811e-01,3.536372780799865723e-01,3.535963594913482666e-01,3.535552322864532471e-01,3.535143136978149414e-01,3.534733057022094727e-01,3.534321188926696777e-01,3.533912003040313721e-01,3.533502817153930664e-01,3.533092141151428223e-01,3.532682359218597412e-01,3.532272577285766602e-01,3.531862199306488037e-01,3.531453013420104980e-01,3.531044721603393555e-01,3.530636429786682129e-01,3.530227839946746826e-01,3.529870212078094482e-01,3.529175519943237305e-01,3.528809547424316406e-01,3.528862595558166504e-01,3.531067073345184326e-01,3.527191281318664551e-01,3.524890542030334473e-01,3.516427874565124512e-01,3.500490188598632812e-01,3.494296073913574219e-01,3.531749248504638672e-01,3.511349856853485107e-01,3.521583974361419678e-01,3.483902812004089355e-01,3.441227078437805176e-01,3.469635248184204102e-01,3.466535806655883789e-01,3.458938002586364746e-01,3.489572405815124512e-01,3.496453166007995605e-01,3.514881730079650879e-01,3.504900038242340088e-01,3.522689342498779297e-01,3.522428870201110840e-01,3.521202206611633301e-01,3.521441817283630371e-01,3.519960045814514160e-01,3.517547845840454102e-01,3.512970805168151855e-01,3.521343469619750977e-01,3.495073914527893066e-01,3.363195657730102539e-01,3.391886651515960693e-01,3.653432726860046387e-01,3.757016360759735107e-01,4.224576354026794434e-01,4.258258044719696045e-01
4.349657595157623291e-01,3.689422607421875000e-01,3.612737059593200684e-01,3.251630067825317383e-01,3.061282336711883545e-01,3.047556281089782715e-01,3.108604550361633301e-01,3.122501075267791748e-01,3.134074211120605469e-01,3.134225904941558838e-01,3.134083151817321777e-01,3.133983910083770752e-01,3.134733736515045166e-01,3.135643601417541504e-01,3.135952353477478027e-01,3.136106133460998535e-01,3.135711252689361572e-01,3.135195076465606689e-01,3.135362565517425537e-01,3.135219216346740723e-01,3.134644031524658203e-01,3.134191632270812988e-01,3.133851587772369385e-01,3.133566379547119141e-01,3.133259117603302002e-01,3.132962584495544434e-01,3.132663369178771973e-01,3.132364749908447266e-01,3.132067322731018066e-01,3.131768107414245605e-01,3.131470680236816406e-01,3.131175041198730469e-01,3.130875229835510254e-01,3.130579292774200439e-01,3.130278885364532471e-01,3.129980564117431641e-01,3.129684627056121826e-01,3.129383921623229980e-01,3.129090070724487305e-01,3.128792047500610352e-01,3.128495216369628906e-01,3.128197491168975830e-01,3.127901554107666016e-01,3.127656579017639160e-01,3.127276301383972168e-01,3.126902878284454346e-01,3.127698898315429688e-01,3.126822412014007568e-01,3.124739825725555420e-01,3.130302429199218750e-01,3.125844597816467285e-01,3.116266131401062012e-01,3.111584186553955078e-01,3.110640048980712891e-01,3.117461204528808594e-01,3.125240206718444824e-01,3.097453117370605469e-01,3.097478151321411133e-01,3.096279501914978027e-01,3.113593161106109619e-01,3.115860521793365479e-01,3.115310072898864746e-01,3.104497194290161133e-01,3.116188347339630127e-01,3.119453787803649902e-01,3.114796876907348633e-01,3.123106956481933594e-01,3.121215105056762695e-01,3.120265007019042969e-01,3.118783831596374512e-01,3.117378950119018555e-01,3.115220665931701660e-01,3.122661113739013672e-01,3.104364275932312012e-01,2.992445230484008789e-01,3.026039004325866699e-01,3.288371562957763672e-01,3.442019522190093994e-01,3.968389630317687988e-01,4.101087749004364014e-01
4.212126135826110840e-01,3.491289019584655762e-01,3.364096283912658691e-01,2.999961376190185547e-01,2.791723608970642090e-01,2.769960761070251465e-01,2.819506525993347168e-01,2.831162214279174805e-01,2.839997708797454834e-01,2.838906645774841309e-01,2.838507592678070068e-01,2.838485836982727051e-01,2.838320434093475342e-01,2.838147282600402832e-01,2.838003933429718018e-01,2.837625741958618164e-01,2.837232947349548340e-01,2.836937308311462402e-01,2.836689352989196777e-01,2.836344242095947266e-01,2.836076617240905762e-01,2.835859954357147217e-01,2.835636138916015625e-01,2.835412025451660156e-01,2.835201621055603027e-01,2.834984660148620605e-01,2.834767699241638184e-01,2.834552526473999023e-01,2.834336757659912109e-01,2.834118902683258057e-01,2.833904922008514404e-01,2.833690345287322998e-01,2.833473086357116699e-01,2.833257913589477539e-01,2.833041250705718994e-01,2.832824587821960449e-01,2.832609117031097412e-01,2.832393050193786621e-01,2.832177281379699707e-01,2.831960916519165039e-01,2.831746637821197510e-01,2.831532955169677734e-01,2.831316590309143066e-01,2.831127047538757324e-01,2.830863595008850098e-01,2.830591797828674316e-01,2.830695509910583496e-01,2.830042243003845215e-01,2.828217148780822754e-01,2.830465435981750488e-01,2.830328941345214844e-01,2.827868163585662842e-01,2.821702659130096436e-01,2.828790545463562012e-01,2.828128933906555176e-01,2.832638025283813477e-01,2.831165790557861328e-01,2.817252874374389648e-01,2.814804613590240479e-01,2.818362712860107422e-01,2.823669314384460449e-01,2.826129198074340820e-01,2.823809981346130371e-01,2.829152643680572510e-01,2.830263376235961914e-01,2.825791835784912109e-01,2.825704813003540039e-01,2.825866937637329102e-01,2.826180458068847656e-01,2.826026678085327148e-01,2.825757265090942383e-01,2.824651598930358887e-01,2.831054031848907471e-01,2.817948758602142334e-01,2.718712687492370605e-01,2.751460671424865723e-01,3.007495999336242676e-01,3.195714354515075684e-01,3.763050734996795654e-01,3.975837230682373047e-01
4.091776013374328613e-01,3.324932754039764404e-01,3.159816861152648926e-01,2.799523472785949707e-01,2.584257125854492188e-01,2.558349967002868652e-01,2.600290179252624512e-01,2.610224485397338867e-01,2.617953419685363770e-01,2.617104053497314453e-01,2.616699039936065674e-01,2.616476714611053467e-01,2.616279125213623047e-01,2.616122961044311523e-01,2.615959644317626953e-01,2.615785598754882812e-01,2.615627646446228027e-01,2.615476548671722412e-01,2.615302205085754395e-01,2.615128457546234131e-01,2.614961862564086914e-01,2.614808976650238037e-01,2.614644765853881836e-01,2.614483237266540527e-01,2.614321708679199219e-01,2.614156603813171387e-01,2.613992094993591309e-01,2.613827586174011230e-01,2.613664865493774414e-01,2.613498568534851074e-01,2.613332867622375488e-01,2.613170146942138672e-01,2.613005042076110840e-01,2.612839937210083008e-01,2.612678110599517822e-01,2.612512111663818359e-01,2.612348198890686035e-01,2.612183690071105957e-01,2.612020373344421387e-01,2.611854672431945801e-01,2.611691057682037354e-01,2.611527442932128906e-01,2.611363530158996582e-01,2.611216902732849121e-01,2.611029148101806641e-01,2.610861361026763916e-01,2.610760927200317383e-01,2.610330879688262939e-01,2.610087394714355469e-01,2.611050903797149658e-01,2.610786557197570801e-01,2.609943747520446777e-01,2.608816623687744141e-01,2.608022689819335938e-01,2.607702612876892090e-01,2.609833776950836182e-01,2.610229849815368652e-01,2.606835961341857910e-01,2.602575421333312988e-01,2.607949376106262207e-01,2.604941725730895996e-01,2.608993053436279297e-01,2.609421610832214355e-01,2.606263160705566406e-01,2.607080042362213135e-01,2.608091831207275391e-01,2.607876956462860107e-01,2.607609331607818604e-01,2.606847286224365234e-01,2.607008516788482666e-01,2.606825530529022217e-01,2.606027126312255859e-01,2.611213028430938721e-01,2.600753903388977051e-01,2.511775195598602295e-01,2.544553279876708984e-01,2.794674038887023926e-01,3.010017275810241699e-01,3.605903983116149902e-01,3.876363039016723633e-01
3.991110920906066895e-01,3.188933730125427246e-01,2.997291684150695801e-01,2.643896937370300293e-01,2.423067986965179443e-01,2.394190430641174316e-01,2.430797219276428223e-01,2.439700961112976074e-01,2.446615695953369141e-01,2.445982396602630615e-01,2.445658445358276367e-01,2.445510029792785645e-01,2.445365786552429199e-01,2.445225715637207031e-01,2.445080280303955078e-01,2.444936037063598633e-01,2.444801032543182373e-01,2.444669306278228760e-01,2.444533407688140869e-01,2.444402575492858887e-01,2.444273531436920166e-01,2.444145381450653076e-01,2.444016933441162109e-01,2.443888485431671143e-01,2.443762421607971191e-01,2.443633079528808594e-01,2.443505823612213135e-01,2.443374991416931152e-01,2.443246543407440186e-01,2.443116009235382080e-01,2.442986369132995605e-01,2.442860305309295654e-01,2.442730963230133057e-01,2.442603707313537598e-01,2.442474663257598877e-01,2.442345619201660156e-01,2.442216575145721436e-01,2.442088127136230469e-01,2.441960573196411133e-01,2.441830039024353027e-01,2.441703081130981445e-01,2.441573143005371094e-01,2.441447079181671143e-01,2.441323399543762207e-01,2.441192269325256348e-01,2.441051006317138672e-01,2.440929710865020752e-01,2.440790832042694092e-01,2.440625727176666260e-01,2.440649569034576416e-01,2.440659403800964355e-01,2.440178394317626953e-01,2.440173923969268799e-01,2.439722120761871338e-01,2.439672946929931641e-01,2.440626323223114014e-01,2.440073490142822266e-01,2.439334094524383545e-01,2.439168095588684082e-01,2.437876462936401367e-01,2.438847720623016357e-01,2.439261078834533691e-01,2.439061105251312256e-01,2.438596189022064209e-01,2.438986301422119141e-01,2.438546121120452881e-01,2.438319921493530273e-01,2.438314557075500488e-01,2.438210546970367432e-01,2.437932789325714111e-01,2.437840402126312256e-01,2.437202930450439453e-01,2.441449165344238281e-01,2.433092296123504639e-01,2.352299392223358154e-01,2.385417520999908447e-01,2.629391551017761230e-01,2.863727211952209473e-01,3.479850888252258301e-01,3.796851038932800293e-01
3.908097147941589355e-01,3.077794313430786133e-01,2.866289317607879639e-01,2.519692182540893555e-01,2.295337021350860596e-01,2.264065146446228027e-01,2.296725213527679443e-01,2.304625809192657471e-01,2.310842275619506836e-01,2.310295999050140381e-01,2.310026884078979492e-01,2.309919893741607666e-01,2.309816479682922363e-01,2.309715151786804199e-01,2.309610843658447266e-01,2.309509813785552979e-01,2.309406697750091553e-01,2.309300899505615234e-01,2.309197187423706055e-01,2.309092581272125244e-01,2.308990955352783203e-01,2.308885753154754639e-01,2.308784425258636475e-01,2.308679819107055664e-01,2.308576107025146484e-01,2.308471798896789551e-01,2.308368086814880371e-01,2.308267056941986084e-01,2.308161854743957520e-01,2.308060526847839355e-01,2.307957410812377930e-01,2.307852804660797119e-01,2.307747900485992432e-01,2.307644784450531006e-01,2.307542264461517334e-01,2.307438850402832031e-01,2.307335734367370605e-01,2.307233512401580811e-01,2.307129800319671631e-01,2.307024598121643066e-01,2.306922376155853271e-01,2.306819856166839600e-01,2.306715548038482666e-01,2.306614220142364502e-01,2.306509017944335938e-01,2.306405603885650635e-01,2.306296527385711670e-01,2.306188941001892090e-01,2.306084930896759033e-01,2.305988371372222900e-01,2.305928766727447510e-01,2.305789887905120850e-01,2.305660545825958252e-01,2.305614948272705078e-01,2.305493056774139404e-01,2.305450737476348877e-01,2.305423915386199951e-01,2.305256128311157227e-01,2.304961979389190674e-01,2.304920852184295654e-01,2.304763197898864746e-01,2.304688990116119385e-01,2.304500341415405273e-01,2.304580807685852051e-01,2.304575443267822266e-01,2.304344177246093750e-01,2.304222881793975830e-01,2.304124236106872559e-01,2.304053306579589844e-01,2.303939461708068848e-01,2.303828895092010498e-01,2.303298115730285645e-01,2.306857109069824219e-01,2.300093173980712891e-01,2.225944399833679199e-01,2.259176671504974365e-01,2.498128414154052734e-01,2.745958864688873291e-01,3.377309441566467285e-01,3.732007443904876709e-01
3.838108777999877930e-01,2.985785603523254395e-01,2.758303284645080566e-01,2.418457269668579102e-01,2.191908359527587891e-01,2.158583402633666992e-01,2.188138365745544434e-01,2.195155322551727295e-01,2.200817167758941650e-01,2.200340926647186279e-01,2.200110256671905518e-01,2.200026810169219971e-01,2.199941575527191162e-01,2.199855744838714600e-01,2.199772000312805176e-01,2.199687659740447998e-01,2.199603021144866943e-01,2.199516296386718750e-01,2.199431657791137695e-01,2.199348211288452148e-01,2.199262976646423340e-01,2.199177145957946777e-01,2.199092507362365723e-01,2.199007272720336914e-01,2.198923826217651367e-01,2.198839485645294189e-01,2.198753952980041504e-01,2.198669016361236572e-01,2.198585569858551025e-01,2.198500335216522217e-01,2.198416590690612793e-01,2.198331952095031738e-01,2.198245525360107422e-01,2.198161482810974121e-01,2.198076546192169189e-01,2.197990417480468750e-01,2.197906970977783203e-01,2.197822332382202148e-01,2.197736799716949463e-01,2.197652459144592285e-01,2.197568714618682861e-01,2.197482883930206299e-01,2.197400927543640137e-01,2.197313606739044189e-01,2.197232544422149658e-01,2.197146713733673096e-01,2.197061181068420410e-01,2.196976542472839355e-01,2.196892499923706055e-01,2.196807265281677246e-01,2.196725010871887207e-01,2.196638584136962891e-01,2.196547687053680420e-01,2.196460664272308350e-01,2.196381688117980957e-01,2.196297347545623779e-01,2.196240723133087158e-01,2.196136713027954102e-01,2.196032702922821045e-01,2.196009159088134766e-01,2.195939421653747559e-01,2.195801138877868652e-01,2.195697426795959473e-01,2.195646166801452637e-01,2.195571959018707275e-01,2.195464372634887695e-01,2.195371389389038086e-01,2.195285558700561523e-01,2.195190489292144775e-01,2.195128500461578369e-01,2.195032536983489990e-01,2.194583117961883545e-01,2.197632789611816406e-01,2.192144095897674561e-01,2.123452425003051758e-01,2.156741321086883545e-01,2.391581833362579346e-01,2.649282217025756836e-01,3.292301893234252930e-01,3.678082823753356934e-01
3.778376281261444092e-01,2.908444404602050781e-01,2.668075263500213623e-01,2.334591746330261230e-01,2.106589078903198242e-01,2.071492969989776611e-01,2.098532021045684814e-01,2.104769051074981689e-01,2.109942138195037842e-01,2.109521925449371338e-01,2.109323143959045410e-01,2.109252214431762695e-01,2.109182775020599365e-01,2.109113335609436035e-01,2.109040021896362305e-01,2.108970582485198975e-01,2.108900547027587891e-01,2.108827829360961914e-01,2.108758985996246338e-01,2.108685970306396484e-01,2.108616232872009277e-01,2.108544707298278809e-01,2.108474671840667725e-01,2.108404040336608887e-01,2.108333706855773926e-01,2.108263671398162842e-01,2.108192741870880127e-01,2.108123898506164551e-01,2.108052074909210205e-01,2.107981741428375244e-01,2.107909917831420898e-01,2.107838988304138184e-01,2.107770144939422607e-01,2.107698619365692139e-01,2.107628583908081055e-01,2.107558250427246094e-01,2.107487618923187256e-01,2.107416689395904541e-01,2.107346057891845703e-01,2.107276916503906250e-01,2.107205092906951904e-01,2.107134759426116943e-01,2.107065618038177490e-01,2.106993794441223145e-01,2.106924355030059814e-01,2.106852829456329346e-01,2.106783390045166016e-01,2.106715440750122070e-01,2.106643021106719971e-01,2.106572091579437256e-01,2.106500566005706787e-01,2.106430232524871826e-01,2.106360495090484619e-01,2.106291651725769043e-01,2.106218039989471436e-01,2.106149196624755859e-01,2.106083333492279053e-01,2.106004357337951660e-01,2.105940282344818115e-01,2.105871140956878662e-01,2.105801105499267578e-01,2.105726897716522217e-01,2.105658054351806641e-01,2.105589210987091064e-01,2.105518877506256104e-01,2.105446457862854004e-01,2.105377614498138428e-01,2.105303406715393066e-01,2.105236649513244629e-01,2.105166018009185791e-01,2.105088233947753906e-01,2.104702591896057129e-01,2.107365429401397705e-01,2.102892696857452393e-01,2.038738727569580078e-01,2.072036862373352051e-01,2.303391098976135254e-01,2.568518817424774170e-01,3.220627009868621826e-01,3.632458746433258057e-01
3.726805746555328369e-01,2.842513322830200195e-01,2.591621875762939453e-01,2.263996601104736328e-01,2.035072743892669678e-01,1.998424232006072998e-01,2.023399174213409424e-01,2.028951346874237061e-01,2.033711075782775879e-01,2.033337950706481934e-01,2.033165395259857178e-01,2.033105194568634033e-01,2.033045589923858643e-01,2.032983899116516113e-01,2.032926380634307861e-01,2.032866477966308594e-01,2.032805979251861572e-01,2.032746374607086182e-01,2.032685875892639160e-01,2.032625675201416016e-01,2.032567858695983887e-01,2.032507061958312988e-01,2.032446563243865967e-01,2.032386660575866699e-01,2.032327651977539062e-01,2.032267451286315918e-01,2.032209336757659912e-01,2.032149136066436768e-01,2.032092213630676270e-01,2.032031118869781494e-01,2.031970620155334473e-01,2.031908929347991943e-01,2.031850516796112061e-01,2.031791806221008301e-01,2.031733095645904541e-01,2.031671106815338135e-01,2.031610906124114990e-01,2.031552195549011230e-01,2.031493782997131348e-01,2.031433880329132080e-01,2.031375467777252197e-01,2.031314969062805176e-01,2.031255960464477539e-01,2.031194269657135010e-01,2.031135261058807373e-01,2.031074464321136475e-01,2.031015753746032715e-01,2.030957639217376709e-01,2.030899226665496826e-01,2.030837833881378174e-01,2.030777931213378906e-01,2.030719518661499023e-01,2.030661702156066895e-01,2.030601203441619873e-01,2.030541002750396729e-01,2.030483186244964600e-01,2.030422985553741455e-01,2.030364274978637695e-01,2.030304670333862305e-01,2.030244767665863037e-01,2.030182778835296631e-01,2.030126452445983887e-01,2.030065953731536865e-01,2.030007243156433105e-01,2.029946744441986084e-01,2.029888033866882324e-01,2.029829025268554688e-01,2.029770314693450928e-01,2.029710710048675537e-01,2.029651105403900146e-01,2.029584348201751709e-01,2.029249966144561768e-01,2.031603157520294189e-01,2.027960121631622314e-01,1.967621445655822754e-01,2.000900506973266602e-01,2.229241728782653809e-01,2.500066161155700684e-01,3.159356117248535156e-01,3.593338131904602051e-01
3.681839406490325928e-01,2.785657346248626709e-01,2.526065111160278320e-01,2.203795611858367920e-01,1.974317729473114014e-01,1.936304569244384766e-01,1.959557831287384033e-01,1.964505910873413086e-01,1.968911886215209961e-01,1.968580782413482666e-01,1.968424022197723389e-01,1.968373358249664307e-01,1.968321204185485840e-01,1.968272328376770020e-01,1.968218088150024414e-01,1.968168020248413086e-01,1.968118250370025635e-01,1.968066692352294922e-01,1.968016326427459717e-01,1.967964470386505127e-01,1.967912912368774414e-01,1.967861950397491455e-01,1.967810094356536865e-01,1.967759728431701660e-01,1.967709660530090332e-01,1.967657506465911865e-01,1.967607140541076660e-01,1.967555880546569824e-01,1.967505514621734619e-01,1.967453956604003906e-01,1.967403888702392578e-01,1.967351734638214111e-01,1.967301070690155029e-01,1.967250108718872070e-01,1.967200040817260742e-01,1.967146992683410645e-01,1.967097520828247070e-01,1.967045366764068604e-01,1.966995894908905029e-01,1.966944634914398193e-01,1.966892480850219727e-01,1.966842114925384521e-01,1.966789960861206055e-01,1.966740489006042480e-01,1.966688930988311768e-01,1.966638267040252686e-01,1.966585516929626465e-01,1.966537237167358398e-01,1.966484785079956055e-01,1.966434121131896973e-01,1.966384351253509521e-01,1.966334283351898193e-01,1.966281533241271973e-01,1.966230273246765137e-01,1.966178417205810547e-01,1.966129541397094727e-01,1.966079175472259521e-01,1.966028809547424316e-01,1.965976357460021973e-01,1.965925693511962891e-01,1.965874135494232178e-01,1.965824365615844727e-01,1.965774595737457275e-01,1.965721845626831055e-01,1.965672969818115234e-01,1.965622305870056152e-01,1.965571045875549316e-01,1.965519189834594727e-01,1.965468227863311768e-01,1.965419650077819824e-01,1.965359151363372803e-01,1.965065300464630127e-01,1.967170536518096924e-01,1.964207589626312256e-01,1.907120347023010254e-01,1.940363347530364990e-01,2.166066765785217285e-01,2.441325187683105469e-01,3.106369674205780029e-01,3.559414744377136230e-01
3.642290830612182617e-01,2.736132144927978516e-01,2.469266951084136963e-01,2.151883244514465332e-01,1.922096610069274902e-01,1.882880032062530518e-01,1.904675662517547607e-01,1.909097731113433838e-01,1.913199722766876221e-01,1.912896931171417236e-01,1.912756860256195068e-01,1.912712752819061279e-01,1.912669539451599121e-01,1.912624239921569824e-01,1.912580132484436035e-01,1.912536323070526123e-01,1.912492811679840088e-01,1.912446916103363037e-01,1.912405788898468018e-01,1.912360489368438721e-01,1.912316083908081055e-01,1.912271380424499512e-01,1.912227869033813477e-01,1.912183463573455811e-01,1.912137567996978760e-01,1.912094056606292725e-01,1.912050843238830566e-01,1.912006735801696777e-01,1.911960840225219727e-01,1.911918520927429199e-01,1.911873221397399902e-01,1.911829411983489990e-01,1.911786496639251709e-01,1.911742091178894043e-01,1.911696493625640869e-01,1.911654472351074219e-01,1.911609470844268799e-01,1.911565661430358887e-01,1.911522150039672852e-01,1.911476850509643555e-01,1.911434829235076904e-01,1.911388933658599854e-01,1.911345720291137695e-01,1.911301910877227783e-01,1.911256611347198486e-01,1.911213994026184082e-01,1.911168992519378662e-01,1.911125183105468750e-01,1.911081969738006592e-01,1.911036968231201172e-01,1.910993456840515137e-01,1.910948455333709717e-01,1.910906434059143066e-01,1.910861134529113770e-01,1.910817921161651611e-01,1.910771727561950684e-01,1.910729706287384033e-01,1.910685300827026367e-01,1.910640001296997070e-01,1.910597980022430420e-01,1.910551786422729492e-01,1.910511255264282227e-01,1.910465359687805176e-01,1.910420954227447510e-01,1.910377740859985352e-01,1.910334527492523193e-01,1.910290718078613281e-01,1.910246908664703369e-01,1.910201311111450195e-01,1.910158395767211914e-01,1.910107135772705078e-01,1.909843981266021729e-01,1.911748349666595459e-01,1.909348666667938232e-01,1.855058372020721436e-01,1.888258755207061768e-01,2.111619710922241211e-01,2.390384674072265625e-01,3.060089945793151855e-01,3.529712557792663574e-01
3.607224822044372559e-01,2.692642211914062500e-01,2.419606447219848633e-01,2.106675505638122559e-01,1.876756846904754639e-01,1.836446523666381836e-01,1.856972277164459229e-01,1.860921084880828857e-01,1.864756345748901367e-01,1.864482164382934570e-01,1.864354014396667480e-01,1.864317357540130615e-01,1.864276528358459473e-01,1.864238977432250977e-01,1.864200830459594727e-01,1.864161789417266846e-01,1.864122748374938965e-01,1.864084899425506592e-01,1.864048242568969727e-01,1.864008307456970215e-01,1.863968074321746826e-01,1.863930821418762207e-01,1.863892972469329834e-01,1.863853037357330322e-01,1.863813698291778564e-01,1.863776445388793945e-01,1.863738298416137695e-01,1.863699555397033691e-01,1.863659620285034180e-01,1.863622367382049561e-01,1.863584816455841064e-01,1.863545775413513184e-01,1.863507032394409180e-01,1.863466501235961914e-01,1.863430440425872803e-01,1.863392591476440430e-01,1.863354146480560303e-01,1.863313913345336914e-01,1.863278150558471680e-01,1.863237917423248291e-01,1.863199174404144287e-01,1.863160431385040283e-01,1.863121688365936279e-01,1.863082945346832275e-01,1.863045394420623779e-01,1.863006651401519775e-01,1.862966716289520264e-01,1.862930059432983398e-01,1.862891018390655518e-01,1.862854063510894775e-01,1.862815022468566895e-01,1.862778067588806152e-01,1.862737834453582764e-01,1.862701475620269775e-01,1.862662732601165771e-01,1.862622201442718506e-01,1.862584352493286133e-01,1.862544715404510498e-01,1.862507462501525879e-01,1.862469315528869629e-01,1.862432658672332764e-01,1.862392723560333252e-01,1.862354576587677002e-01,1.862317323684692383e-01,1.862278878688812256e-01,1.862239837646484375e-01,1.862201094627380371e-01,1.862164139747619629e-01,1.862125694751739502e-01,1.862086951732635498e-01,1.862039566040039062e-01,1.861808001995086670e-01,1.863545775413513184e-01,1.861624121665954590e-01,1.809775531291961670e-01,1.842918694019317627e-01,2.064209580421447754e-01,2.345718145370483398e-01,3.019205331802368164e-01,3.503385782241821289e-01
3.576376438140869141e-01,2.654606401920318604e-01,2.376333475112915039e-01,2.067420184612274170e-01,1.837375462055206299e-01,1.796105206012725830e-01,1.815584301948547363e-01,1.819115281105041504e-01,1.822721064090728760e-01,1.822469532489776611e-01,1.822350919246673584e-01,1.822315454483032227e-01,1.822281777858734131e-01,1.822246909141540527e-01,1.822214424610137939e-01,1.822180449962615967e-01,1.822146475315093994e-01,1.822111010551452637e-01,1.822077631950378418e-01,1.822043359279632568e-01,1.822009086608886719e-01,1.821976304054260254e-01,1.821940243244171143e-01,1.821908652782440186e-01,1.821874976158142090e-01,1.821840107440948486e-01,1.821805834770202637e-01,1.821772158145904541e-01,1.821738183498382568e-01,1.821704506874084473e-01,1.821671724319458008e-01,1.821637153625488281e-01,1.821602880954742432e-01,1.821568012237548828e-01,1.821534931659698486e-01,1.821502447128295898e-01,1.821466088294982910e-01,1.821433901786804199e-01,1.821400225162506104e-01,1.821365356445312500e-01,1.821332871913909912e-01,1.821300089359283447e-01,1.821265220642089844e-01,1.821230947971343994e-01,1.821198165416717529e-01,1.821163892745971680e-01,1.821128427982330322e-01,1.821095645427703857e-01,1.821062564849853516e-01,1.821027696132659912e-01,1.820994019508361816e-01,1.820962131023406982e-01,1.820927858352661133e-01,1.820893883705139160e-01,1.820859313011169434e-01,1.820825338363647461e-01,1.820792555809020996e-01,1.820757985115051270e-01,1.820723116397857666e-01,1.820690631866455078e-01,1.820656955242156982e-01,1.820621788501739502e-01,1.820589005947113037e-01,1.820554137229919434e-01,1.820522844791412354e-01,1.820487380027770996e-01,1.820454597473144531e-01,1.820418536663055420e-01,1.820384860038757324e-01,1.820352971553802490e-01,1.820311546325683594e-01,1.820100545883178711e-01,1.821689903736114502e-01,1.820170581340789795e-01,1.770417392253875732e-01,1.803445518016815186e-01,2.022841572761535645e-01,2.306706309318542480e-01,2.983127236366271973e-01,3.479950129985809326e-01
3.552460074424743652e-01,2.622943520545959473e-01,2.341432273387908936e-01,2.035857439041137695e-01,1.805850863456726074e-01,1.763871014118194580e-01,1.782721579074859619e-01,1.786175370216369629e-01,1.789578199386596680e-01,1.789335012435913086e-01,1.789228022098541260e-01,1.789197027683258057e-01,1.789166927337646484e-01,1.789135038852691650e-01,1.789105236530303955e-01,1.789078116416931152e-01,1.789045333862304688e-01,1.789014637470245361e-01,1.788986027240753174e-01,1.788953840732574463e-01,1.788925528526306152e-01,1.788896024227142334e-01,1.788864433765411377e-01,1.788835227489471436e-01,1.788804829120635986e-01,1.788773238658905029e-01,1.788743138313293457e-01,1.788713335990905762e-01,1.788684427738189697e-01,1.788652837276458740e-01,1.788623631000518799e-01,1.788592934608459473e-01,1.788561940193176270e-01,1.788533627986907959e-01,1.788502037525177002e-01,1.788473427295684814e-01,1.788442432880401611e-01,1.788411736488342285e-01,1.788381040096282959e-01,1.788352429866790771e-01,1.788322031497955322e-01,1.788289546966552734e-01,1.788263022899627686e-01,1.788232624530792236e-01,1.788201332092285156e-01,1.788172125816345215e-01,1.788140833377838135e-01,1.788112819194793701e-01,1.788082420825958252e-01,1.788049936294555664e-01,1.788020133972167969e-01,1.787990629673004150e-01,1.787960231304168701e-01,1.787929236888885498e-01,1.787900626659393311e-01,1.787870228290557861e-01,1.787839531898498535e-01,1.787810027599334717e-01,1.787779927253723145e-01,1.787749528884887695e-01,1.787721514701843262e-01,1.787689626216888428e-01,1.787658333778381348e-01,1.787628829479217529e-01,1.787599623203277588e-01,1.787570118904113770e-01,1.787540912628173828e-01,1.787509620189666748e-01,1.787478327751159668e-01,1.787449717521667480e-01,1.787411868572235107e-01,1.787223219871520996e-01,1.788703501224517822e-01,1.787468492984771729e-01,1.739454567432403564e-01,1.772534847259521484e-01,1.989206075668334961e-01,2.273631393909454346e-01,2.952061295509338379e-01,3.462716341018676758e-01
3.522583246231079102e-01,2.585262358188629150e-01,2.300036847591400146e-01,1.997266411781311035e-01,1.766580045223236084e-01,1.722872257232666016e-01,1.739269793033599854e-01,1.741955578327178955e-01,1.744953691959381104e-01,1.744750738143920898e-01,1.744655072689056396e-01,1.744628548622131348e-01,1.744601726531982422e-01,1.744576096534729004e-01,1.744548678398132324e-01,1.744523644447326660e-01,1.744497716426849365e-01,1.744470894336700439e-01,1.744443178176879883e-01,1.744416654109954834e-01,1.744390130043029785e-01,1.744363903999328613e-01,1.744337677955627441e-01,1.744311153888702393e-01,1.744286417961120605e-01,1.744259297847747803e-01,1.744232475757598877e-01,1.744205653667449951e-01,1.744177639484405518e-01,1.744152605533599854e-01,1.744127273559570312e-01,1.744100749492645264e-01,1.744073331356048584e-01,1.744046211242675781e-01,1.744020879268646240e-01,1.743992269039154053e-01,1.743967235088348389e-01,1.743941605091094971e-01,1.743915081024169922e-01,1.743890047073364258e-01,1.743863224983215332e-01,1.743836700916290283e-01,1.743809282779693604e-01,1.743783652782440186e-01,1.743757724761962891e-01,1.743730008602142334e-01,1.743703484535217285e-01,1.743679642677307129e-01,1.743651032447814941e-01,1.743623614311218262e-01,1.743597090244293213e-01,1.743572652339935303e-01,1.743545234203338623e-01,1.743518710136413574e-01,1.743493080139160156e-01,1.743466258049011230e-01,1.743441522121429443e-01,1.743413805961608887e-01,1.743388473987579346e-01,1.743360161781311035e-01,1.743335127830505371e-01,1.743307113647460938e-01,1.743282079696655273e-01,1.743255853652954102e-01,1.743229031562805176e-01,1.743203103542327881e-01,1.743177473545074463e-01,1.743151545524597168e-01,1.743124127388000488e-01,1.743098795413970947e-01,1.743065714836120605e-01,1.742887794971466064e-01,1.744315624237060547e-01,1.743102073669433594e-01,1.696811914443969727e-01,1.730765402317047119e-01,1.948022246360778809e-01,2.234551906585693359e-01,2.916904091835021973e-01,3.432709574699401855e-01
3.534522652626037598e-01,2.556055188179016113e-01,2.290335595607757568e-01,1.991983652114868164e-01,1.747835278511047363e-01,1.703475117683410645e-01,1.715839505195617676e-01,1.718492805957794189e-01,1.721448302268981934e-01,1.721247732639312744e-01,1.721164882183074951e-01,1.721142232418060303e-01,1.721118390560150146e-01,1.721094548702239990e-01,1.721071600914001465e-01,1.721048355102539062e-01,1.721025109291076660e-01,1.721000671386718750e-01,1.720975935459136963e-01,1.720952689647674561e-01,1.720928847789764404e-01,1.720905900001525879e-01,1.720880866050720215e-01,1.720858216285705566e-01,1.720834076404571533e-01,1.720811724662780762e-01,1.720787882804870605e-01,1.720762848854064941e-01,1.720739901065826416e-01,1.720717251300811768e-01,1.720694005489349365e-01,1.720668077468872070e-01,1.720646321773529053e-01,1.720622479915618896e-01,1.720598936080932617e-01,1.720577180385589600e-01,1.720551550388336182e-01,1.720528304576873779e-01,1.720504462718963623e-01,1.720479726791381836e-01,1.720458269119262695e-01,1.720434725284576416e-01,1.720409691333770752e-01,1.720387339591979980e-01,1.720363199710845947e-01,1.720338463783264160e-01,1.720315515995025635e-01,1.720291674137115479e-01,1.720269322395324707e-01,1.720246672630310059e-01,1.720221042633056641e-01,1.720199286937713623e-01,1.720176041126251221e-01,1.720151901245117188e-01,1.720126867294311523e-01,1.720106005668640137e-01,1.720079779624938965e-01,1.720057129859924316e-01,1.720033288002014160e-01,1.720009744167327881e-01,1.719985604286193848e-01,1.719962060451507568e-01,1.719940900802612305e-01,1.719917058944702148e-01,1.719891428947448730e-01,1.719869375228881836e-01,1.719845235347747803e-01,1.719824075698852539e-01,1.719799041748046875e-01,1.719775199890136719e-01,1.719752550125122070e-01,1.719551086425781250e-01,1.720601022243499756e-01,1.720528602600097656e-01,1.679030358791351318e-01,1.713140904903411865e-01,1.922467947006225586e-01,2.205637395381927490e-01,2.916413545608520508e-01,3.415905833244323730e-01
3.557899594306945801e-01,2.536366879940032959e-01,2.169761657714843750e-01,1.914370954036712646e-01,1.698949337005615234e-01,1.649758815765380859e-01,1.661608219146728516e-01,1.664640605449676514e-01,1.667151749134063721e-01,1.666953563690185547e-01,1.666880249977111816e-01,1.666861474514007568e-01,1.666840910911560059e-01,1.666819751262664795e-01,1.666799485683441162e-01,1.666779518127441406e-01,1.666758656501770020e-01,1.666738688945770264e-01,1.666719019412994385e-01,1.666698753833770752e-01,1.666677892208099365e-01,1.666654944419860840e-01,1.666637957096099854e-01,1.666616499423980713e-01,1.666595637798309326e-01,1.666576564311981201e-01,1.666557490825653076e-01,1.666536033153533936e-01,1.666516363620758057e-01,1.666495203971862793e-01,1.666474640369415283e-01,1.666454374790191650e-01,1.666432917118072510e-01,1.666413247585296631e-01,1.666393876075744629e-01,1.666372716426849365e-01,1.666353046894073486e-01,1.666332185268402100e-01,1.666312813758850098e-01,1.666289865970611572e-01,1.666270494461059570e-01,1.666251420974731445e-01,1.666231751441955566e-01,1.666209995746612549e-01,1.666190922260284424e-01,1.666169762611389160e-01,1.666150689125061035e-01,1.666128933429718018e-01,1.666109561920166016e-01,1.666087508201599121e-01,1.666068732738494873e-01,1.666050851345062256e-01,1.666028201580047607e-01,1.666007339954376221e-01,1.665987968444824219e-01,1.665968000888824463e-01,1.665946245193481445e-01,1.665926575660705566e-01,1.665906906127929688e-01,1.665886342525482178e-01,1.665866076946258545e-01,1.665844917297363281e-01,1.665827035903930664e-01,1.665804088115692139e-01,1.665782630443572998e-01,1.665764153003692627e-01,1.665745675563812256e-01,1.665725708007812500e-01,1.665704548358917236e-01,1.665682792663574219e-01,1.665681302547454834e-01,1.665439903736114502e-01,1.666116118431091309e-01,1.667937934398651123e-01,1.623817086219787598e-01,1.654359102249145508e-01,1.886176466941833496e-01,2.108106911182403564e-01,2.860377430915832520e-01,3.337824940681457520e-01
3.380686044692993164e-01,2.402383387088775635e-01,2.027127146720886230e-01,1.804869174957275391e-01,1.658504903316497803e-01,1.592123806476593018e-01,1.592747271060943604e-01,1.594829559326171875e-01,1.597140431404113770e-01,1.596969962120056152e-01,1.596919298171997070e-01,1.596903204917907715e-01,1.596885621547698975e-01,1.596869826316833496e-01,1.596853435039520264e-01,1.596837043762207031e-01,1.596820354461669922e-01,1.596803963184356689e-01,1.596787869930267334e-01,1.596771180629730225e-01,1.596755385398864746e-01,1.596738398075103760e-01,1.596723198890686035e-01,1.596705913543701172e-01,1.596688926219940186e-01,1.596672534942626953e-01,1.596655547618865967e-01,1.596640348434448242e-01,1.596625149250030518e-01,1.596608459949493408e-01,1.596592068672180176e-01,1.596574783325195312e-01,1.596559286117553711e-01,1.596541404724121094e-01,1.596524119377136230e-01,1.596508026123046875e-01,1.596492230892181396e-01,1.596476137638092041e-01,1.596459746360778809e-01,1.596445143222808838e-01,1.596427559852600098e-01,1.596410870552062988e-01,1.596394777297973633e-01,1.596378684043884277e-01,1.596361994743347168e-01,1.596344709396362305e-01,1.596328318119049072e-01,1.596313416957855225e-01,1.596296727657318115e-01,1.596279144287109375e-01,1.596263051033020020e-01,1.596248149871826172e-01,1.596231460571289062e-01,1.596215069293975830e-01,1.596199274063110352e-01,1.596180796623229980e-01,1.596165597438812256e-01,1.596148908138275146e-01,1.596132516860961914e-01,1.596115827560424805e-01,1.596099138259887695e-01,1.596083343029022217e-01,1.596067547798156738e-01,1.596050560474395752e-01,1.596035063266754150e-01,1.596018373966217041e-01,1.596003472805023193e-01,1.595985889434814453e-01,1.595969796180725098e-01,1.595953106880187988e-01,1.595935225486755371e-01,1.595657169818878174e-01,1.596048772335052490e-01,1.598364412784576416e-01,1.557661294937133789e-01,1.533360779285430908e-01,1.688711643218994141e-01,2.049833536148071289e-01,2.839698493480682373e-01,3.553461432456970215e-01
3.297490775585174561e-01,2.279991507530212402e-01,1.979699432849884033e-01,1.790182888507843018e-01,1.636393070220947266e-01,1.572909951210021973e-01,1.598440408706665039e-01,1.601184606552124023e-01,1.602992415428161621e-01,1.602833867073059082e-01,1.602794229984283447e-01,1.602780818939208984e-01,1.602765619754791260e-01,1.602752804756164551e-01,1.602739691734313965e-01,1.602724790573120117e-01,1.602709889411926270e-01,1.602694988250732422e-01,1.602682471275329590e-01,1.602667272090911865e-01,1.602651774883270264e-01,1.602639555931091309e-01,1.602624654769897461e-01,1.602609455585479736e-01,1.602595150470733643e-01,1.602581143379211426e-01,1.602566242218017578e-01,1.602552533149719238e-01,1.602538824081420898e-01,1.602524816989898682e-01,1.602509021759033203e-01,1.602494716644287109e-01,1.602481305599212646e-01,1.602467596530914307e-01,1.602453887462615967e-01,1.602438986301422119e-01,1.602424383163452148e-01,1.602411568164825439e-01,1.602395772933959961e-01,1.602382957935333252e-01,1.602366566658020020e-01,1.602355241775512695e-01,1.602340340614318848e-01,1.602324843406677246e-01,1.602311134338378906e-01,1.602297425270080566e-01,1.602284014225006104e-01,1.602269113063812256e-01,1.602255105972290039e-01,1.602241694927215576e-01,1.602226793766021729e-01,1.602210402488708496e-01,1.602196693420410156e-01,1.602182686328887939e-01,1.602167785167694092e-01,1.602153182029724121e-01,1.602139472961425781e-01,1.602125465869903564e-01,1.602111756801605225e-01,1.602095663547515869e-01,1.602083146572113037e-01,1.602070033550262451e-01,1.602056026458740234e-01,1.602041125297546387e-01,1.602025628089904785e-01,1.602013707160949707e-01,1.601997315883636475e-01,1.601983606815338135e-01,1.601969897747039795e-01,1.601955890655517578e-01,1.601967215538024902e-01,1.601750850677490234e-01,1.602490842342376709e-01,1.604157984256744385e-01,1.554428339004516602e-01,1.561049520969390869e-01,1.747399568557739258e-01,1.962424516677856445e-01,3.100831806659698486e-01,3.704560399055480957e-01
