5.884590148925781250e-01,6.138762831687927246e-01,6.564375162124633789e-01,6.571907997131347656e-01,6.806938052177429199e-01,7.049083709716796875e-01,7.412750720977783203e-01,7.626833915710449219e-01,7.834569215774536133e-01,8.020954132080078125e-01,8.198952674865722656e-01,8.364014625549316406e-01,8.513693809509277344e-01,8.647042512893676758e-01,8.763453960418701172e-01,8.858934640884399414e-01,8.929318189620971680e-01,8.976774811744689941e-01,9.009641408920288086e-01,9.031083583831787109e-01,9.043330550193786621e-01,9.050039052963256836e-01,9.052593708038330078e-01,9.053181409835815430e-01,9.053307175636291504e-01,9.053288698196411133e-01,9.053283333778381348e-01,9.053283333778381348e-01,9.053283333778381348e-01,9.053283333778381348e-01,9.053283333778381348e-01,9.053283333778381348e-01,9.053283333778381348e-01,9.053283333778381348e-01,9.053283333778381348e-01,9.053283333778381348e-01,9.053283333778381348e-01,9.053283333778381348e-01,9.053283333778381348e-01,9.053283333778381348e-01,9.053283333778381348e-01,9.053244590759277344e-01,9.053206443786621094e-01,9.053688049316406250e-01,9.057848453521728516e-01,9.054840207099914551e-01,9.026222229003906250e-01,8.969140052795410156e-01,8.845692873001098633e-01,8.705557584762573242e-01,8.486386537551879883e-01,8.144384622573852539e-01,7.408304810523986816e-01,6.827509999275207520e-01,6.319757103919982910e-01,6.034880876541137695e-01,6.037913560867309570e-01,6.004995107650756836e-01,6.157761812210083008e-01,6.541577577590942383e-01,7.024996876716613770e-01,7.737840414047241211e-01,8.204519748687744141e-01,8.509408235549926758e-01,8.733730316162109375e-01,8.873891234397888184e-01,8.959763050079345703e-01,8.992044925689697266e-01,8.986560702323913574e-01,8.949034214019775391e-01,8.888874053955078125e-01,8.804461956024169922e-01,8.711255192756652832e-01,8.582299947738647461e-01,8.297039270401000977e-01,8.087363243103027344e-01,8.011335134506225586e-01,7.751246690750122070e-01,7.224120497703552246e-01,6.163171529769897461e-01
5.884520411491394043e-01,6.138653755187988281e-01,6.564247608184814453e-01,6.571757793426513672e-01,6.806773543357849121e-01,7.048913240432739258e-01,7.412579655647277832e-01,7.626659870147705078e-01,7.834393978118896484e-01,8.020781874656677246e-01,8.198788762092590332e-01,8.363860249519348145e-01,8.513553738594055176e-01,8.646915555000305176e-01,8.763344287872314453e-01,8.858850002288818359e-01,8.929258584976196289e-01,8.976733684539794922e-01,9.009612798690795898e-01,9.031068682670593262e-01,9.043320417404174805e-01,9.050033688545227051e-01,9.052592515945434570e-01,9.053180217742919922e-01,9.053307175636291504e-01,9.053288698196411133e-01,9.053283333778381348e-01,9.053283333778381348e-01,9.053283333778381348e-01,9.053283333778381348e-01,9.053283333778381348e-01,9.053283333778381348e-01,9.053283333778381348e-01,9.053283333778381348e-01,9.053283333778381348e-01,9.053283333778381348e-01,9.053283333778381348e-01,9.053283333778381348e-01,9.053283333778381348e-01,9.053283333778381348e-01,9.053283333778381348e-01,9.053276777267456055e-01,9.053087234497070312e-01,9.053199887275695801e-01,9.058954715728759766e-01,9.062083363533020020e-01,9.032793641090393066e-01,8.975464105606079102e-01,8.878451585769653320e-01,8.729015588760375977e-01,8.504960536956787109e-01,8.166720867156982422e-01,7.522244453430175781e-01,6.789784431457519531e-01,6.371077299118041992e-01,6.096441149711608887e-01,6.027207970619201660e-01,6.040230393409729004e-01,6.220577359199523926e-01,6.535167098045349121e-01,7.061343193054199219e-01,7.755137085914611816e-01,8.224388957023620605e-01,8.519058823585510254e-01,8.733893632888793945e-01,8.876554965972900391e-01,8.956189751625061035e-01,8.991957902908325195e-01,8.983435034751892090e-01,8.950370550155639648e-01,8.888713717460632324e-01,8.804551959037780762e-01,8.711328506469726562e-01,8.582397699356079102e-01,8.297158479690551758e-01,8.087493777275085449e-01,8.011463284492492676e-01,7.751369476318359375e-01,7.224221825599670410e-01,6.163243055343627930e-01
5.884454846382141113e-01,6.138545274734497070e-01,6.564120650291442871e-01,6.571609973907470703e-01,6.806610822677612305e-01,7.048743963241577148e-01,7.412408590316772461e-01,7.626489400863647461e-01,7.834225296974182129e-01,8.020610809326171875e-01,8.198624849319458008e-01,8.363708257675170898e-01,8.513414859771728516e-01,8.646793365478515625e-01,8.763235807418823242e-01,8.858763575553894043e-01,8.929198980331420898e-01,8.976693153381347656e-01,9.009581804275512695e-01,9.031051397323608398e-01,9.043312072753906250e-01,9.050028920173645020e-01,9.052590131759643555e-01,9.053180217742919922e-01,9.053307175636291504e-01,9.053288698196411133e-01,9.053283333778381348e-01,9.053283333778381348e-01,9.053283333778381348e-01,9.053283333778381348e-01,9.053283333778381348e-01,9.053283333778381348e-01,9.053283333778381348e-01,9.053283333778381348e-01,9.053283333778381348e-01,9.053283333778381348e-01,9.053283333778381348e-01,9.053283333778381348e-01,9.053283333778381348e-01,9.053283333778381348e-01,9.053283333778381348e-01,9.053260684013366699e-01,9.053093194961547852e-01,9.053040742874145508e-01,9.056978225708007812e-01,9.060837626457214355e-01,9.034984111785888672e-01,8.977770805358886719e-01,8.901875615119934082e-01,8.738828897476196289e-01,8.532894849777221680e-01,8.230609893798828125e-01,7.627226114273071289e-01,6.875983476638793945e-01,6.371273994445800781e-01,6.153613924980163574e-01,6.044961214065551758e-01,6.012004017829895020e-01,6.250268220901489258e-01,6.536950469017028809e-01,7.090708613395690918e-01,7.765973806381225586e-01,8.227560520172119141e-01,8.530102968215942383e-01,8.745580911636352539e-01,8.877868056297302246e-01,8.952322006225585938e-01,8.989962339401245117e-01,8.988478183746337891e-01,8.950541019439697266e-01,8.888981938362121582e-01,8.804597854614257812e-01,8.711409568786621094e-01,8.582493066787719727e-01,8.297274112701416016e-01,8.087621331214904785e-01,8.011590242385864258e-01,7.751493453979492188e-01,7.224321961402893066e-01,6.163314580917358398e-01
5.884392857551574707e-01,6.138443350791931152e-01,6.563996672630310059e-01,6.571464538574218750e-01,6.806450486183166504e-01,7.048581838607788086e-01,7.412244081497192383e-01,7.626322507858276367e-01,7.834057807922363281e-01,8.020445704460144043e-01,8.198468685150146484e-01,8.363559246063232422e-01,8.513281345367431641e-01,8.646669387817382812e-01,8.763127923011779785e-01,8.858677744865417480e-01,8.929136991500854492e-01,8.976653814315795898e-01,9.009553194046020508e-01,9.031034708023071289e-01,9.043302536010742188e-01,9.050022363662719727e-01,9.052590131759643555e-01,9.053180217742919922e-01,9.053307175636291504e-01,9.053288698196411133e-01,9.053283333778381348e-01,9.053283333778381348e-01,9.053283333778381348e-01,9.053283333778381348e-01,9.053283333778381348e-01,9.053283333778381348e-01,9.053283333778381348e-01,9.053283333778381348e-01,9.053283333778381348e-01,9.053283333778381348e-01,9.053283333778381348e-01,9.053283333778381348e-01,9.053283333778381348e-01,9.053283333778381348e-01,9.053283333778381348e-01,9.053282737731933594e-01,9.053185582160949707e-01,9.053447246551513672e-01,9.057525396347045898e-01,9.063969850540161133e-01,9.039622545242309570e-01,9.000285863876342773e-01,8.915631771087646484e-01,8.751645088195800781e-01,8.566902875900268555e-01,8.276870250701904297e-01,7.739930152893066406e-01,7.035220861434936523e-01,6.483708024024963379e-01,6.162852644920349121e-01,6.023623943328857422e-01,6.052931547164916992e-01,6.264045238494873047e-01,6.576102972030639648e-01,7.055915594100952148e-01,7.712404727935791016e-01,8.230663537979125977e-01,8.525573015213012695e-01,8.735637068748474121e-01,8.876715898513793945e-01,8.951482772827148438e-01,8.983409404754638672e-01,8.986068964004516602e-01,8.950849175453186035e-01,8.889204859733581543e-01,8.804686069488525391e-01,8.711488246917724609e-01,8.582588434219360352e-01,8.297388553619384766e-01,8.087747097015380859e-01,8.011718392372131348e-01,7.751616239547729492e-01,7.224423885345458984e-01,6.163384318351745605e-01
5.884338021278381348e-01,6.138347983360290527e-01,6.563884019851684570e-01,6.571326851844787598e-01,6.806297302246093750e-01,7.048422098159790039e-01,7.412082552909851074e-01,7.626160383224487305e-01,7.833895683288574219e-01,8.020283579826354980e-01,8.198313713073730469e-01,8.363416194915771484e-01,8.513149023056030273e-01,8.646550178527832031e-01,8.763024806976318359e-01,8.858593702316284180e-01,8.929078578948974609e-01,8.976615071296691895e-01,9.009524583816528320e-01,9.031016826629638672e-01,9.043291807174682617e-01,9.050017595291137695e-01,9.052588939666748047e-01,9.053179025650024414e-01,9.053307771682739258e-01,9.053288698196411133e-01,9.053283333778381348e-01,9.053283333778381348e-01,9.053283333778381348e-01,9.053283333778381348e-01,9.053283333778381348e-01,9.053283333778381348e-01,9.053283333778381348e-01,9.053283333778381348e-01,9.053283333778381348e-01,9.053283333778381348e-01,9.053283333778381348e-01,9.053283333778381348e-01,9.053283333778381348e-01,9.053283333778381348e-01,9.053283333778381348e-01,9.053282737731933594e-01,9.053229093551635742e-01,9.053032398223876953e-01,9.057178497314453125e-01,9.060837030410766602e-01,9.039045572280883789e-01,9.008116722106933594e-01,8.943461179733276367e-01,8.791610002517700195e-01,8.633684515953063965e-01,8.325828313827514648e-01,7.886554002761840820e-01,7.140264511108398438e-01,6.607385873794555664e-01,6.189634203910827637e-01,6.065051555633544922e-01,6.117392182350158691e-01,6.286293268203735352e-01,6.571366786956787109e-01,7.028906941413879395e-01,7.692744731903076172e-01,8.199151158332824707e-01,8.556994199752807617e-01,8.733319044113159180e-01,8.862510919570922852e-01,8.953197002410888672e-01,8.986529111862182617e-01,8.986894488334655762e-01,8.949537277221679688e-01,8.888754248619079590e-01,8.804675340652465820e-01,8.711568117141723633e-01,8.582683205604553223e-01,8.297504782676696777e-01,8.087875843048095703e-01,8.011844158172607422e-01,7.751739025115966797e-01,7.224524617195129395e-01,6.163455247879028320e-01
5.884289145469665527e-01,6.138264536857604980e-01,6.563783288002014160e-01,6.571204066276550293e-01,6.806157231330871582e-01,7.048273086547851562e-01,7.411927580833435059e-01,7.626004219055175781e-01,7.833737134933471680e-01,8.020127415657043457e-01,8.198161125183105469e-01,8.363277912139892578e-01,8.513021469116210938e-01,8.646436929702758789e-01,8.762922286987304688e-01,8.858512639999389648e-01,8.929022550582885742e-01,8.976577520370483398e-01,9.009498357772827148e-01,9.031001329421997070e-01,9.043283462524414062e-01,9.050014019012451172e-01,9.052588939666748047e-01,9.053179025650024414e-01,9.053307175636291504e-01,9.053288698196411133e-01,9.053283333778381348e-01,9.053283333778381348e-01,9.053283333778381348e-01,9.053283333778381348e-01,9.053283333778381348e-01,9.053283333778381348e-01,9.053283333778381348e-01,9.053283333778381348e-01,9.053283333778381348e-01,9.053283333778381348e-01,9.053283333778381348e-01,9.053283333778381348e-01,9.053283333778381348e-01,9.053283333778381348e-01,9.053283333778381348e-01,9.053288698196411133e-01,9.053285121917724609e-01,9.053167104721069336e-01,9.056367278099060059e-01,9.057745933532714844e-01,9.046407938003540039e-01,9.010545015335083008e-01,8.950955867767333984e-01,8.817083835601806641e-01,8.676122426986694336e-01,8.439002037048339844e-01,7.985564470291137695e-01,7.276964783668518066e-01,6.687309145927429199e-01,6.301082968711853027e-01,6.175935864448547363e-01,6.270604133605957031e-01,6.339923143386840820e-01,6.538276076316833496e-01,7.013239264488220215e-01,7.664037942886352539e-01,8.130905032157897949e-01,8.502322435379028320e-01,8.729699850082397461e-01,8.850625753402709961e-01,8.933187723159790039e-01,8.978734016418457031e-01,8.980735540390014648e-01,8.949136137962341309e-01,8.888394236564636230e-01,8.804762959480285645e-01,8.711647987365722656e-01,8.582778573036193848e-01,8.297621011734008789e-01,8.088003396987915039e-01,8.011969923973083496e-01,7.751863002777099609e-01,7.224627137184143066e-01,6.163526773452758789e-01
5.884243249893188477e-01,6.138191223144531250e-01,6.563692688941955566e-01,6.571098566055297852e-01,6.806033849716186523e-01,7.048140764236450195e-01,7.411788105964660645e-01,7.625858783721923828e-01,7.833588123321533203e-01,8.019976615905761719e-01,8.198018670082092285e-01,8.363144397735595703e-01,8.512897491455078125e-01,8.646326065063476562e-01,8.762822151184082031e-01,8.858433961868286133e-01,8.928964734077453613e-01,8.976540565490722656e-01,9.009470939636230469e-01,9.030987024307250977e-01,9.043276309967041016e-01,9.050009250640869141e-01,9.052587747573852539e-01,9.053179025650024414e-01,9.053307175636291504e-01,9.053288698196411133e-01,9.053283333778381348e-01,9.053283333778381348e-01,9.053283333778381348e-01,9.053283333778381348e-01,9.053283333778381348e-01,9.053283333778381348e-01,9.053283333778381348e-01,9.053283333778381348e-01,9.053283333778381348e-01,9.053283333778381348e-01,9.053283333778381348e-01,9.053283333778381348e-01,9.053283333778381348e-01,9.053283333778381348e-01,9.053283333778381348e-01,9.053285121917724609e-01,9.053251147270202637e-01,9.053068161010742188e-01,9.055712223052978516e-01,9.056866168975830078e-01,9.054243564605712891e-01,9.027999639511108398e-01,8.972735404968261719e-01,8.850169777870178223e-01,8.716512918472290039e-01,8.482170701026916504e-01,8.119527697563171387e-01,7.444622516632080078e-01,6.799305081367492676e-01,6.471215486526489258e-01,6.293047666549682617e-01,6.407958865165710449e-01,6.430214643478393555e-01,6.608069539070129395e-01,6.966326236724853516e-01,7.546094655990600586e-01,8.150694966316223145e-01,8.461833000183105469e-01,8.709415197372436523e-01,8.839413523674011230e-01,8.927336931228637695e-01,8.965048193931579590e-01,8.972998857498168945e-01,8.946738243103027344e-01,8.888338804244995117e-01,8.804920911788940430e-01,8.711724281311035156e-01,8.582873344421386719e-01,8.297734856605529785e-01,8.088129758834838867e-01,8.012095689773559570e-01,7.751984596252441406e-01,7.224727869033813477e-01,6.163598299026489258e-01
5.884200334548950195e-01,6.138119697570800781e-01,6.563606262207031250e-01,6.571000218391418457e-01,6.805923581123352051e-01,7.048025131225585938e-01,7.411668896675109863e-01,7.625731825828552246e-01,7.833452224731445312e-01,8.019837141036987305e-01,8.197883367538452148e-01,8.363015651702880859e-01,8.512779474258422852e-01,8.646219968795776367e-01,8.762729763984680176e-01,8.858357667922973633e-01,8.928911685943603516e-01,8.976505994796752930e-01,9.009444117546081543e-01,9.030971527099609375e-01,9.043266773223876953e-01,9.050004482269287109e-01,9.052587747573852539e-01,9.053179025650024414e-01,9.053307771682739258e-01,9.053288698196411133e-01,9.053283333778381348e-01,9.053283333778381348e-01,9.053283333778381348e-01,9.053283333778381348e-01,9.053283333778381348e-01,9.053283333778381348e-01,9.053283333778381348e-01,9.053283333778381348e-01,9.053283333778381348e-01,9.053283333778381348e-01,9.053283333778381348e-01,9.053283333778381348e-01,9.053283333778381348e-01,9.053283333778381348e-01,9.053283333778381348e-01,9.053284525871276855e-01,9.053241014480590820e-01,9.053063392639160156e-01,9.053592681884765625e-01,9.058843255043029785e-01,9.055150747299194336e-01,9.037227630615234375e-01,8.974975347518920898e-01,8.871279954910278320e-01,8.737727403640747070e-01,8.530702590942382812e-01,8.289024233818054199e-01,7.667630910873413086e-01,6.956365108489990234e-01,6.647806167602539062e-01,6.453177332878112793e-01,6.681848168373107910e-01,6.674921512603759766e-01,6.640836000442504883e-01,6.949135661125183105e-01,7.589412331581115723e-01,8.092194795608520508e-01,8.445979356765747070e-01,8.675265312194824219e-01,8.836390972137451172e-01,8.903653621673583984e-01,8.953665494918823242e-01,8.971478939056396484e-01,8.947026729583740234e-01,8.888294100761413574e-01,8.804936408996582031e-01,8.711804151535034180e-01,8.582967519760131836e-01,8.297849297523498535e-01,8.088256120681762695e-01,8.012225627899169922e-01,7.752106785774230957e-01,7.224829792976379395e-01,6.163668632507324219e-01
5.884153842926025391e-01,6.138045787811279297e-01,6.563525795936584473e-01,6.570909023284912109e-01,6.805821657180786133e-01,7.047918438911437988e-01,7.411557435989379883e-01,7.625621557235717773e-01,7.833336591720581055e-01,8.019715547561645508e-01,8.197762966156005859e-01,8.362898826599121094e-01,8.512668609619140625e-01,8.646117448806762695e-01,8.762640953063964844e-01,8.858286738395690918e-01,8.928862810134887695e-01,8.976473212242126465e-01,9.009419083595275879e-01,9.030956029891967773e-01,9.043257832527160645e-01,9.050001502037048340e-01,9.052585959434509277e-01,9.053179025650024414e-01,9.053307771682739258e-01,9.053288698196411133e-01,9.053283333778381348e-01,9.053283333778381348e-01,9.053283333778381348e-01,9.053283333778381348e-01,9.053283333778381348e-01,9.053283333778381348e-01,9.053283333778381348e-01,9.053283333778381348e-01,9.053283333778381348e-01,9.053283333778381348e-01,9.053283333778381348e-01,9.053283333778381348e-01,9.053283333778381348e-01,9.053283333778381348e-01,9.053283333778381348e-01,9.053283333778381348e-01,9.053277969360351562e-01,9.053019285202026367e-01,9.052903652191162109e-01,9.061058759689331055e-01,9.064491987228393555e-01,9.037570953369140625e-01,8.986504077911376953e-01,8.916602134704589844e-01,8.754086494445800781e-01,8.622591495513916016e-01,8.372908830642700195e-01,7.870627045631408691e-01,7.190452814102172852e-01,6.904531121253967285e-01,6.781685352325439453e-01,6.847686767578125000e-01,6.928732395172119141e-01,6.820286512374877930e-01,7.054792046546936035e-01,7.568876743316650391e-01,8.141597509384155273e-01,8.403393030166625977e-01,8.645027279853820801e-01,8.818802833557128906e-01,8.891556262969970703e-01,8.950622081756591797e-01,8.968451023101806641e-01,8.949089646339416504e-01,8.888659477233886719e-01,8.805073499679565430e-01,8.711884617805480957e-01,8.583061695098876953e-01,8.297964334487915039e-01,8.088384270668029785e-01,8.012349605560302734e-01,7.752231955528259277e-01,7.224932909011840820e-01,6.163740158081054688e-01
5.884101986885070801e-01,6.137966513633728027e-01,6.563440561294555664e-01,6.570808887481689453e-01,6.805718541145324707e-01,7.047815322875976562e-01,7.411455512046813965e-01,7.625516653060913086e-01,7.833232879638671875e-01,8.019610047340393066e-01,8.197659850120544434e-01,8.362796306610107422e-01,8.512569069862365723e-01,8.646026849746704102e-01,8.762557506561279297e-01,8.858220577239990234e-01,8.928813338279724121e-01,8.976441621780395508e-01,9.009397625923156738e-01,9.030944108963012695e-01,9.043250083923339844e-01,9.049996137619018555e-01,9.052584171295166016e-01,9.053179025650024414e-01,9.053307771682739258e-01,9.053288698196411133e-01,9.053283333778381348e-01,9.053283333778381348e-01,9.053283333778381348e-01,9.053283333778381348e-01,9.053283333778381348e-01,9.053283333778381348e-01,9.053283333778381348e-01,9.053283333778381348e-01,9.053283333778381348e-01,9.053283333778381348e-01,9.053283333778381348e-01,9.053283333778381348e-01,9.053283333778381348e-01,9.053283333778381348e-01,9.053283333778381348e-01,9.053283333778381348e-01,9.053264856338500977e-01,9.053126573562622070e-01,9.052926301956176758e-01,9.058533906936645508e-01,9.061051607131958008e-01,9.030238389968872070e-01,8.984779715538024902e-01,8.936269283294677734e-01,8.785786032676696777e-01,8.703477382659912109e-01,8.515048027038574219e-01,8.042904138565063477e-01,7.437552213668823242e-01,7.120566368103027344e-01,7.034662365913391113e-01,7.140622138977050781e-01,7.105692625045776367e-01,7.036030888557434082e-01,7.287907600402832031e-01,7.579535245895385742e-01,8.196574449539184570e-01,8.487315177917480469e-01,8.655204176902770996e-01,8.819673061370849609e-01,8.898538351058959961e-01,8.957437872886657715e-01,8.977847099304199219e-01,8.947359919548034668e-01,8.889460563659667969e-01,8.805096149444580078e-01,8.711962699890136719e-01,8.583158254623413086e-01,8.298079967498779297e-01,8.088512420654296875e-01,8.012479543685913086e-01,7.752355337142944336e-01,7.225034832954406738e-01,6.163811087608337402e-01
5.884048342704772949e-01,6.137881875038146973e-01,6.563343405723571777e-01,6.570699214935302734e-01,6.805604696273803711e-01,7.047702670097351074e-01,7.411347627639770508e-01,7.625412940979003906e-01,7.833132743835449219e-01,8.019509315490722656e-01,8.197559118270874023e-01,8.362701535224914551e-01,8.512475490570068359e-01,8.645939826965332031e-01,8.762477636337280273e-01,8.858155012130737305e-01,8.928760886192321777e-01,8.976399898529052734e-01,9.009363651275634766e-01,9.030915498733520508e-01,9.043227434158325195e-01,9.049974679946899414e-01,9.052566289901733398e-01,9.053159356117248535e-01,9.053288698196411133e-01,9.053270220756530762e-01,9.053264856338500977e-01,9.053264856338500977e-01,9.053264856338500977e-01,9.053264856338500977e-01,9.053264856338500977e-01,9.053264856338500977e-01,9.053264856338500977e-01,9.053264260292053223e-01,9.053264260292053223e-01,9.053263664245605469e-01,9.053264260292053223e-01,9.053264260292053223e-01,9.053264260292053223e-01,9.053263664245605469e-01,9.053263664245605469e-01,9.053263664245605469e-01,9.053264856338500977e-01,9.053264856338500977e-01,9.053358435630798340e-01,9.058006405830383301e-01,9.057087898254394531e-01,9.033133983612060547e-01,8.996174335479736328e-01,8.933612108230590820e-01,8.809282779693603516e-01,8.756461739540100098e-01,8.604590892791748047e-01,8.145761489868164062e-01,7.597985267639160156e-01,7.331662774085998535e-01,7.351522445678710938e-01,7.481998205184936523e-01,7.404799461364746094e-01,7.251950502395629883e-01,7.424126267433166504e-01,7.806873321533203125e-01,8.249076604843139648e-01,8.540568351745605469e-01,8.688893914222717285e-01,8.828468322753906250e-01,8.908943533897399902e-01,8.969300985336303711e-01,8.984243869781494141e-01,8.948023319244384766e-01,8.889183998107910156e-01,8.805055618286132812e-01,8.712033033370971680e-01,8.583248853683471680e-01,8.298193812370300293e-01,8.088639974594116211e-01,8.012608885765075684e-01,7.752480506896972656e-01,7.225137948989868164e-01,6.163885593414306641e-01
5.883989930152893066e-01,6.137785911560058594e-01,6.563233733177185059e-01,6.570566892623901367e-01,6.805450916290283203e-01,7.047540545463562012e-01,7.411183714866638184e-01,7.625249624252319336e-01,7.832970619201660156e-01,8.019348382949829102e-01,8.197407722473144531e-01,8.362548947334289551e-01,8.512325286865234375e-01,8.645796179771423340e-01,8.762348890304565430e-01,8.858037590980529785e-01,8.928658962249755859e-01,8.976316452026367188e-01,9.009283185005187988e-01,9.030838608741760254e-01,9.043152332305908203e-01,9.049903154373168945e-01,9.052499532699584961e-01,9.053096175193786621e-01,9.053227305412292480e-01,9.053210020065307617e-01,9.053205251693725586e-01,9.053205251693725586e-01,9.053205251693725586e-01,9.053205847740173340e-01,9.053205847740173340e-01,9.053206443786621094e-01,9.053206443786621094e-01,9.053207635879516602e-01,9.053207635879516602e-01,9.053207635879516602e-01,9.053208827972412109e-01,9.053208827972412109e-01,9.053209424018859863e-01,9.053208827972412109e-01,9.053210020065307617e-01,9.053210616111755371e-01,9.053212404251098633e-01,9.053223133087158203e-01,9.052960276603698730e-01,9.055796861648559570e-01,9.050304293632507324e-01,9.034818410873413086e-01,8.991913795471191406e-01,8.922426700592041016e-01,8.849499821662902832e-01,8.802574872970581055e-01,8.653436899185180664e-01,8.234723210334777832e-01,7.777056694030761719e-01,7.474638819694519043e-01,7.614591121673583984e-01,7.796772718429565430e-01,7.597519159317016602e-01,7.423148751258850098e-01,7.624168395996093750e-01,7.886867523193359375e-01,8.325501680374145508e-01,8.617613315582275391e-01,8.751919269561767578e-01,8.844465017318725586e-01,8.944779038429260254e-01,8.986705541610717773e-01,8.981105089187622070e-01,8.948372006416320801e-01,8.888703584671020508e-01,8.805085420608520508e-01,8.711991310119628906e-01,8.583244681358337402e-01,8.298221230506896973e-01,8.088694810867309570e-01,8.012670278549194336e-01,7.752532362937927246e-01,7.225157022476196289e-01,6.163894534111022949e-01
5.883881449699401855e-01,6.137648224830627441e-01,6.563072204589843750e-01,6.570429801940917969e-01,6.805317401885986328e-01,7.047395706176757812e-01,7.411051392555236816e-01,7.625175714492797852e-01,7.832963466644287109e-01,8.019421696662902832e-01,8.197586536407470703e-01,8.362864255905151367e-01,8.512831926345825195e-01,8.646475076675415039e-01,8.763045072555541992e-01,8.858631849288940430e-01,8.929135203361511230e-01,8.976705074310302734e-01,9.009686708450317383e-01,9.031347036361694336e-01,9.043724536895751953e-01,9.050532579421997070e-01,9.053155183792114258e-01,9.053768515586853027e-01,9.053902626037597656e-01,9.053887128829956055e-01,9.053885936737060547e-01,9.053888320922851562e-01,9.053890705108642578e-01,9.053894281387329102e-01,9.053896665573120117e-01,9.053899049758911133e-01,9.053901433944702148e-01,9.053905010223388672e-01,9.053906202316284180e-01,9.053910970687866211e-01,9.053912162780761719e-01,9.053915143013000488e-01,9.053918123245239258e-01,9.053920507431030273e-01,9.053922295570373535e-01,9.053926467895507812e-01,9.053934812545776367e-01,9.053938388824462891e-01,9.053952097892761230e-01,9.054014682769775391e-01,9.053232073783874512e-01,9.040564298629760742e-01,8.987678289413452148e-01,8.906284570693969727e-01,8.854247331619262695e-01,8.784875869750976562e-01,8.665208816528320312e-01,8.326112031936645508e-01,7.886284589767456055e-01,7.734272480010986328e-01,7.767477631568908691e-01,7.932201623916625977e-01,7.788045406341552734e-01,7.618459463119506836e-01,7.710561752319335938e-01,8.091889619827270508e-01,8.445659875869750977e-01,8.658246994018554688e-01,8.772855997085571289e-01,8.873678445816040039e-01,8.946902751922607422e-01,8.991409540176391602e-01,8.986465334892272949e-01,8.948149085044860840e-01,8.889729380607604980e-01,8.805811405181884766e-01,8.712867498397827148e-01,8.583958148956298828e-01,8.298879861831665039e-01,8.089158535003662109e-01,8.012973070144653320e-01,7.752720117568969727e-01,7.225143909454345703e-01,6.163889765739440918e-01
5.883949398994445801e-01,6.137734055519104004e-01,6.563140153884887695e-01,6.570609807968139648e-01,6.805604696273803711e-01,7.048009634017944336e-01,7.412180900573730469e-01,7.626786231994628906e-01,7.834838628768920898e-01,8.021422624588012695e-01,8.199607133865356445e-01,8.364858627319335938e-01,8.514602184295654297e-01,8.647928237915039062e-01,8.764214515686035156e-01,8.859450221061706543e-01,8.929834961891174316e-01,8.977724909782409668e-01,9.010932445526123047e-01,9.032581448554992676e-01,9.044927358627319336e-01,9.051686525344848633e-01,9.054247140884399414e-01,9.054827690124511719e-01,9.054937362670898438e-01,9.054911732673645020e-01,9.054898023605346680e-01,9.054889678955078125e-01,9.054880142211914062e-01,9.054871797561645508e-01,9.054863452911376953e-01,9.054855108261108398e-01,9.054846763610839844e-01,9.054837822914123535e-01,9.054828882217407227e-01,9.054820537567138672e-01,9.054811000823974609e-01,9.054803848266601562e-01,9.054794311523437500e-01,9.054785966873168945e-01,9.054777622222900391e-01,9.054768085479736328e-01,9.054762125015258789e-01,9.054763317108154297e-01,9.054762125015258789e-01,9.053943753242492676e-01,9.056954383850097656e-01,9.042924046516418457e-01,8.991446495056152344e-01,8.915994167327880859e-01,8.904502391815185547e-01,8.817607164382934570e-01,8.629232645034790039e-01,8.336759805679321289e-01,7.977725267410278320e-01,7.887586355209350586e-01,7.985293269157409668e-01,8.040809631347656250e-01,7.960275411605834961e-01,7.718265056610107422e-01,7.804439067840576172e-01,8.271301388740539551e-01,8.493441343307495117e-01,8.672682046890258789e-01,8.795397281646728516e-01,8.877226114273071289e-01,8.953157663345336914e-01,8.993005156517028809e-01,8.987066745758056641e-01,8.950581550598144531e-01,8.891158103942871094e-01,8.807161450386047363e-01,8.714125156402587891e-01,8.585571050643920898e-01,8.301163911819458008e-01,8.091622591018676758e-01,8.015527129173278809e-01,7.755198478698730469e-01,7.227988243103027344e-01,6.167848110198974609e-01
5.885775089263916016e-01,6.139508485794067383e-01,6.565673947334289551e-01,6.573172807693481445e-01,6.808092594146728516e-01,7.049658298492431641e-01,7.413064837455749512e-01,7.626912593841552734e-01,7.833570241928100586e-01,8.018846511840820312e-01,8.195859193801879883e-01,8.359762430191040039e-01,8.508601188659667969e-01,8.641110658645629883e-01,8.756408691406250000e-01,8.851383924484252930e-01,8.922113180160522461e-01,8.969811201095581055e-01,9.002739787101745605e-01,9.024297595024108887e-01,9.036750793457031250e-01,9.043314456939697266e-01,9.045727252960205078e-01,9.046295881271362305e-01,9.046417474746704102e-01,9.046393036842346191e-01,9.046379327774047852e-01,9.046370983123779297e-01,9.046361446380615234e-01,9.046351909637451172e-01,9.046342372894287109e-01,9.046334028244018555e-01,9.046325683593750000e-01,9.046316742897033691e-01,9.046306610107421875e-01,9.046298265457153320e-01,9.046288728713989258e-01,9.046279788017272949e-01,9.046272039413452148e-01,9.046260714530944824e-01,9.046252965927124023e-01,9.046243429183959961e-01,9.046235084533691406e-01,9.046268463134765625e-01,9.046351313591003418e-01,9.046165943145751953e-01,9.048527479171752930e-01,9.031063318252563477e-01,8.964540958404541016e-01,8.906015157699584961e-01,8.900256752967834473e-01,8.831143975257873535e-01,8.672081232070922852e-01,8.369595408439636230e-01,8.081907629966735840e-01,7.995491027832031250e-01,8.164385557174682617e-01,8.141331672668457031e-01,8.069856166839599609e-01,7.809801101684570312e-01,7.902019023895263672e-01,8.310173153877258301e-01,8.534531593322753906e-01,8.655322790145874023e-01,8.792816400527954102e-01,8.862687349319458008e-01,8.942732810974121094e-01,8.988636136054992676e-01,8.976359367370605469e-01,8.944668769836425781e-01,8.882927894592285156e-01,8.798971772193908691e-01,8.706173896789550781e-01,8.577920794486999512e-01,8.292596340179443359e-01,8.083083033561706543e-01,8.009114265441894531e-01,7.746580839157104492e-01,7.219794988632202148e-01,6.162486076354980469e-01
5.889349579811096191e-01,6.138235926628112793e-01,6.562410593032836914e-01,6.566765904426574707e-01,6.799240708351135254e-01,7.037630081176757812e-01,7.398910522460937500e-01,7.610048055648803711e-01,7.815122604370117188e-01,7.999094724655151367e-01,8.175226449966430664e-01,8.339129090309143066e-01,8.489228487014770508e-01,8.623847961425781250e-01,8.741685152053833008e-01,8.838952779769897461e-01,8.910560607910156250e-01,8.958871364593505859e-01,8.992758989334106445e-01,9.014960527420043945e-01,9.027299880981445312e-01,9.033838510513305664e-01,9.036417603492736816e-01,9.037146568298339844e-01,9.037276506423950195e-01,9.037255644798278809e-01,9.037239551544189453e-01,9.037228822708129883e-01,9.037218093872070312e-01,9.037207365036010742e-01,9.037197828292846680e-01,9.037186503410339355e-01,9.037177562713623047e-01,9.037166237831115723e-01,9.037153720855712891e-01,9.037144184112548828e-01,9.037133455276489258e-01,9.037123918533325195e-01,9.037112593650817871e-01,9.037101268768310547e-01,9.037091135978698730e-01,9.037081003189086914e-01,9.037070870399475098e-01,9.037143588066101074e-01,9.037265777587890625e-01,9.038841724395751953e-01,9.039513468742370605e-01,9.016772508621215820e-01,8.961647152900695801e-01,8.905211687088012695e-01,8.921036124229431152e-01,8.854803442955017090e-01,8.692735433578491211e-01,8.344871997833251953e-01,8.172363042831420898e-01,8.169820308685302734e-01,8.210410475730895996e-01,8.210115432739257812e-01,8.225821852684020996e-01,7.849972844123840332e-01,7.983670234680175781e-01,8.370910882949829102e-01,8.562718629837036133e-01,8.636521697044372559e-01,8.790676593780517578e-01,8.870236873626708984e-01,8.937765359878540039e-01,8.982785940170288086e-01,8.971962928771972656e-01,8.937592506408691406e-01,8.876172304153442383e-01,8.793159723281860352e-01,8.700979948043823242e-01,8.571830987930297852e-01,8.286674022674560547e-01,8.075656890869140625e-01,8.000977635383605957e-01,7.738301753997802734e-01,7.208223938941955566e-01,6.147258877754211426e-01
5.881910324096679688e-01,6.121510267257690430e-01,6.544500589370727539e-01,6.547905206680297852e-01,6.775817871093750000e-01,7.009671330451965332e-01,7.370861172676086426e-01,7.582455873489379883e-01,7.788020372390747070e-01,7.971986532211303711e-01,8.147947788238525391e-01,8.312972784042358398e-01,8.464377522468566895e-01,8.599836826324462891e-01,8.718595504760742188e-01,8.816280364990234375e-01,8.889313936233520508e-01,8.940091133117675781e-01,8.974870443344116211e-01,8.997218608856201172e-01,9.009763002395629883e-01,9.016549587249755859e-01,9.019184112548828125e-01,9.019806385040283203e-01,9.019876122474670410e-01,9.019803404808044434e-01,9.019738435745239258e-01,9.019678831100463867e-01,9.019616842269897461e-01,9.019556045532226562e-01,9.019496440887451172e-01,9.019434452056884766e-01,9.019373655319213867e-01,9.019313454627990723e-01,9.019252061843872070e-01,9.019192457199096680e-01,9.019132852554321289e-01,9.019070267677307129e-01,9.019010066986083984e-01,9.018949270248413086e-01,9.018889665603637695e-01,9.018828272819519043e-01,9.018769264221191406e-01,9.018752574920654297e-01,9.018889665603637695e-01,9.020698070526123047e-01,9.021590948104858398e-01,8.995083570480346680e-01,8.941712379455566406e-01,8.914483189582824707e-01,8.894029855728149414e-01,8.831510543823242188e-01,8.680580258369445801e-01,8.396410942077636719e-01,8.247330188751220703e-01,8.267096877098083496e-01,8.324966430664062500e-01,8.313121795654296875e-01,8.244661092758178711e-01,7.958115339279174805e-01,8.051463365554809570e-01,8.385579586029052734e-01,8.552227616310119629e-01,8.632912635803222656e-01,8.777752518653869629e-01,8.860651254653930664e-01,8.921234607696533203e-01,8.962829113006591797e-01,8.955689668655395508e-01,8.923286199569702148e-01,8.862795829772949219e-01,8.778392076492309570e-01,8.685764074325561523e-01,8.557827472686767578e-01,8.273838758468627930e-01,8.065280318260192871e-01,7.989603281021118164e-01,7.723751068115234375e-01,7.195355892181396484e-01,6.129436492919921875e-01
5.862548947334289551e-01,6.094363927841186523e-01,6.514796614646911621e-01,6.515440344810485840e-01,6.740757226943969727e-01,6.969115734100341797e-01,7.324775457382202148e-01,7.531205415725708008e-01,7.730048894882202148e-01,7.909481525421142578e-01,8.082785010337829590e-01,8.245593309402465820e-01,8.395535945892333984e-01,8.531521558761596680e-01,8.651051521301269531e-01,8.749620318412780762e-01,8.823381066322326660e-01,8.874377608299255371e-01,8.910180330276489258e-01,8.932571411132812500e-01,8.945039510726928711e-01,8.952064514160156250e-01,8.954707384109497070e-01,8.955255746841430664e-01,8.955242633819580078e-01,8.955131769180297852e-01,8.955035209655761719e-01,8.954944014549255371e-01,8.954852819442749023e-01,8.954761028289794922e-01,8.954670429229736328e-01,8.954580426216125488e-01,8.954489231109619141e-01,8.954398036003112793e-01,8.954306840896606445e-01,8.954215049743652344e-01,8.954125642776489258e-01,8.954035043716430664e-01,8.953944444656372070e-01,8.953852653503417969e-01,8.953761458396911621e-01,8.953670263290405273e-01,8.953580856323242188e-01,8.953527212142944336e-01,8.953610062599182129e-01,8.955696821212768555e-01,8.956797122955322266e-01,8.927513360977172852e-01,8.882815837860107422e-01,8.869815468788146973e-01,8.857258558273315430e-01,8.787403106689453125e-01,8.639041185379028320e-01,8.321365118026733398e-01,8.250622153282165527e-01,8.349187374114990234e-01,8.307121992111206055e-01,8.288576602935791016e-01,8.193629980087280273e-01,7.946606278419494629e-01,8.038375377655029297e-01,8.299925327301025391e-01,8.485932350158691406e-01,8.577589392662048340e-01,8.715388774871826172e-01,8.795400857925415039e-01,8.862822651863098145e-01,8.904026746749877930e-01,8.896464109420776367e-01,8.862853050231933594e-01,8.804770708084106445e-01,8.723158836364746094e-01,8.629348874092102051e-01,8.499903678894042969e-01,8.217664361000061035e-01,8.014978170394897461e-01,7.943660616874694824e-01,7.679721117019653320e-01,7.155227661132812500e-01,6.079442501068115234e-01
5.823473334312438965e-01,6.035621166229248047e-01,6.450687646865844727e-01,6.443611383438110352e-01,6.657201051712036133e-01,6.876930594444274902e-01,7.224060297012329102e-01,7.425891160964965820e-01,7.618002891540527344e-01,7.788740396499633789e-01,7.956079244613647461e-01,8.115681409835815430e-01,8.266270756721496582e-01,8.405221700668334961e-01,8.527934551239013672e-01,8.630759716033935547e-01,8.709468841552734375e-01,8.763780593872070312e-01,8.801468014717102051e-01,8.825253248214721680e-01,8.838634490966796875e-01,8.845191001892089844e-01,8.847213387489318848e-01,8.847392797470092773e-01,8.847286105155944824e-01,8.847058415412902832e-01,8.846852779388427734e-01,8.846650123596191406e-01,8.846448659896850586e-01,8.846246600151062012e-01,8.846042752265930176e-01,8.845841884613037109e-01,8.845640420913696289e-01,8.845437765121459961e-01,8.845237493515014648e-01,8.845036029815673828e-01,8.844832181930541992e-01,8.844632506370544434e-01,8.844429850578308105e-01,8.844228982925415039e-01,8.844027519226074219e-01,8.843827843666076660e-01,8.843625783920288086e-01,8.843412399291992188e-01,8.843294382095336914e-01,8.845783472061157227e-01,8.845235705375671387e-01,8.814067840576171875e-01,8.780534267425537109e-01,8.765704631805419922e-01,8.734058141708374023e-01,8.643347024917602539e-01,8.563624620437622070e-01,8.339859843254089355e-01,8.168839216232299805e-01,8.268965482711791992e-01,8.274934291839599609e-01,8.209463357925415039e-01,8.073219060897827148e-01,7.887367010116577148e-01,7.934510707855224609e-01,8.163639307022094727e-01,8.334938883781433105e-01,8.461421728134155273e-01,8.600839972496032715e-01,8.676651716232299805e-01,8.750008344650268555e-01,8.793501257896423340e-01,8.787378072738647461e-01,8.754677772521972656e-01,8.697268962860107422e-01,8.618769645690917969e-01,8.528797626495361328e-01,8.399162292480468750e-01,8.112016320228576660e-01,7.921302318572998047e-01,7.858321666717529297e-01,7.610101103782653809e-01,7.075307965278625488e-01,6.019653081893920898e-01
5.752027034759521484e-01,5.937510132789611816e-01,6.341871023178100586e-01,6.314070224761962891e-01,6.507636308670043945e-01,6.714970469474792480e-01,7.052962183952331543e-01,7.246518731117248535e-01,7.431013584136962891e-01,7.594745159149169922e-01,7.753032445907592773e-01,7.904897928237915039e-01,8.051480054855346680e-01,8.185926079750061035e-01,8.304762840270996094e-01,8.404313325881958008e-01,8.479104042053222656e-01,8.532860279083251953e-01,8.570469021797180176e-01,8.593972921371459961e-01,8.606374263763427734e-01,8.611872196197509766e-01,8.613210916519165039e-01,8.613253235816955566e-01,8.612936139106750488e-01,8.612542152404785156e-01,8.612170219421386719e-01,8.611801862716674805e-01,8.611432313919067383e-01,8.611063957214355469e-01,8.610694408416748047e-01,8.610326051712036133e-01,8.609955310821533203e-01,8.609585762023925781e-01,8.609217405319213867e-01,8.608847856521606445e-01,8.608480095863342285e-01,8.608109951019287109e-01,8.607740402221679688e-01,8.607373833656311035e-01,8.607006072998046875e-01,8.606637716293334961e-01,8.606268763542175293e-01,8.605873584747314453e-01,8.605567216873168945e-01,8.610147237777709961e-01,8.609007596969604492e-01,8.573895692825317383e-01,8.559374213218688965e-01,8.558286428451538086e-01,8.481343984603881836e-01,8.398481607437133789e-01,8.312397003173828125e-01,8.064240813255310059e-01,8.012772202491760254e-01,8.092499971389770508e-01,8.047654032707214355e-01,7.944889068603515625e-01,7.836166620254516602e-01,7.622614502906799316e-01,7.642509937286376953e-01,7.918660640716552734e-01,8.065526485443115234e-01,8.180975914001464844e-01,8.341357111930847168e-01,8.427146673202514648e-01,8.515176773071289062e-01,8.561630845069885254e-01,8.554922342300415039e-01,8.522859811782836914e-01,8.467029333114624023e-01,8.389540910720825195e-01,8.302836418151855469e-01,8.173264265060424805e-01,7.881333231925964355e-01,7.704345583915710449e-01,7.674703598022460938e-01,7.442945837974548340e-01,6.928648352622985840e-01,5.924755334854125977e-01
5.642393231391906738e-01,5.783774256706237793e-01,6.170491576194763184e-01,6.110091805458068848e-01,6.274160742759704590e-01,6.464123129844665527e-01,6.783339977264404297e-01,6.956843137741088867e-01,7.117313146591186523e-01,7.257423996925354004e-01,7.394030094146728516e-01,7.528234720230102539e-01,7.661405801773071289e-01,7.786073684692382812e-01,7.895382642745971680e-01,7.988276481628417969e-01,8.062293529510498047e-01,8.115655183792114258e-01,8.152974843978881836e-01,8.176006674766540527e-01,8.186835050582885742e-01,8.189581632614135742e-01,8.189809918403625488e-01,8.189562559127807617e-01,8.189076185226440430e-01,8.188471794128417969e-01,8.187877535820007324e-01,8.187290430068969727e-01,8.186702728271484375e-01,8.186115026473999023e-01,8.185527324676513672e-01,8.184940218925476074e-01,8.184354305267333984e-01,8.183766007423400879e-01,8.183180093765258789e-01,8.182591199874877930e-01,8.182005286216735840e-01,8.181418180465698242e-01,8.180830478668212891e-01,8.180244565010070801e-01,8.179658651351928711e-01,8.179070949554443359e-01,8.178485035896301270e-01,8.177847862243652344e-01,8.177168369293212891e-01,8.184012174606323242e-01,8.178884387016296387e-01,8.145039081573486328e-01,8.135373592376708984e-01,8.145369887351989746e-01,8.024194836616516113e-01,7.952753305435180664e-01,7.848500013351440430e-01,7.635295391082763672e-01,7.664370536804199219e-01,7.734247446060180664e-01,7.596071958541870117e-01,7.474807500839233398e-01,7.407467365264892578e-01,7.227138280868530273e-01,7.251782417297363281e-01,7.467494606971740723e-01,7.619695067405700684e-01,7.728730440139770508e-01,7.881622314453125000e-01,7.990779876708984375e-01,8.086709976196289062e-01,8.128855228424072266e-01,8.119114637374877930e-01,8.096767067909240723e-01,8.044662475585937500e-01,7.972419261932373047e-01,7.896802425384521484e-01,7.776844501495361328e-01,7.482709884643554688e-01,7.333717346191406250e-01,7.347812652587890625e-01,7.137657403945922852e-01,6.687990427017211914e-01,5.797371864318847656e-01
5.497249960899353027e-01,5.539379715919494629e-01,5.888136625289916992e-01,5.787612795829772949e-01,5.919230580329895020e-01,6.082140207290649414e-01,6.378258466720581055e-01,6.524346470832824707e-01,6.663249135017395020e-01,6.780717968940734863e-01,6.894930005073547363e-01,7.006292343139648438e-01,7.116274237632751465e-01,7.215040922164916992e-01,7.303616404533386230e-01,7.380254268646240234e-01,7.437763214111328125e-01,7.477781772613525391e-01,7.504879832267761230e-01,7.519845962524414062e-01,7.524139881134033203e-01,7.524806261062622070e-01,7.524559497833251953e-01,7.523932456970214844e-01,7.523255348205566406e-01,7.522408962249755859e-01,7.521582841873168945e-01,7.520759701728820801e-01,7.519939541816711426e-01,7.519117593765258789e-01,7.518293857574462891e-01,7.517471313476562500e-01,7.516651749610900879e-01,7.515830993652343750e-01,7.515009641647338867e-01,7.514187097549438477e-01,7.513367533683776855e-01,7.512545585632324219e-01,7.511725425720214844e-01,7.510904073715209961e-01,7.510083913803100586e-01,7.509264945983886719e-01,7.508443593978881836e-01,7.507572174072265625e-01,7.506588697433471680e-01,7.514749169349670410e-01,7.500813007354736328e-01,7.474676370620727539e-01,7.472794055938720703e-01,7.492032647132873535e-01,7.335466742515563965e-01,7.353162765502929688e-01,7.226458787918090820e-01,7.010304331779479980e-01,7.022117972373962402e-01,7.126468420028686523e-01,6.942126750946044922e-01,6.802896261215209961e-01,6.835671067237854004e-01,6.642681956291198730e-01,6.652263402938842773e-01,6.854117512702941895e-01,6.991012692451477051e-01,7.051272392272949219e-01,7.222014665603637695e-01,7.359964847564697266e-01,7.428889870643615723e-01,7.452722787857055664e-01,7.439389228820800781e-01,7.414244413375854492e-01,7.366735339164733887e-01,7.303482294082641602e-01,7.243869304656982422e-01,7.131523489952087402e-01,6.837427616119384766e-01,6.730197668075561523e-01,6.819086074829101562e-01,6.631082296371459961e-01,6.338031291961669922e-01,5.564966201782226562e-01
5.325044989585876465e-01,5.236877202987670898e-01,5.544967055320739746e-01,5.385838150978088379e-01,5.464460849761962891e-01,5.593004226684570312e-01,5.835200548171997070e-01,5.946922302246093750e-01,6.051672101020812988e-01,6.132977604866027832e-01,6.213182806968688965e-01,6.292445063591003418e-01,6.369102001190185547e-01,6.437602639198303223e-01,6.499340534210205078e-01,6.547434329986572266e-01,6.579760909080505371e-01,6.604077219963073730e-01,6.619772315025329590e-01,6.628186106681823730e-01,6.630370020866394043e-01,6.629995703697204590e-01,6.628974676132202148e-01,6.628141999244689941e-01,6.627324223518371582e-01,6.626423597335815430e-01,6.625545620918273926e-01,6.624672412872314453e-01,6.623796820640563965e-01,6.622923016548156738e-01,6.622050404548645020e-01,6.621177196502685547e-01,6.620302796363830566e-01,6.619429588317871094e-01,6.618557572364807129e-01,6.617683768272399902e-01,6.616812348365783691e-01,6.615939736366271973e-01,6.615066528320312500e-01,6.614195704460144043e-01,6.613324880599975586e-01,6.612452268600463867e-01,6.611583232879638672e-01,6.610624790191650391e-01,6.609344482421875000e-01,6.618226766586303711e-01,6.598314642906188965e-01,6.581175327301025391e-01,6.573416590690612793e-01,6.571545600891113281e-01,6.424930095672607422e-01,6.453879475593566895e-01,6.376985907554626465e-01,6.248190999031066895e-01,6.268216371536254883e-01,6.322606205940246582e-01,6.154760122299194336e-01,6.001219153404235840e-01,6.061435341835021973e-01,5.921831130981445312e-01,5.923209190368652344e-01,6.081013083457946777e-01,6.208233237266540527e-01,6.249380111694335938e-01,6.389515995979309082e-01,6.504402160644531250e-01,6.560254693031311035e-01,6.565581560134887695e-01,6.547409296035766602e-01,6.524262428283691406e-01,6.491835713386535645e-01,6.443936824798583984e-01,6.405425071716308594e-01,6.308724284172058105e-01,6.034162044525146484e-01,5.960382223129272461e-01,6.116413474082946777e-01,5.968508720397949219e-01,5.880112648010253906e-01,5.268790125846862793e-01
5.115475058555603027e-01,4.893320202827453613e-01,5.141229033470153809e-01,4.908641576766967773e-01,4.924250543117523193e-01,5.010067224502563477e-01,5.196040272712707520e-01,5.275471210479736328e-01,5.347088575363159180e-01,5.395502448081970215e-01,5.444197654724121094e-01,5.495206117630004883e-01,5.544953942298889160e-01,5.588351488113403320e-01,5.624869465827941895e-01,5.651956796646118164e-01,5.674975514411926270e-01,5.691120624542236328e-01,5.702049136161804199e-01,5.707045793533325195e-01,5.708076953887939453e-01,5.707291960716247559e-01,5.705868005752563477e-01,5.705182552337646484e-01,5.704215168952941895e-01,5.703332424163818359e-01,5.702459812164306641e-01,5.701590180397033691e-01,5.700723528861999512e-01,5.699855685234069824e-01,5.698988437652587891e-01,5.698121190071105957e-01,5.697254538536071777e-01,5.696387887001037598e-01,5.695521235466003418e-01,5.694655179977416992e-01,5.693789720535278320e-01,5.692923665046691895e-01,5.692057013511657715e-01,5.691192150115966797e-01,5.690327882766723633e-01,5.689462423324584961e-01,5.688599944114685059e-01,5.687624216079711914e-01,5.686200261116027832e-01,5.691987276077270508e-01,5.680176019668579102e-01,5.664881467819213867e-01,5.677391290664672852e-01,5.663808584213256836e-01,5.554968118667602539e-01,5.557087063789367676e-01,5.491288304328918457e-01,5.492869019508361816e-01,5.423220396041870117e-01,5.489665269851684570e-01,5.340096950531005859e-01,5.252650976181030273e-01,5.295140743255615234e-01,5.238354206085205078e-01,5.225687026977539062e-01,5.309681296348571777e-01,5.410628318786621094e-01,5.427906513214111328e-01,5.537065863609313965e-01,5.622704029083251953e-01,5.649995207786560059e-01,5.657846927642822266e-01,5.641883611679077148e-01,5.623730421066284180e-01,5.593013167381286621e-01,5.556743741035461426e-01,5.537537932395935059e-01,5.455794334411621094e-01,5.215272307395935059e-01,5.174157619476318359e-01,5.384395718574523926e-01,5.280885696411132812e-01,5.396915078163146973e-01,4.965205490589141846e-01
4.905605614185333252e-01,4.556710422039031982e-01,4.712950289249420166e-01,4.408657848834991455e-01,4.361930489540100098e-01,4.405627250671386719e-01,4.539844393730163574e-01,4.580749571323394775e-01,4.623966217041015625e-01,4.647255241870880127e-01,4.672746956348419189e-01,4.700853824615478516e-01,4.728571772575378418e-01,4.754865765571594238e-01,4.777952134609222412e-01,4.795206785202026367e-01,4.807992577552795410e-01,4.817683696746826172e-01,4.823737442493438721e-01,4.826384186744689941e-01,4.826897978782653809e-01,4.826827049255371094e-01,4.826042056083679199e-01,4.825041592121124268e-01,4.824211597442626953e-01,4.823473393917083740e-01,4.822744131088256836e-01,4.822014868259429932e-01,4.821287989616394043e-01,4.820559620857238770e-01,4.819831252098083496e-01,4.819103479385375977e-01,4.818377494812011719e-01,4.817648530006408691e-01,4.816922247409820557e-01,4.816195368766784668e-01,4.815468788146972656e-01,4.814742803573608398e-01,4.814016520977020264e-01,4.813291430473327637e-01,4.812566041946411133e-01,4.811839461326599121e-01,4.811114370822906494e-01,4.810321331024169922e-01,4.808915853500366211e-01,4.811083972454071045e-01,4.807162582874298096e-01,4.801592230796813965e-01,4.804192781448364258e-01,4.786701202392578125e-01,4.725027084350585938e-01,4.702978134155273438e-01,4.682608246803283691e-01,4.720510840415954590e-01,4.699245989322662354e-01,4.699153900146484375e-01,4.598007202148437500e-01,4.512605965137481689e-01,4.529633820056915283e-01,4.552178084850311279e-01,4.522929787635803223e-01,4.561776518821716309e-01,4.630270302295684814e-01,4.657375812530517578e-01,4.712407588958740234e-01,4.766895473003387451e-01,4.793502092361450195e-01,4.794054031372070312e-01,4.785150587558746338e-01,4.778667986392974854e-01,4.769321680068969727e-01,4.753742814064025879e-01,4.753581285476684570e-01,4.695196151733398438e-01,4.495207667350769043e-01,4.482905566692352295e-01,4.718434214591979980e-01,4.688138663768768311e-01,4.950098097324371338e-01,4.690997600555419922e-01
4.694027602672576904e-01,4.224034845829010010e-01,4.285246431827545166e-01,3.950402736663818359e-01,3.840725719928741455e-01,3.856400549411773682e-01,3.960532546043395996e-01,3.989911675453186035e-01,4.020212888717651367e-01,4.032161235809326172e-01,4.044287204742431641e-01,4.056428968906402588e-01,4.066653549671173096e-01,4.076121449470520020e-01,4.084101915359497070e-01,4.089988470077514648e-01,4.096049070358276367e-01,4.100990295410156250e-01,4.103118181228637695e-01,4.103559255599975586e-01,4.103654623031616211e-01,4.102684557437896729e-01,4.101973772048950195e-01,4.101249575614929199e-01,4.100621938705444336e-01,4.100034236907958984e-01,4.099453091621398926e-01,4.098877310752868652e-01,4.098300337791442871e-01,4.097723960876464844e-01,4.097147285938262939e-01,4.096569716930389404e-01,4.095996618270874023e-01,4.095419049263000488e-01,4.094845056533813477e-01,4.094269275665283203e-01,4.093692600727081299e-01,4.093116521835327148e-01,4.092542231082916260e-01,4.091967940330505371e-01,4.091393351554870605e-01,4.090819060802459717e-01,4.090244770050048828e-01,4.089644849300384521e-01,4.088575541973114014e-01,4.088431298732757568e-01,4.089664220809936523e-01,4.092512130737304688e-01,4.093018770217895508e-01,4.080558419227600098e-01,4.063085317611694336e-01,4.031266868114471436e-01,4.036129713058471680e-01,4.059122204780578613e-01,4.028512239456176758e-01,4.026975631713867188e-01,3.955766558647155762e-01,3.928766846656799316e-01,3.905875980854034424e-01,3.973729908466339111e-01,3.953543901443481445e-01,3.935333788394927979e-01,3.988164067268371582e-01,4.010980129241943359e-01,4.042978882789611816e-01,4.059479236602783203e-01,4.080232381820678711e-01,4.080232977867126465e-01,4.074058532714843750e-01,4.065003097057342529e-01,4.056800007820129395e-01,4.045918881893157959e-01,4.052427709102630615e-01,4.015471041202545166e-01,3.856825828552246094e-01,3.876910805702209473e-01,4.135210514068603516e-01,4.177264869213104248e-01,4.560282826423645020e-01,4.460645914077758789e-01
4.513863921165466309e-01,3.938140273094177246e-01,3.929775357246398926e-01,3.572853207588195801e-01,3.413563370704650879e-01,3.406493067741394043e-01,3.480975329875946045e-01,3.498173356056213379e-01,3.515104651451110840e-01,3.519288599491119385e-01,3.524454534053802490e-01,3.529123961925506592e-01,3.533942699432373047e-01,3.538321852684020996e-01,3.541281223297119141e-01,3.542239665985107422e-01,3.542993366718292236e-01,3.541748523712158203e-01,3.540208041667938232e-01,3.539617061614990234e-01,3.539406061172485352e-01,3.539064228534698486e-01,3.538518548011779785e-01,3.537984788417816162e-01,3.537573814392089844e-01,3.537157177925109863e-01,3.536744117736816406e-01,3.536332845687866211e-01,3.535920977592468262e-01,3.535509109497070312e-01,3.535100221633911133e-01,3.534689247608184814e-01,3.534277081489562988e-01,3.533867597579956055e-01,3.533458411693572998e-01,3.533046245574951172e-01,3.532635569572448730e-01,3.532226681709289551e-01,3.531815707683563232e-01,3.531408309936523438e-01,3.530997633934020996e-01,3.530586361885070801e-01,3.530178070068359375e-01,3.529821634292602539e-01,3.529131412506103516e-01,3.528763949871063232e-01,3.528810739517211914e-01,3.531282246112823486e-01,3.528177738189697266e-01,3.523549437522888184e-01,3.513474464416503906e-01,3.499277830123901367e-01,3.487955927848815918e-01,3.532174825668334961e-01,3.512872159481048584e-01,3.510813415050506592e-01,3.485988378524780273e-01,3.458198308944702148e-01,3.433636128902435303e-01,3.451318144798278809e-01,3.461930751800537109e-01,3.460353016853332520e-01,3.483965396881103516e-01,3.501279950141906738e-01,3.507171273231506348e-01,3.512129783630371094e-01,3.521492481231689453e-01,3.521752059459686279e-01,3.523054718971252441e-01,3.519799113273620605e-01,3.517566919326782227e-01,3.512904047966003418e-01,3.521277606487274170e-01,3.495014309883117676e-01,3.363138139247894287e-01,3.391825556755065918e-01,3.653371334075927734e-01,3.756960630416870117e-01,4.224526286125183105e-01,4.258221983909606934e-01
4.349647760391235352e-01,3.689406514167785645e-01,3.612716794013977051e-01,3.251610994338989258e-01,3.061261177062988281e-01,3.047533631324768066e-01,3.108578920364379883e-01,3.122475147247314453e-01,3.134048581123352051e-01,3.134199380874633789e-01,3.134053945541381836e-01,3.133958578109741211e-01,3.134706616401672363e-01,3.135614097118377686e-01,3.135924041271209717e-01,3.136076331138610840e-01,3.135681748390197754e-01,3.135165572166442871e-01,3.135330975055694580e-01,3.135187625885009766e-01,3.134612441062927246e-01,3.134160637855529785e-01,3.133820891380310059e-01,3.133535981178283691e-01,3.133226633071899414e-01,3.132928013801574707e-01,3.132632374763488770e-01,3.132331967353820801e-01,3.132031261920928955e-01,3.131735920906066895e-01,3.131436407566070557e-01,3.131140470504760742e-01,3.130839765071868896e-01,3.130543828010559082e-01,3.130242824554443359e-01,3.129945993423461914e-01,3.129649162292480469e-01,3.129349052906036377e-01,3.129053115844726562e-01,3.128755092620849609e-01,3.128456473350524902e-01,3.128160238265991211e-01,3.127862811088562012e-01,3.127619624137878418e-01,3.127236962318420410e-01,3.126927018165588379e-01,3.127841949462890625e-01,3.126965761184692383e-01,3.124590516090393066e-01,3.129818439483642578e-01,3.127476871013641357e-01,3.116026520729064941e-01,3.113078474998474121e-01,3.116076588630676270e-01,3.113386332988739014e-01,3.121051788330078125e-01,3.118368387222290039e-01,3.101002573966979980e-01,3.086568713188171387e-01,3.103228807449340820e-01,3.100029528141021729e-01,3.096173405647277832e-01,3.109317421913146973e-01,3.111473917961120605e-01,3.116465210914611816e-01,3.115831613540649414e-01,3.123570978641510010e-01,3.121511340141296387e-01,3.119977712631225586e-01,3.118740320205688477e-01,3.117411434650421143e-01,3.115179240703582764e-01,3.122612237930297852e-01,3.104317784309387207e-01,2.992399334907531738e-01,3.025989532470703125e-01,3.288321495056152344e-01,3.441973626613616943e-01,3.968351483345031738e-01,4.101059436798095703e-01
4.212114810943603516e-01,3.491275906562805176e-01,3.364076614379882812e-01,2.999944388866424561e-01,2.791705131530761719e-01,2.769941687583923340e-01,2.819485664367675781e-01,2.831139266490936279e-01,2.839975655078887939e-01,2.838885784149169922e-01,2.838485240936279297e-01,2.838463783264160156e-01,2.838296294212341309e-01,2.838123142719268799e-01,2.837979495525360107e-01,2.837600111961364746e-01,2.837207913398742676e-01,2.836914956569671631e-01,2.836664915084838867e-01,2.836318612098693848e-01,2.836050987243652344e-01,2.835835218429565430e-01,2.835612297058105469e-01,2.835387587547302246e-01,2.835173010826110840e-01,2.834959328174591064e-01,2.834742069244384766e-01,2.834525704383850098e-01,2.834310531616210938e-01,2.834093570709228516e-01,2.833877801895141602e-01,2.833660840988159180e-01,2.833445072174072266e-01,2.833229601383209229e-01,2.833012342453002930e-01,2.832795083522796631e-01,2.832578420639038086e-01,2.832364439964294434e-01,2.832146883010864258e-01,2.831931710243225098e-01,2.831715941429138184e-01,2.831501364707946777e-01,2.831286191940307617e-01,2.831093072891235352e-01,2.830829620361328125e-01,2.830550670623779297e-01,2.830680012702941895e-01,2.829902768135070801e-01,2.827734947204589844e-01,2.830200791358947754e-01,2.830756604671478271e-01,2.827668786048889160e-01,2.822566330432891846e-01,2.828432917594909668e-01,2.824322581291198730e-01,2.831342816352844238e-01,2.831139266490936279e-01,2.818236947059631348e-01,2.807399928569793701e-01,2.814008593559265137e-01,2.822940051555633545e-01,2.825720906257629395e-01,2.827728986740112305e-01,2.822427153587341309e-01,2.826904654502868652e-01,2.825904488563537598e-01,2.823970615863800049e-01,2.826993465423583984e-01,2.826381325721740723e-01,2.826033234596252441e-01,2.825714349746704102e-01,2.824607491493225098e-01,2.831014394760131836e-01,2.817909717559814453e-01,2.718677520751953125e-01,2.751421928405761719e-01,3.007456064224243164e-01,3.195679783821105957e-01,3.763016164302825928e-01,3.975812494754791260e-01
4.091767072677612305e-01,3.324919939041137695e-01,3.159799873828887939e-01,2.799509167671203613e-01,2.584242224693298340e-01,2.558333277702331543e-01,2.600271701812744141e-01,2.610204815864562988e-01,2.617937326431274414e-01,2.617084980010986328e-01,2.616679966449737549e-01,2.616457939147949219e-01,2.616259455680847168e-01,2.616103291511535645e-01,2.615938484668731689e-01,2.615764737129211426e-01,2.615608572959899902e-01,2.615455985069274902e-01,2.615281343460083008e-01,2.615107893943786621e-01,2.614943385124206543e-01,2.614787220954895020e-01,2.614625692367553711e-01,2.614460587501525879e-01,2.614299058914184570e-01,2.614135146141052246e-01,2.613969445228576660e-01,2.613803744316101074e-01,2.613639831542968750e-01,2.613474726676940918e-01,2.613311409950256348e-01,2.613146305084228516e-01,2.612982392311096191e-01,2.612817883491516113e-01,2.612654566764831543e-01,2.612488567829132080e-01,2.612324953079223633e-01,2.612160146236419678e-01,2.611995339393615723e-01,2.611829042434692383e-01,2.611666321754455566e-01,2.611501812934875488e-01,2.611338496208190918e-01,2.611192464828491211e-01,2.611002922058105469e-01,2.610850632190704346e-01,2.610726356506347656e-01,2.610281109809875488e-01,2.610221505165100098e-01,2.611226737499237061e-01,2.610697448253631592e-01,2.610050439834594727e-01,2.609333395957946777e-01,2.607912421226501465e-01,2.607887983322143555e-01,2.610662281513214111e-01,2.611703872680664062e-01,2.606921792030334473e-01,2.604784965515136719e-01,2.603781223297119141e-01,2.603464722633361816e-01,2.608702778816223145e-01,2.607956528663635254e-01,2.605512738227844238e-01,2.609149813652038574e-01,2.609508037567138672e-01,2.607492208480834961e-01,2.607110440731048584e-01,2.606890201568603516e-01,2.607020735740661621e-01,2.606800198554992676e-01,2.606003284454345703e-01,2.611182332038879395e-01,2.600724101066589355e-01,2.511745989322662354e-01,2.544523477554321289e-01,2.794641852378845215e-01,3.009988367557525635e-01,3.605876564979553223e-01,3.876344263553619385e-01
3.991103172302246094e-01,3.188923001289367676e-01,2.997275590896606445e-01,2.643885612487792969e-01,2.423054575920104980e-01,2.394178509712219238e-01,2.430781424045562744e-01,2.439688146114349365e-01,2.446600198745727539e-01,2.445967793464660645e-01,2.445641756057739258e-01,2.445493340492248535e-01,2.445347905158996582e-01,2.445208728313446045e-01,2.445063591003417969e-01,2.444918155670166016e-01,2.444783151149749756e-01,2.444651126861572266e-01,2.444514334201812744e-01,2.444383203983306885e-01,2.444253563880920410e-01,2.444128394126892090e-01,2.444001436233520508e-01,2.443872094154357910e-01,2.443744242191314697e-01,2.443613708019256592e-01,2.443487048149108887e-01,2.443357408046722412e-01,2.443225979804992676e-01,2.443098723888397217e-01,2.442967891693115234e-01,2.442839741706848145e-01,2.442711591720581055e-01,2.442584335803985596e-01,2.442455589771270752e-01,2.442325651645660400e-01,2.442197799682617188e-01,2.442069649696350098e-01,2.441940307617187500e-01,2.441811263561248779e-01,2.441681921482086182e-01,2.441553771495819092e-01,2.441424131393432617e-01,2.441301941871643066e-01,2.441171705722808838e-01,2.441027462482452393e-01,2.440905272960662842e-01,2.440778911113739014e-01,2.440604567527770996e-01,2.440562844276428223e-01,2.440602779388427734e-01,2.440178394317626953e-01,2.440067231655120850e-01,2.439985573291778564e-01,2.439758777618408203e-01,2.439598441123962402e-01,2.439643144607543945e-01,2.440185546875000000e-01,2.437809109687805176e-01,2.436886131763458252e-01,2.439270615577697754e-01,2.438458204269409180e-01,2.438884377479553223e-01,2.439179420471191406e-01,2.438209950923919678e-01,2.438250780105590820e-01,2.438452243804931641e-01,2.438389658927917480e-01,2.438181042671203613e-01,2.437866032123565674e-01,2.437825798988342285e-01,2.437180578708648682e-01,2.441421449184417725e-01,2.433066368103027344e-01,2.352276146411895752e-01,2.385393381118774414e-01,2.629364728927612305e-01,2.863702774047851562e-01,3.479827642440795898e-01,3.796834349632263184e-01
3.908090889453887939e-01,3.077785670757293701e-01,2.866277098655700684e-01,2.519683837890625000e-01,2.295323908329010010e-01,2.264049649238586426e-01,2.296711504459381104e-01,2.304612100124359131e-01,2.310828268527984619e-01,2.310284674167633057e-01,2.310012578964233398e-01,2.309904992580413818e-01,2.309801280498504639e-01,2.309699952602386475e-01,2.309597730636596680e-01,2.309494614601135254e-01,2.309390306472778320e-01,2.309286296367645264e-01,2.309181690216064453e-01,2.309077680110931396e-01,2.308975160121917725e-01,2.308872938156127930e-01,2.308767735958099365e-01,2.308663129806518555e-01,2.308559417724609375e-01,2.308457791805267334e-01,2.308351695537567139e-01,2.308249771595001221e-01,2.308145463466644287e-01,2.308042645454406738e-01,2.307938337326049805e-01,2.307836413383483887e-01,2.307731211185455322e-01,2.307626605033874512e-01,2.307524681091308594e-01,2.307421267032623291e-01,2.307319045066833496e-01,2.307216525077819824e-01,2.307111918926239014e-01,2.307010293006896973e-01,2.306904196739196777e-01,2.306801974773406982e-01,2.306700646877288818e-01,2.306594550609588623e-01,2.306490838527679443e-01,2.306387424468994141e-01,2.306276559829711914e-01,2.306168675422668457e-01,2.306070029735565186e-01,2.305964827537536621e-01,2.305902540683746338e-01,2.305768132209777832e-01,2.305658459663391113e-01,2.305589318275451660e-01,2.305412292480468750e-01,2.305413782596588135e-01,2.305652201175689697e-01,2.305309474468231201e-01,2.305049896240234375e-01,2.304807305335998535e-01,2.304491698741912842e-01,2.304660677909851074e-01,2.304625511169433594e-01,2.304592430591583252e-01,2.304477691650390625e-01,2.304478287696838379e-01,2.304245829582214355e-01,2.304101586341857910e-01,2.304023802280426025e-01,2.303943634033203125e-01,2.303804755210876465e-01,2.303276956081390381e-01,2.306834459304809570e-01,2.300072610378265381e-01,2.225924134254455566e-01,2.259154617786407471e-01,2.498105168342590332e-01,2.745939493179321289e-01,3.377289772033691406e-01,3.731993436813354492e-01
3.838101923465728760e-01,2.985775768756866455e-01,2.758291363716125488e-01,2.418448626995086670e-01,2.191897928714752197e-01,2.158573269844055176e-01,2.188126444816589355e-01,2.195141315460205078e-01,2.200804948806762695e-01,2.200330495834350586e-01,2.200099825859069824e-01,2.200014293193817139e-01,2.199930548667907715e-01,2.199845612049102783e-01,2.199757993221282959e-01,2.199673652648925781e-01,2.199588418006896973e-01,2.199504971504211426e-01,2.199420034885406494e-01,2.199334502220153809e-01,2.199248373508453369e-01,2.199164628982543945e-01,2.199078798294067383e-01,2.198994159698486328e-01,2.198909819126129150e-01,2.198826074600219727e-01,2.198738753795623779e-01,2.198656201362609863e-01,2.198570966720581055e-01,2.198486626148223877e-01,2.198401987552642822e-01,2.198317050933837891e-01,2.198232412338256836e-01,2.198146283626556396e-01,2.198062539100646973e-01,2.197977304458618164e-01,2.197892665863037109e-01,2.197807431221008301e-01,2.197722494602203369e-01,2.197636067867279053e-01,2.197553813457489014e-01,2.197466492652893066e-01,2.197384238243103027e-01,2.197300195693969727e-01,2.197216451168060303e-01,2.197130918502807617e-01,2.197046577930450439e-01,2.196962833404541016e-01,2.196876704692840576e-01,2.196792960166931152e-01,2.196709811687469482e-01,2.196623682975769043e-01,2.196526825428009033e-01,2.196446955204010010e-01,2.196365296840667725e-01,2.196261584758758545e-01,2.196235656738281250e-01,2.196160554885864258e-01,2.196008861064910889e-01,2.195956408977508545e-01,2.195901870727539062e-01,2.195792496204376221e-01,2.195660769939422607e-01,2.195591032505035400e-01,2.195548713207244873e-01,2.195461690425872803e-01,2.195353209972381592e-01,2.195252776145935059e-01,2.195174396038055420e-01,2.195113897323608398e-01,2.195012271404266357e-01,2.194561064243316650e-01,2.197616398334503174e-01,2.192123830318450928e-01,2.123434245586395264e-01,2.156724035739898682e-01,2.391565442085266113e-01,2.649263739585876465e-01,3.292286396026611328e-01,3.678071796894073486e-01
3.778370022773742676e-01,2.908438444137573242e-01,2.668065726757049561e-01,2.334583699703216553e-01,2.106580138206481934e-01,2.071483135223388672e-01,2.098521590232849121e-01,2.104757130146026611e-01,2.109931707382202148e-01,2.109512984752655029e-01,2.109313011169433594e-01,2.109242379665374756e-01,2.109172046184539795e-01,2.109100818634033203e-01,2.109030187129974365e-01,2.108958363533020020e-01,2.108889520168304443e-01,2.108817696571350098e-01,2.108744978904724121e-01,2.108676433563232422e-01,2.108605802059173584e-01,2.108533680438995361e-01,2.108463048934936523e-01,2.108390629291534424e-01,2.108322083950042725e-01,2.108249366283416748e-01,2.108180820941925049e-01,2.108109295368194580e-01,2.108038365840911865e-01,2.107967436313629150e-01,2.107895910739898682e-01,2.107829749584197998e-01,2.107759118080139160e-01,2.107685506343841553e-01,2.107616364955902100e-01,2.107544839382171631e-01,2.107473909854888916e-01,2.107403278350830078e-01,2.107332050800323486e-01,2.107262313365936279e-01,2.107190489768981934e-01,2.107124030590057373e-01,2.107051610946655273e-01,2.106980979442596436e-01,2.106910347938537598e-01,2.106838524341583252e-01,2.106770873069763184e-01,2.106699645519256592e-01,2.106629312038421631e-01,2.106556296348571777e-01,2.106486260890960693e-01,2.106416821479797363e-01,2.106346189975738525e-01,2.106273472309112549e-01,2.106199860572814941e-01,2.106130719184875488e-01,2.106061875820159912e-01,2.106001675128936768e-01,2.105925977230072021e-01,2.105850279331207275e-01,2.105798125267028809e-01,2.105732262134552002e-01,2.105647921562194824e-01,2.105569839477539062e-01,2.105506062507629395e-01,2.105441689491271973e-01,2.105361521244049072e-01,2.105290889739990234e-01,2.105218470096588135e-01,2.105146050453186035e-01,2.105075418949127197e-01,2.104685604572296143e-01,2.107350230216979980e-01,2.102878391742706299e-01,2.038723528385162354e-01,2.072020769119262695e-01,2.303376197814941406e-01,2.568502426147460938e-01,3.220610916614532471e-01,3.632448315620422363e-01
3.726798295974731445e-01,2.842505574226379395e-01,2.591611742973327637e-01,2.263987064361572266e-01,2.035065889358520508e-01,1.998417675495147705e-01,2.023389935493469238e-01,2.028940021991729736e-01,2.033701837062835693e-01,2.033330798149108887e-01,2.033155262470245361e-01,2.033094465732574463e-01,2.033034563064575195e-01,2.032976746559143066e-01,2.032916843891143799e-01,2.032856047153472900e-01,2.032796442508697510e-01,2.032735943794250488e-01,2.032673954963684082e-01,2.032615244388580322e-01,2.032557129859924316e-01,2.032496333122253418e-01,2.032436132431030273e-01,2.032376825809478760e-01,2.032317817211151123e-01,2.032257616519927979e-01,2.032198607921600342e-01,2.032138705253601074e-01,2.032079100608825684e-01,2.032017707824707031e-01,2.031959295272827148e-01,2.031898200511932373e-01,2.031838297843933105e-01,2.031781077384948730e-01,2.031720578670501709e-01,2.031659185886383057e-01,2.031601369380950928e-01,2.031540870666503906e-01,2.031482160091400146e-01,2.031421661376953125e-01,2.031363546848297119e-01,2.031303346157073975e-01,2.031243741512298584e-01,2.031183838844299316e-01,2.031123340129852295e-01,2.031064629554748535e-01,2.031005620956420898e-01,2.030945122241973877e-01,2.030884921550750732e-01,2.030826807022094727e-01,2.030766010284423828e-01,2.030707597732543945e-01,2.030648589134216309e-01,2.030587196350097656e-01,2.030527889728546143e-01,2.030468285083770752e-01,2.030410468578338623e-01,2.030350863933563232e-01,2.030290067195892334e-01,2.030231952667236328e-01,2.030170857906341553e-01,2.030111849308013916e-01,2.030052542686462402e-01,2.029993534088134766e-01,2.029932737350463867e-01,2.029874026775360107e-01,2.029815614223480225e-01,2.029756307601928711e-01,2.029694020748138428e-01,2.029635906219482422e-01,2.029571235179901123e-01,2.029233574867248535e-01,2.031589448451995850e-01,2.027945220470428467e-01,1.967607438564300537e-01,2.000884711742401123e-01,2.229228019714355469e-01,2.500050365924835205e-01,3.159341216087341309e-01,3.593329787254333496e-01
3.681833148002624512e-01,2.785649895668029785e-01,2.526054680347442627e-01,2.203789055347442627e-01,1.974309384822845459e-01,1.936298012733459473e-01,1.959547698497772217e-01,1.964496672153472900e-01,1.968904435634613037e-01,1.968571245670318604e-01,1.968414783477783203e-01,1.968366801738739014e-01,1.968311667442321777e-01,1.968263089656829834e-01,1.968211531639099121e-01,1.968159973621368408e-01,1.968110501766204834e-01,1.968057155609130859e-01,1.968005895614624023e-01,1.967956423759460449e-01,1.967902183532714844e-01,1.967852711677551270e-01,1.967802345752716064e-01,1.967749595642089844e-01,1.967699229717254639e-01,1.967648863792419434e-01,1.967597603797912598e-01,1.967546045780181885e-01,1.967495083808898926e-01,1.967443227767944336e-01,1.967392265796661377e-01,1.967340409755706787e-01,1.967290639877319336e-01,1.967240571975708008e-01,1.967186927795410156e-01,1.967137157917022705e-01,1.967086791992187500e-01,1.967034637928009033e-01,1.966984868049621582e-01,1.966933310031890869e-01,1.966882348060607910e-01,1.966831088066101074e-01,1.966779232025146484e-01,1.966729760169982910e-01,1.966678798198699951e-01,1.966627240180969238e-01,1.966575682163238525e-01,1.966524124145507812e-01,1.966472566127777100e-01,1.966423690319061279e-01,1.966373324394226074e-01,1.966321766376495361e-01,1.966269910335540771e-01,1.966218352317810059e-01,1.966169476509094238e-01,1.966118514537811279e-01,1.966067254543304443e-01,1.966016292572021484e-01,1.965964436531066895e-01,1.965914368629455566e-01,1.965861618518829346e-01,1.965813040733337402e-01,1.965763270854949951e-01,1.965708434581756592e-01,1.965659260749816895e-01,1.965610384941101074e-01,1.965557932853698730e-01,1.965507268905639648e-01,1.965456008911132812e-01,1.965407133102416992e-01,1.965346336364746094e-01,1.965052485466003418e-01,1.967159807682037354e-01,1.964194178581237793e-01,1.907109618186950684e-01,1.940351128578186035e-01,2.166052460670471191e-01,2.441312372684478760e-01,3.106358647346496582e-01,3.559406995773315430e-01
3.642284870147705078e-01,2.736124396324157715e-01,2.469259798526763916e-01,2.151874601840972900e-01,1.922089457511901855e-01,1.882872283458709717e-01,1.904670596122741699e-01,1.909090876579284668e-01,1.913190484046936035e-01,1.912889182567596436e-01,1.912750303745269775e-01,1.912704110145568848e-01,1.912660300731658936e-01,1.912617087364196777e-01,1.912572681903839111e-01,1.912528574466705322e-01,1.912485361099243164e-01,1.912438571453094482e-01,1.912395656108856201e-01,1.912350952625274658e-01,1.912306547164916992e-01,1.912263929843902588e-01,1.912217438220977783e-01,1.912176907062530518e-01,1.912128925323486328e-01,1.912086606025695801e-01,1.912043094635009766e-01,1.911998689174652100e-01,1.911952197551727295e-01,1.911909282207489014e-01,1.911864280700683594e-01,1.911820471286773682e-01,1.911778450012207031e-01,1.911730766296386719e-01,1.911686956882476807e-01,1.911644339561462402e-01,1.911600828170776367e-01,1.911555826663970947e-01,1.911511123180389404e-01,1.911467611789703369e-01,1.911424696445465088e-01,1.911380290985107422e-01,1.911335885524749756e-01,1.911292374134063721e-01,1.911246776580810547e-01,1.911203563213348389e-01,1.911159157752990723e-01,1.911114454269409180e-01,1.911070644855499268e-01,1.911026239395141602e-01,1.910982728004455566e-01,1.910938024520874023e-01,1.910895407199859619e-01,1.910850405693054199e-01,1.910806894302368164e-01,1.910762786865234375e-01,1.910719275474548340e-01,1.910675168037414551e-01,1.910630166530609131e-01,1.910587251186370850e-01,1.910542249679565430e-01,1.910500526428222656e-01,1.910455226898193359e-01,1.910409033298492432e-01,1.910367310047149658e-01,1.910322010517120361e-01,1.910278797149658203e-01,1.910236775875091553e-01,1.910191476345062256e-01,1.910144388675689697e-01,1.910096406936645508e-01,1.909833252429962158e-01,1.911738216876983643e-01,1.909337937831878662e-01,1.855047345161437988e-01,1.888246536254882812e-01,2.111607789993286133e-01,2.390373349189758301e-01,3.060077428817749023e-01,3.529705107212066650e-01
3.607219457626342773e-01,2.692636549472808838e-01,2.419599294662475586e-01,2.106667757034301758e-01,1.876749992370605469e-01,1.836438477039337158e-01,1.856964826583862305e-01,1.860913634300231934e-01,1.864748299121856689e-01,1.864473819732666016e-01,1.864348053932189941e-01,1.864307224750518799e-01,1.864271163940429688e-01,1.864230632781982422e-01,1.864192187786102295e-01,1.864154040813446045e-01,1.864116787910461426e-01,1.864078342914581299e-01,1.864039897918701172e-01,1.864000856876373291e-01,1.863960921764373779e-01,1.863923072814941406e-01,1.863884329795837402e-01,1.863844990730285645e-01,1.863806545734405518e-01,1.863768100738525391e-01,1.863730847835540771e-01,1.863691210746765137e-01,1.863652169704437256e-01,1.863615512847900391e-01,1.863575279712677002e-01,1.863537132740020752e-01,1.863498389720916748e-01,1.863460242748260498e-01,1.863420605659484863e-01,1.863382458686828613e-01,1.863344907760620117e-01,1.863305270671844482e-01,1.863268613815307617e-01,1.863228976726531982e-01,1.863190531730651855e-01,1.863150894641876221e-01,1.863110661506652832e-01,1.863073706626892090e-01,1.863035857677459717e-01,1.862997710704803467e-01,1.862959563732147217e-01,1.862920820713043213e-01,1.862882375717163086e-01,1.862846314907073975e-01,1.862807571887969971e-01,1.862767934799194336e-01,1.862729489803314209e-01,1.862688958644866943e-01,1.862650811672210693e-01,1.862610578536987305e-01,1.862573623657226562e-01,1.862535476684570312e-01,1.862499117851257324e-01,1.862460672855377197e-01,1.862420141696929932e-01,1.862382292747497559e-01,1.862344145774841309e-01,1.862306892871856689e-01,1.862267255783081055e-01,1.862230002880096436e-01,1.862191557884216309e-01,1.862154006958007812e-01,1.862115561962127686e-01,1.862075030803680420e-01,1.862027645111083984e-01,1.861796379089355469e-01,1.863535344600677490e-01,1.861611604690551758e-01,1.809764504432678223e-01,1.842908263206481934e-01,2.064197361469268799e-01,2.345707714557647705e-01,3.019195199012756348e-01,3.503379225730895996e-01
3.576371967792510986e-01,2.654600739479064941e-01,2.376326620578765869e-01,2.067413628101348877e-01,1.837367117404937744e-01,1.796098351478576660e-01,1.815578043460845947e-01,1.819109916687011719e-01,1.822712719440460205e-01,1.822462081909179688e-01,1.822343766689300537e-01,1.822310090065002441e-01,1.822274923324584961e-01,1.822241246700286865e-01,1.822206974029541016e-01,1.822172701358795166e-01,1.822137832641601562e-01,1.822104454040527344e-01,1.822069883346557617e-01,1.822036206722259521e-01,1.822002232074737549e-01,1.821968853473663330e-01,1.821935474872589111e-01,1.821901202201843262e-01,1.821868121623992920e-01,1.821834444999694824e-01,1.821798682212829590e-01,1.821765899658203125e-01,1.821731328964233398e-01,1.821697354316711426e-01,1.821664571762084961e-01,1.821628510951995850e-01,1.821596026420593262e-01,1.821561753749847412e-01,1.821529567241668701e-01,1.821494102478027344e-01,1.821458637714385986e-01,1.821426749229431152e-01,1.821391582489013672e-01,1.821359992027282715e-01,1.821324527263641357e-01,1.821290850639343262e-01,1.821256875991821289e-01,1.821223795413970947e-01,1.821189820766448975e-01,1.821154654026031494e-01,1.821120679378509521e-01,1.821087598800659180e-01,1.821053624153137207e-01,1.821019351482391357e-01,1.820986270904541016e-01,1.820952296257019043e-01,1.820919215679168701e-01,1.820884943008422852e-01,1.820850670337677002e-01,1.820816695690155029e-01,1.820783019065856934e-01,1.820749938488006592e-01,1.820716261863708496e-01,1.820681095123291016e-01,1.820646822452545166e-01,1.820613741874694824e-01,1.820580363273620605e-01,1.820545792579650879e-01,1.820511817932128906e-01,1.820478737354278564e-01,1.820445656776428223e-01,1.820410490036010742e-01,1.820378601551055908e-01,1.820343136787414551e-01,1.820302009582519531e-01,1.820093095302581787e-01,1.821680068969726562e-01,1.820163428783416748e-01,1.770408451557159424e-01,1.803436577320098877e-01,2.022831737995147705e-01,2.306697368621826172e-01,2.983117103576660156e-01,3.479943871498107910e-01
3.552454710006713867e-01,2.622937560081481934e-01,2.341425716876983643e-01,2.035853266716003418e-01,1.805844306945800781e-01,1.763866841793060303e-01,1.782715618610382080e-01,1.786168515682220459e-01,1.789573729038238525e-01,1.789327859878540039e-01,1.789221763610839844e-01,1.789190769195556641e-01,1.789159178733825684e-01,1.789128780364990234e-01,1.789099574089050293e-01,1.789069771766662598e-01,1.789039373397827148e-01,1.789009571075439453e-01,1.788979768753051758e-01,1.788948774337768555e-01,1.788917779922485352e-01,1.788889467716217041e-01,1.788857281208038330e-01,1.788827478885650635e-01,1.788798272609710693e-01,1.788767278194427490e-01,1.788738071918487549e-01,1.788707077503204346e-01,1.788677275180816650e-01,1.788645386695861816e-01,1.788616776466369629e-01,1.788585782051086426e-01,1.788555681705474854e-01,1.788524985313415527e-01,1.788495182991027832e-01,1.788464188575744629e-01,1.788435876369476318e-01,1.788403987884521484e-01,1.788375377655029297e-01,1.788345277309417725e-01,1.788315773010253906e-01,1.788282990455627441e-01,1.788255274295806885e-01,1.788224279880523682e-01,1.788192987442016602e-01,1.788163483142852783e-01,1.788133680820465088e-01,1.788102984428405762e-01,1.788074076175689697e-01,1.788041591644287109e-01,1.788012385368347168e-01,1.787984073162078857e-01,1.787951588630676270e-01,1.787922978401184082e-01,1.787892878055572510e-01,1.787861883640289307e-01,1.787831187248229980e-01,1.787802875041961670e-01,1.787771284580230713e-01,1.787741780281066895e-01,1.787711977958679199e-01,1.787680089473724365e-01,1.787650585174560547e-01,1.787620782852172852e-01,1.787590980529785156e-01,1.787560880184173584e-01,1.787530481815338135e-01,1.787500381469726562e-01,1.787471473217010498e-01,1.787440180778503418e-01,1.787403523921966553e-01,1.787214577198028564e-01,1.788694560527801514e-01,1.787460446357727051e-01,1.739446222782135010e-01,1.772527098655700684e-01,1.989198029041290283e-01,2.273622751235961914e-01,2.952052354812622070e-01,3.462709188461303711e-01
3.522579073905944824e-01,2.585257887840270996e-01,2.300031185150146484e-01,1.997260749340057373e-01,1.766575276851654053e-01,1.722867190837860107e-01,1.739264130592346191e-01,1.741949617862701416e-01,1.744946837425231934e-01,1.744745075702667236e-01,1.744649410247802734e-01,1.744621396064758301e-01,1.744596958160400391e-01,1.744570732116699219e-01,1.744543313980102539e-01,1.744516491889953613e-01,1.744491159915924072e-01,1.744464635848999023e-01,1.744436323642730713e-01,1.744409799575805664e-01,1.744383871555328369e-01,1.744357645511627197e-01,1.744332909584045410e-01,1.744305193424224854e-01,1.744279861450195312e-01,1.744251549243927002e-01,1.744227707386016846e-01,1.744200587272644043e-01,1.744171380996704102e-01,1.744144856929779053e-01,1.744119226932525635e-01,1.744092404842376709e-01,1.744065880775451660e-01,1.744039654731750488e-01,1.744013428688049316e-01,1.743987500667572021e-01,1.743961274623870850e-01,1.743934750556945801e-01,1.743909418582916260e-01,1.743881702423095703e-01,1.743855178356170654e-01,1.743828952312469482e-01,1.743802726268768311e-01,1.743776798248291016e-01,1.743750274181365967e-01,1.743722856044769287e-01,1.743697822093963623e-01,1.743671596050262451e-01,1.743644773960113525e-01,1.743617355823516846e-01,1.743590831756591797e-01,1.743564009666442871e-01,1.743535995483398438e-01,1.743512153625488281e-01,1.743486523628234863e-01,1.743460297584533691e-01,1.743434667587280273e-01,1.743406653404235840e-01,1.743380427360534668e-01,1.743353009223937988e-01,1.743328273296356201e-01,1.743301451206207275e-01,1.743273437023162842e-01,1.743248701095581055e-01,1.743221282958984375e-01,1.743194460868835449e-01,1.743169128894805908e-01,1.743142902851104736e-01,1.743116676807403564e-01,1.743089556694030762e-01,1.743058264255523682e-01,1.742880940437316895e-01,1.744309365749359131e-01,1.743092238903045654e-01,1.696805655956268311e-01,1.730755567550659180e-01,1.948015689849853516e-01,2.234544456005096436e-01,2.916895151138305664e-01,3.432705700397491455e-01
3.534519672393798828e-01,2.556049227714538574e-01,2.290329635143280029e-01,1.991977095603942871e-01,1.747828722000122070e-01,1.703469157218933105e-01,1.715834736824035645e-01,1.718488931655883789e-01,1.721443235874176025e-01,1.721241772174835205e-01,1.721158921718597412e-01,1.721135973930358887e-01,1.721113622188568115e-01,1.721088588237762451e-01,1.721065640449523926e-01,1.721041202545166016e-01,1.721017658710479736e-01,1.720994412899017334e-01,1.720970571041107178e-01,1.720946133136749268e-01,1.720923185348510742e-01,1.720899045467376709e-01,1.720875501632690430e-01,1.720852255821228027e-01,1.720827519893646240e-01,1.720806658267974854e-01,1.720781624317169189e-01,1.720758378505706787e-01,1.720735430717468262e-01,1.720711290836334229e-01,1.720687747001647949e-01,1.720661818981170654e-01,1.720639467239379883e-01,1.720616817474365234e-01,1.720592081546783447e-01,1.720570027828216553e-01,1.720545589923858643e-01,1.720522642135620117e-01,1.720498502254486084e-01,1.720474958419799805e-01,1.720451414585113525e-01,1.720426380634307861e-01,1.720404028892517090e-01,1.720381081104278564e-01,1.720357239246368408e-01,1.720333099365234375e-01,1.720310151576995850e-01,1.720286905765533447e-01,1.720263063907623291e-01,1.720238626003265381e-01,1.720215082168579102e-01,1.720191538333892822e-01,1.720166802406311035e-01,1.720143556594848633e-01,1.720120608806610107e-01,1.720097661018371582e-01,1.720074713230133057e-01,1.720049381256103516e-01,1.720027625560760498e-01,1.720003485679626465e-01,1.719978749752044678e-01,1.719956994056701660e-01,1.719935238361358643e-01,1.719909906387329102e-01,1.719885468482971191e-01,1.719862520694732666e-01,1.719839870929718018e-01,1.719816029071807861e-01,1.719791889190673828e-01,1.719768941402435303e-01,1.719744205474853516e-01,1.719543933868408203e-01,1.720594465732574463e-01,1.720522642135620117e-01,1.679023504257202148e-01,1.713133752346038818e-01,1.922460198402404785e-01,2.205629646778106689e-01,2.916405200958251953e-01,3.415901660919189453e-01
3.557894825935363770e-01,2.536360025405883789e-01,2.169755399227142334e-01,1.914367079734802246e-01,1.698945164680480957e-01,1.649751961231231689e-01,1.661603748798370361e-01,1.664634943008422852e-01,1.667147576808929443e-01,1.666949689388275146e-01,1.666875779628753662e-01,1.666856706142425537e-01,1.666835546493530273e-01,1.666815578937530518e-01,1.666794717311859131e-01,1.666774749755859375e-01,1.666754782199859619e-01,1.666734516620635986e-01,1.666712462902069092e-01,1.666693687438964844e-01,1.666671931743621826e-01,1.666651964187622070e-01,1.666631698608398438e-01,1.666611135005950928e-01,1.666590869426727295e-01,1.666570901870727539e-01,1.666551828384399414e-01,1.666530966758728027e-01,1.666511595249176025e-01,1.666489541530609131e-01,1.666470766067504883e-01,1.666448414325714111e-01,1.666427254676818848e-01,1.666408181190490723e-01,1.666387915611267090e-01,1.666366159915924072e-01,1.666347086429595947e-01,1.666326224803924561e-01,1.666304767131805420e-01,1.666285693645477295e-01,1.666265130043029785e-01,1.666245162487030029e-01,1.666224598884582520e-01,1.666202843189239502e-01,1.666185557842254639e-01,1.666164696216583252e-01,1.666144430637359619e-01,1.666123569011688232e-01,1.666102409362792969e-01,1.666080951690673828e-01,1.666062474250793457e-01,1.666041910648345947e-01,1.666022539138793945e-01,1.666001975536346436e-01,1.665980517864227295e-01,1.665959656238555908e-01,1.665940880775451660e-01,1.665920615196228027e-01,1.665901541709899902e-01,1.665879786014556885e-01,1.665859520435333252e-01,1.665839850902557373e-01,1.665819287300109863e-01,1.665799617767333984e-01,1.665778756141662598e-01,1.665757596492767334e-01,1.665737926959991455e-01,1.665717661380767822e-01,1.665698289871215820e-01,1.665676832199096680e-01,1.665674149990081787e-01,1.665433049201965332e-01,1.666109859943389893e-01,1.667932271957397461e-01,1.623812317848205566e-01,1.654352247714996338e-01,1.886170804500579834e-01,2.108099460601806641e-01,2.860372066497802734e-01,3.337820768356323242e-01
3.380683362483978271e-01,2.402378320693969727e-01,2.027123868465423584e-01,1.804865598678588867e-01,1.658501327037811279e-01,1.592118740081787109e-01,1.592742800712585449e-01,1.594826877117156982e-01,1.597136259078979492e-01,1.596966385841369629e-01,1.596915423870086670e-01,1.596898436546325684e-01,1.596879959106445312e-01,1.596865653991699219e-01,1.596848964691162109e-01,1.596831679344177246e-01,1.596815288066864014e-01,1.596799790859222412e-01,1.596783697605133057e-01,1.596768498420715332e-01,1.596750319004058838e-01,1.596733629703521729e-01,1.596718430519104004e-01,1.596702039241790771e-01,1.596685945987701416e-01,1.596668064594268799e-01,1.596650779247283936e-01,1.596635878086090088e-01,1.596620678901672363e-01,1.596602499485015869e-01,1.596587300300598145e-01,1.596570909023284912e-01,1.596554219722747803e-01,1.596536934375762939e-01,1.596520841121673584e-01,1.596504747867584229e-01,1.596485972404479980e-01,1.596471965312957764e-01,1.596454679965972900e-01,1.596438586711883545e-01,1.596421897411346436e-01,1.596405804157257080e-01,1.596390902996063232e-01,1.596374511718750000e-01,1.596356332302093506e-01,1.596338748931884766e-01,1.596324145793914795e-01,1.596307456493377686e-01,1.596291363239288330e-01,1.596274971961975098e-01,1.596257984638214111e-01,1.596242785453796387e-01,1.596226394176483154e-01,1.596208512783050537e-01,1.596193611621856689e-01,1.596176028251647949e-01,1.596162021160125732e-01,1.596144139766693115e-01,1.596128046512603760e-01,1.596111953258514404e-01,1.596095561981201172e-01,1.596080362796783447e-01,1.596062779426574707e-01,1.596046388149261475e-01,1.596029102802276611e-01,1.596013903617858887e-01,1.595997810363769531e-01,1.595980226993560791e-01,1.595965623855590820e-01,1.595948636531829834e-01,1.595930159091949463e-01,1.595651209354400635e-01,1.596045196056365967e-01,1.598359048366546631e-01,1.557656824588775635e-01,1.533355712890625000e-01,1.688708066940307617e-01,2.049829065799713135e-01,2.839692533016204834e-01,3.553457260131835938e-01
3.297487497329711914e-01,2.279988229274749756e-01,1.979695856571197510e-01,1.790178120136260986e-01,1.636389791965484619e-01,1.572908163070678711e-01,1.598438024520874023e-01,1.601181924343109131e-01,1.602988541126251221e-01,1.602830290794372559e-01,1.602790653705596924e-01,1.602776646614074707e-01,1.602761447429656982e-01,1.602748036384582520e-01,1.602734625339508057e-01,1.602720320224761963e-01,1.602705717086791992e-01,1.602691411972045898e-01,1.602678000926971436e-01,1.602662205696105957e-01,1.602649390697479248e-01,1.602635085582733154e-01,1.602619588375091553e-01,1.602605879306793213e-01,1.602590978145599365e-01,1.602578163146972656e-01,1.602562069892883301e-01,1.602548360824584961e-01,1.602534353733062744e-01,1.602520942687988281e-01,1.602504551410675049e-01,1.602492034435272217e-01,1.602477133274078369e-01,1.602464616298675537e-01,1.602449715137481689e-01,1.602434515953063965e-01,1.602420508861541748e-01,1.602407395839691162e-01,1.602391004562377930e-01,1.602379083633422852e-01,1.602363884449005127e-01,1.602349877357482910e-01,1.602336466312408447e-01,1.602321565151214600e-01,1.602307260036468506e-01,1.602291762828826904e-01,1.602277159690856934e-01,1.602263152599334717e-01,1.602250337600708008e-01,1.602236628532409668e-01,1.602222323417663574e-01,1.602205038070678711e-01,1.602192819118499756e-01,1.602177917957305908e-01,1.602163612842559814e-01,1.602150499820709229e-01,1.602136492729187012e-01,1.602122485637664795e-01,1.602108180522918701e-01,1.602091193199157715e-01,1.602077484130859375e-01,1.602064371109008789e-01,1.602049469947814941e-01,1.602035760879516602e-01,1.602022349834442139e-01,1.602008044719696045e-01,1.601993143558502197e-01,1.601979732513427734e-01,1.601965427398681641e-01,1.601950824260711670e-01,1.601962745189666748e-01,1.601746678352355957e-01,1.602485775947570801e-01,1.604151427745819092e-01,1.554423570632934570e-01,1.561045348644256592e-01,1.747397184371948242e-01,1.962418854236602783e-01,3.100826144218444824e-01,3.704557716846466064e-01
3.673301339149475098e-01,2.730019688606262207e-01,2.366620004177093506e-01,1.968863010406494141e-01,1.776398122310638428e-01,1.728610098361968994e-01,1.740674972534179688e-01,1.743154525756835938e-01,1.744399666786193848e-01,1.744305193424224854e-01,1.744281351566314697e-01,1.744272708892822266e-01,1.744263172149658203e-01,1.744252741336822510e-01,1.744242310523986816e-01,1.744232773780822754e-01,1.744222640991210938e-01,1.744211912155151367e-01,1.744203269481658936e-01,1.744194030761718750e-01,1.744183301925659180e-01,1.744174361228942871e-01,1.744162142276763916e-01,1.744154095649719238e-01,1.744142770767211914e-01,1.744133532047271729e-01,1.744123995304107666e-01,1.744115054607391357e-01,1.744105815887451172e-01,1.744094789028167725e-01,1.744084954261779785e-01,1.744074523448944092e-01,1.744063198566436768e-01,1.744053661823272705e-01,1.744045615196228027e-01,1.744034886360168457e-01,1.744025945663452148e-01,1.744014322757720947e-01,1.744005978107452393e-01,1.743996143341064453e-01,1.743985414505004883e-01,1.743975281715393066e-01,1.743966042995452881e-01,1.743956208229064941e-01,1.743945777416229248e-01,1.743935346603393555e-01,1.743927001953125000e-01,1.743917167186737061e-01,1.743905842304229736e-01,1.743897497653961182e-01,1.743886172771453857e-01,1.743876338005065918e-01,1.743866205215454102e-01,1.743857562541961670e-01,1.743846833705902100e-01,1.743838191032409668e-01,1.743828058242797852e-01,1.743819415569305420e-01,1.743809282779693604e-01,1.743798851966857910e-01,1.743788123130798340e-01,1.743779182434082031e-01,1.743767261505126953e-01,1.743758022785186768e-01,1.743748188018798828e-01,1.743739545345306396e-01,1.743729412555694580e-01,1.743719577789306641e-01,1.743709444999694824e-01,1.743698716163635254e-01,1.743689477443695068e-01,1.743550896644592285e-01,1.744393706321716309e-01,1.744466125965118408e-01,1.704318523406982422e-01,1.741125285625457764e-01,1.803809106349945068e-01,1.959728598594665527e-01,2.897706627845764160e-01,3.657966852188110352e-01
3.785714805126190186e-01,3.069038689136505127e-01,2.609405517578125000e-01,2.302912175655364990e-01,2.096592783927917480e-01,2.076261341571807861e-01,2.071303129196166992e-01,2.072287797927856445e-01,2.073739767074584961e-01,2.073738276958465576e-01,2.073747813701629639e-01,2.073742151260375977e-01,2.073735594749450684e-01,2.073729038238525391e-01,2.073723375797271729e-01,2.073716521263122559e-01,2.073709666728973389e-01,2.073702514171600342e-01,2.073697149753570557e-01,2.073690593242645264e-01,2.073686420917510986e-01,2.073678672313690186e-01,2.073671817779541016e-01,2.073665559291839600e-01,2.073659002780914307e-01,2.073651850223541260e-01,2.073646485805511475e-01,2.073639333248138428e-01,2.073633968830108643e-01,2.073627412319183350e-01,2.073620557785034180e-01,2.073615193367004395e-01,2.073608636856079102e-01,2.073602080345153809e-01,2.073595821857452393e-01,2.073588669300079346e-01,2.073582708835601807e-01,2.073575556278228760e-01,2.073570489883422852e-01,2.073564529418945312e-01,2.073557674884796143e-01,2.073551118373870850e-01,2.073545157909393311e-01,2.073539793491363525e-01,2.073532640933990479e-01,2.073526382446289062e-01,2.073520421981811523e-01,2.073514163494110107e-01,2.073508501052856445e-01,2.073500752449035645e-01,2.073495090007781982e-01,2.073487341403961182e-01,2.073482275009155273e-01,2.073476016521453857e-01,2.073468267917633057e-01,2.073463201522827148e-01,2.073456645011901855e-01,2.073450982570648193e-01,2.073443830013275146e-01,2.073438763618469238e-01,2.073430716991424561e-01,2.073425948619842529e-01,2.073419690132141113e-01,2.073413729667663574e-01,2.073407471179962158e-01,2.073399722576141357e-01,2.073394954204559326e-01,2.073388397693634033e-01,2.073380947113037109e-01,2.073375582695007324e-01,2.073363065719604492e-01,2.073111534118652344e-01,2.072977423667907715e-01,2.073976695537567139e-01,2.048481702804565430e-01,2.087793350219726562e-01,2.079810798168182373e-01,2.248890697956085205e-01,2.848504781723022461e-01,3.590071499347686768e-01
