5.884765386581420898e-01,6.139602661132812500e-01,6.563316583633422852e-01,6.571245193481445312e-01,6.807261705398559570e-01,7.049889564514160156e-01,7.413098216056823730e-01,7.627391815185546875e-01,7.834848165512084961e-01,8.020355701446533203e-01,8.197864294052124023e-01,8.366072177886962891e-01,8.516550064086914062e-01,8.648968338966369629e-01,8.764176368713378906e-01,8.860183358192443848e-01,8.930647373199462891e-01,8.978267908096313477e-01,9.010758399963378906e-01,9.031780958175659180e-01,9.043442010879516602e-01,9.049906730651855469e-01,9.052335619926452637e-01,9.052965044975280762e-01,9.053111076354980469e-01,9.053096771240234375e-01,9.053092002868652344e-01,9.053092002868652344e-01,9.053092002868652344e-01,9.053092002868652344e-01,9.053092002868652344e-01,9.053092002868652344e-01,9.053092002868652344e-01,9.053092002868652344e-01,9.053092002868652344e-01,9.053092002868652344e-01,9.053092002868652344e-01,9.053092002868652344e-01,9.053092002868652344e-01,9.053092002868652344e-01,9.053092002868652344e-01,9.053092002868652344e-01,9.053175449371337891e-01,9.053536057472229004e-01,9.056344032287597656e-01,9.057686328887939453e-01,9.021830558776855469e-01,8.957539796829223633e-01,8.859955072402954102e-01,8.750522136688232422e-01,8.602269887924194336e-01,8.342210054397583008e-01,7.644822597503662109e-01,7.079542279243469238e-01,6.518134474754333496e-01,6.200274825096130371e-01,5.996041893959045410e-01,5.941880941390991211e-01,6.241022348403930664e-01,6.334053277969360352e-01,6.768248081207275391e-01,7.215584516525268555e-01,7.838269472122192383e-01,8.280459642410278320e-01,8.556974530220031738e-01,8.746303319931030273e-01,8.848752975463867188e-01,8.930263519287109375e-01,8.967014551162719727e-01,8.945271968841552734e-01,8.888409137725830078e-01,8.804017305374145508e-01,8.714417219161987305e-01,8.584593534469604492e-01,8.296527862548828125e-01,8.088305592536926270e-01,8.012517690658569336e-01,7.750601768493652344e-01,7.223532199859619141e-01,6.163132786750793457e-01
5.885016918182373047e-01,6.139488220214843750e-01,6.565046310424804688e-01,6.572785377502441406e-01,6.807781457901000977e-01,7.049953937530517578e-01,7.413746714591979980e-01,7.627742290496826172e-01,7.835457921028137207e-01,8.021696805953979492e-01,8.199293017387390137e-01,8.364094495773315430e-01,8.515366911888122559e-01,8.648515939712524414e-01,8.763729929924011230e-01,8.859380483627319336e-01,8.930211067199707031e-01,8.977288007736206055e-01,9.010208845138549805e-01,9.031491279602050781e-01,9.043531417846679688e-01,9.050096869468688965e-01,9.052693247795104980e-01,9.053225517272949219e-01,9.053357839584350586e-01,9.053342938423156738e-01,9.053338766098022461e-01,9.053338766098022461e-01,9.053338766098022461e-01,9.053338766098022461e-01,9.053338766098022461e-01,9.053338766098022461e-01,9.053338766098022461e-01,9.053338766098022461e-01,9.053338766098022461e-01,9.053338766098022461e-01,9.053338766098022461e-01,9.053338766098022461e-01,9.053338766098022461e-01,9.053338766098022461e-01,9.053338766098022461e-01,9.053338766098022461e-01,9.053374528884887695e-01,9.053716063499450684e-01,9.057384729385375977e-01,9.056436419486999512e-01,9.018207788467407227e-01,8.951201438903808594e-01,8.866035342216491699e-01,8.720920681953430176e-01,8.568600416183471680e-01,8.270791769027709961e-01,7.589527368545532227e-01,6.990514993667602539e-01,6.486682295799255371e-01,5.958187580108642578e-01,5.865743160247802734e-01,5.838298201560974121e-01,5.968486070632934570e-01,6.172732114791870117e-01,6.667708158493041992e-01,7.199209332466125488e-01,7.736486196517944336e-01,8.297361135482788086e-01,8.576158285140991211e-01,8.750930428504943848e-01,8.873246908187866211e-01,8.930549621582031250e-01,8.966417908668518066e-01,8.945845365524291992e-01,8.885759115219116211e-01,8.805704116821289062e-01,8.711953163146972656e-01,8.581271171569824219e-01,8.297237157821655273e-01,8.088643550872802734e-01,8.011263012886047363e-01,7.750735282897949219e-01,7.223460674285888672e-01,6.163382530212402344e-01
5.884806513786315918e-01,6.139116287231445312e-01,6.564785838127136230e-01,6.572387218475341797e-01,6.807473897933959961e-01,7.049655914306640625e-01,7.413303256034851074e-01,7.627441287040710449e-01,7.835178375244140625e-01,8.021481037139892578e-01,8.199406862258911133e-01,8.364357948303222656e-01,8.513959646224975586e-01,8.647890090942382812e-01,8.763932585716247559e-01,8.858845233917236328e-01,8.929586410522460938e-01,8.977019786834716797e-01,9.009695053100585938e-01,9.031198024749755859e-01,9.043424725532531738e-01,9.050059318542480469e-01,9.052580595016479492e-01,9.053188562393188477e-01,9.053306579589843750e-01,9.053287506103515625e-01,9.053283333778381348e-01,9.053283333778381348e-01,9.053283333778381348e-01,9.053283333778381348e-01,9.053283333778381348e-01,9.053283333778381348e-01,9.053283333778381348e-01,9.053283333778381348e-01,9.053283333778381348e-01,9.053283333778381348e-01,9.053283333778381348e-01,9.053283333778381348e-01,9.053283333778381348e-01,9.053283333778381348e-01,9.053283333778381348e-01,9.053283333778381348e-01,9.053298830986022949e-01,9.053590297698974609e-01,9.057266712188720703e-01,9.058866500854492188e-01,9.023831486701965332e-01,8.975127935409545898e-01,8.883740901947021484e-01,8.746037483215332031e-01,8.567907810211181641e-01,8.253992795944213867e-01,7.587045431137084961e-01,6.861730813980102539e-01,6.376689076423645020e-01,5.945064425468444824e-01,5.787076354026794434e-01,5.787150263786315918e-01,5.854121446609497070e-01,6.068592071533203125e-01,6.527068614959716797e-01,7.027955055236816406e-01,7.783422470092773438e-01,8.267136812210083008e-01,8.565423488616943359e-01,8.758324384689331055e-01,8.880088329315185547e-01,8.935871124267578125e-01,8.962493538856506348e-01,8.947260379791259766e-01,8.886589407920837402e-01,8.804583549499511719e-01,8.710405230522155762e-01,8.582110404968261719e-01,8.297359943389892578e-01,8.086940050125122070e-01,8.010818958282470703e-01,7.750754356384277344e-01,7.223824858665466309e-01,6.162915825843811035e-01
5.884737968444824219e-01,6.139001846313476562e-01,6.564654111862182617e-01,6.572231054306030273e-01,6.807297468185424805e-01,7.049455046653747559e-01,7.413137555122375488e-01,7.627204656600952148e-01,7.834958434104919434e-01,8.021354675292968750e-01,8.199272155761718750e-01,8.364301919937133789e-01,8.513963222503662109e-01,8.647282123565673828e-01,8.763762116432189941e-01,8.859144449234008789e-01,8.929375410079956055e-01,8.976858854293823242e-01,9.009733200073242188e-01,9.031088352203369141e-01,9.043349027633666992e-01,9.050054550170898438e-01,9.052593708038330078e-01,9.053182601928710938e-01,9.053307771682739258e-01,9.053288698196411133e-01,9.053283333778381348e-01,9.053283333778381348e-01,9.053283333778381348e-01,9.053283333778381348e-01,9.053283333778381348e-01,9.053283333778381348e-01,9.053283333778381348e-01,9.053283333778381348e-01,9.053283333778381348e-01,9.053283333778381348e-01,9.053283333778381348e-01,9.053283333778381348e-01,9.053283333778381348e-01,9.053283333778381348e-01,9.053283333778381348e-01,9.053283333778381348e-01,9.053244590759277344e-01,9.053397178649902344e-01,9.056140184402465820e-01,9.058139324188232422e-01,9.032423496246337891e-01,8.979291915893554688e-01,8.893238306045532227e-01,8.749896883964538574e-01,8.564029932022094727e-01,8.233838081359863281e-01,7.653139829635620117e-01,6.892362833023071289e-01,6.321260333061218262e-01,5.922995209693908691e-01,5.745169520378112793e-01,5.625719428062438965e-01,5.805507898330688477e-01,6.094095706939697266e-01,6.524298191070556641e-01,7.055126428604125977e-01,7.716383934020996094e-01,8.226474523544311523e-01,8.523207306861877441e-01,8.740758299827575684e-01,8.871055841445922852e-01,8.943701982498168945e-01,8.967711329460144043e-01,8.941698074340820312e-01,8.887337446212768555e-01,8.804231882095336914e-01,8.711116909980773926e-01,8.582285046577453613e-01,8.296725749969482422e-01,8.087024688720703125e-01,8.011069893836975098e-01,7.750988006591796875e-01,7.223889231681823730e-01,6.163014173507690430e-01
5.884668231010437012e-01,6.138888597488403320e-01,6.564521789550781250e-01,6.572077274322509766e-01,6.807125806808471680e-01,7.049278020858764648e-01,7.412948608398437500e-01,7.627032995223999023e-01,7.834762334823608398e-01,8.021149635314941406e-01,8.199139833450317383e-01,8.364175558090209961e-01,8.513849973678588867e-01,8.647177815437316895e-01,8.763570785522460938e-01,8.859028220176696777e-01,8.929394483566284180e-01,8.976821899414062500e-01,9.009670019149780273e-01,9.031099081039428711e-01,9.043337106704711914e-01,9.050043821334838867e-01,9.052594304084777832e-01,9.053182601928710938e-01,9.053307175636291504e-01,9.053288698196411133e-01,9.053283333778381348e-01,9.053283333778381348e-01,9.053283333778381348e-01,9.053283333778381348e-01,9.053283333778381348e-01,9.053283333778381348e-01,9.053283333778381348e-01,9.053283333778381348e-01,9.053283333778381348e-01,9.053283333778381348e-01,9.053283333778381348e-01,9.053283333778381348e-01,9.053283333778381348e-01,9.053283333778381348e-01,9.053283333778381348e-01,9.053283333778381348e-01,9.053238630294799805e-01,9.053367376327514648e-01,9.057123661041259766e-01,9.062812328338623047e-01,9.040204286575317383e-01,8.999963998794555664e-01,8.913599252700805664e-01,8.764692544937133789e-01,8.575679659843444824e-01,8.257822394371032715e-01,7.708383202552795410e-01,6.964324116706848145e-01,6.392100453376770020e-01,5.949157476425170898e-01,5.713419914245605469e-01,5.679330825805664062e-01,5.778757929801940918e-01,6.054535508155822754e-01,6.457246541976928711e-01,7.041923999786376953e-01,7.738934755325317383e-01,8.236070275306701660e-01,8.517909049987792969e-01,8.733699321746826172e-01,8.864200711250305176e-01,8.932212591171264648e-01,8.969965577125549316e-01,8.945719599723815918e-01,8.887799978256225586e-01,8.804453015327453613e-01,8.711150288581848145e-01,8.582208156585693359e-01,8.296889066696166992e-01,8.087209463119506836e-01,8.011195659637451172e-01,7.751106023788452148e-01,7.224003076553344727e-01,6.163101792335510254e-01
5.884597301483154297e-01,6.138775944709777832e-01,6.564388275146484375e-01,6.571924686431884766e-01,6.806956529617309570e-01,7.049103379249572754e-01,7.412769794464111328e-01,7.626850605010986328e-01,7.834587097167968750e-01,8.020969629287719727e-01,8.198968172073364258e-01,8.364025950431823730e-01,8.513705134391784668e-01,8.647052645683288574e-01,8.763462305068969727e-01,8.858941793441772461e-01,8.929321765899658203e-01,8.976777195930480957e-01,9.009642601013183594e-01,9.031084775924682617e-01,9.043331146240234375e-01,9.050039052963256836e-01,9.052593111991882324e-01,9.053181409835815430e-01,9.053306579589843750e-01,9.053288698196411133e-01,9.053283333778381348e-01,9.053283333778381348e-01,9.053283333778381348e-01,9.053283333778381348e-01,9.053283333778381348e-01,9.053283333778381348e-01,9.053283333778381348e-01,9.053283333778381348e-01,9.053283333778381348e-01,9.053283333778381348e-01,9.053283333778381348e-01,9.053283333778381348e-01,9.053283333778381348e-01,9.053283333778381348e-01,9.053283333778381348e-01,9.053283333778381348e-01,9.053254723548889160e-01,9.053244590759277344e-01,9.056771993637084961e-01,9.062062501907348633e-01,9.039080142974853516e-01,9.007443189620971680e-01,8.936952352523803711e-01,8.789311051368713379e-01,8.620517253875732422e-01,8.294941782951354980e-01,7.830746173858642578e-01,7.041977643966674805e-01,6.433446407318115234e-01,5.990257859230041504e-01,5.760006904602050781e-01,5.691970586776733398e-01,5.808038115501403809e-01,6.058307886123657227e-01,6.469739675521850586e-01,7.019438743591308594e-01,7.722848653793334961e-01,8.215262889862060547e-01,8.512090444564819336e-01,8.737739920616149902e-01,8.873952031135559082e-01,8.936144113540649414e-01,8.966478109359741211e-01,8.943161368370056152e-01,8.888393640518188477e-01,8.804584741592407227e-01,8.711283206939697266e-01,8.582290410995483398e-01,8.297027349472045898e-01,8.087350130081176758e-01,8.011323213577270508e-01,7.751234769821166992e-01,7.224112153053283691e-01,6.163164377212524414e-01
5.884528160095214844e-01,6.138664484024047852e-01,6.564258933067321777e-01,6.571770906448364258e-01,6.806790828704833984e-01,7.048930525779724121e-01,7.412596344947814941e-01,7.626676559448242188e-01,7.834411859512329102e-01,8.020796775817871094e-01,8.198802471160888672e-01,8.363872766494750977e-01,8.513565063476562500e-01,8.646924495697021484e-01,8.763352632522583008e-01,8.858854770660400391e-01,8.929262161254882812e-01,8.976736068725585938e-01,9.009614586830139160e-01,9.031069278717041016e-01,9.043320417404174805e-01,9.050034284591674805e-01,9.052591323852539062e-01,9.053180217742919922e-01,9.053307175636291504e-01,9.053288698196411133e-01,9.053283333778381348e-01,9.053283333778381348e-01,9.053283333778381348e-01,9.053283333778381348e-01,9.053283333778381348e-01,9.053283333778381348e-01,9.053283333778381348e-01,9.053283333778381348e-01,9.053283333778381348e-01,9.053283333778381348e-01,9.053283333778381348e-01,9.053283333778381348e-01,9.053283333778381348e-01,9.053283333778381348e-01,9.053283333778381348e-01,9.053283333778381348e-01,9.053288102149963379e-01,9.053214788436889648e-01,9.056589603424072266e-01,9.058577418327331543e-01,9.044559597969055176e-01,9.008957147598266602e-01,8.940472602844238281e-01,8.801282644271850586e-01,8.658242225646972656e-01,8.395785093307495117e-01,7.893035411834716797e-01,7.112627029418945312e-01,6.486794352531433105e-01,6.054539084434509277e-01,5.782147645950317383e-01,5.779527425765991211e-01,5.836222171783447266e-01,6.053027510643005371e-01,6.453757882118225098e-01,7.023723721504211426e-01,7.695564031600952148e-01,8.219790458679199219e-01,8.521729707717895508e-01,8.736852407455444336e-01,8.864347934722900391e-01,8.934603333473205566e-01,8.964425325393676758e-01,8.943462371826171875e-01,8.887398838996887207e-01,8.804684877395629883e-01,8.711382150650024414e-01,8.582388162612915039e-01,8.297147750854492188e-01,8.087481260299682617e-01,8.011451959609985352e-01,7.751356959342956543e-01,7.224211692810058594e-01,6.163236498832702637e-01
5.884460210800170898e-01,6.138556003570556641e-01,6.564131975173950195e-01,6.571622490882873535e-01,6.806625723838806152e-01,7.048760652542114258e-01,7.412424683570861816e-01,7.626504898071289062e-01,7.834240794181823730e-01,8.020625710487365723e-01,8.198639154434204102e-01,8.363721370697021484e-01,8.513427972793579102e-01,8.646801710128784180e-01,8.763242959976196289e-01,8.858768939971923828e-01,8.929202556610107422e-01,8.976694345474243164e-01,9.009583592414855957e-01,9.031051397323608398e-01,9.043311476707458496e-01,9.050028920173645020e-01,9.052590131759643555e-01,9.053180217742919922e-01,9.053307175636291504e-01,9.053288698196411133e-01,9.053283333778381348e-01,9.053283333778381348e-01,9.053283333778381348e-01,9.053283333778381348e-01,9.053283333778381348e-01,9.053283333778381348e-01,9.053283333778381348e-01,9.053283333778381348e-01,9.053283333778381348e-01,9.053283333778381348e-01,9.053283333778381348e-01,9.053283333778381348e-01,9.053283333778381348e-01,9.053283333778381348e-01,9.053283333778381348e-01,9.053283333778381348e-01,9.053257703781127930e-01,9.053176641464233398e-01,9.055731296539306641e-01,9.057730436325073242e-01,9.051845073699951172e-01,9.022653102874755859e-01,8.949893116950988770e-01,8.822603225708007812e-01,8.670796155929565430e-01,8.410254120826721191e-01,7.978191971778869629e-01,7.198846936225891113e-01,6.574935913085937500e-01,6.122056841850280762e-01,5.861769914627075195e-01,5.846086144447326660e-01,5.850936174392700195e-01,6.050904393196105957e-01,6.445327997207641602e-01,7.011200189590454102e-01,7.708252668380737305e-01,8.226948380470275879e-01,8.519239425659179688e-01,8.730928897857666016e-01,8.874639272689819336e-01,8.935009241104125977e-01,8.961570262908935547e-01,8.943459987640380859e-01,8.888551592826843262e-01,8.804943561553955078e-01,8.711429238319396973e-01,8.582484722137451172e-01,8.297263383865356445e-01,8.087608814239501953e-01,8.011579513549804688e-01,7.751483321189880371e-01,7.224313020706176758e-01,6.163307428359985352e-01
5.884399414062500000e-01,6.138452887535095215e-01,6.564006805419921875e-01,6.571475863456726074e-01,6.806463003158569336e-01,7.048593759536743164e-01,7.412256598472595215e-01,7.626335620880126953e-01,7.834071516990661621e-01,8.020460009574890137e-01,8.198480606079101562e-01,8.363572359085083008e-01,8.513293266296386719e-01,8.646678924560546875e-01,8.763134479522705078e-01,8.858683109283447266e-01,8.929141163825988770e-01,8.976657390594482422e-01,9.009555578231811523e-01,9.031035304069519043e-01,9.043303132057189941e-01,9.050022363662719727e-01,9.052590727806091309e-01,9.053180217742919922e-01,9.053307175636291504e-01,9.053288698196411133e-01,9.053283333778381348e-01,9.053283333778381348e-01,9.053283333778381348e-01,9.053283333778381348e-01,9.053283333778381348e-01,9.053283333778381348e-01,9.053283333778381348e-01,9.053283333778381348e-01,9.053283333778381348e-01,9.053283333778381348e-01,9.053283333778381348e-01,9.053283333778381348e-01,9.053283333778381348e-01,9.053283333778381348e-01,9.053283333778381348e-01,9.053283333778381348e-01,9.053242802619934082e-01,9.053154587745666504e-01,9.053840637207031250e-01,9.058461189270019531e-01,9.055494070053100586e-01,9.023122191429138184e-01,8.960986137390136719e-01,8.832114934921264648e-01,8.680171966552734375e-01,8.433825969696044922e-01,8.087604045867919922e-01,7.281164526939392090e-01,6.622884273529052734e-01,6.146512031555175781e-01,5.905963182449340820e-01,5.806588530540466309e-01,5.824958682060241699e-01,6.063451170921325684e-01,6.430425047874450684e-01,6.992374658584594727e-01,7.686684727668762207e-01,8.189189434051513672e-01,8.516192436218261719e-01,8.732346296310424805e-01,8.869224190711975098e-01,8.930499553680419922e-01,8.962167501449584961e-01,8.947575092315673828e-01,8.888744115829467773e-01,8.804886341094970703e-01,8.711475133895874023e-01,8.582580089569091797e-01,8.297379016876220703e-01,8.087736368179321289e-01,8.011706471443176270e-01,7.751606702804565430e-01,7.224413156509399414e-01,6.163377761840820312e-01
5.884343385696411133e-01,6.138356924057006836e-01,6.563892960548400879e-01,6.571336388587951660e-01,6.806309223175048828e-01,7.048432826995849609e-01,7.412093877792358398e-01,7.626173496246337891e-01,7.833907604217529297e-01,8.020296692848205566e-01,8.198324441909790039e-01,8.363428115844726562e-01,8.513159155845642090e-01,8.646560311317443848e-01,8.763031959533691406e-01,8.858598470687866211e-01,8.929082155227661133e-01,8.976618051528930664e-01,9.009526968002319336e-01,9.031018018722534180e-01,9.043291807174682617e-01,9.050018787384033203e-01,9.052588939666748047e-01,9.053179025650024414e-01,9.053307175636291504e-01,9.053288698196411133e-01,9.053283333778381348e-01,9.053283333778381348e-01,9.053283333778381348e-01,9.053283333778381348e-01,9.053283333778381348e-01,9.053283333778381348e-01,9.053283333778381348e-01,9.053283333778381348e-01,9.053283333778381348e-01,9.053283333778381348e-01,9.053283333778381348e-01,9.053283333778381348e-01,9.053283333778381348e-01,9.053283333778381348e-01,9.053283333778381348e-01,9.053283333778381348e-01,9.053277969360351562e-01,9.053088426589965820e-01,9.052981138229370117e-01,9.059141874313354492e-01,9.060402512550354004e-01,9.028145074844360352e-01,8.960806727409362793e-01,8.869629502296447754e-01,8.694636821746826172e-01,8.474245071411132812e-01,8.112027645111083984e-01,7.371382713317871094e-01,6.717983484268188477e-01,6.165759563446044922e-01,5.902638435363769531e-01,5.799390673637390137e-01,5.885058641433715820e-01,6.052573919296264648e-01,6.403017640113830566e-01,6.960765123367309570e-01,7.620129585266113281e-01,8.201829791069030762e-01,8.486729264259338379e-01,8.721125125885009766e-01,8.850352764129638672e-01,8.922144174575805664e-01,8.962098956108093262e-01,8.945579528808593750e-01,8.887050151824951172e-01,8.804610371589660645e-01,8.711580038070678711e-01,8.582675457000732422e-01,8.297493457794189453e-01,8.087865114212036133e-01,8.011832237243652344e-01,7.751727700233459473e-01,7.224514484405517578e-01,6.163449287414550781e-01
5.884293317794799805e-01,6.138272881507873535e-01,6.563791632652282715e-01,6.571214199066162109e-01,6.806167960166931152e-01,7.048282623291015625e-01,7.411938905715942383e-01,7.626014947891235352e-01,7.833747863769531250e-01,8.020138740539550781e-01,8.198174238204956055e-01,8.363288044929504395e-01,8.513028621673583984e-01,8.646442890167236328e-01,8.762929439544677734e-01,8.858518600463867188e-01,8.929024934768676758e-01,8.976579904556274414e-01,9.009498953819274902e-01,9.031002521514892578e-01,9.043284058570861816e-01,9.050013422966003418e-01,9.052587747573852539e-01,9.053179025650024414e-01,9.053307175636291504e-01,9.053288698196411133e-01,9.053283333778381348e-01,9.053283333778381348e-01,9.053283333778381348e-01,9.053283333778381348e-01,9.053283333778381348e-01,9.053283333778381348e-01,9.053283333778381348e-01,9.053283333778381348e-01,9.053283333778381348e-01,9.053283333778381348e-01,9.053283333778381348e-01,9.053283333778381348e-01,9.053283333778381348e-01,9.053283333778381348e-01,9.053283333778381348e-01,9.053283333778381348e-01,9.053265452384948730e-01,9.053113460540771484e-01,9.053082466125488281e-01,9.057323336601257324e-01,9.061279296875000000e-01,9.026605486869812012e-01,8.973830342292785645e-01,8.883245587348937988e-01,8.730919361114501953e-01,8.507728576660156250e-01,8.208359479904174805e-01,7.541644573211669922e-01,6.813023686408996582e-01,6.290669441223144531e-01,5.947709083557128906e-01,5.942546725273132324e-01,5.952751040458679199e-01,6.030242443084716797e-01,6.416654586791992188e-01,6.928284168243408203e-01,7.590349912643432617e-01,8.192689418792724609e-01,8.496488928794860840e-01,8.710572719573974609e-01,8.839998245239257812e-01,8.925026655197143555e-01,8.960244059562683105e-01,8.939203619956970215e-01,8.884755373001098633e-01,8.804333209991455078e-01,8.711616992950439453e-01,8.582770824432373047e-01,8.297608494758605957e-01,8.087991476058959961e-01,8.011959195137023926e-01,7.751850485801696777e-01,7.224617004394531250e-01,6.163520216941833496e-01
5.884247422218322754e-01,6.138198375701904297e-01,6.563700437545776367e-01,6.571108102798461914e-01,6.806041598320007324e-01,7.048149108886718750e-01,7.411798238754272461e-01,7.625868916511535645e-01,7.833597660064697266e-01,8.019986748695373535e-01,8.198029398918151855e-01,8.363152742385864258e-01,8.512905836105346680e-01,8.646333217620849609e-01,8.762830495834350586e-01,8.858438730239868164e-01,8.928968906402587891e-01,8.976544141769409180e-01,9.009472727775573730e-01,9.030987620353698730e-01,9.043276309967041016e-01,9.050009250640869141e-01,9.052587747573852539e-01,9.053179025650024414e-01,9.053307771682739258e-01,9.053288698196411133e-01,9.053283333778381348e-01,9.053283333778381348e-01,9.053283333778381348e-01,9.053283333778381348e-01,9.053283333778381348e-01,9.053283333778381348e-01,9.053283333778381348e-01,9.053283333778381348e-01,9.053283333778381348e-01,9.053283333778381348e-01,9.053283333778381348e-01,9.053283333778381348e-01,9.053283333778381348e-01,9.053283333778381348e-01,9.053283333778381348e-01,9.053283333778381348e-01,9.053284525871276855e-01,9.053177833557128906e-01,9.053408503532409668e-01,9.056748151779174805e-01,9.060181379318237305e-01,9.037990570068359375e-01,8.985311985015869141e-01,8.913387656211853027e-01,8.755317330360412598e-01,8.550244569778442383e-01,8.251599073410034180e-01,7.700972557067871094e-01,6.908419132232666016e-01,6.385643482208251953e-01,6.087363958358764648e-01,6.125301718711853027e-01,6.017821431159973145e-01,6.082808971405029297e-01,6.389895677566528320e-01,6.952400207519531250e-01,7.637120485305786133e-01,8.085975646972656250e-01,8.455749750137329102e-01,8.694604635238647461e-01,8.837311267852783203e-01,8.912916779518127441e-01,8.952808380126953125e-01,8.932493329048156738e-01,8.885599970817565918e-01,8.804103136062622070e-01,8.711723089218139648e-01,8.582864999771118164e-01,8.297724723815917969e-01,8.088117837905883789e-01,8.012084960937500000e-01,7.751972675323486328e-01,7.224718332290649414e-01,6.163591146469116211e-01
5.884205102920532227e-01,6.138125061988830566e-01,6.563613414764404297e-01,6.571007966995239258e-01,6.805931329727172852e-01,7.048033475875854492e-01,7.411677837371826172e-01,7.625739574432373047e-01,7.833463549613952637e-01,8.019846677780151367e-01,8.197890520095825195e-01,8.363022804260253906e-01,8.512784838676452637e-01,8.646225929260253906e-01,8.762736320495605469e-01,8.858361244201660156e-01,8.928914070129394531e-01,8.976508378982543945e-01,9.009445905685424805e-01,9.030972123146057129e-01,9.043266773223876953e-01,9.050004482269287109e-01,9.052586555480957031e-01,9.053179025650024414e-01,9.053307771682739258e-01,9.053288698196411133e-01,9.053283333778381348e-01,9.053283333778381348e-01,9.053283333778381348e-01,9.053283333778381348e-01,9.053283333778381348e-01,9.053283333778381348e-01,9.053283333778381348e-01,9.053283333778381348e-01,9.053283333778381348e-01,9.053283333778381348e-01,9.053283333778381348e-01,9.053283333778381348e-01,9.053283333778381348e-01,9.053283333778381348e-01,9.053283333778381348e-01,9.053283333778381348e-01,9.053283929824829102e-01,9.053196907043457031e-01,9.053065776824951172e-01,9.057302474975585938e-01,9.063272476196289062e-01,9.039288759231567383e-01,9.000152349472045898e-01,8.927425146102905273e-01,8.790691494941711426e-01,8.612979054450988770e-01,8.342757225036621094e-01,7.835885286331176758e-01,7.171291112899780273e-01,6.611558794975280762e-01,6.336253881454467773e-01,6.244998574256896973e-01,6.302378177642822266e-01,6.367399692535400391e-01,6.467500925064086914e-01,6.950085759162902832e-01,7.596176266670227051e-01,8.104215860366821289e-01,8.422148823738098145e-01,8.677971363067626953e-01,8.838835954666137695e-01,8.902357816696166992e-01,8.939309120178222656e-01,8.929414749145507812e-01,8.886626958847045898e-01,8.804510831832885742e-01,8.711953163146972656e-01,8.582960367202758789e-01,8.297840356826782227e-01,8.088244199752807617e-01,8.012211322784423828e-01,7.752094864845275879e-01,7.224819660186767578e-01,6.163662672042846680e-01
5.884157419204711914e-01,6.138052344322204590e-01,6.563532352447509766e-01,6.570916175842285156e-01,6.805827617645263672e-01,7.047926187515258789e-01,7.411565184593200684e-01,7.625627517700195312e-01,7.833344936370849609e-01,8.019725084304809570e-01,8.197770118713378906e-01,8.362904787063598633e-01,8.512674570083618164e-01,8.646123409271240234e-01,8.762645721435546875e-01,8.858290910720825195e-01,8.928864598274230957e-01,8.976473808288574219e-01,9.009421467781066895e-01,9.030957221984863281e-01,9.043259024620056152e-01,9.050000905990600586e-01,9.052586555480957031e-01,9.053179025650024414e-01,9.053307175636291504e-01,9.053288698196411133e-01,9.053283333778381348e-01,9.053283333778381348e-01,9.053283333778381348e-01,9.053283333778381348e-01,9.053283333778381348e-01,9.053283333778381348e-01,9.053283333778381348e-01,9.053283333778381348e-01,9.053283333778381348e-01,9.053283333778381348e-01,9.053283333778381348e-01,9.053283333778381348e-01,9.053283333778381348e-01,9.053283333778381348e-01,9.053283333778381348e-01,9.053283333778381348e-01,9.053288698196411133e-01,9.053232073783874512e-01,9.053153991699218750e-01,9.056788086891174316e-01,9.063265323638916016e-01,9.038369655609130859e-01,9.012068510055541992e-01,8.954555392265319824e-01,8.822854757308959961e-01,8.686302304267883301e-01,8.423796892166137695e-01,8.091300725936889648e-01,7.442557811737060547e-01,6.817384362220764160e-01,6.565574407577514648e-01,6.543483138084411621e-01,6.595653295516967773e-01,6.579530835151672363e-01,6.610375046730041504e-01,6.922492384910583496e-01,7.609131336212158203e-01,8.138861656188964844e-01,8.451188802719116211e-01,8.648037910461425781e-01,8.827843666076660156e-01,8.891360163688659668e-01,8.934543132781982422e-01,8.937242627143859863e-01,8.886315226554870605e-01,8.805444240570068359e-01,8.711937069892883301e-01,8.583053350448608398e-01,8.297954797744750977e-01,8.088372945785522461e-01,8.012338876724243164e-01,7.752218246459960938e-01,7.224921584129333496e-01,6.163733005523681641e-01
5.884104967117309570e-01,6.137971878051757812e-01,6.563445329666137695e-01,6.570813655853271484e-01,6.805725097656250000e-01,7.047821879386901855e-01,7.411462068557739258e-01,7.625522017478942871e-01,7.833238840103149414e-01,8.019616603851318359e-01,8.197664022445678711e-01,8.362803459167480469e-01,8.512575030326843262e-01,8.646031618118286133e-01,8.762561082839965820e-01,8.858222961425781250e-01,8.928816318511962891e-01,8.976442813873291016e-01,9.009398221969604492e-01,9.030944705009460449e-01,9.043251276016235352e-01,9.049996137619018555e-01,9.052585363388061523e-01,9.053179025650024414e-01,9.053307175636291504e-01,9.053288698196411133e-01,9.053283333778381348e-01,9.053283333778381348e-01,9.053283333778381348e-01,9.053283333778381348e-01,9.053283333778381348e-01,9.053283333778381348e-01,9.053283333778381348e-01,9.053283333778381348e-01,9.053283333778381348e-01,9.053283333778381348e-01,9.053283333778381348e-01,9.053283333778381348e-01,9.053283333778381348e-01,9.053283333778381348e-01,9.053283333778381348e-01,9.053283333778381348e-01,9.053285717964172363e-01,9.053274393081665039e-01,9.053096771240234375e-01,9.056968092918395996e-01,9.057651758193969727e-01,9.043012857437133789e-01,9.013971090316772461e-01,8.952049016952514648e-01,8.844624757766723633e-01,8.743382692337036133e-01,8.564827442169189453e-01,8.187640309333801270e-01,7.535203695297241211e-01,7.067494988441467285e-01,6.839638352394104004e-01,6.902739405632019043e-01,6.936084628105163574e-01,6.681232452392578125e-01,6.796134710311889648e-01,7.099626660346984863e-01,7.734208106994628906e-01,8.210300207138061523e-01,8.480366468429565430e-01,8.649898171424865723e-01,8.808320760726928711e-01,8.889273405075073242e-01,8.949415683746337891e-01,8.938372731208801270e-01,8.888262510299682617e-01,8.805138468742370605e-01,8.711926341056823730e-01,8.583149909973144531e-01,8.298070430755615234e-01,8.088501691818237305e-01,8.012466430664062500e-01,7.752342224121093750e-01,7.225024700164794922e-01,6.163805723190307617e-01
5.884050726890563965e-01,6.137885451316833496e-01,6.563347578048706055e-01,6.570704579353332520e-01,6.805611252784729004e-01,7.047709226608276367e-01,7.411353588104248047e-01,7.625421285629272461e-01,7.833138704299926758e-01,8.019515275955200195e-01,8.197565078735351562e-01,8.362707495689392090e-01,8.512480258941650391e-01,8.645943403244018555e-01,8.762483000755310059e-01,8.858156800270080566e-01,8.928762674331665039e-01,8.976401090621948242e-01,9.009363651275634766e-01,9.030916094779968262e-01,9.043227434158325195e-01,9.049974679946899414e-01,9.052566289901733398e-01,9.053159952163696289e-01,9.053289294242858887e-01,9.053270220756530762e-01,9.053264856338500977e-01,9.053264856338500977e-01,9.053264856338500977e-01,9.053264856338500977e-01,9.053264856338500977e-01,9.053264856338500977e-01,9.053264856338500977e-01,9.053264260292053223e-01,9.053263664245605469e-01,9.053263664245605469e-01,9.053263664245605469e-01,9.053264260292053223e-01,9.053263664245605469e-01,9.053263664245605469e-01,9.053263664245605469e-01,9.053262472152709961e-01,9.053264856338500977e-01,9.053241014480590820e-01,9.053146839141845703e-01,9.056436419486999512e-01,9.056434631347656250e-01,9.052081108093261719e-01,9.021778106689453125e-01,8.968851566314697266e-01,8.860664367675781250e-01,8.767055869102478027e-01,8.625347614288330078e-01,8.351116180419921875e-01,7.698190212249755859e-01,7.321045994758605957e-01,7.167965769767761230e-01,7.133715152740478516e-01,7.104582786560058594e-01,6.897408366203308105e-01,6.967273354530334473e-01,7.406101822853088379e-01,7.761337757110595703e-01,8.274379968643188477e-01,8.517706394195556641e-01,8.694307804107666016e-01,8.830291032791137695e-01,8.919922113418579102e-01,8.966852426528930664e-01,8.940368890762329102e-01,8.887866735458374023e-01,8.804715871810913086e-01,8.712056279182434082e-01,8.583239316940307617e-01,8.298184275627136230e-01,8.088627457618713379e-01,8.012596368789672852e-01,7.752469182014465332e-01,7.225129604339599609e-01,6.163878440856933594e-01
5.883993506431579590e-01,6.137789487838745117e-01,6.563236713409423828e-01,6.570572853088378906e-01,6.805456876754760742e-01,7.047545313835144043e-01,7.411189079284667969e-01,7.625256776809692383e-01,7.832976579666137695e-01,8.019353151321411133e-01,8.197411298751831055e-01,8.362553119659423828e-01,8.512327671051025391e-01,8.645800352096557617e-01,8.762351274490356445e-01,8.858039975166320801e-01,8.928660154342651367e-01,8.976317644119262695e-01,9.009283781051635742e-01,9.030840396881103516e-01,9.043152332305908203e-01,9.049903154373168945e-01,9.052499532699584961e-01,9.053096771240234375e-01,9.053227305412292480e-01,9.053210020065307617e-01,9.053205251693725586e-01,9.053205251693725586e-01,9.053205847740173340e-01,9.053206443786621094e-01,9.053206443786621094e-01,9.053206443786621094e-01,9.053205847740173340e-01,9.053207635879516602e-01,9.053207635879516602e-01,9.053208827972412109e-01,9.053208827972412109e-01,9.053209424018859863e-01,9.053209424018859863e-01,9.053209424018859863e-01,9.053210616111755371e-01,9.053211212158203125e-01,9.053211212158203125e-01,9.053204059600830078e-01,9.053140878677368164e-01,9.053715467453002930e-01,9.055537581443786621e-01,9.047141075134277344e-01,9.013160467147827148e-01,8.962156772613525391e-01,8.869509696960449219e-01,8.805612325668334961e-01,8.682687282562255859e-01,8.410507440567016602e-01,7.883265018463134766e-01,7.343516349792480469e-01,7.341531515121459961e-01,7.393915653228759766e-01,7.363014221191406250e-01,6.933932304382324219e-01,7.115375399589538574e-01,7.410637140274047852e-01,7.905842065811157227e-01,8.341283798217773438e-01,8.578306436538696289e-01,8.713868856430053711e-01,8.869493007659912109e-01,8.929435014724731445e-01,8.966957926750183105e-01,8.948305845260620117e-01,8.886544704437255859e-01,8.805171251296997070e-01,8.712007403373718262e-01,8.583236932754516602e-01,8.298211097717285156e-01,8.088684082031250000e-01,8.012658357620239258e-01,7.752519845962524414e-01,7.225149869918823242e-01,6.163887381553649902e-01
5.883883833885192871e-01,6.137652993202209473e-01,6.563077569007873535e-01,6.570435762405395508e-01,6.805321574211120605e-01,7.047398090362548828e-01,7.411057353019714355e-01,7.625179886817932129e-01,7.832970023155212402e-01,8.019427061080932617e-01,8.197591304779052734e-01,8.362869024276733398e-01,8.512836098670959473e-01,8.646478652954101562e-01,8.763049840927124023e-01,8.858633637428283691e-01,8.929136395454406738e-01,8.976705074310302734e-01,9.009686708450317383e-01,9.031349420547485352e-01,9.043724536895751953e-01,9.050533771514892578e-01,9.053156375885009766e-01,9.053767919540405273e-01,9.053905010223388672e-01,9.053888320922851562e-01,9.053886532783508301e-01,9.053889513015747070e-01,9.053891897201538086e-01,9.053894281387329102e-01,9.053897857666015625e-01,9.053900241851806641e-01,9.053902029991149902e-01,9.053905010223388672e-01,9.053908586502075195e-01,9.053911566734313965e-01,9.053912758827209473e-01,9.053916335105895996e-01,9.053918123245239258e-01,9.053922295570373535e-01,9.053924083709716797e-01,9.053926467895507812e-01,9.053930044174194336e-01,9.053992033004760742e-01,9.053852558135986328e-01,9.053819179534912109e-01,9.056348204612731934e-01,9.046339988708496094e-01,9.021624922752380371e-01,8.941937088966369629e-01,8.885363936424255371e-01,8.831096887588500977e-01,8.738335371017456055e-01,8.463147878646850586e-01,7.995610237121582031e-01,7.580317258834838867e-01,7.489302158355712891e-01,7.576235532760620117e-01,7.541801333427429199e-01,7.159242033958435059e-01,7.194855213165283203e-01,7.480552196502685547e-01,8.047028779983520508e-01,8.395657539367675781e-01,8.586177825927734375e-01,8.734890222549438477e-01,8.868156671524047852e-01,8.944728374481201172e-01,8.967305421829223633e-01,8.948137760162353516e-01,8.887908458709716797e-01,8.806163072586059570e-01,8.712902069091796875e-01,8.583954572677612305e-01,8.298872709274291992e-01,8.089149594306945801e-01,8.012961149215698242e-01,7.752710580825805664e-01,7.225134372711181641e-01,6.163883805274963379e-01
5.883952379226684570e-01,6.137739419937133789e-01,6.563143730163574219e-01,6.570612192153930664e-01,6.805608272552490234e-01,7.048014402389526367e-01,7.412186264991760254e-01,7.626790404319763184e-01,7.834843397140502930e-01,8.021426200866699219e-01,8.199609518051147461e-01,8.364863395690917969e-01,8.514603376388549805e-01,8.647930622100830078e-01,8.764218091964721680e-01,8.859449625015258789e-01,8.929834365844726562e-01,8.977726697921752930e-01,9.010931253433227539e-01,9.032580852508544922e-01,9.044925570487976074e-01,9.051682949066162109e-01,9.054245948791503906e-01,9.054826498031616211e-01,9.054936170578002930e-01,9.054908752441406250e-01,9.054896831512451172e-01,9.054887890815734863e-01,9.054878950119018555e-01,9.054869413375854492e-01,9.054862260818481445e-01,9.054852128028869629e-01,9.054843187332153320e-01,9.054834842681884766e-01,9.054825305938720703e-01,9.054816961288452148e-01,9.054809808731079102e-01,9.054800271987915039e-01,9.054791927337646484e-01,9.054784178733825684e-01,9.054774045944213867e-01,9.054764509201049805e-01,9.054757356643676758e-01,9.054800868034362793e-01,9.054690599441528320e-01,9.053825736045837402e-01,9.051121473312377930e-01,9.045312404632568359e-01,9.008646011352539062e-01,8.946951627731323242e-01,8.896446228027343750e-01,8.858211636543273926e-01,8.722670078277587891e-01,8.433371186256408691e-01,8.003190159797668457e-01,7.713670730590820312e-01,7.702028155326843262e-01,7.812563180923461914e-01,7.727692127227783203e-01,7.357745170593261719e-01,7.270854115486145020e-01,7.653613090515136719e-01,8.081552386283874512e-01,8.466500043869018555e-01,8.619344234466552734e-01,8.764432668685913086e-01,8.867281079292297363e-01,8.947803378105163574e-01,8.975450396537780762e-01,8.947214484214782715e-01,8.890400528907775879e-01,8.807386159896850586e-01,8.714121580123901367e-01,8.585561513900756836e-01,8.301150798797607422e-01,8.091610670089721680e-01,8.015515208244323730e-01,7.755187749862670898e-01,7.227982878684997559e-01,6.167845726013183594e-01
5.885777473449707031e-01,6.139511466026306152e-01,6.565676927566528320e-01,6.573175787925720215e-01,6.808097362518310547e-01,7.049663066864013672e-01,7.413067221641540527e-01,7.626913785934448242e-01,7.833573818206787109e-01,8.018847703933715820e-01,8.195861577987670898e-01,8.359765410423278809e-01,8.508598804473876953e-01,8.641108274459838867e-01,8.756405115127563477e-01,8.851380944252014160e-01,8.922110795974731445e-01,8.969807624816894531e-01,9.002736210823059082e-01,9.024294018745422363e-01,9.036748409271240234e-01,9.043312072753906250e-01,9.045726060867309570e-01,9.046292304992675781e-01,9.046413898468017578e-01,9.046391248703002930e-01,9.046375751495361328e-01,9.046368002891540527e-01,9.046357870101928711e-01,9.046348333358764648e-01,9.046338796615600586e-01,9.046330451965332031e-01,9.046320915222167969e-01,9.046312570571899414e-01,9.046303033828735352e-01,9.046293497085571289e-01,9.046285152435302734e-01,9.046276211738586426e-01,9.046266078948974609e-01,9.046256542205810547e-01,9.046248197555541992e-01,9.046239852905273438e-01,9.046229124069213867e-01,9.046283960342407227e-01,9.046365618705749512e-01,9.046014547348022461e-01,9.043122529983520508e-01,9.042589664459228516e-01,8.991311788558959961e-01,8.924571275711059570e-01,8.894720077514648438e-01,8.839869499206542969e-01,8.719995021820068359e-01,8.392766714096069336e-01,8.149685859680175781e-01,7.888633012771606445e-01,7.859886288642883301e-01,7.965310811996459961e-01,7.833424806594848633e-01,7.446811795234680176e-01,7.441000342369079590e-01,7.829504013061523438e-01,8.259944915771484375e-01,8.450348973274230957e-01,8.602936863899230957e-01,8.789578080177307129e-01,8.859739303588867188e-01,8.937944769859313965e-01,8.970036506652832031e-01,8.941666483879089355e-01,8.883382081985473633e-01,8.799222707748413086e-01,8.706161379814147949e-01,8.577911853790283203e-01,8.292586803436279297e-01,8.083069324493408203e-01,8.009098172187805176e-01,7.746564149856567383e-01,7.219780087471008301e-01,6.162471771240234375e-01
5.889351367950439453e-01,6.138238906860351562e-01,6.562413573265075684e-01,6.566767096519470215e-01,6.799240112304687500e-01,7.037630677223205566e-01,7.398909330368041992e-01,7.610046863555908203e-01,7.815121412277221680e-01,7.999094128608703613e-01,8.175224065780639648e-01,8.339123725891113281e-01,8.489225506782531738e-01,8.623846173286437988e-01,8.741685152053833008e-01,8.838951587677001953e-01,8.910555839538574219e-01,8.958866596221923828e-01,8.992755413055419922e-01,9.014956951141357422e-01,9.027295708656311035e-01,9.033834934234619141e-01,9.036413431167602539e-01,9.037142992019653320e-01,9.037271738052368164e-01,9.037249684333801270e-01,9.037236571311950684e-01,9.037225246429443359e-01,9.037213325500488281e-01,9.037203192710876465e-01,9.037193655967712402e-01,9.037183523178100586e-01,9.037171602249145508e-01,9.037160873413085938e-01,9.037150144577026367e-01,9.037140607833862305e-01,9.037128686904907227e-01,9.037117958068847656e-01,9.037107229232788086e-01,9.037095904350280762e-01,9.037085771560668945e-01,9.037075638771057129e-01,9.037065505981445312e-01,9.037091732025146484e-01,9.037317037582397461e-01,9.036496877670288086e-01,9.037801027297973633e-01,9.025386571884155273e-01,8.985295295715332031e-01,8.902118206024169922e-01,8.904221057891845703e-01,8.877012133598327637e-01,8.713298439979553223e-01,8.436942100524902344e-01,8.076189756393432617e-01,8.059401512145996094e-01,8.013274669647216797e-01,8.088819980621337891e-01,7.911952137947082520e-01,7.576191425323486328e-01,7.591519951820373535e-01,7.941737174987792969e-01,8.329224586486816406e-01,8.495672941207885742e-01,8.627269268035888672e-01,8.798846006393432617e-01,8.888124227523803711e-01,8.948460221290588379e-01,8.968678712844848633e-01,8.932387828826904297e-01,8.877204656600952148e-01,8.793318271636962891e-01,8.701019287109375000e-01,8.571822047233581543e-01,8.286660909652709961e-01,8.075644969940185547e-01,8.000962734222412109e-01,7.738288044929504395e-01,7.208209037780761719e-01,6.147248148918151855e-01
5.881910324096679688e-01,6.121509671211242676e-01,6.544499993324279785e-01,6.547902822494506836e-01,6.775814890861511230e-01,7.009665369987487793e-01,7.370859980583190918e-01,7.582453489303588867e-01,7.788017988204956055e-01,7.971982359886169434e-01,8.147943615913391113e-01,8.312966227531433105e-01,8.464369773864746094e-01,8.599828481674194336e-01,8.718584775924682617e-01,8.816267251968383789e-01,8.889303207397460938e-01,8.940079212188720703e-01,8.974858522415161133e-01,8.997203111648559570e-01,9.009747505187988281e-01,9.016534090042114258e-01,9.019166231155395508e-01,9.019788503646850586e-01,9.019857645034790039e-01,9.019785523414611816e-01,9.019720554351806641e-01,9.019659757614135742e-01,9.019598364830017090e-01,9.019536375999450684e-01,9.019476771354675293e-01,9.019414186477661133e-01,9.019353389739990234e-01,9.019291400909423828e-01,9.019230604171752930e-01,9.019169807434082031e-01,9.019109010696411133e-01,9.019048213958740234e-01,9.018988609313964844e-01,9.018925428390502930e-01,9.018864631652832031e-01,9.018803834915161133e-01,9.018741846084594727e-01,9.018748998641967773e-01,9.018887281417846680e-01,9.018738269805908203e-01,9.022413492202758789e-01,9.003540277481079102e-01,8.949132561683654785e-01,8.895317912101745605e-01,8.879227042198181152e-01,8.833404779434204102e-01,8.692733049392700195e-01,8.417313694953918457e-01,8.214836716651916504e-01,8.114016056060791016e-01,8.199468851089477539e-01,8.162161111831665039e-01,7.991443872451782227e-01,7.720028162002563477e-01,7.712199687957763672e-01,8.122570514678955078e-01,8.386899232864379883e-01,8.519670367240905762e-01,8.644087314605712891e-01,8.783758282661437988e-01,8.873069286346435547e-01,8.943910598754882812e-01,8.955968022346496582e-01,8.920807242393493652e-01,8.863022327423095703e-01,8.778401613235473633e-01,8.685765266418457031e-01,8.557798862457275391e-01,8.273813128471374512e-01,8.065258264541625977e-01,7.989580631256103516e-01,7.723727226257324219e-01,7.195330858230590820e-01,6.129409074783325195e-01
5.862548351287841797e-01,6.094360351562500000e-01,6.514793038368225098e-01,6.515436172485351562e-01,6.740750670433044434e-01,6.969107389450073242e-01,7.324766516685485840e-01,7.531196475028991699e-01,7.730036377906799316e-01,7.909469604492187500e-01,8.082770109176635742e-01,8.245574235916137695e-01,8.395518064498901367e-01,8.531504273414611816e-01,8.651030063629150391e-01,8.749596476554870605e-01,8.823354244232177734e-01,8.874356746673583984e-01,8.910156488418579102e-01,8.932548165321350098e-01,8.945015668869018555e-01,8.952039480209350586e-01,8.954682350158691406e-01,8.955229520797729492e-01,8.955216407775878906e-01,8.955104947090148926e-01,8.955006599426269531e-01,8.954914212226867676e-01,8.954823017120361328e-01,8.954731822013854980e-01,8.954639434814453125e-01,8.954548835754394531e-01,8.954457044601440430e-01,8.954364061355590820e-01,8.954274654388427734e-01,8.954181075096130371e-01,8.954091072082519531e-01,8.953999280929565430e-01,8.953907489776611328e-01,8.953816890716552734e-01,8.953724503517150879e-01,8.953634500503540039e-01,8.953541517257690430e-01,8.953508734703063965e-01,8.953633308410644531e-01,8.955088853836059570e-01,8.956000804901123047e-01,8.933796882629394531e-01,8.876076340675354004e-01,8.848760724067687988e-01,8.868384361267089844e-01,8.796200752258300781e-01,8.679106235504150391e-01,8.345253467559814453e-01,8.167179822921752930e-01,8.140313625335693359e-01,8.210512399673461914e-01,8.209668993949890137e-01,7.991899251937866211e-01,7.773293256759643555e-01,7.813524007797241211e-01,8.074670433998107910e-01,8.348672389984130859e-01,8.486136198043823242e-01,8.624582886695861816e-01,8.732870817184448242e-01,8.849709033966064453e-01,8.901940584182739258e-01,8.895583152770996094e-01,8.860471844673156738e-01,8.805073499679565430e-01,8.723189830780029297e-01,8.629306554794311523e-01,8.499853610992431641e-01,8.217610716819763184e-01,8.014931678771972656e-01,7.943619489669799805e-01,7.679678797721862793e-01,7.155184745788574219e-01,6.079410314559936523e-01
5.823466777801513672e-01,6.035611033439636230e-01,6.450679302215576172e-01,6.443600058555603027e-01,6.657183170318603516e-01,6.876913309097290039e-01,7.224043607711791992e-01,7.425873279571533203e-01,7.617982029914855957e-01,7.788714170455932617e-01,7.956054210662841797e-01,8.115652203559875488e-01,8.266240954399108887e-01,8.405190706253051758e-01,8.527897596359252930e-01,8.630722761154174805e-01,8.709425926208496094e-01,8.763731718063354492e-01,8.801422119140625000e-01,8.825205564498901367e-01,8.838583230972290039e-01,8.845137357711791992e-01,8.847157955169677734e-01,8.847334384918212891e-01,8.847228288650512695e-01,8.846999406814575195e-01,8.846789598464965820e-01,8.846586346626281738e-01,8.846382498741149902e-01,8.846179246902465820e-01,8.845976591110229492e-01,8.845772147178649902e-01,8.845570087432861328e-01,8.845366835594177246e-01,8.845164179801940918e-01,8.844960331916809082e-01,8.844757080078125000e-01,8.844554424285888672e-01,8.844351172447204590e-01,8.844147920608520508e-01,8.843946456909179688e-01,8.843742609024047852e-01,8.843539953231811523e-01,8.843334913253784180e-01,8.843421339988708496e-01,8.845893144607543945e-01,8.843336105346679688e-01,8.815224170684814453e-01,8.774526119232177734e-01,8.740068674087524414e-01,8.717517256736755371e-01,8.644150495529174805e-01,8.527011275291442871e-01,8.334273099899291992e-01,8.030624985694885254e-01,8.135212063789367676e-01,8.197013139724731445e-01,8.137652873992919922e-01,7.920676469802856445e-01,7.713817358016967773e-01,7.765518426895141602e-01,8.014180064201354980e-01,8.221820592880249023e-01,8.405859470367431641e-01,8.542257547378540039e-01,8.639779090881347656e-01,8.744575977325439453e-01,8.789407014846801758e-01,8.790313005447387695e-01,8.752069473266601562e-01,8.697317838668823242e-01,8.618751764297485352e-01,8.528696298599243164e-01,8.399071693420410156e-01,8.111925125122070312e-01,7.921215295791625977e-01,7.858250141143798828e-01,7.610042095184326172e-01,7.075241804122924805e-01,6.019612550735473633e-01
5.752015709877014160e-01,5.937495827674865723e-01,6.341852545738220215e-01,6.314048767089843750e-01,6.507610678672790527e-01,6.714946031570434570e-01,7.052934765815734863e-01,7.246488332748413086e-01,7.430979013442993164e-01,7.594706416130065918e-01,7.752989530563354492e-01,7.904846668243408203e-01,8.051427602767944336e-01,8.185864686965942383e-01,8.304697275161743164e-01,8.404240012168884277e-01,8.479027748107910156e-01,8.532778024673461914e-01,8.570382595062255859e-01,8.593882322311401367e-01,8.606282472610473633e-01,8.611776828765869141e-01,8.613112568855285645e-01,8.613152503967285156e-01,8.612831830978393555e-01,8.612438440322875977e-01,8.612061142921447754e-01,8.611689209938049316e-01,8.611317276954650879e-01,8.610945940017700195e-01,8.610573410987854004e-01,8.610202074050903320e-01,8.609830141067504883e-01,8.609458208084106445e-01,8.609086275100708008e-01,8.608714342117309570e-01,8.608343005180358887e-01,8.607972264289855957e-01,8.607600927352905273e-01,8.607230186462402344e-01,8.606857061386108398e-01,8.606485128402709961e-01,8.606114387512207031e-01,8.605738878250122070e-01,8.605538606643676758e-01,8.609359264373779297e-01,8.610936403274536133e-01,8.579114079475402832e-01,8.557928800582885742e-01,8.550977706909179688e-01,8.482308387756347656e-01,8.408915400505065918e-01,8.286719322204589844e-01,7.979192137718200684e-01,7.872687578201293945e-01,7.964851856231689453e-01,7.955651283264160156e-01,7.823874354362487793e-01,7.684998512268066406e-01,7.443641424179077148e-01,7.460637092590332031e-01,7.882628440856933594e-01,7.980605363845825195e-01,8.126893043518066406e-01,8.297080993652343750e-01,8.396481275558471680e-01,8.517455458641052246e-01,8.560173511505126953e-01,8.557505011558532715e-01,8.521277904510498047e-01,8.467029333114624023e-01,8.389465212821960449e-01,8.302673101425170898e-01,8.173100948333740234e-01,7.881169319152832031e-01,7.704188823699951172e-01,7.674558162689208984e-01,7.442811727523803711e-01,6.928538680076599121e-01,5.924691557884216309e-01
5.642378330230712891e-01,5.783751606941223145e-01,6.170462965965270996e-01,6.110057830810546875e-01,6.274121403694152832e-01,6.464079618453979492e-01,6.783291101455688477e-01,6.956790685653686523e-01,7.117252349853515625e-01,7.257359027862548828e-01,7.393959164619445801e-01,7.528162598609924316e-01,7.661332488059997559e-01,7.785993218421936035e-01,7.895283699035644531e-01,7.988172769546508789e-01,8.062181472778320312e-01,8.115537166595458984e-01,8.152847886085510254e-01,8.175876140594482422e-01,8.186690807342529297e-01,8.189433217048645020e-01,8.189656734466552734e-01,8.189404606819152832e-01,8.188914656639099121e-01,8.188304901123046875e-01,8.187707662582397461e-01,8.187116980552673340e-01,8.186523914337158203e-01,8.185933232307434082e-01,8.185342550277709961e-01,8.184751272201538086e-01,8.184158205986022949e-01,8.183566331863403320e-01,8.182976245880126953e-01,8.182383179664611816e-01,8.181793093681335449e-01,8.181202411651611328e-01,8.180609941482543945e-01,8.180021643638610840e-01,8.179429769515991211e-01,8.178838491439819336e-01,8.178248405456542969e-01,8.177601695060729980e-01,8.176992535591125488e-01,8.182073831558227539e-01,8.181480169296264648e-01,8.151333928108215332e-01,8.116073608398437500e-01,8.123521804809570312e-01,8.043799400329589844e-01,7.925691604614257812e-01,7.821246981620788574e-01,7.533972263336181641e-01,7.557559013366699219e-01,7.647010087966918945e-01,7.545772194862365723e-01,7.350914478302001953e-01,7.298313379287719727e-01,7.063503265380859375e-01,7.135549783706665039e-01,7.429032921791076660e-01,7.574743032455444336e-01,7.682554721832275391e-01,7.844289541244506836e-01,7.954710125923156738e-01,8.084489703178405762e-01,8.132185935974121094e-01,8.116566538810729980e-01,8.096960783004760742e-01,8.044499158859252930e-01,7.972186803817749023e-01,7.896506786346435547e-01,7.776547670364379883e-01,7.482416629791259766e-01,7.333444356918334961e-01,7.347570657730102539e-01,7.137442231178283691e-01,6.687830686569213867e-01,5.797277688980102539e-01
5.497229695320129395e-01,5.539345145225524902e-01,5.888094902038574219e-01,5.787565708160400391e-01,5.919180512428283691e-01,6.082087159156799316e-01,6.378197669982910156e-01,6.524276137351989746e-01,6.663172841072082520e-01,6.780631542205810547e-01,6.894835233688354492e-01,7.006189823150634766e-01,7.116160392761230469e-01,7.214918136596679688e-01,7.303487658500671387e-01,7.380110025405883789e-01,7.437604069709777832e-01,7.477613687515258789e-01,7.504700422286987305e-01,7.519655227661132812e-01,7.523943185806274414e-01,7.524603009223937988e-01,7.524349689483642578e-01,7.523715496063232422e-01,7.523034214973449707e-01,7.522181272506713867e-01,7.521350383758544922e-01,7.520521879196166992e-01,7.519693374633789062e-01,7.518865466117858887e-01,7.518039941787719727e-01,7.517212629318237305e-01,7.516384720802307129e-01,7.515558004379272461e-01,7.514730691909790039e-01,7.513903379440307617e-01,7.513076066970825195e-01,7.512249946594238281e-01,7.511423826217651367e-01,7.510596513748168945e-01,7.509770393371582031e-01,7.508944272994995117e-01,7.508118152618408203e-01,7.507237195968627930e-01,7.506346702575683594e-01,7.512792348861694336e-01,7.508740425109863281e-01,7.477447986602783203e-01,7.461795210838317871e-01,7.462876439094543457e-01,7.367993593215942383e-01,7.300022840499877930e-01,7.221957445144653320e-01,7.008515596389770508e-01,6.831915378570556641e-01,7.020884752273559570e-01,6.893326044082641602e-01,6.715016961097717285e-01,6.750142574310302734e-01,6.564799547195434570e-01,6.581633090972900391e-01,6.865438222885131836e-01,6.964008808135986328e-01,7.034785151481628418e-01,7.191846370697021484e-01,7.342898845672607422e-01,7.414246797561645508e-01,7.454852461814880371e-01,7.440716624259948730e-01,7.415215969085693359e-01,7.366331219673156738e-01,7.303105592727661133e-01,7.243466377258300781e-01,7.131128311157226562e-01,6.837034821510314941e-01,6.729823946952819824e-01,6.818746328353881836e-01,6.630764007568359375e-01,6.337813138961791992e-01,5.564825534820556641e-01
5.325021147727966309e-01,5.236839652061462402e-01,5.544919967651367188e-01,5.385780930519104004e-01,5.464395284652709961e-01,5.592930316925048828e-01,5.835118889808654785e-01,5.946835279464721680e-01,6.051574349403381348e-01,6.132871508598327637e-01,6.213067770004272461e-01,6.292323470115661621e-01,6.368966102600097656e-01,6.437459588050842285e-01,6.499193906784057617e-01,6.547264456748962402e-01,6.579581499099731445e-01,6.603887677192687988e-01,6.619576811790466309e-01,6.627979278564453125e-01,6.630158424377441406e-01,6.629776954650878906e-01,6.628751158714294434e-01,6.627911925315856934e-01,6.627087593078613281e-01,6.626182794570922852e-01,6.625297069549560547e-01,6.624417901039123535e-01,6.623537540435791016e-01,6.622658371925354004e-01,6.621776819229125977e-01,6.620897054672241211e-01,6.620017886161804199e-01,6.619139313697814941e-01,6.618260741233825684e-01,6.617381572723388672e-01,6.616504192352294922e-01,6.615625619888305664e-01,6.614747047424316406e-01,6.613868474960327148e-01,6.612991094589233398e-01,6.612113714218139648e-01,6.611235141754150391e-01,6.610249876976013184e-01,6.608916521072387695e-01,6.615455150604248047e-01,6.609324216842651367e-01,6.572840809822082520e-01,6.565885543823242188e-01,6.553875207901000977e-01,6.445521116256713867e-01,6.362019777297973633e-01,6.361991167068481445e-01,6.209968924522399902e-01,6.169738769531250000e-01,6.280286908149719238e-01,6.129890680313110352e-01,5.977544784545898438e-01,6.034396290779113770e-01,5.889843702316284180e-01,5.876797437667846680e-01,6.100801229476928711e-01,6.177257299423217773e-01,6.246527433395385742e-01,6.387642025947570801e-01,6.503139734268188477e-01,6.558140516281127930e-01,6.561442613601684570e-01,6.545540690422058105e-01,6.525121331214904785e-01,6.491539478302001953e-01,6.443569660186767578e-01,6.404975652694702148e-01,6.308284997940063477e-01,6.033730506896972656e-01,5.959959626197814941e-01,6.116012334823608398e-01,5.968124270439147949e-01,5.879837274551391602e-01,5.268613696098327637e-01
5.115448236465454102e-01,4.893277883529663086e-01,5.141177177429199219e-01,4.908580183982849121e-01,4.924179613590240479e-01,5.009987950325012207e-01,5.195953845977783203e-01,5.275380611419677734e-01,5.346981883049011230e-01,5.395387411117553711e-01,5.444075465202331543e-01,5.495075583457946777e-01,5.544804334640502930e-01,5.588194727897644043e-01,5.624698996543884277e-01,5.651782155036926270e-01,5.674790740013122559e-01,5.690929889678955078e-01,5.701848864555358887e-01,5.706838965415954590e-01,5.707863569259643555e-01,5.707073211669921875e-01,5.705645680427551270e-01,5.704951882362365723e-01,5.703979730606079102e-01,5.703090429306030273e-01,5.702213644981384277e-01,5.701338648796081543e-01,5.700464248657226562e-01,5.699591636657714844e-01,5.698718428611755371e-01,5.697845220565795898e-01,5.696972012519836426e-01,5.696101784706115723e-01,5.695229172706604004e-01,5.694354772567749023e-01,5.693483352661132812e-01,5.692611336708068848e-01,5.691739916801452637e-01,5.690868496894836426e-01,5.689998269081115723e-01,5.689127445220947266e-01,5.688258409500122070e-01,5.687258839607238770e-01,5.685791373252868652e-01,5.689455866813659668e-01,5.685677528381347656e-01,5.664519071578979492e-01,5.663537979125976562e-01,5.669419765472412109e-01,5.579088926315307617e-01,5.488272905349731445e-01,5.485107898712158203e-01,5.414262413978576660e-01,5.409477949142456055e-01,5.436364412307739258e-01,5.309125185012817383e-01,5.226793289184570312e-01,5.254813432693481445e-01,5.224967598915100098e-01,5.228568315505981445e-01,5.316215157508850098e-01,5.395625829696655273e-01,5.435212254524230957e-01,5.526352524757385254e-01,5.611857175827026367e-01,5.649138092994689941e-01,5.657576322555541992e-01,5.643426775932312012e-01,5.622996687889099121e-01,5.592539906501770020e-01,5.556352138519287109e-01,5.537121295928955078e-01,5.455372929573059082e-01,5.214868187904357910e-01,5.173758268356323242e-01,5.384014844894409180e-01,5.280537009239196777e-01,5.396640300750732422e-01,4.965052008628845215e-01
4.905578494071960449e-01,4.556668400764465332e-01,4.712898433208465576e-01,4.408599436283111572e-01,4.361862838268280029e-01,4.405548870563507080e-01,4.539757668972015381e-01,4.580654501914978027e-01,4.623868167400360107e-01,4.647152125835418701e-01,4.672640264034271240e-01,4.700742959976196289e-01,4.728453159332275391e-01,4.754741489887237549e-01,4.777819812297821045e-01,4.795064032077789307e-01,4.807842969894409180e-01,4.817521870136260986e-01,4.823568463325500488e-01,4.826207756996154785e-01,4.826718568801879883e-01,4.826642870903015137e-01,4.825853705406188965e-01,4.824846982955932617e-01,4.824011921882629395e-01,4.823270142078399658e-01,4.822537600994110107e-01,4.821802675724029541e-01,4.821070432662963867e-01,4.820335805416107178e-01,4.819603562355041504e-01,4.818868935108184814e-01,4.818140566349029541e-01,4.817406833171844482e-01,4.816676676273345947e-01,4.815942943096160889e-01,4.815212190151214600e-01,4.814479351043701172e-01,4.813748002052307129e-01,4.813018441200256348e-01,4.812288582324981689e-01,4.811558127403259277e-01,4.810828268527984619e-01,4.810019135475158691e-01,4.808431863784790039e-01,4.808856546878814697e-01,4.807764291763305664e-01,4.804072380065917969e-01,4.810134768486022949e-01,4.803478419780731201e-01,4.730299711227416992e-01,4.686551690101623535e-01,4.663589298725128174e-01,4.695933759212493896e-01,4.674689173698425293e-01,4.667212367057800293e-01,4.562323987483978271e-01,4.501860439777374268e-01,4.513878226280212402e-01,4.538051486015319824e-01,4.516988992691040039e-01,4.562098383903503418e-01,4.627165496349334717e-01,4.653627276420593262e-01,4.710656702518463135e-01,4.766854941844940186e-01,4.796240925788879395e-01,4.791019558906555176e-01,4.785533249378204346e-01,4.778468906879425049e-01,4.768802821636199951e-01,4.753327369689941406e-01,4.753194153308868408e-01,4.694819450378417969e-01,4.494846761226654053e-01,4.482562839984893799e-01,4.718114435672760010e-01,4.687846601009368896e-01,4.949887394905090332e-01,4.690864980220794678e-01
4.694001078605651855e-01,4.223995208740234375e-01,4.285199344158172607e-01,3.950352668762207031e-01,3.840668797492980957e-01,3.856337964534759521e-01,3.960463702678680420e-01,3.989840745925903320e-01,4.020134806632995605e-01,4.032076597213745117e-01,4.044195413589477539e-01,4.056330919265747070e-01,4.066547453403472900e-01,4.076009690761566162e-01,4.083986580371856689e-01,4.089870452880859375e-01,4.095927178859710693e-01,4.100861251354217529e-01,4.102980494499206543e-01,4.103420674800872803e-01,4.103508591651916504e-01,4.102534353733062744e-01,4.101819396018981934e-01,4.101091027259826660e-01,4.100459218025207520e-01,4.099870324134826660e-01,4.099285602569580078e-01,4.098704755306243896e-01,4.098123311996459961e-01,4.097542166709899902e-01,4.096963405609130859e-01,4.096384048461914062e-01,4.095803201198577881e-01,4.095221757888793945e-01,4.094643294811248779e-01,4.094065427780151367e-01,4.093485474586486816e-01,4.092905223369598389e-01,4.092327952384948730e-01,4.091749191284179688e-01,4.091169834136962891e-01,4.090592265129089355e-01,4.090013206005096436e-01,4.089408516883850098e-01,4.088265001773834229e-01,4.087325334548950195e-01,4.088818430900573730e-01,4.091688990592956543e-01,4.098042845726013184e-01,4.088498651981353760e-01,4.052877426147460938e-01,4.026374816894531250e-01,4.017206132411956787e-01,4.027413129806518555e-01,4.044545888900756836e-01,4.009399712085723877e-01,3.936875462532043457e-01,3.915686607360839844e-01,3.916130661964416504e-01,3.940815031528472900e-01,3.956482112407684326e-01,3.934462964534759521e-01,3.990980982780456543e-01,4.008890390396118164e-01,4.044781029224395752e-01,4.058296680450439453e-01,4.080209136009216309e-01,4.080262482166290283e-01,4.073599874973297119e-01,4.064727425575256348e-01,4.056452214717864990e-01,4.045594632625579834e-01,4.052105545997619629e-01,4.015153646469116211e-01,3.856523036956787109e-01,3.876611590385437012e-01,4.134924411773681641e-01,4.177010059356689453e-01,4.560090303421020508e-01,4.460540711879730225e-01
4.513842463493347168e-01,3.938107490539550781e-01,3.929734230041503906e-01,3.572809100151062012e-01,3.413513302803039551e-01,3.406437039375305176e-01,3.480914831161499023e-01,3.498109579086303711e-01,3.515038490295410156e-01,3.519220054149627686e-01,3.524383902549743652e-01,3.529049754142761230e-01,3.533867597579956055e-01,3.538241088390350342e-01,3.541192412376403809e-01,3.542149066925048828e-01,3.542897701263427734e-01,3.541649878025054932e-01,3.540109097957611084e-01,3.539513945579528809e-01,3.539301455020904541e-01,3.538955450057983398e-01,3.538406491279602051e-01,3.537871539592742920e-01,3.537456989288330078e-01,3.537038266658782959e-01,3.536623716354370117e-01,3.536207377910614014e-01,3.535793423652648926e-01,3.535380363464355469e-01,3.534967303276062012e-01,3.534552752971649170e-01,3.534139990806579590e-01,3.533726930618286133e-01,3.533312678337097168e-01,3.532901108264923096e-01,3.532487154006958008e-01,3.532073497772216797e-01,3.531658053398132324e-01,3.531247973442077637e-01,3.530835509300231934e-01,3.530423045158386230e-01,3.530010282993316650e-01,3.529654145240783691e-01,3.529010713100433350e-01,3.528285622596740723e-01,3.528808951377868652e-01,3.531485199928283691e-01,3.531146049499511719e-01,3.524011373519897461e-01,3.518983125686645508e-01,3.504918217658996582e-01,3.480835556983947754e-01,3.504625856876373291e-01,3.516883850097656250e-01,3.489849567413330078e-01,3.481904268264770508e-01,3.460394442081451416e-01,3.432274460792541504e-01,3.450046777725219727e-01,3.453975915908813477e-01,3.457639217376708984e-01,3.482571244239807129e-01,3.503097295761108398e-01,3.507468402385711670e-01,3.514635562896728516e-01,3.521796464920043945e-01,3.521093130111694336e-01,3.522714972496032715e-01,3.519490063190460205e-01,3.517343997955322266e-01,3.512669801712036133e-01,3.521043062210083008e-01,3.494777977466583252e-01,3.362909555435180664e-01,3.391599357128143311e-01,3.653149306774139404e-01,3.756771087646484375e-01,4.224377274513244629e-01,4.258134067058563232e-01
4.349628090858459473e-01,3.689377903938293457e-01,3.612681627273559570e-01,3.251572847366333008e-01,3.061220347881317139e-01,3.047491908073425293e-01,3.108533620834350586e-01,3.122427165508270264e-01,3.133999407291412354e-01,3.134144246578216553e-01,3.133997619152069092e-01,3.133898675441741943e-01,3.134646713733673096e-01,3.135553002357482910e-01,3.135858178138732910e-01,3.136010468006134033e-01,3.135612905025482178e-01,3.135094642639160156e-01,3.135257959365844727e-01,3.135113716125488281e-01,3.134533762931823730e-01,3.134081363677978516e-01,3.133738636970520020e-01,3.133451342582702637e-01,3.133141398429870605e-01,3.132841885089874268e-01,3.132539987564086914e-01,3.132240772247314453e-01,3.131938576698303223e-01,3.131639957427978516e-01,3.131338357925415039e-01,3.131038546562194824e-01,3.130738139152526855e-01,3.130438029766082764e-01,3.130138516426086426e-01,3.129837512969970703e-01,3.129538297653198242e-01,3.129237890243530273e-01,3.128938078880310059e-01,3.128638863563537598e-01,3.128339350223541260e-01,3.128038942813873291e-01,3.127742409706115723e-01,3.127498030662536621e-01,3.127120733261108398e-01,3.126682639122009277e-01,3.127289116382598877e-01,3.127469420433044434e-01,3.123660981655120850e-01,3.125316500663757324e-01,3.130551874637603760e-01,3.118995428085327148e-01,3.106911778450012207e-01,3.117157518863677979e-01,3.112839460372924805e-01,3.116718530654907227e-01,3.125726580619812012e-01,3.097343444824218750e-01,3.080622553825378418e-01,3.102346062660217285e-01,3.093352913856506348e-01,3.096024394035339355e-01,3.108998537063598633e-01,3.109113276004791260e-01,3.115106821060180664e-01,3.115916252136230469e-01,3.123371005058288574e-01,3.121637105941772461e-01,3.119703531265258789e-01,3.118572235107421875e-01,3.117241859436035156e-01,3.115004897117614746e-01,3.122438192367553711e-01,3.104138970375061035e-01,2.992224097251892090e-01,3.025818765163421631e-01,3.288146853446960449e-01,3.441823124885559082e-01,3.968232870101928711e-01,4.100990891456604004e-01
4.212098121643066406e-01,3.491252064704895020e-01,3.364047408103942871e-01,2.999913394451141357e-01,2.791673243045806885e-01,2.769907116889953613e-01,2.819448709487915039e-01,2.831099927425384521e-01,2.839935421943664551e-01,2.838844060897827148e-01,2.838443815708160400e-01,2.838419675827026367e-01,2.838250100612640381e-01,2.838076353073120117e-01,2.837931513786315918e-01,2.837551832199096680e-01,2.837156057357788086e-01,2.836861014366149902e-01,2.836610972881317139e-01,2.836262583732604980e-01,2.835994958877563477e-01,2.835775613784790039e-01,2.835550308227539062e-01,2.835325598716735840e-01,2.835111021995544434e-01,2.834892570972442627e-01,2.834675312042236328e-01,2.834457457065582275e-01,2.834239304065704346e-01,2.834022045135498047e-01,2.833804488182067871e-01,2.833588123321533203e-01,2.833368182182312012e-01,2.833150923252105713e-01,2.832933366298675537e-01,2.832714319229125977e-01,2.832498550415039062e-01,2.832280993461608887e-01,2.832064628601074219e-01,2.831847667694091797e-01,2.831629514694213867e-01,2.831412553787231445e-01,2.831195592880249023e-01,2.831003665924072266e-01,2.830758690834045410e-01,2.830401062965393066e-01,2.830586433410644531e-01,2.829806804656982422e-01,2.827573418617248535e-01,2.830261588096618652e-01,2.832694053649902344e-01,2.827051579952239990e-01,2.824994027614593506e-01,2.825582921504974365e-01,2.824375033378601074e-01,2.830816507339477539e-01,2.830799221992492676e-01,2.815046906471252441e-01,2.808578610420227051e-01,2.814505100250244141e-01,2.822681963443756104e-01,2.825191915035247803e-01,2.825209796428680420e-01,2.823032438755035400e-01,2.825711369514465332e-01,2.826237678527832031e-01,2.823727130889892578e-01,2.826749682426452637e-01,2.826372385025024414e-01,2.825900316238403320e-01,2.825582623481750488e-01,2.824475765228271484e-01,2.830881178379058838e-01,2.817775011062622070e-01,2.718549668788909912e-01,2.751293182373046875e-01,3.007325530052185059e-01,3.195566833019256592e-01,3.762924671173095703e-01,3.975759148597717285e-01
4.091751575469970703e-01,3.324898183345794678e-01,3.159775733947753906e-01,2.799482941627502441e-01,2.584214210510253906e-01,2.558305561542510986e-01,2.600242495536804199e-01,2.610175907611846924e-01,2.617905139923095703e-01,2.617053687572479248e-01,2.616647481918334961e-01,2.616422474384307861e-01,2.616225779056549072e-01,2.616066336631774902e-01,2.615903615951538086e-01,2.615725994110107422e-01,2.615568637847900391e-01,2.615414261817932129e-01,2.615239322185516357e-01,2.615063786506652832e-01,2.614897489547729492e-01,2.614739537239074707e-01,2.614579200744628906e-01,2.614412903785705566e-01,2.614251971244812012e-01,2.614084482192993164e-01,2.613919377326965332e-01,2.613752186298370361e-01,2.613587379455566406e-01,2.613421380519866943e-01,2.613254785537719727e-01,2.613089680671691895e-01,2.612925171852111816e-01,2.612757086753845215e-01,2.612592577934265137e-01,2.612427175045013428e-01,2.612262964248657227e-01,2.612097263336181641e-01,2.611930370330810547e-01,2.611764669418334961e-01,2.611597776412963867e-01,2.611435651779174805e-01,2.611269950866699219e-01,2.611123323440551758e-01,2.610947787761688232e-01,2.610766291618347168e-01,2.610637545585632324e-01,2.610305845737457275e-01,2.610169351100921631e-01,2.610991597175598145e-01,2.610612213611602783e-01,2.610100209712982178e-01,2.609210908412933350e-01,2.608677148818969727e-01,2.608259320259094238e-01,2.610916793346405029e-01,2.611135840415954590e-01,2.606971561908721924e-01,2.602499723434448242e-01,2.604453563690185547e-01,2.602509856224060059e-01,2.607992589473724365e-01,2.608265876770019531e-01,2.606145143508911133e-01,2.609065771102905273e-01,2.609319686889648438e-01,2.607168555259704590e-01,2.607080340385437012e-01,2.606788277626037598e-01,2.606928944587707520e-01,2.606700658798217773e-01,2.605901360511779785e-01,2.611079216003417969e-01,2.600620985031127930e-01,2.511645555496215820e-01,2.544424235820770264e-01,2.794539928436279297e-01,3.009899258613586426e-01,3.605804443359375000e-01,3.876302242279052734e-01
3.991090357303619385e-01,3.188904523849487305e-01,2.997257113456726074e-01,2.643865942955017090e-01,2.423033714294433594e-01,2.394154369831085205e-01,2.430759966373443604e-01,2.439663112163543701e-01,2.446576356887817383e-01,2.445940971374511719e-01,2.445613443851470947e-01,2.445466220378875732e-01,2.445321083068847656e-01,2.445179522037506104e-01,2.445033192634582520e-01,2.444889545440673828e-01,2.444752156734466553e-01,2.444619238376617432e-01,2.444482147693634033e-01,2.444348633289337158e-01,2.444218397140502930e-01,2.444092631340026855e-01,2.443962097167968750e-01,2.443834841251373291e-01,2.443705499172210693e-01,2.443574368953704834e-01,2.443444728851318359e-01,2.443314492702484131e-01,2.443184256553649902e-01,2.443053722381591797e-01,2.442925572395324707e-01,2.442795336246490479e-01,2.442665994167327881e-01,2.442536056041717529e-01,2.442407310009002686e-01,2.442277371883392334e-01,2.442146539688110352e-01,2.442018091678619385e-01,2.441888153553009033e-01,2.441758811473846436e-01,2.441630065441131592e-01,2.441500425338745117e-01,2.441369891166687012e-01,2.441247999668121338e-01,2.441116869449615479e-01,2.440967261791229248e-01,2.440846562385559082e-01,2.440697252750396729e-01,2.440524697303771973e-01,2.440487742424011230e-01,2.440521717071533203e-01,2.440162599086761475e-01,2.440007925033569336e-01,2.439905405044555664e-01,2.439284026622772217e-01,2.439687848091125488e-01,2.439753413200378418e-01,2.439230382442474365e-01,2.437810599803924561e-01,2.436776757240295410e-01,2.438637614250183105e-01,2.439007759094238281e-01,2.438630163669586182e-01,2.438671886920928955e-01,2.438226938247680664e-01,2.438191771507263184e-01,2.438473999500274658e-01,2.438278794288635254e-01,2.438104152679443359e-01,2.437793314456939697e-01,2.437749207019805908e-01,2.437101304531097412e-01,2.441341578960418701e-01,2.432985603809356689e-01,2.352199852466583252e-01,2.385316491127014160e-01,2.629286646842956543e-01,2.863631248474121094e-01,3.479766845703125000e-01,3.796799778938293457e-01
3.908079564571380615e-01,3.077771961688995361e-01,2.866261005401611328e-01,2.519666552543640137e-01,2.295307219028472900e-01,2.264035940170288086e-01,2.296692132949829102e-01,2.304591536521911621e-01,2.310807704925537109e-01,2.310262024402618408e-01,2.309991717338562012e-01,2.309884428977966309e-01,2.309778630733489990e-01,2.309674322605133057e-01,2.309570312500000000e-01,2.309468090534210205e-01,2.309363484382629395e-01,2.309259772300720215e-01,2.309153378009796143e-01,2.309050261974334717e-01,2.308946251869201660e-01,2.308842837810516357e-01,2.308737635612487793e-01,2.308632731437683105e-01,2.308527529239654541e-01,2.308424413204193115e-01,2.308319211006164551e-01,2.308216989040374756e-01,2.308111190795898438e-01,2.308009266853332520e-01,2.307901978492736816e-01,2.307797372341156006e-01,2.307693362236022949e-01,2.307589948177337646e-01,2.307486534118652344e-01,2.307383418083190918e-01,2.307278215885162354e-01,2.307173311710357666e-01,2.307070493698120117e-01,2.306965589523315430e-01,2.306862175464630127e-01,2.306759655475616455e-01,2.306652665138244629e-01,2.306550145149230957e-01,2.306447327136993408e-01,2.306340336799621582e-01,2.306230962276458740e-01,2.306120097637176514e-01,2.306020557880401611e-01,2.305917143821716309e-01,2.305852174758911133e-01,2.305727601051330566e-01,2.305605113506317139e-01,2.305517494678497314e-01,2.305387556552886963e-01,2.305534183979034424e-01,2.305511832237243652e-01,2.305462956428527832e-01,2.304726541042327881e-01,2.304732799530029297e-01,2.304424643516540527e-01,2.304711043834686279e-01,2.304489612579345703e-01,2.304570078849792480e-01,2.304475903511047363e-01,2.304421961307525635e-01,2.304182350635528564e-01,2.304061651229858398e-01,2.303960025310516357e-01,2.303880155086517334e-01,2.303741276264190674e-01,2.303213477134704590e-01,2.306770682334899902e-01,2.300007641315460205e-01,2.225860059261322021e-01,2.259093821048736572e-01,2.498040497303009033e-01,2.745879888534545898e-01,3.377240300178527832e-01,3.731963932514190674e-01
3.838092982769012451e-01,2.985762357711791992e-01,2.758278250694274902e-01,2.418435513973236084e-01,2.191882431507110596e-01,2.158556282520294189e-01,2.188110947608947754e-01,2.195123732089996338e-01,2.200786769390106201e-01,2.200310826301574707e-01,2.200078666210174561e-01,2.199995219707489014e-01,2.199910879135131836e-01,2.199825346469879150e-01,2.199738025665283203e-01,2.199652194976806641e-01,2.199568152427673340e-01,2.199482321739196777e-01,2.199397981166839600e-01,2.199311554431915283e-01,2.199223339557647705e-01,2.199138998985290527e-01,2.199053764343261719e-01,2.198968231678009033e-01,2.198881804943084717e-01,2.198798954486846924e-01,2.198711633682250977e-01,2.198626995086669922e-01,2.198542952537536621e-01,2.198457419872283936e-01,2.198372185230255127e-01,2.198284864425659180e-01,2.198199033737182617e-01,2.198113501071929932e-01,2.198029756546020508e-01,2.197943627834320068e-01,2.197858989238739014e-01,2.197771966457366943e-01,2.197688221931457520e-01,2.197603583335876465e-01,2.197517156600952148e-01,2.197431623935699463e-01,2.197346389293670654e-01,2.197262942790985107e-01,2.197179198265075684e-01,2.197091579437255859e-01,2.197006046772003174e-01,2.196919918060302734e-01,2.196836471557617188e-01,2.196753323078155518e-01,2.196667492389678955e-01,2.196577489376068115e-01,2.196490764617919922e-01,2.196400165557861328e-01,2.196314334869384766e-01,2.196232378482818604e-01,2.196206748485565186e-01,2.196099162101745605e-01,2.195955812931060791e-01,2.195906937122344971e-01,2.195860445499420166e-01,2.195723056793212891e-01,2.195604145526885986e-01,2.195544838905334473e-01,2.195506989955902100e-01,2.195407450199127197e-01,2.195298671722412109e-01,2.195203602313995361e-01,2.195123732089996338e-01,2.195058763027191162e-01,2.194961607456207275e-01,2.194508910179138184e-01,2.197561860084533691e-01,2.192071974277496338e-01,2.123384773731231689e-01,2.156672179698944092e-01,2.391510903835296631e-01,2.649216353893280029e-01,3.292243480682373047e-01,3.678046464920043945e-01
3.778362274169921875e-01,2.908427119255065918e-01,2.668053507804870605e-01,2.334571182727813721e-01,2.106569111347198486e-01,2.071468830108642578e-01,2.098506987094879150e-01,2.104741334915161133e-01,2.109916806221008301e-01,2.109497189521789551e-01,2.109297811985015869e-01,2.109226584434509277e-01,2.109155952930450439e-01,2.109081745147705078e-01,2.109012603759765625e-01,2.108942866325378418e-01,2.108871638774871826e-01,2.108798623085021973e-01,2.108726799488067627e-01,2.108656167984008789e-01,2.108587324619293213e-01,2.108516097068786621e-01,2.108442783355712891e-01,2.108369767665863037e-01,2.108300328254699707e-01,2.108227908611297607e-01,2.108156979084014893e-01,2.108087241649627686e-01,2.108014822006225586e-01,2.107944488525390625e-01,2.107872962951660156e-01,2.107800841331481934e-01,2.107731997966766357e-01,2.107659876346588135e-01,2.107585966587066650e-01,2.107516229152679443e-01,2.107447385787963867e-01,2.107374668121337891e-01,2.107305526733398438e-01,2.107232511043548584e-01,2.107161283493041992e-01,2.107090353965759277e-01,2.107019424438476562e-01,2.106949090957641602e-01,2.106876671314239502e-01,2.106808125972747803e-01,2.106736898422241211e-01,2.106664180755615234e-01,2.106595039367675781e-01,2.106523513793945312e-01,2.106452882289886475e-01,2.106382250785827637e-01,2.106308937072753906e-01,2.106235921382904053e-01,2.106163501739501953e-01,2.106091082096099854e-01,2.106032669544219971e-01,2.105957269668579102e-01,2.105890512466430664e-01,2.105818688869476318e-01,2.105767726898193359e-01,2.105690836906433105e-01,2.105606496334075928e-01,2.105530202388763428e-01,2.105470299720764160e-01,2.105396389961242676e-01,2.105323374271392822e-01,2.105243504047393799e-01,2.105175256729125977e-01,2.105103731155395508e-01,2.105031907558441162e-01,2.104642987251281738e-01,2.107304632663726807e-01,2.102833390235900879e-01,2.038680016994476318e-01,2.071977853775024414e-01,2.303331792354583740e-01,2.568460404872894287e-01,3.220574557781219482e-01,3.632425963878631592e-01
3.726791739463806152e-01,2.842497825622558594e-01,2.591601014137268066e-01,2.263979017734527588e-01,2.035056054592132568e-01,1.998404860496520996e-01,2.023376524448394775e-01,2.028927803039550781e-01,2.033689320087432861e-01,2.033316493034362793e-01,2.033141255378723145e-01,2.033080756664276123e-01,2.033022642135620117e-01,2.032960057258605957e-01,2.032900154590606689e-01,2.032839655876159668e-01,2.032780349254608154e-01,2.032718062400817871e-01,2.032659053802490234e-01,2.032598853111267090e-01,2.032538652420043945e-01,2.032479643821716309e-01,2.032419741153717041e-01,2.032357156276702881e-01,2.032298743724822998e-01,2.032237052917480469e-01,2.032177448272705078e-01,2.032117843627929688e-01,2.032057642936706543e-01,2.031999528408050537e-01,2.031937539577484131e-01,2.031876146793365479e-01,2.031815350055694580e-01,2.031757235527038574e-01,2.031696140766143799e-01,2.031634449958801270e-01,2.031576931476593018e-01,2.031516134738922119e-01,2.031456828117370605e-01,2.031395435333251953e-01,2.031336128711700439e-01,2.031276822090148926e-01,2.031216025352478027e-01,2.031157016754150391e-01,2.031095325946807861e-01,2.031035721302032471e-01,2.030975818634033203e-01,2.030918598175048828e-01,2.030856907367706299e-01,2.030796706676483154e-01,2.030734419822692871e-01,2.030678987503051758e-01,2.030617594718933105e-01,2.030557990074157715e-01,2.030498981475830078e-01,2.030438780784606934e-01,2.030379176139831543e-01,2.030319571495056152e-01,2.030257582664489746e-01,2.030199468135833740e-01,2.030137777328491211e-01,2.030078172683715820e-01,2.030018270015716553e-01,2.029957175254821777e-01,2.029899954795837402e-01,2.029840946197509766e-01,2.029778659343719482e-01,2.029718756675720215e-01,2.029659748077392578e-01,2.029600143432617188e-01,2.029531896114349365e-01,2.029197514057159424e-01,2.031549215316772461e-01,2.027906179428100586e-01,1.967570781707763672e-01,2.000851333141326904e-01,2.229189276695251465e-01,2.500014901161193848e-01,3.159308433532714844e-01,3.593310713768005371e-01
3.681827187538146973e-01,2.785640358924865723e-01,2.526046633720397949e-01,2.203781008720397949e-01,1.974299550056457520e-01,1.936285197734832764e-01,1.959536075592041016e-01,1.964485943317413330e-01,1.968893408775329590e-01,1.968560516834259033e-01,1.968403458595275879e-01,1.968353688716888428e-01,1.968299746513366699e-01,1.968250870704650879e-01,1.968197822570800781e-01,1.968146562576293945e-01,1.968095004558563232e-01,1.968043446540832520e-01,1.967993080615997314e-01,1.967940330505371094e-01,1.967887878417968750e-01,1.967839002609252930e-01,1.967783570289611816e-01,1.967734098434448242e-01,1.967682242393493652e-01,1.967630982398986816e-01,1.967579424381256104e-01,1.967527568340301514e-01,1.967477500438690186e-01,1.967424452304840088e-01,1.967374384403228760e-01,1.967321038246154785e-01,1.967269778251647949e-01,1.967219412326812744e-01,1.967168152332305908e-01,1.967115700244903564e-01,1.967064440250396729e-01,1.967013180255889893e-01,1.966962814331054688e-01,1.966911256313323975e-01,1.966858804225921631e-01,1.966806352138519287e-01,1.966758072376251221e-01,1.966705620288848877e-01,1.966655254364013672e-01,1.966605186462402344e-01,1.966550350189208984e-01,1.966500878334045410e-01,1.966449916362762451e-01,1.966397464275360107e-01,1.966347992420196533e-01,1.966294348239898682e-01,1.966244280338287354e-01,1.966190934181213379e-01,1.966143548488616943e-01,1.966090500354766846e-01,1.966038942337036133e-01,1.965988278388977051e-01,1.965935528278350830e-01,1.965884268283843994e-01,1.965834200382232666e-01,1.965783238410949707e-01,1.965731382369995117e-01,1.965679824352264404e-01,1.965630352497100830e-01,1.965579092502593994e-01,1.965526044368743896e-01,1.965475082397460938e-01,1.965425908565521240e-01,1.965373754501342773e-01,1.965314447879791260e-01,1.965020000934600830e-01,1.967124342918395996e-01,1.964160799980163574e-01,1.907077431678771973e-01,1.940319538116455078e-01,2.166019380092620850e-01,2.441281974315643311e-01,3.106330633163452148e-01,3.559390902519226074e-01
3.642279207706451416e-01,2.736117243766784668e-01,2.469251751899719238e-01,2.151865363121032715e-01,1.922079920768737793e-01,1.882862746715545654e-01,1.904660463333129883e-01,1.909078657627105713e-01,1.913179457187652588e-01,1.912878155708312988e-01,1.912737488746643066e-01,1.912693083286285400e-01,1.912649273872375488e-01,1.912605166435241699e-01,1.912559270858764648e-01,1.912515461444854736e-01,1.912470757961273193e-01,1.912426650524139404e-01,1.912381649017333984e-01,1.912337243556976318e-01,1.912294030189514160e-01,1.912246942520141602e-01,1.912204921245574951e-01,1.912160515785217285e-01,1.912114322185516357e-01,1.912071704864501953e-01,1.912025511264801025e-01,1.911981999874114990e-01,1.911937594413757324e-01,1.911891996860504150e-01,1.911846399307250977e-01,1.911804080009460449e-01,1.911758780479431152e-01,1.911713480949401855e-01,1.911671161651611328e-01,1.911627352237701416e-01,1.911582052707672119e-01,1.911536753177642822e-01,1.911492347717285156e-01,1.911448538303375244e-01,1.911403238773345947e-01,1.911360323429107666e-01,1.911314427852630615e-01,1.911270022392272949e-01,1.911226809024810791e-01,1.911182105541229248e-01,1.911138892173767090e-01,1.911093890666961670e-01,1.911049485206604004e-01,1.911005079746246338e-01,1.910960972309112549e-01,1.910915970802307129e-01,1.910871267318725586e-01,1.910826861858367920e-01,1.910784244537353516e-01,1.910738646984100342e-01,1.910695135593414307e-01,1.910649240016937256e-01,1.910605430603027344e-01,1.910563111305236816e-01,1.910518407821655273e-01,1.910473108291625977e-01,1.910429000854492188e-01,1.910385787487030029e-01,1.910341680049896240e-01,1.910295188426971436e-01,1.910252869129180908e-01,1.910206973552703857e-01,1.910161077976226807e-01,1.910118460655212402e-01,1.910066306591033936e-01,1.909805238246917725e-01,1.911706626415252686e-01,1.909310519695281982e-01,1.855019629001617432e-01,1.888219714164733887e-01,2.111579477787017822e-01,2.390344440937042236e-01,3.060054779052734375e-01,3.529690802097320557e-01
3.607213795185089111e-01,2.692629396915435791e-01,2.419593036174774170e-01,2.106661200523376465e-01,1.876741349697113037e-01,1.836431026458740234e-01,1.856956779956817627e-01,1.860904693603515625e-01,1.864740252494812012e-01,1.864466369152069092e-01,1.864338815212249756e-01,1.864298582077026367e-01,1.864260137081146240e-01,1.864220798015594482e-01,1.864184141159057617e-01,1.864141523838043213e-01,1.864104270935058594e-01,1.864067018032073975e-01,1.864027380943298340e-01,1.863989233970642090e-01,1.863949596881866455e-01,1.863909363746643066e-01,1.863872110843658447e-01,1.863832771778106689e-01,1.863794624805450439e-01,1.863754093647003174e-01,1.863717734813690186e-01,1.863677203655242920e-01,1.863638460636138916e-01,1.863600313663482666e-01,1.863560676574707031e-01,1.863523125648498535e-01,1.863483190536499023e-01,1.863444745540618896e-01,1.863407492637634277e-01,1.863369345664978027e-01,1.863327324390411377e-01,1.863289475440979004e-01,1.863251030445098877e-01,1.863212287425994873e-01,1.863174140453338623e-01,1.863133609294891357e-01,1.863094866275787354e-01,1.863055825233459473e-01,1.863017678260803223e-01,1.862978339195251465e-01,1.862941980361938477e-01,1.862902343273162842e-01,1.862863898277282715e-01,1.862825751304626465e-01,1.862787008285522461e-01,1.862747073173522949e-01,1.862708628177642822e-01,1.862669885158538818e-01,1.862630248069763184e-01,1.862593293190002441e-01,1.862552464008331299e-01,1.862514615058898926e-01,1.862476766109466553e-01,1.862438023090362549e-01,1.862399280071258545e-01,1.862359941005706787e-01,1.862322986125946045e-01,1.862284243106842041e-01,1.862244307994842529e-01,1.862206161022186279e-01,1.862168610095977783e-01,1.862128674983978271e-01,1.862089335918426514e-01,1.862049400806427002e-01,1.862002313137054443e-01,1.861771941184997559e-01,1.863508224487304688e-01,1.861586570739746094e-01,1.809739470481872559e-01,1.842885613441467285e-01,2.064172625541687012e-01,2.345682680606842041e-01,3.019173145294189453e-01,3.503366708755493164e-01
3.576365709304809570e-01,2.654594182968139648e-01,2.376318573951721191e-01,2.067407369613647461e-01,1.837361156940460205e-01,1.796092987060546875e-01,1.815567910671234131e-01,1.819103062152862549e-01,1.822706460952758789e-01,1.822456419467926025e-01,1.822334229946136475e-01,1.822299957275390625e-01,1.822265982627868652e-01,1.822231411933898926e-01,1.822197735309600830e-01,1.822162568569183350e-01,1.822126805782318115e-01,1.822094619274139404e-01,1.822059154510498047e-01,1.822025477886199951e-01,1.821992099285125732e-01,1.821957826614379883e-01,1.821923553943634033e-01,1.821890771389007568e-01,1.821856498718261719e-01,1.821821033954620361e-01,1.821786165237426758e-01,1.821753680706024170e-01,1.821717619895935059e-01,1.821685433387756348e-01,1.821650266647338867e-01,1.821615695953369141e-01,1.821582019329071045e-01,1.821548044681549072e-01,1.821515858173370361e-01,1.821479499340057373e-01,1.821445226669311523e-01,1.821412444114685059e-01,1.821376383304595947e-01,1.821343898773193359e-01,1.821309328079223633e-01,1.821274459362030029e-01,1.821241080760955811e-01,1.821206510066986084e-01,1.821172535419464111e-01,1.821137964725494385e-01,1.821104586124420166e-01,1.821070611476898193e-01,1.821036636829376221e-01,1.821001470088958740e-01,1.820968389511108398e-01,1.820934712886810303e-01,1.820901036262512207e-01,1.820867359638214111e-01,1.820832192897796631e-01,1.820798218250274658e-01,1.820763051509857178e-01,1.820729374885559082e-01,1.820695996284484863e-01,1.820661127567291260e-01,1.820627152919769287e-01,1.820593178272247314e-01,1.820560395717620850e-01,1.820526123046875000e-01,1.820490062236785889e-01,1.820457279682159424e-01,1.820421814918518066e-01,1.820388436317443848e-01,1.820355653762817383e-01,1.820320188999176025e-01,1.820281744003295898e-01,1.820068955421447754e-01,1.821657717227935791e-01,1.820139586925506592e-01,1.770388185977935791e-01,1.803417503833770752e-01,2.022809386253356934e-01,2.306672632694244385e-01,2.983098030090332031e-01,3.479932546615600586e-01
3.552451431751251221e-01,2.622931897640228271e-01,2.341420948505401611e-01,2.035847604274749756e-01,1.805837750434875488e-01,1.763859689235687256e-01,1.782708466053009033e-01,1.786160469055175781e-01,1.789564788341522217e-01,1.789319515228271484e-01,1.789213120937347412e-01,1.789183914661407471e-01,1.789151132106781006e-01,1.789121031761169434e-01,1.789091527462005615e-01,1.789061427116394043e-01,1.789030134677886963e-01,1.788998842239379883e-01,1.788970232009887695e-01,1.788939237594604492e-01,1.788909733295440674e-01,1.788877248764038086e-01,1.788847148418426514e-01,1.788816452026367188e-01,1.788787841796875000e-01,1.788757741451263428e-01,1.788727045059204102e-01,1.788694560527801514e-01,1.788666546344757080e-01,1.788635551929473877e-01,1.788604259490966797e-01,1.788573861122131348e-01,1.788543760776519775e-01,1.788511872291564941e-01,1.788481771945953369e-01,1.788452267646789551e-01,1.788422763347625732e-01,1.788391470909118652e-01,1.788361370563507080e-01,1.788331866264343262e-01,1.788300871849060059e-01,1.788271367549896240e-01,1.788240075111389160e-01,1.788209378719329834e-01,1.788178384304046631e-01,1.788151264190673828e-01,1.788118183612823486e-01,1.788088083267211914e-01,1.788057386875152588e-01,1.788027584552764893e-01,1.787997186183929443e-01,1.787967383861541748e-01,1.787936687469482422e-01,1.787907183170318604e-01,1.787875294685363770e-01,1.787844300270080566e-01,1.787815093994140625e-01,1.787783801555633545e-01,1.787754297256469727e-01,1.787724494934082031e-01,1.787693202495574951e-01,1.787662506103515625e-01,1.787634193897247314e-01,1.787602603435516357e-01,1.787573695182800293e-01,1.787542402744293213e-01,1.787512004375457764e-01,1.787481009960174561e-01,1.787451207637786865e-01,1.787420213222503662e-01,1.787383854389190674e-01,1.787193417549133301e-01,1.788673400878906250e-01,1.787439882755279541e-01,1.739426553249359131e-01,1.772508621215820312e-01,1.989175975322723389e-01,2.273602485656738281e-01,2.952033877372741699e-01,3.462699055671691895e-01
3.522574901580810547e-01,2.585251629352569580e-01,2.300024926662445068e-01,1.997254788875579834e-01,1.766569614410400391e-01,1.722862422466278076e-01,1.739256680011749268e-01,1.741941571235656738e-01,1.744939088821411133e-01,1.744736731052398682e-01,1.744641363620758057e-01,1.744616031646728516e-01,1.744590997695922852e-01,1.744561195373535156e-01,1.744534671306610107e-01,1.744508445262908936e-01,1.744481623172760010e-01,1.744455099105834961e-01,1.744427680969238281e-01,1.744402348995208740e-01,1.744375526905059814e-01,1.744350492954254150e-01,1.744322776794433594e-01,1.744295656681060791e-01,1.744269430637359619e-01,1.744243204593658447e-01,1.744215488433837891e-01,1.744188070297241211e-01,1.744162142276763916e-01,1.744136512279510498e-01,1.744110286235809326e-01,1.744081974029541016e-01,1.744056642055511475e-01,1.744028627872467041e-01,1.744002401828765869e-01,1.743974983692169189e-01,1.743948757648468018e-01,1.743922233581542969e-01,1.743894517421722412e-01,1.743871569633483887e-01,1.743842959403991699e-01,1.743817031383514404e-01,1.743790209293365479e-01,1.743763983249664307e-01,1.743737459182739258e-01,1.743709146976470947e-01,1.743683815002441406e-01,1.743656396865844727e-01,1.743632555007934570e-01,1.743602752685546875e-01,1.743577718734741211e-01,1.743551194667816162e-01,1.743522882461547852e-01,1.743497848510742188e-01,1.743471324443817139e-01,1.743445098400115967e-01,1.743419170379638672e-01,1.743391454219818115e-01,1.743364930152893066e-01,1.743337810039520264e-01,1.743310689926147461e-01,1.743284761905670166e-01,1.743257939815521240e-01,1.743232011795043945e-01,1.743204891681671143e-01,1.743178665637969971e-01,1.743154227733612061e-01,1.743125915527343750e-01,1.743098199367523193e-01,1.743072867393493652e-01,1.743040680885314941e-01,1.742861568927764893e-01,1.744288802146911621e-01,1.743075549602508545e-01,1.696787476539611816e-01,1.730739474296569824e-01,1.947995424270629883e-01,2.234528958797454834e-01,2.916881740093231201e-01,3.432695865631103516e-01
3.534514904022216797e-01,2.556045055389404297e-01,2.290324866771697998e-01,1.991973519325256348e-01,1.747825145721435547e-01,1.703463494777679443e-01,1.715828180313110352e-01,1.718480885028839111e-01,1.721436381340026855e-01,1.721235215663909912e-01,1.721154153347015381e-01,1.721127927303314209e-01,1.721107363700866699e-01,1.721082329750061035e-01,1.721059083938598633e-01,1.721034944057464600e-01,1.721011400222778320e-01,1.720986962318420410e-01,1.720962226390838623e-01,1.720940470695495605e-01,1.720915138721466064e-01,1.720890402793884277e-01,1.720868051052093506e-01,1.720844507217407227e-01,1.720821261405944824e-01,1.720797121524810791e-01,1.720772981643676758e-01,1.720749735832214355e-01,1.720725595951080322e-01,1.720701456069946289e-01,1.720676422119140625e-01,1.720652878284454346e-01,1.720631122589111328e-01,1.720608174800872803e-01,1.720582544803619385e-01,1.720558106899261475e-01,1.720535755157470703e-01,1.720512211322784424e-01,1.720487475395202637e-01,1.720463931560516357e-01,1.720439791679382324e-01,1.720414757728576660e-01,1.720393598079681396e-01,1.720368266105651855e-01,1.720345318317413330e-01,1.720321178436279297e-01,1.720295548439025879e-01,1.720274686813354492e-01,1.720250844955444336e-01,1.720227003097534180e-01,1.720203459262847900e-01,1.720180213451385498e-01,1.720154285430908203e-01,1.720132231712341309e-01,1.720107793807983398e-01,1.720083653926849365e-01,1.720059514045715332e-01,1.720035672187805176e-01,1.720012128353118896e-01,1.719990670680999756e-01,1.719966232776641846e-01,1.719942390918731689e-01,1.719919145107269287e-01,1.719894409179687500e-01,1.719872653484344482e-01,1.719846725463867188e-01,1.719824373722076416e-01,1.719799637794494629e-01,1.719776391983032227e-01,1.719752550125122070e-01,1.719729304313659668e-01,1.719528138637542725e-01,1.720578372478485107e-01,1.720505356788635254e-01,1.679010093212127686e-01,1.713117361068725586e-01,1.922444403171539307e-01,2.205615639686584473e-01,2.916392982006072998e-01,3.415893316268920898e-01
