6.294719576835632324e-01,6.180764436721801758e-01,6.700410246849060059e-01,6.732198596000671387e-01,6.753971576690673828e-01,6.645041704177856445e-01,6.810709834098815918e-01,6.906520128250122070e-01,7.004572749137878418e-01,7.080702781677246094e-01,7.182347774505615234e-01,7.279574275016784668e-01,7.367379665374755859e-01,7.457978725433349609e-01,7.533791065216064453e-01,7.599321603775024414e-01,7.644246220588684082e-01,7.677344083786010742e-01,7.691656351089477539e-01,7.706756591796875000e-01,7.714940309524536133e-01,7.719136476516723633e-01,7.720137238502502441e-01,7.720362544059753418e-01,7.720389366149902344e-01,7.720369696617126465e-01,7.720367908477783203e-01,7.720367908477783203e-01,7.720367908477783203e-01,7.720367908477783203e-01,7.720367908477783203e-01,7.720367908477783203e-01,7.720367908477783203e-01,7.720367908477783203e-01,7.720367908477783203e-01,7.720367908477783203e-01,7.720367908477783203e-01,7.720367908477783203e-01,7.720367908477783203e-01,7.720367908477783203e-01,7.720367908477783203e-01,7.720367908477783203e-01,7.720381021499633789e-01,7.720358371734619141e-01,7.721475362777709961e-01,7.718209028244018555e-01,7.716925144195556641e-01,7.701351046562194824e-01,7.688727378845214844e-01,7.673064470291137695e-01,7.631257772445678711e-01,7.599684596061706543e-01,7.485044002532958984e-01,7.400290369987487793e-01,7.273785471916198730e-01,7.169612646102905273e-01,6.985372304916381836e-01,6.823954582214355469e-01,6.790955066680908203e-01,6.873919367790222168e-01,7.125841379165649414e-01,7.193524837493896484e-01,7.337062358856201172e-01,7.504097223281860352e-01,7.515170574188232422e-01,7.602853775024414062e-01,7.664828300476074219e-01,7.693411111831665039e-01,7.676017284393310547e-01,7.666583061218261719e-01,7.629250288009643555e-01,7.594906091690063477e-01,7.526075243949890137e-01,7.415571808815002441e-01,7.333014011383056641e-01,7.125512361526489258e-01,7.107752561569213867e-01,7.513117790222167969e-01,6.803927421569824219e-01,5.326427221298217773e-01
5.832499861717224121e-01,5.974664092063903809e-01,6.265156865119934082e-01,6.184979081153869629e-01,6.427028775215148926e-01,6.533782482147216797e-01,6.836191415786743164e-01,7.020478844642639160e-01,7.175680994987487793e-01,7.329896092414855957e-01,7.462586164474487305e-01,7.605391144752502441e-01,7.759594917297363281e-01,7.889701128005981445e-01,8.008182048797607422e-01,8.106309175491333008e-01,8.174231648445129395e-01,8.213801383972167969e-01,8.253244161605834961e-01,8.276305198669433594e-01,8.288427591323852539e-01,8.294204473495483398e-01,8.296595811843872070e-01,8.297058939933776855e-01,8.297190070152282715e-01,8.297177553176879883e-01,8.297177553176879883e-01,8.297177553176879883e-01,8.297177553176879883e-01,8.297177553176879883e-01,8.297177553176879883e-01,8.297177553176879883e-01,8.297177553176879883e-01,8.297177553176879883e-01,8.297177553176879883e-01,8.297177553176879883e-01,8.297177553176879883e-01,8.297177553176879883e-01,8.297177553176879883e-01,8.297177553176879883e-01,8.297177553176879883e-01,8.297177553176879883e-01,8.297214508056640625e-01,8.297337293624877930e-01,8.298618793487548828e-01,8.292818069458007812e-01,8.287935256958007812e-01,8.263939619064331055e-01,8.223385810852050781e-01,8.193882107734680176e-01,8.131542205810546875e-01,8.050807118415832520e-01,7.868205904960632324e-01,7.687093019485473633e-01,7.581316232681274414e-01,7.414150834083557129e-01,7.168205380439758301e-01,6.829043030738830566e-01,6.844553351402282715e-01,7.022051811218261719e-01,7.270151376724243164e-01,7.526867389678955078e-01,7.684758901596069336e-01,7.828131914138793945e-01,7.998315095901489258e-01,8.101456165313720703e-01,8.193669319152832031e-01,8.235186338424682617e-01,8.214372396469116211e-01,8.191314935684204102e-01,8.142480850219726562e-01,8.067566156387329102e-01,7.970368862152099609e-01,7.860400080680847168e-01,7.642602920532226562e-01,7.408033609390258789e-01,7.346602082252502441e-01,7.294028401374816895e-01,6.450372338294982910e-01,5.762277245521545410e-01
5.793612003326416016e-01,5.978942513465881348e-01,6.476569175720214844e-01,6.181057095527648926e-01,6.510552167892456055e-01,6.738529801368713379e-01,7.070455551147460938e-01,7.296422719955444336e-01,7.496261000633239746e-01,7.680888175964355469e-01,7.862567305564880371e-01,8.025177717208862305e-01,8.185802698135375977e-01,8.338364362716674805e-01,8.456768989562988281e-01,8.548228740692138672e-01,8.610756993293762207e-01,8.666071891784667969e-01,8.694136142730712891e-01,8.715442419052124023e-01,8.727872371673583984e-01,8.733289241790771484e-01,8.735417723655700684e-01,8.735988736152648926e-01,8.736076354980468750e-01,8.736067414283752441e-01,8.736065626144409180e-01,8.736065626144409180e-01,8.736065626144409180e-01,8.736065626144409180e-01,8.736065626144409180e-01,8.736065626144409180e-01,8.736065626144409180e-01,8.736065626144409180e-01,8.736065626144409180e-01,8.736065626144409180e-01,8.736065626144409180e-01,8.736065626144409180e-01,8.736065626144409180e-01,8.736065626144409180e-01,8.736065626144409180e-01,8.736065626144409180e-01,8.736147880554199219e-01,8.736223578453063965e-01,8.736783266067504883e-01,8.731899261474609375e-01,8.720632791519165039e-01,8.677463531494140625e-01,8.649582862854003906e-01,8.586626052856445312e-01,8.540377616882324219e-01,8.417875766754150391e-01,8.220249414443969727e-01,8.074479103088378906e-01,7.810760140419006348e-01,7.676157951354980469e-01,7.240573167800903320e-01,6.973159909248352051e-01,7.024029493331909180e-01,7.278587818145751953e-01,7.491672039031982422e-01,7.797431945800781250e-01,8.041081428527832031e-01,8.299827575683593750e-01,8.457584381103515625e-01,8.580752611160278320e-01,8.637714385986328125e-01,8.666555285453796387e-01,8.652172088623046875e-01,8.621460199356079102e-01,8.569715023040771484e-01,8.483806848526000977e-01,8.392611742019653320e-01,8.251729011535644531e-01,8.001625537872314453e-01,7.779315710067749023e-01,7.649158239364624023e-01,7.506561279296875000e-01,6.785371303558349609e-01,5.988593697547912598e-01
5.913801789283752441e-01,6.108353137969970703e-01,6.344373226165771484e-01,6.220474243164062500e-01,6.494319438934326172e-01,6.730988025665283203e-01,7.123085856437683105e-01,7.339130640029907227e-01,7.546836137771606445e-01,7.749576568603515625e-01,7.927658557891845703e-01,8.097974061965942383e-01,8.246854543685913086e-01,8.407028913497924805e-01,8.530341386795043945e-01,8.617789149284362793e-01,8.694050312042236328e-01,8.738833069801330566e-01,8.775231242179870605e-01,8.793204426765441895e-01,8.806391954421997070e-01,8.814571499824523926e-01,8.816826343536376953e-01,8.817386627197265625e-01,8.817477822303771973e-01,8.817470073699951172e-01,8.817465305328369141e-01,8.817465305328369141e-01,8.817465305328369141e-01,8.817465305328369141e-01,8.817465305328369141e-01,8.817465305328369141e-01,8.817465305328369141e-01,8.817465305328369141e-01,8.817465305328369141e-01,8.817465305328369141e-01,8.817465305328369141e-01,8.817465305328369141e-01,8.817465305328369141e-01,8.817465305328369141e-01,8.817465305328369141e-01,8.817465305328369141e-01,8.817571401596069336e-01,8.817728757858276367e-01,8.817433118820190430e-01,8.814121484756469727e-01,8.786450624465942383e-01,8.759847283363342285e-01,8.691023588180541992e-01,8.629842400550842285e-01,8.572787046432495117e-01,8.449728488922119141e-01,8.205428123474121094e-01,8.026662468910217285e-01,7.750992178916931152e-01,7.397344112396240234e-01,6.752949953079223633e-01,6.756322383880615234e-01,6.967220306396484375e-01,6.976992487907409668e-01,7.387124300003051758e-01,7.645056843757629395e-01,7.969977855682373047e-01,8.323839902877807617e-01,8.542029857635498047e-01,8.623507022857666016e-01,8.683515787124633789e-01,8.705468177795410156e-01,8.704490661621093750e-01,8.696607947349548340e-01,8.651533126831054688e-01,8.573017120361328125e-01,8.476249575614929199e-01,8.316090703010559082e-01,8.022300004959106445e-01,7.752557396888732910e-01,7.667695283889770508e-01,7.451695203781127930e-01,6.774747967720031738e-01,5.834485292434692383e-01
5.757632851600646973e-01,5.904913544654846191e-01,6.338616013526916504e-01,6.274533271789550781e-01,6.458165645599365234e-01,6.684276461601257324e-01,7.070230245590209961e-01,7.298148870468139648e-01,7.524274587631225586e-01,7.728569507598876953e-01,7.932814359664916992e-01,8.114494681358337402e-01,8.284857273101806641e-01,8.422832489013671875e-01,8.558300733566284180e-01,8.657025694847106934e-01,8.726388216018676758e-01,8.775069117546081543e-01,8.805845379829406738e-01,8.830823302268981934e-01,8.842674493789672852e-01,8.850157260894775391e-01,8.853498697280883789e-01,8.853969573974609375e-01,8.854048252105712891e-01,8.854037523269653320e-01,8.854033946990966797e-01,8.854033946990966797e-01,8.854033946990966797e-01,8.854033946990966797e-01,8.854033946990966797e-01,8.854033946990966797e-01,8.854033946990966797e-01,8.854033946990966797e-01,8.854033946990966797e-01,8.854033946990966797e-01,8.854033946990966797e-01,8.854033946990966797e-01,8.854033946990966797e-01,8.854033946990966797e-01,8.854033946990966797e-01,8.854033946990966797e-01,8.854131698608398438e-01,8.854209184646606445e-01,8.852213621139526367e-01,8.845945596694946289e-01,8.822692632675170898e-01,8.783428668975830078e-01,8.704689145088195801e-01,8.625489473342895508e-01,8.508973121643066406e-01,8.302136659622192383e-01,8.080713152885437012e-01,7.724205851554870605e-01,7.410671710968017578e-01,6.905871629714965820e-01,6.425962448120117188e-01,6.219200491905212402e-01,6.278573274612426758e-01,6.681590080261230469e-01,7.056710124015808105e-01,7.445195317268371582e-01,7.771990299224853516e-01,8.218733072280883789e-01,8.450022339820861816e-01,8.585892915725708008e-01,8.675197362899780273e-01,8.706554174423217773e-01,8.720990419387817383e-01,8.724598288536071777e-01,8.676805496215820312e-01,8.590454459190368652e-01,8.473619222640991211e-01,8.330857753753662109e-01,7.987474203109741211e-01,7.730864286422729492e-01,7.667369246482849121e-01,7.435383200645446777e-01,6.945970058441162109e-01,5.936867594718933105e-01
5.853813886642456055e-01,6.091366410255432129e-01,6.506111621856689453e-01,6.513584852218627930e-01,6.737935543060302734e-01,6.968522071838378906e-01,7.318603992462158203e-01,7.532166242599487305e-01,7.746882438659667969e-01,7.934688329696655273e-01,8.120057582855224609e-01,8.292920589447021484e-01,8.436644077301025391e-01,8.571950793266296387e-01,8.684952855110168457e-01,8.787727952003479004e-01,8.858879804611206055e-01,8.903839588165283203e-01,8.931913375854492188e-01,8.950231075286865234e-01,8.964558839797973633e-01,8.971030712127685547e-01,8.973982930183410645e-01,8.974739909172058105e-01,8.974814414978027344e-01,8.974800109863281250e-01,8.974796533584594727e-01,8.974796533584594727e-01,8.974796533584594727e-01,8.974796533584594727e-01,8.974796533584594727e-01,8.974796533584594727e-01,8.974796533584594727e-01,8.974796533584594727e-01,8.974796533584594727e-01,8.974796533584594727e-01,8.974796533584594727e-01,8.974796533584594727e-01,8.974796533584594727e-01,8.974796533584594727e-01,8.974796533584594727e-01,8.974796533584594727e-01,8.974825143814086914e-01,8.975042700767517090e-01,8.973537683486938477e-01,8.969681262969970703e-01,8.961189985275268555e-01,8.910402059555053711e-01,8.823896646499633789e-01,8.737129569053649902e-01,8.592436313629150391e-01,8.407756090164184570e-01,8.029507994651794434e-01,7.486381530761718750e-01,7.162233591079711914e-01,6.793038249015808105e-01,6.376792788505554199e-01,6.270473003387451172e-01,6.174839735031127930e-01,6.559237241744995117e-01,6.758567094802856445e-01,7.173777818679809570e-01,7.651126980781555176e-01,8.104471564292907715e-01,8.450738191604614258e-01,8.613896369934082031e-01,8.725314140319824219e-01,8.781418800354003906e-01,8.831821680068969727e-01,8.850349187850952148e-01,8.806587457656860352e-01,8.721702098846435547e-01,8.626164197921752930e-01,8.483843207359313965e-01,8.186819553375244141e-01,7.964385747909545898e-01,7.863134741783142090e-01,7.585605382919311523e-01,7.067865133285522461e-01,6.079168319702148438e-01
5.859882831573486328e-01,6.085681915283203125e-01,6.532130241394042969e-01,6.542282700538635254e-01,6.774958372116088867e-01,7.013369798660278320e-01,7.378495931625366211e-01,7.591879963874816895e-01,7.801086902618408203e-01,7.990732789039611816e-01,8.174579143524169922e-01,8.348020315170288086e-01,8.496578931808471680e-01,8.628394007682800293e-01,8.746951818466186523e-01,8.841700553894042969e-01,8.913397789001464844e-01,8.960802555084228516e-01,8.991934657096862793e-01,9.009399414062500000e-01,9.020606279373168945e-01,9.028347730636596680e-01,9.030658006668090820e-01,9.031407833099365234e-01,9.031517505645751953e-01,9.031503200531005859e-01,9.031499028205871582e-01,9.031499028205871582e-01,9.031499028205871582e-01,9.031499028205871582e-01,9.031499028205871582e-01,9.031499028205871582e-01,9.031499028205871582e-01,9.031499028205871582e-01,9.031499028205871582e-01,9.031499028205871582e-01,9.031499028205871582e-01,9.031499028205871582e-01,9.031499028205871582e-01,9.031499028205871582e-01,9.031499028205871582e-01,9.031499028205871582e-01,9.031456708908081055e-01,9.031692743301391602e-01,9.031042456626892090e-01,9.033236503601074219e-01,9.023559093475341797e-01,8.970243334770202637e-01,8.875555396080017090e-01,8.772759437561035156e-01,8.599386215209960938e-01,8.355747461318969727e-01,7.996119260787963867e-01,7.383381128311157227e-01,6.885411739349365234e-01,6.428787112236022949e-01,6.147379875183105469e-01,5.830134749412536621e-01,5.930854082107543945e-01,6.097734570503234863e-01,6.507917642593383789e-01,6.916410923004150391e-01,7.401831746101379395e-01,7.973541021347045898e-01,8.361642360687255859e-01,8.592969179153442383e-01,8.736920356750488281e-01,8.833727836608886719e-01,8.888661861419677734e-01,8.908760547637939453e-01,8.865863084793090820e-01,8.790289163589477539e-01,8.688647747039794922e-01,8.557986617088317871e-01,8.280705809593200684e-01,8.063182234764099121e-01,7.982608079910278320e-01,7.736702561378479004e-01,7.201399803161621094e-01,6.137452125549316406e-01
5.889572501182556152e-01,6.137150526046752930e-01,6.569471359252929688e-01,6.574051380157470703e-01,6.812242269515991211e-01,7.053259611129760742e-01,7.418447732925415039e-01,7.632296681404113770e-01,7.838401794433593750e-01,8.024203181266784668e-01,8.205604553222656250e-01,8.372567892074584961e-01,8.524580597877502441e-01,8.655385971069335938e-01,8.768952488899230957e-01,8.865472674369812012e-01,8.936620354652404785e-01,8.983407020568847656e-01,9.015564322471618652e-01,9.035388231277465820e-01,9.046004414558410645e-01,9.052472114562988281e-01,9.055244922637939453e-01,9.055815339088439941e-01,9.055951833724975586e-01,9.055936336517333984e-01,9.055932760238647461e-01,9.055932760238647461e-01,9.055932760238647461e-01,9.055932760238647461e-01,9.055932760238647461e-01,9.055932760238647461e-01,9.055932760238647461e-01,9.055932760238647461e-01,9.055932760238647461e-01,9.055932760238647461e-01,9.055932760238647461e-01,9.055932760238647461e-01,9.055932760238647461e-01,9.055932760238647461e-01,9.055932760238647461e-01,9.055932760238647461e-01,9.055916070938110352e-01,9.056198596954345703e-01,9.057821035385131836e-01,9.066503643989562988e-01,9.041833877563476562e-01,8.996623754501342773e-01,8.905178308486938477e-01,8.779345750808715820e-01,8.638713359832763672e-01,8.423347473144531250e-01,7.988038063049316406e-01,7.248391509056091309e-01,6.652993559837341309e-01,6.106951236724853516e-01,5.870513916015625000e-01,5.652300119400024414e-01,5.773715376853942871e-01,6.082773804664611816e-01,6.290503740310668945e-01,6.739105582237243652e-01,7.205613851547241211e-01,7.889462709426879883e-01,8.319315910339355469e-01,8.580276966094970703e-01,8.758748769760131836e-01,8.857375383377075195e-01,8.911383748054504395e-01,8.933633565902709961e-01,8.890158534049987793e-01,8.809189796447753906e-01,8.716559410095214844e-01,8.593891859054565430e-01,8.309649825096130371e-01,8.094960451126098633e-01,8.012483119964599609e-01,7.755762338638305664e-01,7.220081090927124023e-01,6.159098148345947266e-01
5.884756445884704590e-01,6.139589548110961914e-01,6.563301086425781250e-01,6.571227908134460449e-01,6.807243227958679199e-01,7.049868702888488770e-01,7.413077354431152344e-01,7.627374529838562012e-01,7.834830284118652344e-01,8.020339012145996094e-01,8.197849392890930176e-01,8.366057872772216797e-01,8.516538739204406738e-01,8.648960590362548828e-01,8.764169216156005859e-01,8.860176205635070801e-01,8.930644392967224121e-01,8.978266716003417969e-01,9.010757207870483398e-01,9.031780958175659180e-01,9.043441414833068848e-01,9.049906730651855469e-01,9.052337408065795898e-01,9.052965044975280762e-01,9.053112268447875977e-01,9.053096771240234375e-01,9.053092002868652344e-01,9.053092002868652344e-01,9.053092002868652344e-01,9.053092002868652344e-01,9.053092002868652344e-01,9.053092002868652344e-01,9.053092002868652344e-01,9.053092002868652344e-01,9.053092002868652344e-01,9.053092002868652344e-01,9.053092002868652344e-01,9.053092002868652344e-01,9.053092002868652344e-01,9.053092002868652344e-01,9.053092002868652344e-01,9.053092002868652344e-01,9.053111076354980469e-01,9.053231477737426758e-01,9.057124853134155273e-01,9.061302542686462402e-01,9.036823511123657227e-01,8.988827466964721680e-01,8.916424512863159180e-01,8.798472881317138672e-01,8.648975491523742676e-01,8.411594629287719727e-01,7.870317697525024414e-01,7.213515639305114746e-01,6.604803204536437988e-01,6.068726181983947754e-01,5.704983472824096680e-01,5.546045899391174316e-01,5.605996847152709961e-01,5.769937634468078613e-01,6.105422973632812500e-01,6.584971547126770020e-01,7.169699072837829590e-01,7.833600640296936035e-01,8.323712348937988281e-01,8.560528755187988281e-01,8.749529719352722168e-01,8.859946131706237793e-01,8.904715180397033691e-01,8.928748369216918945e-01,8.881814479827880859e-01,8.803099989891052246e-01,8.714572787284851074e-01,8.584601283073425293e-01,8.296536207199096680e-01,8.088312745094299316e-01,8.012527227401733398e-01,7.750611901283264160e-01,7.223538756370544434e-01,6.163139343261718750e-01
5.885008573532104492e-01,6.139473915100097656e-01,6.565031409263610840e-01,6.572768092155456543e-01,6.807761192321777344e-01,7.049933671951293945e-01,7.413727045059204102e-01,7.627723217010498047e-01,7.835439443588256836e-01,8.021680116653442383e-01,8.199276924133300781e-01,8.364081382751464844e-01,8.515356779098510742e-01,8.648506402969360352e-01,8.763722181320190430e-01,8.859373331069946289e-01,8.930208086967468262e-01,8.977284431457519531e-01,9.010207653045654297e-01,9.031489491462707520e-01,9.043530821800231934e-01,9.050096869468688965e-01,9.052693843841552734e-01,9.053224921226501465e-01,9.053357839584350586e-01,9.053343534469604492e-01,9.053338766098022461e-01,9.053338766098022461e-01,9.053338766098022461e-01,9.053338766098022461e-01,9.053338766098022461e-01,9.053338766098022461e-01,9.053338766098022461e-01,9.053338766098022461e-01,9.053338766098022461e-01,9.053338766098022461e-01,9.053338766098022461e-01,9.053338766098022461e-01,9.053338766098022461e-01,9.053338766098022461e-01,9.053338766098022461e-01,9.053338766098022461e-01,9.053351879119873047e-01,9.053510427474975586e-01,9.057899713516235352e-01,9.056109189987182617e-01,9.039710760116577148e-01,8.993579149246215820e-01,8.934082388877868652e-01,8.792588710784912109e-01,8.673430681228637695e-01,8.458916544914245605e-01,7.956976890563964844e-01,7.111060023307800293e-01,6.514751315116882324e-01,5.996194481849670410e-01,5.659915208816528320e-01,5.552004575729370117e-01,5.599862933158874512e-01,5.734034776687622070e-01,6.032584905624389648e-01,6.480077505111694336e-01,7.040771245956420898e-01,7.743628621101379395e-01,8.282007575035095215e-01,8.554126024246215820e-01,8.752224445343017578e-01,8.867145776748657227e-01,8.909820914268493652e-01,8.927835226058959961e-01,8.881762027740478516e-01,8.805053234100341797e-01,8.712141513824462891e-01,8.581277132034301758e-01,8.297244906425476074e-01,8.088650703430175781e-01,8.011271953582763672e-01,7.750744223594665527e-01,7.223467826843261719e-01,6.163387298583984375e-01
5.884799361228942871e-01,6.139103770256042480e-01,6.564772129058837891e-01,6.572370529174804688e-01,6.807453632354736328e-01,7.049634456634521484e-01,7.413283586502075195e-01,7.627424001693725586e-01,7.835159301757812500e-01,8.021465539932250977e-01,8.199391365051269531e-01,8.364344835281372070e-01,8.513947129249572754e-01,8.647880554199218750e-01,8.763923645019531250e-01,8.858837485313415527e-01,8.929582834243774414e-01,8.977016806602478027e-01,9.009692668914794922e-01,9.031196236610412598e-01,9.043423533439636230e-01,9.050059318542480469e-01,9.052580595016479492e-01,9.053188562393188477e-01,9.053307175636291504e-01,9.053287506103515625e-01,9.053283333778381348e-01,9.053283333778381348e-01,9.053283333778381348e-01,9.053283333778381348e-01,9.053283333778381348e-01,9.053283333778381348e-01,9.053283333778381348e-01,9.053283333778381348e-01,9.053283333778381348e-01,9.053283333778381348e-01,9.053283333778381348e-01,9.053283333778381348e-01,9.053283333778381348e-01,9.053283333778381348e-01,9.053283333778381348e-01,9.053283333778381348e-01,9.053277373313903809e-01,9.053338766098022461e-01,9.056549668312072754e-01,9.056386947631835938e-01,9.045925140380859375e-01,9.018094539642333984e-01,8.944065570831298828e-01,8.795038461685180664e-01,8.671123385429382324e-01,8.429691791534423828e-01,7.942664623260498047e-01,7.153662443161010742e-01,6.535108089447021484e-01,6.037479639053344727e-01,5.615651011466979980e-01,5.518972277641296387e-01,5.428953170776367188e-01,5.677410960197448730e-01,5.979431867599487305e-01,6.461706161499023438e-01,7.037451863288879395e-01,7.747948169708251953e-01,8.270407915115356445e-01,8.517292737960815430e-01,8.733768463134765625e-01,8.863493204116821289e-01,8.910539746284484863e-01,8.929857015609741211e-01,8.883197903633117676e-01,8.804273605346679688e-01,8.710578083992004395e-01,8.582119345664978027e-01,8.297365903854370117e-01,8.086950778961181641e-01,8.010827302932739258e-01,7.750766277313232422e-01,7.223832607269287109e-01,6.162922382354736328e-01
5.884729027748107910e-01,6.138988733291625977e-01,6.564638018608093262e-01,6.572213172912597656e-01,6.807278394699096680e-01,7.049436569213867188e-01,7.413117885589599609e-01,7.627186775207519531e-01,7.834940552711486816e-01,8.021336793899536133e-01,8.199256658554077148e-01,8.364288210868835449e-01,8.513953089714050293e-01,8.647271394729614258e-01,8.763753175735473633e-01,8.859137296676635742e-01,8.929371833801269531e-01,8.976854681968688965e-01,9.009732007980346680e-01,9.031087160110473633e-01,9.043349027633666992e-01,9.050054550170898438e-01,9.052594304084777832e-01,9.053182601928710938e-01,9.053307771682739258e-01,9.053288698196411133e-01,9.053283333778381348e-01,9.053283333778381348e-01,9.053283333778381348e-01,9.053283333778381348e-01,9.053283333778381348e-01,9.053283333778381348e-01,9.053283333778381348e-01,9.053283333778381348e-01,9.053283333778381348e-01,9.053283333778381348e-01,9.053283333778381348e-01,9.053283333778381348e-01,9.053283333778381348e-01,9.053283333778381348e-01,9.053283333778381348e-01,9.053283333778381348e-01,9.053241014480590820e-01,9.053212404251098633e-01,9.053815007209777832e-01,9.057967066764831543e-01,9.052926301956176758e-01,9.022404551506042480e-01,8.950787782669067383e-01,8.812340497970581055e-01,8.669151067733764648e-01,8.419082164764404297e-01,8.030375838279724121e-01,7.192792892456054688e-01,6.505701541900634766e-01,5.981249809265136719e-01,5.632215142250061035e-01,5.458837151527404785e-01,5.460394024848937988e-01,5.638763904571533203e-01,5.924413204193115234e-01,6.430761218070983887e-01,7.032887339591979980e-01,7.714861035346984863e-01,8.255209922790527344e-01,8.533776998519897461e-01,8.742710351943969727e-01,8.858186006546020508e-01,8.916555643081665039e-01,8.933340907096862793e-01,8.883578777313232422e-01,8.803958892822265625e-01,8.711284399032592773e-01,8.582289218902587891e-01,8.296732902526855469e-01,8.087034225463867188e-01,8.011081218719482422e-01,7.750996351242065430e-01,7.223896980285644531e-01,6.163018345832824707e-01
5.884659290313720703e-01,6.138875484466552734e-01,6.564506292343139648e-01,6.572061181068420410e-01,6.807107925415039062e-01,7.049257159233093262e-01,7.412928342819213867e-01,7.627014517784118652e-01,7.834745645523071289e-01,8.021132946014404297e-01,8.199123144149780273e-01,8.364161252975463867e-01,8.513838648796081543e-01,8.647167682647705078e-01,8.763560652732849121e-01,8.859021663665771484e-01,8.929389715194702148e-01,8.976818919181823730e-01,9.009667634963989258e-01,9.031097888946533203e-01,9.043335914611816406e-01,9.050043821334838867e-01,9.052594304084777832e-01,9.053182601928710938e-01,9.053307175636291504e-01,9.053288698196411133e-01,9.053283333778381348e-01,9.053283333778381348e-01,9.053283333778381348e-01,9.053283333778381348e-01,9.053283333778381348e-01,9.053283333778381348e-01,9.053283333778381348e-01,9.053283333778381348e-01,9.053283333778381348e-01,9.053283333778381348e-01,9.053283333778381348e-01,9.053283333778381348e-01,9.053283333778381348e-01,9.053283333778381348e-01,9.053283333778381348e-01,9.053283333778381348e-01,9.053276777267456055e-01,9.053108096122741699e-01,9.053262472152709961e-01,9.058399200439453125e-01,9.062086343765258789e-01,9.028333425521850586e-01,8.954032659530639648e-01,8.850625753402709961e-01,8.673468828201293945e-01,8.425161838531494141e-01,8.034281134605407715e-01,7.218950390815734863e-01,6.527907848358154297e-01,5.999935269355773926e-01,5.616287589073181152e-01,5.471813082695007324e-01,5.447053313255310059e-01,5.595829486846923828e-01,5.916730165481567383e-01,6.420943737030029297e-01,7.020217180252075195e-01,7.743654251098632812e-01,8.245227336883544922e-01,8.529756665229797363e-01,8.744397163391113281e-01,8.857713937759399414e-01,8.913651704788208008e-01,8.930698037147521973e-01,8.882685303688049316e-01,8.804073333740234375e-01,8.711404204368591309e-01,8.582229614257812500e-01,8.296897411346435547e-01,8.087217807769775391e-01,8.011205792427062988e-01,7.751116156578063965e-01,7.224010825157165527e-01,6.163106560707092285e-01
5.884590148925781250e-01,6.138763427734375000e-01,6.564376354217529297e-01,6.571908593177795410e-01,6.806938648223876953e-01,7.049084305763244629e-01,7.412751317024230957e-01,7.626832127571105957e-01,7.834569215774536133e-01,8.020951747894287109e-01,8.198952674865722656e-01,8.364014625549316406e-01,8.513693809509277344e-01,8.647041916847229004e-01,8.763452768325805664e-01,8.858933448791503906e-01,8.929316401481628418e-01,8.976774215698242188e-01,9.009641408920288086e-01,9.031083583831787109e-01,9.043330550193786621e-01,9.050039052963256836e-01,9.052593708038330078e-01,9.053181409835815430e-01,9.053306579589843750e-01,9.053288102149963379e-01,9.053283333778381348e-01,9.053283333778381348e-01,9.053283333778381348e-01,9.053283333778381348e-01,9.053283333778381348e-01,9.053283333778381348e-01,9.053283333778381348e-01,9.053283333778381348e-01,9.053283333778381348e-01,9.053283333778381348e-01,9.053283333778381348e-01,9.053283333778381348e-01,9.053283333778381348e-01,9.053283333778381348e-01,9.053283333778381348e-01,9.053283333778381348e-01,9.053258895874023438e-01,9.053114652633666992e-01,9.053158760070800781e-01,9.057936072349548340e-01,9.063199758529663086e-01,9.025044441223144531e-01,8.967898488044738770e-01,8.866951465606689453e-01,8.684538602828979492e-01,8.445641994476318359e-01,8.100166916847229004e-01,7.306108474731445312e-01,6.561877727508544922e-01,6.075952649116516113e-01,5.655084252357482910e-01,5.479761362075805664e-01,5.445928573608398438e-01,5.579551458358764648e-01,5.918883085250854492e-01,6.393301486968994141e-01,7.011778950691223145e-01,7.725477218627929688e-01,8.235657215118408203e-01,8.523764610290527344e-01,8.744380474090576172e-01,8.851819634437561035e-01,8.914955258369445801e-01,8.928498625755310059e-01,8.881825804710388184e-01,8.803470134735107422e-01,8.711533546447753906e-01,8.582336306571960449e-01,8.297035694122314453e-01,8.087359666824340820e-01,8.011332750320434570e-01,7.751244306564331055e-01,7.224119901657104492e-01,6.163170337677001953e-01
5.884521007537841797e-01,6.138653755187988281e-01,6.564247012138366699e-01,6.571756005287170410e-01,6.806772351264953613e-01,7.048911452293395996e-01,7.412578463554382324e-01,7.626660466194152832e-01,7.834393978118896484e-01,8.020778894424438477e-01,8.198785185813903809e-01,8.363859653472900391e-01,8.513553142547607422e-01,8.646913766860961914e-01,8.763340711593627930e-01,8.858848214149475098e-01,8.929257392883300781e-01,8.976733088493347168e-01,9.009612798690795898e-01,9.031068086624145508e-01,9.043320417404174805e-01,9.050033092498779297e-01,9.052591323852539062e-01,9.053180217742919922e-01,9.053307175636291504e-01,9.053288698196411133e-01,9.053283333778381348e-01,9.053283333778381348e-01,9.053283333778381348e-01,9.053283333778381348e-01,9.053283333778381348e-01,9.053283333778381348e-01,9.053283333778381348e-01,9.053283333778381348e-01,9.053283333778381348e-01,9.053283333778381348e-01,9.053283333778381348e-01,9.053283333778381348e-01,9.053283333778381348e-01,9.053283333778381348e-01,9.053283333778381348e-01,9.053283333778381348e-01,9.053283333778381348e-01,9.053185582160949707e-01,9.053443670272827148e-01,9.057651758193969727e-01,9.061353206634521484e-01,9.031649827957153320e-01,8.978054523468017578e-01,8.891627788543701172e-01,8.718552589416503906e-01,8.496942520141601562e-01,8.112778663635253906e-01,7.425363063812255859e-01,6.670852303504943848e-01,6.088114976882934570e-01,5.689507722854614258e-01,5.557968616485595703e-01,5.443174242973327637e-01,5.566930770874023438e-01,5.946764945983886719e-01,6.355244517326354980e-01,6.967522501945495605e-01,7.726049423217773438e-01,8.226498365402221680e-01,8.512414693832397461e-01,8.728570342063903809e-01,8.855668306350708008e-01,8.906220197677612305e-01,8.922529220581054688e-01,8.880159258842468262e-01,8.803719878196716309e-01,8.711536526679992676e-01,8.582425117492675781e-01,8.297156095504760742e-01,8.087491989135742188e-01,8.011460304260253906e-01,7.751367092132568359e-01,7.224218845367431641e-01,6.163241863250732422e-01
5.884454250335693359e-01,6.138544678688049316e-01,6.564118862152099609e-01,6.571608781814575195e-01,6.806609034538269043e-01,7.048740983009338379e-01,7.412407398223876953e-01,7.626488804817199707e-01,7.834222316741943359e-01,8.020609617233276367e-01,8.198623657226562500e-01,8.363708853721618652e-01,8.513414859771728516e-01,8.646792173385620117e-01,8.763233423233032227e-01,8.858761787414550781e-01,8.929196596145629883e-01,8.976691961288452148e-01,9.009581804275512695e-01,9.031050801277160645e-01,9.043311476707458496e-01,9.050028324127197266e-01,9.052590131759643555e-01,9.053180217742919922e-01,9.053307175636291504e-01,9.053288698196411133e-01,9.053283333778381348e-01,9.053283333778381348e-01,9.053283333778381348e-01,9.053283333778381348e-01,9.053283333778381348e-01,9.053283333778381348e-01,9.053283333778381348e-01,9.053283333778381348e-01,9.053283333778381348e-01,9.053283333778381348e-01,9.053283333778381348e-01,9.053283333778381348e-01,9.053283333778381348e-01,9.053283333778381348e-01,9.053283333778381348e-01,9.053283333778381348e-01,9.053283333778381348e-01,9.053204059600830078e-01,9.053117036819458008e-01,9.058356285095214844e-01,9.061781167984008789e-01,9.035621881484985352e-01,8.989083170890808105e-01,8.913416862487792969e-01,8.735298514366149902e-01,8.536902666091918945e-01,8.187654018402099609e-01,7.555083632469177246e-01,6.789316534996032715e-01,6.206635832786560059e-01,5.717443227767944336e-01,5.541214942932128906e-01,5.444201827049255371e-01,5.560792088508605957e-01,5.950024724006652832e-01,6.351383328437805176e-01,6.968892812728881836e-01,7.702630758285522461e-01,8.195178508758544922e-01,8.492895364761352539e-01,8.725454807281494141e-01,8.850870728492736816e-01,8.907345533370971680e-01,8.924654722213745117e-01,8.885165452957153320e-01,8.804645538330078125e-01,8.711928129196166992e-01,8.582491874694824219e-01,8.297271728515625000e-01,8.087618350982666016e-01,8.011586666107177734e-01,7.751490473747253418e-01,7.224320173263549805e-01,6.163313388824462891e-01
5.884391665458679199e-01,6.138442754745483398e-01,6.563996076583862305e-01,6.571461558341979980e-01,6.806448698043823242e-01,7.048578262329101562e-01,7.412241697311401367e-01,7.626319527626037598e-01,7.834056019783020020e-01,8.020443916320800781e-01,8.198465108871459961e-01,8.363559246063232422e-01,8.513278961181640625e-01,8.646668195724487305e-01,8.763125538825988770e-01,8.858675360679626465e-01,8.929135799407958984e-01,8.976653218269348145e-01,9.009552001953125000e-01,9.031033515930175781e-01,9.043302536010742188e-01,9.050022363662719727e-01,9.052590131759643555e-01,9.053180217742919922e-01,9.053307175636291504e-01,9.053288698196411133e-01,9.053283333778381348e-01,9.053283333778381348e-01,9.053283333778381348e-01,9.053283333778381348e-01,9.053283333778381348e-01,9.053283333778381348e-01,9.053283333778381348e-01,9.053283333778381348e-01,9.053283333778381348e-01,9.053283333778381348e-01,9.053283333778381348e-01,9.053283333778381348e-01,9.053283333778381348e-01,9.053283333778381348e-01,9.053283333778381348e-01,9.053283333778381348e-01,9.053288698196411133e-01,9.053251743316650391e-01,9.053215980529785156e-01,9.057421684265136719e-01,9.060699939727783203e-01,9.037578701972961426e-01,9.006671905517578125e-01,8.943122625350952148e-01,8.779873847961425781e-01,8.589280247688293457e-01,8.223388791084289551e-01,7.713443040847778320e-01,6.859859228134155273e-01,6.318938732147216797e-01,5.787428617477416992e-01,5.525969266891479492e-01,5.494886040687561035e-01,5.609003901481628418e-01,5.870606303215026855e-01,6.317423582077026367e-01,6.938419938087463379e-01,7.597253322601318359e-01,8.182208538055419922e-01,8.474479913711547852e-01,8.706753253936767578e-01,8.833581209182739258e-01,8.899279832839965820e-01,8.922386169433593750e-01,8.882420063018798828e-01,8.804328441619873047e-01,8.711884617805480957e-01,8.582606315612792969e-01,8.297388553619384766e-01,8.087745904922485352e-01,8.011714220046997070e-01,7.751615047454833984e-01,7.224422097206115723e-01,6.163384318351745605e-01
5.884337425231933594e-01,6.138346791267395020e-01,6.563882827758789062e-01,6.571323871612548828e-01,6.806294322013854980e-01,7.048417925834655762e-01,7.412077784538269043e-01,7.626157402992248535e-01,7.833891510963439941e-01,8.020280003547668457e-01,8.198310136795043945e-01,8.363412618637084961e-01,8.513147234916687012e-01,8.646547794342041016e-01,8.763022422790527344e-01,8.858591318130493164e-01,8.929077386856079102e-01,8.976614475250244141e-01,9.009524583816528320e-01,9.031016230583190918e-01,9.043291807174682617e-01,9.050017595291137695e-01,9.052589535713195801e-01,9.053179025650024414e-01,9.053307175636291504e-01,9.053288698196411133e-01,9.053283333778381348e-01,9.053283333778381348e-01,9.053283333778381348e-01,9.053283333778381348e-01,9.053283333778381348e-01,9.053283333778381348e-01,9.053283333778381348e-01,9.053283333778381348e-01,9.053283333778381348e-01,9.053283333778381348e-01,9.053283333778381348e-01,9.053283333778381348e-01,9.053283333778381348e-01,9.053283333778381348e-01,9.053283333778381348e-01,9.053283333778381348e-01,9.053286314010620117e-01,9.053281545639038086e-01,9.053128957748413086e-01,9.056934714317321777e-01,9.058250188827514648e-01,9.044331312179565430e-01,9.011024236679077148e-01,8.956440687179565430e-01,8.798832893371582031e-01,8.654416203498840332e-01,8.345248103141784668e-01,7.823231816291809082e-01,7.040240764617919922e-01,6.320434212684631348e-01,5.899856686592102051e-01,5.564884543418884277e-01,5.598394870758056641e-01,5.623975992202758789e-01,5.845890045166015625e-01,6.285037994384765625e-01,6.864709854125976562e-01,7.561059594154357910e-01,8.149530887603759766e-01,8.511834144592285156e-01,8.693948984146118164e-01,8.819700479507446289e-01,8.901072740554809570e-01,8.921830654144287109e-01,8.877061605453491211e-01,8.801792860031127930e-01,8.711409568786621094e-01,8.582651615142822266e-01,8.297501802444458008e-01,8.087874650955200195e-01,8.011841177940368652e-01,7.751736640930175781e-01,7.224524021148681641e-01,6.163454055786132812e-01
5.884287953376770020e-01,6.138263344764709473e-01,6.563782095909118652e-01,6.571199893951416016e-01,6.806152462959289551e-01,7.048269510269165039e-01,7.411922216415405273e-01,7.625999450683593750e-01,7.833732962608337402e-01,8.020123243331909180e-01,8.198159933090209961e-01,8.363275527954101562e-01,8.513019084930419922e-01,8.646433949470520020e-01,8.762920498847961426e-01,8.858511447906494141e-01,8.929021358489990234e-01,8.976577520370483398e-01,9.009497165679931641e-01,9.031001329421997070e-01,9.043283462524414062e-01,9.050012826919555664e-01,9.052587747573852539e-01,9.053179025650024414e-01,9.053307175636291504e-01,9.053288698196411133e-01,9.053283333778381348e-01,9.053283333778381348e-01,9.053283333778381348e-01,9.053283333778381348e-01,9.053283333778381348e-01,9.053283333778381348e-01,9.053283333778381348e-01,9.053283333778381348e-01,9.053283333778381348e-01,9.053283333778381348e-01,9.053283333778381348e-01,9.053283333778381348e-01,9.053283333778381348e-01,9.053283333778381348e-01,9.053283333778381348e-01,9.053283333778381348e-01,9.053283929824829102e-01,9.053257703781127930e-01,9.053066968917846680e-01,9.055780768394470215e-01,9.056968688964843750e-01,9.052996635437011719e-01,9.034543037414550781e-01,8.965249061584472656e-01,8.849030137062072754e-01,8.683907985687255859e-01,8.394701480865478516e-01,7.943449616432189941e-01,7.231307625770568848e-01,6.444647908210754395e-01,5.872928500175476074e-01,5.694707632064819336e-01,5.689856410026550293e-01,5.589895248413085938e-01,5.876090526580810547e-01,6.256148219108581543e-01,6.829701662063598633e-01,7.524006366729736328e-01,8.074023127555847168e-01,8.457325100898742676e-01,8.698960542678833008e-01,8.833385705947875977e-01,8.886437416076660156e-01,8.915914297103881836e-01,8.873382806777954102e-01,8.803429603576660156e-01,8.711138963699340820e-01,8.582781553268432617e-01,8.297617435455322266e-01,8.087999820709228516e-01,8.011967539787292480e-01,7.751859426498413086e-01,7.224623560905456543e-01,6.163524389266967773e-01
5.884242057800292969e-01,6.138188838958740234e-01,6.563689112663269043e-01,6.571095585823059082e-01,6.806029677391052246e-01,7.048135399818420410e-01,7.411783337593078613e-01,7.625854015350341797e-01,7.833583354949951172e-01,8.019971847534179688e-01,8.198014497756958008e-01,8.363140225410461426e-01,8.512894511222839355e-01,8.646323680877685547e-01,8.762819766998291016e-01,8.858431577682495117e-01,8.928964138031005859e-01,8.976540565490722656e-01,9.009469747543334961e-01,9.030987024307250977e-01,9.043276309967041016e-01,9.050009250640869141e-01,9.052587747573852539e-01,9.053179025650024414e-01,9.053307175636291504e-01,9.053288698196411133e-01,9.053283333778381348e-01,9.053283333778381348e-01,9.053283333778381348e-01,9.053283333778381348e-01,9.053283333778381348e-01,9.053283333778381348e-01,9.053283333778381348e-01,9.053283333778381348e-01,9.053283333778381348e-01,9.053283333778381348e-01,9.053283333778381348e-01,9.053283333778381348e-01,9.053283333778381348e-01,9.053283333778381348e-01,9.053283333778381348e-01,9.053283333778381348e-01,9.053283333778381348e-01,9.053241014480590820e-01,9.053045511245727539e-01,9.053694009780883789e-01,9.059728384017944336e-01,9.061163663864135742e-01,9.039760231971740723e-01,8.988999128341674805e-01,8.870224952697753906e-01,8.693102598190307617e-01,8.440847992897033691e-01,8.130877017974853516e-01,7.375789880752563477e-01,6.682541966438293457e-01,6.052199602127075195e-01,5.778188705444335938e-01,5.659946203231811523e-01,5.645505189895629883e-01,5.948822498321533203e-01,6.244583129882812500e-01,6.815905570983886719e-01,7.484439611434936523e-01,8.086457252502441406e-01,8.386529088020324707e-01,8.656783103942871094e-01,8.832017183303833008e-01,8.883292675018310547e-01,8.899747133255004883e-01,8.870999813079833984e-01,8.802257776260375977e-01,8.711769580841064453e-01,8.583055734634399414e-01,8.297731280326843262e-01,8.088128566741943359e-01,8.012093305587768555e-01,7.751981616020202637e-01,7.224726080894470215e-01,6.163595914840698242e-01
5.884199142456054688e-01,6.138117313385009766e-01,6.563602685928344727e-01,6.570997238159179688e-01,6.805918812751770020e-01,7.048020958900451660e-01,7.411663532257080078e-01,7.625725269317626953e-01,7.833449840545654297e-01,8.019832372665405273e-01,8.197877407073974609e-01,8.363012075424194336e-01,8.512775897979736328e-01,8.646215200424194336e-01,8.762727379798889160e-01,8.858354091644287109e-01,8.928910493850708008e-01,8.976504802703857422e-01,9.009442925453186035e-01,9.030970335006713867e-01,9.043266177177429199e-01,9.050004482269287109e-01,9.052586555480957031e-01,9.053179025650024414e-01,9.053307771682739258e-01,9.053288698196411133e-01,9.053283333778381348e-01,9.053283333778381348e-01,9.053283333778381348e-01,9.053283333778381348e-01,9.053283333778381348e-01,9.053283333778381348e-01,9.053283333778381348e-01,9.053283333778381348e-01,9.053283333778381348e-01,9.053283333778381348e-01,9.053283333778381348e-01,9.053283333778381348e-01,9.053283333778381348e-01,9.053283333778381348e-01,9.053283333778381348e-01,9.053283333778381348e-01,9.053283333778381348e-01,9.053277373313903809e-01,9.052997231483459473e-01,9.052791595458984375e-01,9.060832262039184570e-01,9.066772460937500000e-01,9.038509726524353027e-01,9.003449678421020508e-01,8.932003378868103027e-01,8.737518787384033203e-01,8.539763689041137695e-01,8.185870647430419922e-01,7.623082399368286133e-01,6.812351346015930176e-01,6.328997015953063965e-01,5.913302898406982422e-01,5.787091851234436035e-01,5.894547104835510254e-01,5.915114879608154297e-01,6.266429424285888672e-01,6.713105440139770508e-01,7.550814747810363770e-01,8.082725405693054199e-01,8.389419913291931152e-01,8.641386032104492188e-01,8.828408718109130859e-01,8.875862956047058105e-01,8.900198936462402344e-01,8.877493143081665039e-01,8.802830576896667480e-01,8.711587190628051758e-01,8.583037853240966797e-01,8.297846317291259766e-01,8.088252544403076172e-01,8.012220859527587891e-01,7.752104401588439941e-01,7.224826216697692871e-01,6.163666844367980957e-01
5.884152054786682129e-01,6.138042211532592773e-01,6.563521623611450195e-01,6.570904254913330078e-01,6.805816888809204102e-01,7.047913670539855957e-01,7.411552667617797852e-01,7.625614404678344727e-01,7.833333015441894531e-01,8.019709587097167969e-01,8.197758197784423828e-01,8.362892866134643555e-01,8.512662649154663086e-01,8.646114468574523926e-01,8.762637376785278320e-01,8.858283758163452148e-01,8.928860425949096680e-01,8.976471424102783203e-01,9.009418487548828125e-01,9.030956029891967773e-01,9.043257236480712891e-01,9.050000905990600586e-01,9.052585959434509277e-01,9.053179025650024414e-01,9.053307175636291504e-01,9.053288698196411133e-01,9.053283333778381348e-01,9.053283333778381348e-01,9.053283333778381348e-01,9.053283333778381348e-01,9.053283333778381348e-01,9.053283333778381348e-01,9.053283333778381348e-01,9.053283333778381348e-01,9.053283333778381348e-01,9.053283333778381348e-01,9.053283333778381348e-01,9.053283333778381348e-01,9.053283333778381348e-01,9.053283333778381348e-01,9.053283333778381348e-01,9.053283333778381348e-01,9.053283333778381348e-01,9.053264856338500977e-01,9.053109884262084961e-01,9.052768349647521973e-01,9.058781862258911133e-01,9.060325622558593750e-01,9.040133953094482422e-01,8.990772962570190430e-01,8.937890529632568359e-01,8.763759136199951172e-01,8.609715700149536133e-01,8.380450010299682617e-01,7.750429511070251465e-01,6.999536156654357910e-01,6.453124284744262695e-01,6.039917469024658203e-01,5.912503600120544434e-01,6.121448874473571777e-01,6.089147329330444336e-01,6.236582398414611816e-01,6.906578540802001953e-01,7.561694383621215820e-01,8.124896287918090820e-01,8.411062955856323242e-01,8.651427626609802246e-01,8.801712393760681152e-01,8.880686759948730469e-01,8.909854888916015625e-01,8.876413106918334961e-01,8.804377913475036621e-01,8.712160587310791016e-01,8.583028316497802734e-01,8.297961950302124023e-01,8.088380098342895508e-01,8.012348413467407227e-01,7.752227783203125000e-01,7.224928140640258789e-01,6.163738965988159180e-01
5.884099602699279785e-01,6.137963533401489258e-01,6.563436985015869141e-01,6.570804119110107422e-01,6.805711984634399414e-01,7.047809958457946777e-01,7.411448955535888672e-01,7.625510692596435547e-01,7.833226919174194336e-01,8.019604086875915527e-01,8.197654485702514648e-01,8.362790346145629883e-01,8.512563705444335938e-01,8.646022081375122070e-01,8.762555122375488281e-01,8.858217597007751465e-01,8.928811550140380859e-01,8.976439237594604492e-01,9.009397029876708984e-01,9.030943512916564941e-01,9.043250083923339844e-01,9.049995541572570801e-01,9.052584767341613770e-01,9.053179025650024414e-01,9.053307175636291504e-01,9.053288698196411133e-01,9.053283333778381348e-01,9.053283333778381348e-01,9.053283333778381348e-01,9.053283333778381348e-01,9.053283333778381348e-01,9.053283333778381348e-01,9.053283333778381348e-01,9.053283333778381348e-01,9.053283333778381348e-01,9.053283333778381348e-01,9.053283333778381348e-01,9.053283333778381348e-01,9.053283333778381348e-01,9.053283333778381348e-01,9.053283333778381348e-01,9.053283333778381348e-01,9.053283333778381348e-01,9.053285121917724609e-01,9.053194522857666016e-01,9.053254127502441406e-01,9.057725667953491211e-01,9.056946039199829102e-01,9.047671556472778320e-01,9.013326764106750488e-01,8.944035768508911133e-01,8.801077604293823242e-01,8.662326931953430176e-01,8.424754142761230469e-01,7.940053939819335938e-01,7.126948833465576172e-01,6.563761234283447266e-01,6.279527544975280762e-01,6.243322491645812988e-01,6.132380366325378418e-01,6.223769783973693848e-01,6.557653546333312988e-01,7.147958278656005859e-01,7.570099830627441406e-01,8.153171539306640625e-01,8.496450185775756836e-01,8.707718849182128906e-01,8.805637359619140625e-01,8.901219367980957031e-01,8.929221630096435547e-01,8.883552551269531250e-01,8.803473114967346191e-01,8.712470531463623047e-01,8.583189845085144043e-01,8.298076987266540527e-01,8.088508248329162598e-01,8.012474179267883301e-01,7.752351760864257812e-01,7.225031852722167969e-01,6.163809299468994141e-01
5.884045958518981934e-01,6.137877702713012695e-01,6.563337445259094238e-01,6.570693254470825195e-01,6.805599927902221680e-01,7.047697305679321289e-01,7.411341667175292969e-01,7.625406980514526367e-01,7.833125591278076172e-01,8.019502758979797363e-01,8.197553753852844238e-01,8.362693786621093750e-01,8.512470126152038574e-01,8.645933866500854492e-01,8.762475252151489258e-01,8.858152031898498535e-01,8.928756713867187500e-01,8.976398706436157227e-01,9.009362459182739258e-01,9.030915498733520508e-01,9.043226838111877441e-01,9.049974679946899414e-01,9.052566289901733398e-01,9.053159356117248535e-01,9.053288698196411133e-01,9.053270220756530762e-01,9.053264856338500977e-01,9.053264856338500977e-01,9.053264856338500977e-01,9.053264856338500977e-01,9.053264856338500977e-01,9.053264856338500977e-01,9.053264856338500977e-01,9.053264260292053223e-01,9.053264260292053223e-01,9.053264260292053223e-01,9.053263664245605469e-01,9.053264260292053223e-01,9.053263664245605469e-01,9.053263664245605469e-01,9.053263664245605469e-01,9.053263664245605469e-01,9.053262472152709961e-01,9.053263664245605469e-01,9.053219556808471680e-01,9.052919149398803711e-01,9.054672718048095703e-01,9.054839611053466797e-01,9.043291807174682617e-01,9.009103178977966309e-01,8.937121629714965820e-01,8.804992437362670898e-01,8.699175715446472168e-01,8.427614569664001465e-01,8.104444146156311035e-01,7.338867187500000000e-01,6.616098880767822266e-01,6.585413217544555664e-01,6.397470235824584961e-01,6.392517089843750000e-01,6.161289811134338379e-01,6.762014627456665039e-01,7.247292399406433105e-01,7.783902287483215332e-01,8.225944042205810547e-01,8.559353351593017578e-01,8.758301734924316406e-01,8.862133622169494629e-01,8.932626247406005859e-01,8.933147192001342773e-01,8.887715339660644531e-01,8.802618980407714844e-01,8.711923360824584961e-01,8.583273887634277344e-01,8.298189043998718262e-01,8.088636398315429688e-01,8.012604713439941406e-01,7.752476930618286133e-01,7.225135564804077148e-01,6.163883805274963379e-01
5.883987545967102051e-01,6.137781143188476562e-01,6.563228964805603027e-01,6.570562124252319336e-01,6.805446147918701172e-01,7.047532796859741211e-01,7.411177754402160645e-01,7.625244855880737305e-01,7.832962274551391602e-01,8.019341230392456055e-01,8.197401762008666992e-01,8.362542986869812012e-01,8.512318134307861328e-01,8.645792007446289062e-01,8.762345314025878906e-01,8.858034610748291016e-01,8.928656578063964844e-01,8.976315259933471680e-01,9.009281992912292480e-01,9.030838012695312500e-01,9.043152332305908203e-01,9.049903154373168945e-01,9.052500128746032715e-01,9.053096771240234375e-01,9.053227305412292480e-01,9.053209424018859863e-01,9.053205251693725586e-01,9.053205251693725586e-01,9.053205847740173340e-01,9.053205847740173340e-01,9.053206443786621094e-01,9.053206443786621094e-01,9.053206443786621094e-01,9.053207635879516602e-01,9.053207635879516602e-01,9.053207635879516602e-01,9.053208827972412109e-01,9.053209424018859863e-01,9.053209424018859863e-01,9.053210020065307617e-01,9.053210020065307617e-01,9.053211212158203125e-01,9.053211212158203125e-01,9.053218364715576172e-01,9.053268432617187500e-01,9.053117036819458008e-01,9.053336381912231445e-01,9.056627750396728516e-01,9.045731425285339355e-01,9.009768962860107422e-01,8.917890787124633789e-01,8.850154876708984375e-01,8.712269067764282227e-01,8.510090112686157227e-01,8.082495331764221191e-01,7.346567511558532715e-01,6.802231073379516602e-01,6.811668276786804199e-01,6.785744428634643555e-01,6.486416459083557129e-01,6.521224379539489746e-01,6.875838637351989746e-01,7.394633889198303223e-01,7.960542440414428711e-01,8.404979705810546875e-01,8.583405017852783203e-01,8.777422904968261719e-01,8.885272741317749023e-01,8.955668807029724121e-01,8.942359089851379395e-01,8.885389566421508789e-01,8.805013895034790039e-01,8.711822628974914551e-01,8.583285808563232422e-01,8.298216462135314941e-01,8.088690638542175293e-01,8.012666702270507812e-01,7.752528190612792969e-01,7.225154638290405273e-01,6.163891553878784180e-01
5.883880257606506348e-01,6.137644052505493164e-01,6.563068628311157227e-01,6.570425033569335938e-01,6.805311441421508789e-01,7.047387361526489258e-01,7.411046028137207031e-01,7.625168561935424805e-01,7.832957506179809570e-01,8.019413948059082031e-01,8.197579979896545410e-01,8.362859487533569336e-01,8.512828350067138672e-01,8.646470308303833008e-01,8.763041496276855469e-01,8.858629465103149414e-01,8.929132819175720215e-01,8.976702690124511719e-01,9.009685516357421875e-01,9.031347036361694336e-01,9.043723344802856445e-01,9.050531387329101562e-01,9.053155779838562012e-01,9.053767919540405273e-01,9.053903818130493164e-01,9.053887128829956055e-01,9.053886532783508301e-01,9.053888320922851562e-01,9.053891897201538086e-01,9.053894281387329102e-01,9.053896665573120117e-01,9.053899645805358887e-01,9.053902626037597656e-01,9.053905010223388672e-01,9.053906798362731934e-01,9.053910970687866211e-01,9.053912758827209473e-01,9.053914546966552734e-01,9.053918123245239258e-01,9.053921103477478027e-01,9.053922891616821289e-01,9.053925275802612305e-01,9.053928852081298828e-01,9.053934812545776367e-01,9.053978919982910156e-01,9.053885340690612793e-01,9.053472280502319336e-01,9.050564765930175781e-01,9.047456383705139160e-01,8.990051746368408203e-01,8.919860124588012695e-01,8.871231079101562500e-01,8.734151124954223633e-01,8.555097579956054688e-01,8.183678984642028809e-01,7.349411249160766602e-01,7.145552635192871094e-01,6.931827068328857422e-01,7.040079832077026367e-01,6.666375398635864258e-01,6.808719038963317871e-01,7.082924842834472656e-01,7.661772370338439941e-01,8.162246346473693848e-01,8.474748730659484863e-01,8.622555732727050781e-01,8.793815374374389648e-01,8.899446725845336914e-01,8.962079882621765137e-01,8.951324224472045898e-01,8.886171579360961914e-01,8.805183768272399902e-01,8.713112473487854004e-01,8.583962321281433105e-01,8.298877477645874023e-01,8.089156746864318848e-01,8.012969493865966797e-01,7.752715945243835449e-01,7.225141525268554688e-01,6.163887381553649902e-01
5.883947610855102539e-01,6.137729883193969727e-01,6.563134193420410156e-01,6.570604443550109863e-01,6.805597543716430664e-01,7.048003673553466797e-01,7.412174344062805176e-01,7.626779079437255859e-01,7.834831476211547852e-01,8.021415472030639648e-01,8.199598789215087891e-01,8.364852070808410645e-01,8.514593839645385742e-01,8.647922873497009277e-01,8.764210939407348633e-01,8.859446048736572266e-01,8.929831981658935547e-01,8.977724313735961914e-01,9.010930061340332031e-01,9.032580852508544922e-01,9.044927358627319336e-01,9.051685929298400879e-01,9.054245948791503906e-01,9.054826498031616211e-01,9.054936170578002930e-01,9.054911136627197266e-01,9.054898023605346680e-01,9.054889082908630371e-01,9.054880738258361816e-01,9.054870605468750000e-01,9.054862260818481445e-01,9.054853916168212891e-01,9.054844379425048828e-01,9.054836034774780273e-01,9.054828286170959473e-01,9.054819345474243164e-01,9.054811000823974609e-01,9.054801464080810547e-01,9.054793119430541992e-01,9.054784774780273438e-01,9.054775238037109375e-01,9.054766893386840820e-01,9.054758548736572266e-01,9.054750800132751465e-01,9.054802060127258301e-01,9.054931402206420898e-01,9.054660797119140625e-01,9.052299261093139648e-01,9.048197269439697266e-01,8.981544375419616699e-01,8.913779258728027344e-01,8.859778046607971191e-01,8.763918876647949219e-01,8.596055507659912109e-01,8.078373074531555176e-01,7.441278696060180664e-01,7.371503114700317383e-01,7.347871661186218262e-01,7.131408452987670898e-01,7.060639262199401855e-01,7.027059197425842285e-01,7.300098538398742676e-01,7.758901715278625488e-01,8.352557420730590820e-01,8.577922582626342773e-01,8.695838451385498047e-01,8.838688731193542480e-01,8.932217359542846680e-01,8.960683941841125488e-01,8.951845765113830566e-01,8.888686895370483398e-01,8.808651566505432129e-01,8.714242577552795410e-01,8.585561513900756836e-01,8.301157951354980469e-01,8.091616630554199219e-01,8.015521764755249023e-01,7.755194902420043945e-01,7.227985858917236328e-01,6.167848110198974609e-01
5.885772705078125000e-01,6.139503717422485352e-01,6.565669178962707520e-01,6.573167443275451660e-01,6.808086037635803223e-01,7.049652338027954102e-01,7.413055896759033203e-01,7.626904249191284180e-01,7.833564281463623047e-01,8.018837571144104004e-01,8.195850849151611328e-01,8.359755277633666992e-01,8.508594036102294922e-01,8.641103506088256836e-01,8.756401538848876953e-01,8.851377367973327637e-01,8.922108411788940430e-01,8.969807624816894531e-01,9.002737402915954590e-01,9.024295210838317871e-01,9.036749005317687988e-01,9.043312668800354004e-01,9.045724868774414062e-01,9.046295285224914551e-01,9.046416282653808594e-01,9.046392440795898438e-01,9.046376943588256836e-01,9.046368598937988281e-01,9.046360254287719727e-01,9.046350121498107910e-01,9.046341776847839355e-01,9.046332240104675293e-01,9.046323299407958984e-01,9.046314954757690430e-01,9.046305418014526367e-01,9.046295881271362305e-01,9.046286344528198242e-01,9.046277999877929688e-01,9.046267867088317871e-01,9.046257734298706055e-01,9.046249389648437500e-01,9.046240448951721191e-01,9.046231508255004883e-01,9.046222567558288574e-01,9.046254754066467285e-01,9.046450853347778320e-01,9.046136736869812012e-01,9.048184156417846680e-01,9.031807184219360352e-01,8.975340127944946289e-01,8.909307718276977539e-01,8.879581689834594727e-01,8.793241977691650391e-01,8.575057983398437500e-01,8.090820312500000000e-01,7.629615068435668945e-01,7.650198936462402344e-01,7.575446367263793945e-01,7.511221170425415039e-01,7.099297046661376953e-01,7.236898541450500488e-01,7.470080256462097168e-01,8.067262172698974609e-01,8.380056619644165039e-01,8.575168848037719727e-01,8.761613368988037109e-01,8.838986754417419434e-01,8.940256834030151367e-01,8.962561488151550293e-01,8.942577838897705078e-01,8.880697488784790039e-01,8.799325227737426758e-01,8.706511259078979492e-01,8.577973842620849609e-01,8.292593955993652344e-01,8.083075881004333496e-01,8.009107708930969238e-01,7.746573090553283691e-01,7.219787836074829102e-01,6.162480115890502930e-01
5.889346599578857422e-01,6.138230562210083008e-01,6.562405824661254883e-01,6.566758155822753906e-01,6.799232959747314453e-01,7.037621736526489258e-01,7.398900985717773438e-01,7.610039710998535156e-01,7.815113067626953125e-01,7.999084591865539551e-01,8.175216913223266602e-01,8.339118957519531250e-01,8.489220738410949707e-01,8.623839616775512695e-01,8.741679191589355469e-01,8.838949203491210938e-01,8.910554647445678711e-01,8.958866596221923828e-01,8.992756605148315430e-01,9.014958143234252930e-01,9.027296304702758789e-01,9.033836126327514648e-01,9.036414623260498047e-01,9.037145376205444336e-01,9.037274122238159180e-01,9.037251472473144531e-01,9.037236571311950684e-01,9.037225246429443359e-01,9.037215113639831543e-01,9.037204980850219727e-01,9.037194252014160156e-01,9.037184119224548340e-01,9.037173390388488770e-01,9.037162065505981445e-01,9.037153124809265137e-01,9.037141799926757812e-01,9.037131071090698242e-01,9.037119746208190918e-01,9.037108421325683594e-01,9.037097692489624023e-01,9.037088155746459961e-01,9.037077426910400391e-01,9.037066698074340820e-01,9.037056565284729004e-01,9.037119746208190918e-01,9.037326574325561523e-01,9.036924839019775391e-01,9.040147662162780762e-01,9.015217423439025879e-01,8.961431980133056641e-01,8.889318704605102539e-01,8.905360698699951172e-01,8.825134634971618652e-01,8.599472045898437500e-01,8.094762563705444336e-01,7.805277705192565918e-01,7.788762450218200684e-01,7.723326683044433594e-01,7.715278863906860352e-01,7.434684038162231445e-01,7.343024015426635742e-01,7.703396081924438477e-01,8.246390223503112793e-01,8.472567796707153320e-01,8.589046001434326172e-01,8.774741888046264648e-01,8.866787552833557129e-01,8.947994709014892578e-01,8.970272541046142578e-01,8.930950760841369629e-01,8.877004384994506836e-01,8.793470859527587891e-01,8.700964450836181641e-01,8.571861982345581055e-01,8.286668062210083008e-01,8.075650930404663086e-01,8.000969886779785156e-01,7.738294601440429688e-01,7.208218574523925781e-01,6.147254705429077148e-01
5.881906151771545410e-01,6.121504902839660645e-01,6.544495224952697754e-01,6.547895669937133789e-01,6.775807738304138184e-01,7.009658217430114746e-01,7.370852231979370117e-01,7.582447528839111328e-01,7.788009643554687500e-01,7.971975803375244141e-01,8.147938251495361328e-01,8.312962055206298828e-01,8.464367389678955078e-01,8.599824905395507812e-01,8.718586564064025879e-01,8.816269040107727051e-01,8.889305591583251953e-01,8.940083980560302734e-01,8.974863290786743164e-01,8.997211456298828125e-01,9.009755253791809082e-01,9.016542434692382812e-01,9.019176363945007324e-01,9.019799232482910156e-01,9.019867777824401855e-01,9.019795656204223633e-01,9.019730091094970703e-01,9.019669294357299805e-01,9.019608497619628906e-01,9.019546508789062500e-01,9.019486904144287109e-01,9.019424915313720703e-01,9.019364714622497559e-01,9.019303321838378906e-01,9.019240736961364746e-01,9.019181728363037109e-01,9.019119739532470703e-01,9.019058942794799805e-01,9.018998146057128906e-01,9.018937945365905762e-01,9.018876552581787109e-01,9.018816947937011719e-01,9.018754959106445312e-01,9.018692970275878906e-01,9.018716812133789062e-01,9.018775224685668945e-01,9.019632339477539062e-01,9.020819664001464844e-01,9.002230763435363770e-01,8.940562009811401367e-01,8.892884254455566406e-01,8.901375532150268555e-01,8.817327022552490234e-01,8.610681295394897461e-01,8.096548318862915039e-01,8.037579655647277832e-01,7.924550771713256836e-01,8.045177459716796875e-01,7.813624739646911621e-01,7.548296451568603516e-01,7.437850832939147949e-01,7.942165732383728027e-01,8.386771678924560547e-01,8.502048850059509277e-01,8.633536100387573242e-01,8.758710026741027832e-01,8.856071233749389648e-01,8.936676979064941406e-01,8.958880305290222168e-01,8.919875025749206543e-01,8.863821625709533691e-01,8.778493404388427734e-01,8.685760498046875000e-01,8.557809591293334961e-01,8.273826837539672852e-01,8.065268993377685547e-01,7.989591360092163086e-01,7.723737955093383789e-01,7.195342183113098145e-01,6.129421591758728027e-01
5.862545967102050781e-01,6.094359159469604492e-01,6.514788269996643066e-01,6.515432596206665039e-01,6.740747690200805664e-01,6.969108581542968750e-01,7.324764728546142578e-01,7.531195878982543945e-01,7.730036973953247070e-01,7.909468412399291992e-01,8.082771301269531250e-01,8.245579004287719727e-01,8.395522832870483398e-01,8.531508445739746094e-01,8.651037812232971191e-01,8.749606609344482422e-01,8.823366165161132812e-01,8.874366283416748047e-01,8.910169601440429688e-01,8.932563066482543945e-01,8.945027589797973633e-01,8.952053785324096680e-01,8.954697251319885254e-01,8.955245018005371094e-01,8.955231904983520508e-01,8.955119848251342773e-01,8.955022096633911133e-01,8.954931497573852539e-01,8.954839706420898438e-01,8.954747915267944336e-01,8.954656124114990234e-01,8.954565525054931641e-01,8.954473733901977539e-01,8.954381942749023438e-01,8.954291343688964844e-01,8.954199552536010742e-01,8.954108953475952148e-01,8.954016566276550293e-01,8.953926563262939453e-01,8.953835964202880859e-01,8.953743577003479004e-01,8.953652977943420410e-01,8.953560590744018555e-01,8.953469991683959961e-01,8.953388929367065430e-01,8.953577280044555664e-01,8.955487012863159180e-01,8.955562114715576172e-01,8.930405378341674805e-01,8.879001140594482422e-01,8.856540918350219727e-01,8.854030370712280273e-01,8.768381476402282715e-01,8.531948328018188477e-01,8.182354569435119629e-01,8.066418766975402832e-01,8.002553582191467285e-01,8.103317022323608398e-01,7.936429977416992188e-01,7.616472244262695312e-01,7.691407203674316406e-01,7.968700528144836426e-01,8.345575928688049316e-01,8.475211858749389648e-01,8.620418310165405273e-01,8.725883960723876953e-01,8.844191431999206543e-01,8.899627923965454102e-01,8.895522356033325195e-01,8.860052824020385742e-01,8.805633783340454102e-01,8.723335266113281250e-01,8.629364967346191406e-01,8.499869108200073242e-01,8.217636346817016602e-01,8.014952540397644043e-01,7.943638563156127930e-01,7.679697871208190918e-01,7.155206203460693359e-01,6.079427003860473633e-01
5.823470354080200195e-01,6.035615801811218262e-01,6.450680494308471680e-01,6.443603038787841797e-01,6.657190322875976562e-01,6.876918673515319824e-01,7.224051952362060547e-01,7.425880432128906250e-01,7.617992162704467773e-01,7.788727283477783203e-01,7.956066131591796875e-01,8.115664720535278320e-01,8.266252279281616211e-01,8.405203819274902344e-01,8.527916073799133301e-01,8.630740642547607422e-01,8.709447979927062988e-01,8.763757944107055664e-01,8.801447153091430664e-01,8.825231194496154785e-01,8.838614225387573242e-01,8.845167160034179688e-01,8.847188949584960938e-01,8.847367167472839355e-01,8.847260475158691406e-01,8.847031593322753906e-01,8.846824169158935547e-01,8.846619129180908203e-01,8.846418261528015137e-01,8.846216201782226562e-01,8.846012353897094727e-01,8.845808506011962891e-01,8.845605254173278809e-01,8.845403790473937988e-01,8.845201134681701660e-01,8.844999670982360840e-01,8.844795227050781250e-01,8.844593763351440430e-01,8.844389915466308594e-01,8.844188451766967773e-01,8.843986988067626953e-01,8.843784332275390625e-01,8.843581080436706543e-01,8.843379020690917969e-01,8.843177556991577148e-01,8.843162059783935547e-01,8.845317363739013672e-01,8.846083879470825195e-01,8.815805912017822266e-01,8.777703046798706055e-01,8.767100572586059570e-01,8.745113015174865723e-01,8.642103672027587891e-01,8.450442552566528320e-01,8.178797960281372070e-01,8.006393909454345703e-01,8.058269619941711426e-01,8.055304884910583496e-01,7.891422510147094727e-01,7.581570148468017578e-01,7.680779695510864258e-01,7.997100353240966797e-01,8.189939260482788086e-01,8.404364585876464844e-01,8.546917438507080078e-01,8.632933497428894043e-01,8.740608692169189453e-01,8.788437843322753906e-01,8.790408372879028320e-01,8.752377033233642578e-01,8.697443008422851562e-01,8.618801832199096680e-01,8.528783321380615234e-01,8.399116992950439453e-01,8.111970424652099609e-01,7.921258211135864258e-01,7.858285307884216309e-01,7.610073089599609375e-01,7.075273394584655762e-01,6.019633412361145020e-01
5.752024054527282715e-01,5.937505960464477539e-01,6.341865062713623047e-01,6.314063072204589844e-01,6.507626771926879883e-01,6.714961528778076172e-01,7.052952051162719727e-01,7.246504426002502441e-01,7.430998682975769043e-01,7.594729661941528320e-01,7.753013372421264648e-01,7.904874682426452637e-01,8.051456212997436523e-01,8.185900449752807617e-01,8.304735422134399414e-01,8.404281139373779297e-01,8.479073643684387207e-01,8.532828092575073242e-01,8.570435047149658203e-01,8.593936562538146973e-01,8.606336712837219238e-01,8.611832857131958008e-01,8.613170385360717773e-01,8.613213300704956055e-01,8.612891435623168945e-01,8.612496852874755859e-01,8.612124323844909668e-01,8.611752986907958984e-01,8.611382246017456055e-01,8.611011505126953125e-01,8.610640764236450195e-01,8.610270023345947266e-01,8.609898686408996582e-01,8.609528541564941406e-01,8.609158396720886230e-01,8.608786463737487793e-01,8.608415126800537109e-01,8.608047962188720703e-01,8.607674241065979004e-01,8.607302904129028320e-01,8.606934547424316406e-01,8.606564402580261230e-01,8.606194257736206055e-01,8.605824112892150879e-01,8.605405092239379883e-01,8.605156540870666504e-01,8.609796166419982910e-01,8.612974882125854492e-01,8.575920462608337402e-01,8.558131456375122070e-01,8.555738329887390137e-01,8.496965169906616211e-01,8.383083343505859375e-01,8.244590759277343750e-01,7.955236434936523438e-01,7.921906709671020508e-01,7.906012535095214844e-01,7.802865505218505859e-01,7.596818208694458008e-01,7.417688965797424316e-01,7.448015213012695312e-01,7.883265018463134766e-01,8.003123998641967773e-01,8.128792047500610352e-01,8.297377824783325195e-01,8.405915498733520508e-01,8.526788949966430664e-01,8.563860654830932617e-01,8.556746840476989746e-01,8.521704673767089844e-01,8.467048406600952148e-01,8.389522433280944824e-01,8.302744626998901367e-01,8.173177838325500488e-01,7.881246805191040039e-01,7.704263925552368164e-01,7.674628496170043945e-01,7.442878484725952148e-01,6.928594112396240234e-01,5.924727916717529297e-01
5.642392039299011230e-01,5.783771872520446777e-01,6.170486211776733398e-01,6.110085844993591309e-01,6.274149417877197266e-01,6.464112401008605957e-01,6.783326864242553711e-01,6.956827640533447266e-01,7.117296457290649414e-01,7.257403135299682617e-01,7.394005656242370605e-01,7.528209686279296875e-01,7.661379575729370117e-01,7.786044478416442871e-01,7.895347476005554199e-01,7.988240122795104980e-01,8.062250614166259766e-01,8.115613460540771484e-01,8.152928352355957031e-01,8.175960779190063477e-01,8.186782598495483398e-01,8.189525008201599121e-01,8.189750909805297852e-01,8.189501762390136719e-01,8.189011812210083008e-01,8.188403844833374023e-01,8.187808394432067871e-01,8.187220096588134766e-01,8.186629414558410645e-01,8.186038732528686523e-01,8.185447454452514648e-01,8.184860348701477051e-01,8.184268474578857422e-01,8.183678984642028809e-01,8.183089494705200195e-01,8.182499408721923828e-01,8.181910514831542969e-01,8.181321620941162109e-01,8.180731534957885742e-01,8.180142641067504883e-01,8.179552555084228516e-01,8.178962469100952148e-01,8.178372979164123535e-01,8.177785873413085938e-01,8.177148103713989258e-01,8.176418542861938477e-01,8.184118866920471191e-01,8.177358508110046387e-01,8.139442205429077148e-01,8.141080141067504883e-01,8.168607950210571289e-01,8.048436641693115234e-01,7.949047088623046875e-01,7.780724763870239258e-01,7.568653821945190430e-01,7.635120749473571777e-01,7.602642774581909180e-01,7.394663691520690918e-01,7.290087342262268066e-01,7.066224217414855957e-01,7.183969616889953613e-01,7.424526214599609375e-01,7.606147527694702148e-01,7.690581083297729492e-01,7.852149009704589844e-01,7.961170077323913574e-01,8.095152974128723145e-01,8.133684396743774414e-01,8.117647171020507812e-01,8.097215294837951660e-01,8.044587373733520508e-01,7.972316741943359375e-01,7.896643877029418945e-01,7.776694297790527344e-01,7.482562065124511719e-01,7.333580255508422852e-01,7.347693443298339844e-01,7.137553095817565918e-01,6.687912344932556152e-01,5.797325372695922852e-01
5.497249364852905273e-01,5.539379119873046875e-01,5.888132452964782715e-01,5.787607431411743164e-01,5.919223427772521973e-01,6.082129478454589844e-01,6.378246545791625977e-01,6.524331569671630859e-01,6.663231253623962402e-01,6.780696511268615723e-01,6.894905567169189453e-01,7.006263732910156250e-01,7.116240262985229492e-01,7.215005159378051758e-01,7.303577065467834473e-01,7.380208373069763184e-01,7.437712550163269043e-01,7.477726340293884277e-01,7.504821419715881348e-01,7.519782185554504395e-01,7.524073123931884766e-01,7.524735927581787109e-01,7.524485588073730469e-01,7.523856163024902344e-01,7.523174285888671875e-01,7.522323131561279297e-01,7.521494626998901367e-01,7.520669698715209961e-01,7.519844174385070801e-01,7.519018054008483887e-01,7.518192529678344727e-01,7.517368793487548828e-01,7.516543865203857422e-01,7.515720129013061523e-01,7.514894008636474609e-01,7.514070272445678711e-01,7.513244748115539551e-01,7.512419223785400391e-01,7.511595487594604492e-01,7.510770559310913086e-01,7.509948015213012695e-01,7.509125471115112305e-01,7.508301734924316406e-01,7.507477402687072754e-01,7.506605386734008789e-01,7.505630850791931152e-01,7.513955831527709961e-01,7.497780919075012207e-01,7.472374439239501953e-01,7.466365098953247070e-01,7.500488758087158203e-01,7.338042259216308594e-01,7.341336011886596680e-01,7.215299010276794434e-01,6.955931186676025391e-01,7.015383839607238770e-01,6.958575248718261719e-01,6.728508472442626953e-01,6.753845214843750000e-01,6.639503240585327148e-01,6.594862937927246094e-01,6.919311285018920898e-01,6.989933252334594727e-01,7.073348760604858398e-01,7.206898331642150879e-01,7.374238967895507812e-01,7.430826425552368164e-01,7.457892894744873047e-01,7.441515326499938965e-01,7.415350675582885742e-01,7.366535663604736328e-01,7.303326129913330078e-01,7.243674993515014648e-01,7.131328582763671875e-01,6.837232112884521484e-01,6.730015277862548828e-01,6.818921566009521484e-01,6.630930900573730469e-01,6.337926983833312988e-01,5.564900040626525879e-01
5.325044989585876465e-01,5.236876010894775391e-01,5.544964671134948730e-01,5.385835170745849609e-01,5.464456081390380859e-01,5.592995882034301758e-01,5.835189223289489746e-01,5.946909189224243164e-01,6.051654815673828125e-01,6.132957935333251953e-01,6.213158369064331055e-01,6.292418241500854492e-01,6.369070410728454590e-01,6.437565684318542480e-01,6.499301195144653320e-01,6.547388434410095215e-01,6.579710245132446289e-01,6.604022383689880371e-01,6.619713306427001953e-01,6.628122925758361816e-01,6.630305051803588867e-01,6.629925966262817383e-01,6.628900766372680664e-01,6.628063917160034180e-01,6.627244949340820312e-01,6.626339554786682129e-01,6.625456809997558594e-01,6.624580621719360352e-01,6.623702645301818848e-01,6.622825860977172852e-01,6.621948480606079102e-01,6.621069908142089844e-01,6.620193719863891602e-01,6.619316935539245605e-01,6.618441343307495117e-01,6.617563962936401367e-01,6.616688966751098633e-01,6.615812182426452637e-01,6.614935994148254395e-01,6.614060997962951660e-01,6.613185405731201172e-01,6.612311005592346191e-01,6.611434221267700195e-01,6.610561609268188477e-01,6.609545946121215820e-01,6.608097553253173828e-01,6.617432236671447754e-01,6.595050096511840820e-01,6.586294770240783691e-01,6.593706607818603516e-01,6.581252813339233398e-01,6.447126865386962891e-01,6.453377008438110352e-01,6.338280439376831055e-01,6.243661046028137207e-01,6.346499919891357422e-01,6.146768331527709961e-01,6.039724946022033691e-01,6.035914421081542969e-01,5.911049842834472656e-01,5.905637741088867188e-01,6.169645786285400391e-01,6.207373738288879395e-01,6.283430457115173340e-01,6.430386304855346680e-01,6.519970297813415527e-01,6.558657288551330566e-01,6.567904949188232422e-01,6.546187400817871094e-01,6.525565981864929199e-01,6.491813659667968750e-01,6.443809270858764648e-01,6.405213475227355957e-01,6.308518648147583008e-01,6.033957600593566895e-01,5.960185527801513672e-01,6.116226315498352051e-01,5.968333482742309570e-01,5.879986286163330078e-01,5.268709659576416016e-01
5.115475058555603027e-01,4.893321394920349121e-01,5.141229629516601562e-01,4.908641576766967773e-01,4.924249649047851562e-01,5.010062456130981445e-01,5.196034908294677734e-01,5.275462269783020020e-01,5.347075462341308594e-01,5.395484566688537598e-01,5.444177985191345215e-01,5.495181679725646973e-01,5.544921159744262695e-01,5.588316321372985840e-01,5.624828934669494629e-01,5.651912689208984375e-01,5.674928426742553711e-01,5.691069364547729492e-01,5.701993703842163086e-01,5.706986784934997559e-01,5.708016157150268555e-01,5.707228183746337891e-01,5.705801844596862793e-01,5.705110430717468262e-01,5.704143047332763672e-01,5.703254342079162598e-01,5.702378749847412109e-01,5.701507329940795898e-01,5.700635313987731934e-01,5.699763894081115723e-01,5.698893070220947266e-01,5.698022842407226562e-01,5.697153210639953613e-01,5.696282386779785156e-01,5.695413351058959961e-01,5.694544315338134766e-01,5.693673491477966309e-01,5.692805051803588867e-01,5.691935420036315918e-01,5.691066384315490723e-01,5.690198540687561035e-01,5.689328908920288086e-01,5.688463449478149414e-01,5.687593221664428711e-01,5.686614513397216797e-01,5.685167908668518066e-01,5.688990354537963867e-01,5.679799318313598633e-01,5.663267374038696289e-01,5.683193206787109375e-01,5.663960576057434082e-01,5.563365221023559570e-01,5.546864867210388184e-01,5.438363552093505859e-01,5.541070103645324707e-01,5.490010380744934082e-01,5.307356119155883789e-01,5.249974727630615234e-01,5.257042646408081055e-01,5.180666446685791016e-01,5.323132276535034180e-01,5.341781377792358398e-01,5.417190194129943848e-01,5.446767210960388184e-01,5.539423227310180664e-01,5.615891218185424805e-01,5.652638673782348633e-01,5.658345222473144531e-01,5.645787119865417480e-01,5.623248815536499023e-01,5.592741370201110840e-01,5.556588172912597656e-01,5.537349581718444824e-01,5.455603003501892090e-01,5.215088725090026855e-01,5.173976421356201172e-01,5.384222865104675293e-01,5.280733108520507812e-01,5.396795868873596191e-01,4.965140521526336670e-01
4.905605316162109375e-01,4.556712806224822998e-01,4.712952971458435059e-01,4.408659338951110840e-01,4.361932277679443359e-01,4.405625760555267334e-01,4.539841115474700928e-01,4.580744206905364990e-01,4.623958170413970947e-01,4.647244513034820557e-01,4.672734439373016357e-01,4.700841009616851807e-01,4.728554785251617432e-01,4.754844009876251221e-01,4.777928888797760010e-01,4.795178472995758057e-01,4.807960987091064453e-01,4.817647635936737061e-01,4.823696911334991455e-01,4.826341867446899414e-01,4.826852083206176758e-01,4.826779067516326904e-01,4.825989902019500732e-01,4.824987351894378662e-01,4.824152886867523193e-01,4.823414385318756104e-01,4.822682142257690430e-01,4.821948707103729248e-01,4.821219146251678467e-01,4.820488095283508301e-01,4.819757342338562012e-01,4.819027483463287354e-01,4.818295836448669434e-01,4.817566573619842529e-01,4.816836118698120117e-01,4.816106557846069336e-01,4.815378189086914062e-01,4.814647734165191650e-01,4.813920259475708008e-01,4.813190102577209473e-01,4.812461733818054199e-01,4.811733067035675049e-01,4.811005294322967529e-01,4.810278117656707764e-01,4.809478223323822021e-01,4.808008372783660889e-01,4.809250831604003906e-01,4.810383021831512451e-01,4.813767373561859131e-01,4.816895723342895508e-01,4.791539907455444336e-01,4.764079153537750244e-01,4.721278846263885498e-01,4.703170657157897949e-01,4.744931161403656006e-01,4.700331687927246094e-01,4.568895995616912842e-01,4.588079750537872314e-01,4.530186951160430908e-01,4.555990099906921387e-01,4.513715505599975586e-01,4.589563608169555664e-01,4.634442925453186035e-01,4.671728014945983887e-01,4.722298383712768555e-01,4.762771129608154297e-01,4.803163707256317139e-01,4.785489439964294434e-01,4.788294434547424316e-01,4.778595566749572754e-01,4.769037067890167236e-01,4.753550589084625244e-01,4.753409624099731445e-01,4.695031344890594482e-01,4.495047926902770996e-01,4.482756853103637695e-01,4.718297421932220459e-01,4.688018262386322021e-01,4.950015544891357422e-01,4.690948426723480225e-01
4.694029390811920166e-01,4.224038124084472656e-01,4.285252094268798828e-01,3.950407803058624268e-01,3.840729892253875732e-01,3.856404125690460205e-01,3.960535228252410889e-01,3.989912867546081543e-01,4.020209610462188721e-01,4.032157063484191895e-01,4.044279754161834717e-01,4.056419730186462402e-01,4.066640138626098633e-01,4.076105058193206787e-01,4.084083139896392822e-01,4.089967012405395508e-01,4.096025824546813965e-01,4.100963175296783447e-01,4.103088676929473877e-01,4.103529751300811768e-01,4.103621542453765869e-01,4.102646708488464355e-01,4.101932942867279053e-01,4.101206660270690918e-01,4.100575447082519531e-01,4.099987149238586426e-01,4.099405109882354736e-01,4.098827242851257324e-01,4.098246097564697266e-01,4.097667634487152100e-01,4.097090065479278564e-01,4.096508622169494629e-01,4.095931649208068848e-01,4.095354080200195312e-01,4.094775319099426270e-01,4.094197750091552734e-01,4.093621969223022461e-01,4.093045592308044434e-01,4.092465341091156006e-01,4.091890454292297363e-01,4.091312587261199951e-01,4.090737104415893555e-01,4.090159535408020020e-01,4.089584052562713623e-01,4.088996648788452148e-01,4.088021516799926758e-01,4.087068438529968262e-01,4.088512063026428223e-01,4.091565608978271484e-01,4.087355434894561768e-01,4.067410826683044434e-01,4.068245291709899902e-01,4.030974507331848145e-01,4.033189713954925537e-01,4.091242551803588867e-01,4.027303457260131836e-01,3.957604467868804932e-01,3.930349349975585938e-01,3.923082053661346436e-01,3.940383791923522949e-01,3.986785411834716797e-01,3.966818451881408691e-01,4.008674919605255127e-01,4.016047716140747070e-01,4.056925177574157715e-01,4.053053557872772217e-01,4.077389538288116455e-01,4.082778394222259521e-01,4.074367284774780273e-01,4.064969420433044434e-01,4.056579172611236572e-01,4.045774042606353760e-01,4.052290916442871094e-01,4.015333652496337891e-01,3.856692612171173096e-01,3.876782655715942383e-01,4.135090112686157227e-01,4.177161455154418945e-01,4.560210108757019043e-01,4.460609257221221924e-01
4.513867795467376709e-01,3.938146233558654785e-01,3.929782807826995850e-01,3.572860360145568848e-01,3.413569927215576172e-01,3.406496644020080566e-01,3.480978012084960938e-01,3.498173952102661133e-01,3.515104353427886963e-01,3.519287407398223877e-01,3.524450659751892090e-01,3.529120087623596191e-01,3.533936440944671631e-01,3.538314700126647949e-01,3.541271090507507324e-01,3.542227745056152344e-01,3.542977571487426758e-01,3.541732728481292725e-01,3.540191650390625000e-01,3.539596199989318848e-01,3.539385199546813965e-01,3.539041876792907715e-01,3.538494110107421875e-01,3.537958562374114990e-01,3.537546992301940918e-01,3.537127375602722168e-01,3.536711931228637695e-01,3.536299765110015869e-01,3.535887598991394043e-01,3.535475134849548340e-01,3.535062670707702637e-01,3.534650504589080811e-01,3.534236550331115723e-01,3.533825278282165527e-01,3.533414602279663086e-01,3.533002734184265137e-01,3.532590866088867188e-01,3.532178103923797607e-01,3.531767129898071289e-01,3.531355261802673340e-01,3.530943691730499268e-01,3.530532717704772949e-01,3.530122041702270508e-01,3.529710173606872559e-01,3.529405593872070312e-01,3.528810143470764160e-01,3.528956174850463867e-01,3.529496788978576660e-01,3.531455397605895996e-01,3.527503013610839844e-01,3.530967831611633301e-01,3.526261448860168457e-01,3.512063026428222656e-01,3.492761850357055664e-01,3.527194261550903320e-01,3.497164547443389893e-01,3.496766090393066406e-01,3.469965457916259766e-01,3.448493480682373047e-01,3.462992310523986816e-01,3.448119163513183594e-01,3.458192944526672363e-01,3.489968180656433105e-01,3.515470623970031738e-01,3.507364392280578613e-01,3.527664840221405029e-01,3.519674837589263916e-01,3.521048724651336670e-01,3.522010147571563721e-01,3.519821166992187500e-01,3.517514467239379883e-01,3.512810766696929932e-01,3.521182239055633545e-01,3.494914770126342773e-01,3.363041281700134277e-01,3.391728997230529785e-01,3.653278648853302002e-01,3.756884932518005371e-01,4.224471747875213623e-01,4.258194863796234131e-01
4.349650144577026367e-01,3.689410388469696045e-01,3.612723350524902344e-01,3.251616060733795166e-01,3.061267137527465820e-01,3.047539293766021729e-01,3.108584880828857422e-01,3.122478723526000977e-01,3.134050369262695312e-01,3.134199976921081543e-01,3.134054839611053467e-01,3.133955895900726318e-01,3.134703934192657471e-01,3.135610222816467285e-01,3.135918974876403809e-01,3.136070370674133301e-01,3.135675489902496338e-01,3.135156035423278809e-01,3.135321736335754395e-01,3.135175704956054688e-01,3.134598731994628906e-01,3.134147524833679199e-01,3.133807778358459473e-01,3.133520483970642090e-01,3.133210539817810059e-01,3.132911324501037598e-01,3.132611513137817383e-01,3.132311105728149414e-01,3.132012486457824707e-01,3.131712079048156738e-01,3.131411969661712646e-01,3.131113648414611816e-01,3.130813837051391602e-01,3.130514621734619141e-01,3.130216300487518311e-01,3.129914999008178711e-01,3.129616379737854004e-01,3.129317760467529297e-01,3.129017651081085205e-01,3.128719329833984375e-01,3.128421902656555176e-01,3.128122687339782715e-01,3.127824068069458008e-01,3.127524554729461670e-01,3.127259016036987305e-01,3.126886487007141113e-01,3.126326501369476318e-01,3.127646148204803467e-01,3.124808073043823242e-01,3.120808601379394531e-01,3.127869367599487305e-01,3.127165436744689941e-01,3.114320635795593262e-01,3.124579787254333496e-01,3.114272654056549072e-01,3.113038539886474609e-01,3.126074075698852539e-01,3.096852004528045654e-01,3.074901998043060303e-01,3.117784857749938965e-01,3.091937601566314697e-01,3.105869293212890625e-01,3.114780485630035400e-01,3.106945157051086426e-01,3.110163211822509766e-01,3.115860223770141602e-01,3.124292492866516113e-01,3.122637271881103516e-01,3.119397759437561035e-01,3.118582963943481445e-01,3.117318749427795410e-01,3.115110695362091064e-01,3.122541308403015137e-01,3.104246258735656738e-01,2.992326915264129639e-01,3.025922477245330811e-01,3.288252651691436768e-01,3.441914916038513184e-01,3.968308269977569580e-01,4.101039767265319824e-01
4.212118387222290039e-01,3.491280972957611084e-01,3.364086151123046875e-01,2.999949753284454346e-01,2.791712284088134766e-01,2.769945859909057617e-01,2.819489240646362305e-01,2.831144928932189941e-01,2.839979827404022217e-01,2.838888168334960938e-01,2.838488817214965820e-01,2.838463783264160156e-01,2.838297486305236816e-01,2.838122248649597168e-01,2.837976515293121338e-01,2.837600111961364746e-01,2.837205529212951660e-01,2.836908698081970215e-01,2.836660146713256836e-01,2.836313843727111816e-01,2.836045622825622559e-01,2.835828661918640137e-01,2.835604250431060791e-01,2.835376262664794922e-01,2.835164368152618408e-01,2.834948003292083740e-01,2.834731936454772949e-01,2.834513187408447266e-01,2.834297120571136475e-01,2.834079563617706299e-01,2.833862304687500000e-01,2.833644151687622070e-01,2.833427786827087402e-01,2.833209931850433350e-01,2.832990884780883789e-01,2.832775712013244629e-01,2.832559049129486084e-01,2.832343578338623047e-01,2.832125425338745117e-01,2.831909656524658203e-01,2.831694185733795166e-01,2.831476330757141113e-01,2.831260561943054199e-01,2.831043601036071777e-01,2.830854654312133789e-01,2.830588817596435547e-01,2.830454111099243164e-01,2.830154895782470703e-01,2.829505205154418945e-01,2.829844355583190918e-01,2.831383347511291504e-01,2.829128503799438477e-01,2.831351161003112793e-01,2.823908329010009766e-01,2.825927138328552246e-01,2.831593751907348633e-01,2.829295396804809570e-01,2.816492319107055664e-01,2.815968394279479980e-01,2.813981771469116211e-01,2.821879088878631592e-01,2.828645706176757812e-01,2.821377515792846680e-01,2.824514210224151611e-01,2.829424738883972168e-01,2.825653553009033203e-01,2.824295163154602051e-01,2.826086282730102539e-01,2.826683223247528076e-01,2.825898528099060059e-01,2.825641036033630371e-01,2.824559211730957031e-01,2.830963730812072754e-01,2.817857861518859863e-01,2.718628644943237305e-01,2.751370668411254883e-01,3.007406592369079590e-01,3.195637166500091553e-01,3.762986063957214355e-01,3.975797891616821289e-01
4.091770052909851074e-01,3.324924409389495850e-01,3.159807920455932617e-01,2.799515724182128906e-01,2.584246993064880371e-01,2.558338046073913574e-01,2.600275874137878418e-01,2.610210180282592773e-01,2.617941796779632568e-01,2.617090344429016113e-01,2.616683244705200195e-01,2.616457939147949219e-01,2.616262733936309814e-01,2.616105079650878906e-01,2.615939378738403320e-01,2.615766823291778564e-01,2.615607380867004395e-01,2.615453600883483887e-01,2.615280449390411377e-01,2.615104019641876221e-01,2.614941298961639404e-01,2.614783048629760742e-01,2.614620923995971680e-01,2.614456415176391602e-01,2.614293694496154785e-01,2.614126205444335938e-01,2.613962888717651367e-01,2.613797485828399658e-01,2.613632082939147949e-01,2.613466084003448486e-01,2.613299489021301270e-01,2.613134384155273438e-01,2.612969279289245605e-01,2.612804472446441650e-01,2.612640261650085449e-01,2.612475752830505371e-01,2.612309753894805908e-01,2.612146139144897461e-01,2.611980736255645752e-01,2.611815333366394043e-01,2.611649632453918457e-01,2.611486911773681641e-01,2.611320614814758301e-01,2.611157894134521484e-01,2.611006796360015869e-01,2.610822319984436035e-01,2.610630989074707031e-01,2.610558569431304932e-01,2.610238790512084961e-01,2.610066831111907959e-01,2.610130906105041504e-01,2.610261738300323486e-01,2.609545886516571045e-01,2.610069811344146729e-01,2.607696950435638428e-01,2.610191404819488525e-01,2.610000073909759521e-01,2.607697248458862305e-01,2.600480914115905762e-01,2.606597840785980225e-01,2.603333294391632080e-01,2.607706189155578613e-01,2.607727944850921631e-01,2.607194185256958008e-01,2.608669996261596680e-01,2.608613371849060059e-01,2.607313394546508789e-01,2.607213854789733887e-01,2.606779038906097412e-01,2.607010006904602051e-01,2.606764435768127441e-01,2.605965137481689453e-01,2.611145973205566406e-01,2.600685060024261475e-01,2.511710524559020996e-01,2.544487714767456055e-01,2.794604301452636719e-01,3.009957075119018555e-01,3.605853319168090820e-01,3.876334428787231445e-01
3.991106152534484863e-01,3.188928961753845215e-01,2.997283041477203369e-01,2.643890380859375000e-01,2.423060238361358643e-01,2.394184470176696777e-01,2.430787682533264160e-01,2.439692020416259766e-01,2.446604967117309570e-01,2.445969283580780029e-01,2.445645630359649658e-01,2.445497214794158936e-01,2.445351481437683105e-01,2.445211708545684814e-01,2.445065379142761230e-01,2.444920837879180908e-01,2.444785237312316895e-01,2.444652020931243896e-01,2.444515526294708252e-01,2.444383203983306885e-01,2.444253861904144287e-01,2.444126605987548828e-01,2.443997561931610107e-01,2.443869411945343018e-01,2.443740665912628174e-01,2.443609833717346191e-01,2.443479895591735840e-01,2.443349957466125488e-01,2.443222105503082275e-01,2.443093359470367432e-01,2.442962825298309326e-01,2.442834079265594482e-01,2.442704737186431885e-01,2.442573308944702148e-01,2.442446053028106689e-01,2.442316412925720215e-01,2.442187666893005371e-01,2.442056834697723389e-01,2.441928684711456299e-01,2.441800236701965332e-01,2.441671490669250488e-01,2.441541850566864014e-01,2.441411614418029785e-01,2.441284060478210449e-01,2.441157698631286621e-01,2.441024482250213623e-01,2.440893948078155518e-01,2.440744638442993164e-01,2.440623044967651367e-01,2.440505921840667725e-01,2.440342307090759277e-01,2.440314590930938721e-01,2.440136969089508057e-01,2.439851462841033936e-01,2.439201176166534424e-01,2.439986765384674072e-01,2.439926862716674805e-01,2.439025342464447021e-01,2.437976896762847900e-01,2.437166869640350342e-01,2.438568770885467529e-01,2.439378499984741211e-01,2.438856661319732666e-01,2.438472509384155273e-01,2.438414692878723145e-01,2.438309788703918457e-01,2.438593506813049316e-01,2.438322305679321289e-01,2.438084781169891357e-01,2.437877357006072998e-01,2.437803447246551514e-01,2.437152862548828125e-01,2.441393136978149414e-01,2.433040142059326172e-01,2.352249920368194580e-01,2.385366261005401611e-01,2.629338800907135010e-01,2.863677144050598145e-01,3.479808270931243896e-01,3.796826004981994629e-01
3.908094167709350586e-01,3.077790737152099609e-01,2.866284847259521484e-01,2.519686818122863770e-01,2.295330464839935303e-01,2.264056205749511719e-01,2.296717464923858643e-01,2.304618060588836670e-01,2.310831844806671143e-01,2.310286760330200195e-01,2.310017347335815430e-01,2.309908568859100342e-01,2.309806346893310547e-01,2.309703230857849121e-01,2.309598624706268311e-01,2.309495508670806885e-01,2.309391796588897705e-01,2.309285700321197510e-01,2.309183180332183838e-01,2.309077084064483643e-01,2.308975756168365479e-01,2.308872640132904053e-01,2.308766245841979980e-01,2.308660745620727539e-01,2.308557331562042236e-01,2.308455109596252441e-01,2.308350205421447754e-01,2.308245599269866943e-01,2.308140993118286133e-01,2.308037281036376953e-01,2.307933270931243896e-01,2.307830750942230225e-01,2.307727932929992676e-01,2.307622134685516357e-01,2.307520210742950439e-01,2.307415902614593506e-01,2.307311594486236572e-01,2.307206094264984131e-01,2.307105064392089844e-01,2.307001948356628418e-01,2.306897938251495361e-01,2.306793332099914551e-01,2.306690514087677002e-01,2.306585907936096191e-01,2.306482493877410889e-01,2.306378781795501709e-01,2.306275665760040283e-01,2.306170761585235596e-01,2.306068539619445801e-01,2.305969595909118652e-01,2.305862307548522949e-01,2.305759191513061523e-01,2.305655777454376221e-01,2.305511534214019775e-01,2.305386960506439209e-01,2.305604815483093262e-01,2.305554151535034180e-01,2.305386960506439209e-01,2.304744124412536621e-01,2.304688692092895508e-01,2.304560542106628418e-01,2.304741442203521729e-01,2.304546833038330078e-01,2.304607629776000977e-01,2.304514348506927490e-01,2.304399013519287109e-01,2.304241657257080078e-01,2.304076552391052246e-01,2.304036319255828857e-01,2.303912043571472168e-01,2.303783893585205078e-01,2.303255796432495117e-01,2.306812703609466553e-01,2.300049960613250732e-01,2.225901484489440918e-01,2.259133160114288330e-01,2.498085498809814453e-01,2.745919823646545410e-01,3.377276062965393066e-01,3.731987476348876953e-01
3.838105797767639160e-01,2.985780835151672363e-01,2.758298516273498535e-01,2.418453693389892578e-01,2.191903293132781982e-01,2.158578336238861084e-01,2.188133895397186279e-01,2.195147573947906494e-01,2.200808525085449219e-01,2.200333774089813232e-01,2.200103402137756348e-01,2.200017869472503662e-01,2.199932634830474854e-01,2.199848890304565430e-01,2.199761271476745605e-01,2.199676334857940674e-01,2.199590206146240234e-01,2.199505269527435303e-01,2.199418842792510986e-01,2.199334800243377686e-01,2.199251055717468262e-01,2.199164330959320068e-01,2.199078500270843506e-01,2.198994159698486328e-01,2.198908627033233643e-01,2.198824584484100342e-01,2.198738753795623779e-01,2.198652327060699463e-01,2.198567092418670654e-01,2.198482751846313477e-01,2.198397517204284668e-01,2.198313474655151367e-01,2.198227643966674805e-01,2.198142409324645996e-01,2.198056876659393311e-01,2.197971343994140625e-01,2.197889685630798340e-01,2.197801768779754639e-01,2.197716236114501953e-01,2.197631299495697021e-01,2.197545766830444336e-01,2.197463512420654297e-01,2.197375893592834473e-01,2.197293639183044434e-01,2.197209000587463379e-01,2.197123765945434570e-01,2.197038233280181885e-01,2.196951508522033691e-01,2.196866869926452637e-01,2.196784615516662598e-01,2.196698784828186035e-01,2.196610569953918457e-01,2.196522355079650879e-01,2.196433246135711670e-01,2.196347117424011230e-01,2.196269631385803223e-01,2.196240723133087158e-01,2.196123600006103516e-01,2.195986807346343994e-01,2.195943593978881836e-01,2.195895910263061523e-01,2.195752859115600586e-01,2.195642888545989990e-01,2.195585668087005615e-01,2.195542454719543457e-01,2.195435464382171631e-01,2.195332348346710205e-01,2.195239663124084473e-01,2.195158898830413818e-01,2.195093631744384766e-01,2.194996774196624756e-01,2.194547057151794434e-01,2.197598218917846680e-01,2.192108333110809326e-01,2.123419344425201416e-01,2.156707048416137695e-01,2.391546964645385742e-01,2.649250626564025879e-01,3.292273581027984619e-01,3.678067028522491455e-01
3.778373599052429199e-01,2.908440828323364258e-01,2.668071389198303223e-01,2.334588766098022461e-01,2.106584310531616211e-01,2.071487307548522949e-01,2.098526060581207275e-01,2.104760408401489258e-01,2.109935879707336426e-01,2.109516859054565430e-01,2.109315395355224609e-01,2.109246551990509033e-01,2.109173536300659180e-01,2.109104990959167480e-01,2.109031975269317627e-01,2.108961343765258789e-01,2.108890712261199951e-01,2.108819782733917236e-01,2.108748555183410645e-01,2.108677327632904053e-01,2.108606100082397461e-01,2.108534574508666992e-01,2.108463644981384277e-01,2.108393013477325439e-01,2.108322679996490479e-01,2.108251452445983887e-01,2.108180820941925049e-01,2.108108699321746826e-01,2.108037471771240234e-01,2.107967436313629150e-01,2.107895910739898682e-01,2.107825577259063721e-01,2.107754945755004883e-01,2.107684910297393799e-01,2.107612788677215576e-01,2.107542157173156738e-01,2.107470631599426270e-01,2.107401788234710693e-01,2.107328474521636963e-01,2.107259333133697510e-01,2.107186019420623779e-01,2.107118070125579834e-01,2.107046544551849365e-01,2.106975018978118896e-01,2.106906473636627197e-01,2.106833457946777344e-01,2.106763720512390137e-01,2.106693089008331299e-01,2.106622755527496338e-01,2.106548547744750977e-01,2.106478512287139893e-01,2.106409072875976562e-01,2.106335461139678955e-01,2.106264531612396240e-01,2.106193006038665771e-01,2.106120586395263672e-01,2.106060981750488281e-01,2.105985581874847412e-01,2.105920314788818359e-01,2.105849981307983398e-01,2.105798125267028809e-01,2.105717062950134277e-01,2.105636894702911377e-01,2.105562090873718262e-01,2.105499804019927979e-01,2.105426788330078125e-01,2.105354368686676025e-01,2.105273902416229248e-01,2.105205953121185303e-01,2.105135321617126465e-01,2.105061709880828857e-01,2.104674875736236572e-01,2.107336521148681641e-01,2.102867066860198975e-01,2.038709223270416260e-01,2.072007954120635986e-01,2.303361296653747559e-01,2.568489909172058105e-01,3.220600783824920654e-01,3.632444143295288086e-01
