5.884753465652465820e-01,6.139584183692932129e-01,6.563295125961303711e-01,6.571221351623535156e-01,6.807234287261962891e-01,7.049862146377563477e-01,7.413071393966674805e-01,7.627369165420532227e-01,7.834824323654174805e-01,8.020334243774414062e-01,8.197842836380004883e-01,8.366055488586425781e-01,8.516536355018615723e-01,8.648958206176757812e-01,8.764168024063110352e-01,8.860175609588623047e-01,8.930643796920776367e-01,8.978266119956970215e-01,9.010756611824035645e-01,9.031780958175659180e-01,9.043440818786621094e-01,9.049906730651855469e-01,9.052336215972900391e-01,9.052965044975280762e-01,9.053112268447875977e-01,9.053096771240234375e-01,9.053092002868652344e-01,9.053092002868652344e-01,9.053092002868652344e-01,9.053092002868652344e-01,9.053092002868652344e-01,9.053092002868652344e-01,9.053092002868652344e-01,9.053092002868652344e-01,9.053092002868652344e-01,9.053092002868652344e-01,9.053092002868652344e-01,9.053092002868652344e-01,9.053092002868652344e-01,9.053092002868652344e-01,9.053092002868652344e-01,9.053092002868652344e-01,9.053142070770263672e-01,9.053208827972412109e-01,9.056308865547180176e-01,9.057928323745727539e-01,9.045659303665161133e-01,8.994995951652526855e-01,8.922145366668701172e-01,8.814756870269775391e-01,8.680176138877868652e-01,8.501070141792297363e-01,7.962387204170227051e-01,7.282513380050659180e-01,6.579554080963134766e-01,6.106830239295959473e-01,5.603002309799194336e-01,5.410040616989135742e-01,5.305274724960327148e-01,5.423188209533691406e-01,5.630992650985717773e-01,5.995600819587707520e-01,6.513131856918334961e-01,7.162088155746459961e-01,7.815390825271606445e-01,8.244619369506835938e-01,8.544090986251831055e-01,8.760659694671630859e-01,8.818095326423645020e-01,8.863992691040039062e-01,8.859013319015502930e-01,8.797086477279663086e-01,8.713408708572387695e-01,8.584820628166198730e-01,8.296540975570678711e-01,8.088318109512329102e-01,8.012533187866210938e-01,7.750616073608398438e-01,7.223543524742126465e-01,6.163140535354614258e-01
5.885005593299865723e-01,6.139470338821411133e-01,6.565025448799133301e-01,6.572761535644531250e-01,6.807755231857299805e-01,7.049927115440368652e-01,7.413721084594726562e-01,7.627719640731811523e-01,7.835435867309570312e-01,8.021675348281860352e-01,8.199273943901062012e-01,8.364077806472778320e-01,8.515353202819824219e-01,8.648505210876464844e-01,8.763720989227294922e-01,8.859373331069946289e-01,8.930207490921020508e-01,8.977284431457519531e-01,9.010207653045654297e-01,9.031490087509155273e-01,9.043530821800231934e-01,9.050096273422241211e-01,9.052693843841552734e-01,9.053224921226501465e-01,9.053357839584350586e-01,9.053343534469604492e-01,9.053338766098022461e-01,9.053338766098022461e-01,9.053338766098022461e-01,9.053338766098022461e-01,9.053338766098022461e-01,9.053338766098022461e-01,9.053338766098022461e-01,9.053338766098022461e-01,9.053338766098022461e-01,9.053338766098022461e-01,9.053338766098022461e-01,9.053338766098022461e-01,9.053338766098022461e-01,9.053338766098022461e-01,9.053338766098022461e-01,9.053338766098022461e-01,9.053319096565246582e-01,9.053466320037841797e-01,9.056578278541564941e-01,9.054948091506958008e-01,9.050385355949401855e-01,9.009968042373657227e-01,8.947392702102661133e-01,8.821737170219421387e-01,8.682589530944824219e-01,8.463077545166015625e-01,8.037484884262084961e-01,7.175647020339965820e-01,6.531707048416137695e-01,6.026772260665893555e-01,5.621680617332458496e-01,5.340811610221862793e-01,5.206905007362365723e-01,5.375974178314208984e-01,5.562868118286132812e-01,6.022825837135314941e-01,6.533238887786865234e-01,7.095618247985839844e-01,7.782845497131347656e-01,8.252830505371093750e-01,8.539950251579284668e-01,8.745424747467041016e-01,8.842521309852600098e-01,8.876629471778869629e-01,8.867770433425903320e-01,8.798124790191650391e-01,8.711191415786743164e-01,8.581465482711791992e-01,8.297249674797058105e-01,8.088655471801757812e-01,8.011276721954345703e-01,7.750747203826904297e-01,7.223471403121948242e-01,6.163389086723327637e-01
5.884795784950256348e-01,6.139099597930908203e-01,6.564767360687255859e-01,6.572362780570983887e-01,6.807448863983154297e-01,7.049630880355834961e-01,7.413278222084045410e-01,7.627419233322143555e-01,7.835154533386230469e-01,8.021460771560668945e-01,8.199387192726135254e-01,8.364341259002685547e-01,8.513945341110229492e-01,8.647879362106323242e-01,8.763922452926635742e-01,8.858836889266967773e-01,8.929582834243774414e-01,8.977016806602478027e-01,9.009692072868347168e-01,9.031196832656860352e-01,9.043424129486083984e-01,9.050059318542480469e-01,9.052580595016479492e-01,9.053188562393188477e-01,9.053307175636291504e-01,9.053288102149963379e-01,9.053283333778381348e-01,9.053283333778381348e-01,9.053283333778381348e-01,9.053283333778381348e-01,9.053283333778381348e-01,9.053283333778381348e-01,9.053283333778381348e-01,9.053283333778381348e-01,9.053283333778381348e-01,9.053283333778381348e-01,9.053283333778381348e-01,9.053283333778381348e-01,9.053283333778381348e-01,9.053283333778381348e-01,9.053283333778381348e-01,9.053283333778381348e-01,9.053260684013366699e-01,9.053301811218261719e-01,9.054191112518310547e-01,9.057825803756713867e-01,9.052889347076416016e-01,9.024624824523925781e-01,8.963450193405151367e-01,8.822807073593139648e-01,8.678274750709533691e-01,8.446519374847412109e-01,8.053693175315856934e-01,7.198793888092041016e-01,6.579434871673583984e-01,6.030580997467041016e-01,5.525635480880737305e-01,5.313198566436767578e-01,5.191352367401123047e-01,5.375217795372009277e-01,5.498793721199035645e-01,5.988763570785522461e-01,6.514475941658020020e-01,7.154797315597534180e-01,7.846295833587646484e-01,8.266227245330810547e-01,8.529990911483764648e-01,8.723276853561401367e-01,8.839976191520690918e-01,8.886584043502807617e-01,8.870129585266113281e-01,8.797895908355712891e-01,8.709817528724670410e-01,8.582189083099365234e-01,8.297369480133056641e-01,8.086954355239868164e-01,8.010830879211425781e-01,7.750767469406127930e-01,7.223834395408630371e-01,6.162924170494079590e-01
5.884727239608764648e-01,6.138985753059387207e-01,6.564635634422302246e-01,6.572208404541015625e-01,6.807272434234619141e-01,7.049432396888732910e-01,7.413116693496704102e-01,7.627180814743041992e-01,7.834936380386352539e-01,8.021333217620849609e-01,8.199253082275390625e-01,8.364284634590148926e-01,8.513950109481811523e-01,8.647270202636718750e-01,8.763751983642578125e-01,8.859137296676635742e-01,8.929370641708374023e-01,8.976855278015136719e-01,9.009732007980346680e-01,9.031087160110473633e-01,9.043349027633666992e-01,9.050054550170898438e-01,9.052593708038330078e-01,9.053182601928710938e-01,9.053307771682739258e-01,9.053288698196411133e-01,9.053283333778381348e-01,9.053283333778381348e-01,9.053283333778381348e-01,9.053283333778381348e-01,9.053283333778381348e-01,9.053283333778381348e-01,9.053283333778381348e-01,9.053283333778381348e-01,9.053283333778381348e-01,9.053283333778381348e-01,9.053283333778381348e-01,9.053283333778381348e-01,9.053283333778381348e-01,9.053283333778381348e-01,9.053283333778381348e-01,9.053283333778381348e-01,9.053275585174560547e-01,9.053108096122741699e-01,9.052900075912475586e-01,9.059684276580810547e-01,9.061554074287414551e-01,9.028130769729614258e-01,8.971897363662719727e-01,8.866232633590698242e-01,8.703965544700622559e-01,8.467913866043090820e-01,8.044900894165039062e-01,7.340667843818664551e-01,6.545416116714477539e-01,6.020023822784423828e-01,5.531200170516967773e-01,5.316833257675170898e-01,5.216695070266723633e-01,5.275772809982299805e-01,5.449274778366088867e-01,6.052472591400146484e-01,6.606918573379516602e-01,7.155449986457824707e-01,7.839689850807189941e-01,8.319396972656250000e-01,8.561890721321105957e-01,8.721731901168823242e-01,8.870748281478881836e-01,8.902105093002319336e-01,8.868669867515563965e-01,8.796566724777221680e-01,8.710024356842041016e-01,8.582231998443603516e-01,8.296740055084228516e-01,8.087036609649658203e-01,8.011082410812377930e-01,7.750999927520751953e-01,7.223900556564331055e-01,6.163020133972167969e-01
5.884659290313720703e-01,6.138875484466552734e-01,6.564504504203796387e-01,6.572058200836181641e-01,6.807104349136352539e-01,7.049255371093750000e-01,7.412925958633422852e-01,7.627010345458984375e-01,7.834742069244384766e-01,8.021129369735717773e-01,8.199121356010437012e-01,8.364156484603881836e-01,8.513835668563842773e-01,8.647164106369018555e-01,8.763560056686401367e-01,8.859020471572875977e-01,8.929389119148254395e-01,8.976819515228271484e-01,9.009667038917541504e-01,9.031097888946533203e-01,9.043335914611816406e-01,9.050043821334838867e-01,9.052593708038330078e-01,9.053182601928710938e-01,9.053307175636291504e-01,9.053288698196411133e-01,9.053283333778381348e-01,9.053283333778381348e-01,9.053283333778381348e-01,9.053283333778381348e-01,9.053283333778381348e-01,9.053283333778381348e-01,9.053283333778381348e-01,9.053283333778381348e-01,9.053283333778381348e-01,9.053283333778381348e-01,9.053283333778381348e-01,9.053283333778381348e-01,9.053283333778381348e-01,9.053283333778381348e-01,9.053283333778381348e-01,9.053283333778381348e-01,9.053264260292053223e-01,9.053102731704711914e-01,9.053220748901367188e-01,9.057089090347290039e-01,9.062371253967285156e-01,9.033249616622924805e-01,8.969098329544067383e-01,8.889735937118530273e-01,8.715512752532958984e-01,8.483228683471679688e-01,8.143000602722167969e-01,7.430272698402404785e-01,6.594609022140502930e-01,6.026335358619689941e-01,5.598785281181335449e-01,5.355004668235778809e-01,5.218923091888427734e-01,5.261869430541992188e-01,5.510856509208679199e-01,6.017519235610961914e-01,6.574701070785522461e-01,7.208766937255859375e-01,7.831131219863891602e-01,8.315808176994323730e-01,8.579073548316955566e-01,8.741794228553771973e-01,8.859807252883911133e-01,8.889287710189819336e-01,8.864999413490295410e-01,8.796405792236328125e-01,8.710376024246215820e-01,8.582334518432617188e-01,8.296893835067749023e-01,8.087221384048461914e-01,8.011208772659301758e-01,7.751116752624511719e-01,7.224012017250061035e-01,6.163108348846435547e-01
5.884590148925781250e-01,6.138762235641479492e-01,6.564375162124633789e-01,6.571905612945556641e-01,6.806936264038085938e-01,7.049081921577453613e-01,7.412749528884887695e-01,7.626830339431762695e-01,7.834565639495849609e-01,8.020950555801391602e-01,8.198947906494140625e-01,8.364011049270629883e-01,8.513689041137695312e-01,8.647040128707885742e-01,8.763451576232910156e-01,8.858933448791503906e-01,8.929316997528076172e-01,8.976773619651794434e-01,9.009641408920288086e-01,9.031083583831787109e-01,9.043331146240234375e-01,9.050039052963256836e-01,9.052593708038330078e-01,9.053181409835815430e-01,9.053306579589843750e-01,9.053288698196411133e-01,9.053283333778381348e-01,9.053283333778381348e-01,9.053283333778381348e-01,9.053283333778381348e-01,9.053283333778381348e-01,9.053283333778381348e-01,9.053283333778381348e-01,9.053283333778381348e-01,9.053283333778381348e-01,9.053283333778381348e-01,9.053283333778381348e-01,9.053283333778381348e-01,9.053283333778381348e-01,9.053283333778381348e-01,9.053283333778381348e-01,9.053283333778381348e-01,9.053279161453247070e-01,9.053175449371337891e-01,9.053444266319274902e-01,9.058218598365783691e-01,9.064480066299438477e-01,9.037692546844482422e-01,8.995171189308166504e-01,8.908472061157226562e-01,8.724461793899536133e-01,8.520987033843994141e-01,8.180338144302368164e-01,7.534362673759460449e-01,6.742892265319824219e-01,6.163983345031738281e-01,5.655559897422790527e-01,5.365089774131774902e-01,5.228084921836853027e-01,5.235605239868164062e-01,5.552580952644348145e-01,5.953831672668457031e-01,6.515231132507324219e-01,7.242321968078613281e-01,7.819691896438598633e-01,8.271847963333129883e-01,8.576816916465759277e-01,8.741593360900878906e-01,8.859493732452392578e-01,8.879868984222412109e-01,8.863266706466674805e-01,8.797041177749633789e-01,8.711549043655395508e-01,8.582509160041809082e-01,8.297061920166015625e-01,8.087363243103027344e-01,8.011333942413330078e-01,7.751245498657226562e-01,7.224119901657104492e-01,6.163171529769897461e-01
5.884521603584289551e-01,6.138653159141540527e-01,6.564247608184814453e-01,6.571755409240722656e-01,6.806772351264953613e-01,7.048910856246948242e-01,7.412575483322143555e-01,7.626657485961914062e-01,7.834392189979553223e-01,8.020776510238647461e-01,8.198784589767456055e-01,8.363857269287109375e-01,8.513551950454711914e-01,8.646911978721618652e-01,8.763340711593627930e-01,8.858848214149475098e-01,8.929256200790405273e-01,8.976732492446899414e-01,9.009611606597900391e-01,9.031067490577697754e-01,9.043320417404174805e-01,9.050033688545227051e-01,9.052592515945434570e-01,9.053180217742919922e-01,9.053306579589843750e-01,9.053288698196411133e-01,9.053283333778381348e-01,9.053283333778381348e-01,9.053283333778381348e-01,9.053283333778381348e-01,9.053283333778381348e-01,9.053283333778381348e-01,9.053283333778381348e-01,9.053283333778381348e-01,9.053283333778381348e-01,9.053283333778381348e-01,9.053283333778381348e-01,9.053283333778381348e-01,9.053283333778381348e-01,9.053283333778381348e-01,9.053283333778381348e-01,9.053283333778381348e-01,9.053281545639038086e-01,9.053232073783874512e-01,9.053051471710205078e-01,9.057657718658447266e-01,9.061650633811950684e-01,9.034432172775268555e-01,9.005550146102905273e-01,8.927190303802490234e-01,8.756765723228454590e-01,8.582466840744018555e-01,8.215098381042480469e-01,7.711143493652343750e-01,6.862529516220092773e-01,6.232911348342895508e-01,5.714887380599975586e-01,5.395793914794921875e-01,5.273874402046203613e-01,5.300080180168151855e-01,5.647348761558532715e-01,5.865433812141418457e-01,6.406173706054687500e-01,7.191259264945983887e-01,7.767336368560791016e-01,8.227627873420715332e-01,8.545891642570495605e-01,8.718791007995605469e-01,8.816498517990112305e-01,8.864693045616149902e-01,8.856496810913085938e-01,8.797273635864257812e-01,8.710871934890747070e-01,8.582606315612792969e-01,8.297182321548461914e-01,8.087494373321533203e-01,8.011463880538940430e-01,7.751368880271911621e-01,7.224221825599670410e-01,6.163241863250732422e-01
5.884454846382141113e-01,6.138545274734497070e-01,6.564120054244995117e-01,6.571609377861022949e-01,6.806609034538269043e-01,7.048742175102233887e-01,7.412407398223876953e-01,7.626488208770751953e-01,7.834222912788391113e-01,8.020608425140380859e-01,8.198622465133666992e-01,8.363705277442932129e-01,8.513412475585937500e-01,8.646790385246276855e-01,8.763232231140136719e-01,8.858760595321655273e-01,8.929197192192077637e-01,8.976691961288452148e-01,9.009581804275512695e-01,9.031051397323608398e-01,9.043311476707458496e-01,9.050028920173645020e-01,9.052590131759643555e-01,9.053180217742919922e-01,9.053307175636291504e-01,9.053288698196411133e-01,9.053283333778381348e-01,9.053283333778381348e-01,9.053283333778381348e-01,9.053283333778381348e-01,9.053283333778381348e-01,9.053283333778381348e-01,9.053283333778381348e-01,9.053283333778381348e-01,9.053283333778381348e-01,9.053283333778381348e-01,9.053283333778381348e-01,9.053283333778381348e-01,9.053283333778381348e-01,9.053283333778381348e-01,9.053283333778381348e-01,9.053283333778381348e-01,9.053287506103515625e-01,9.053283929824829102e-01,9.053186774253845215e-01,9.056676626205444336e-01,9.058641195297241211e-01,9.045003652572631836e-01,9.005608558654785156e-01,8.931057453155517578e-01,8.782323598861694336e-01,8.620306253433227539e-01,8.331831693649291992e-01,7.785356044769287109e-01,6.928674578666687012e-01,6.298831105232238770e-01,5.787715315818786621e-01,5.411158800125122070e-01,5.289765000343322754e-01,5.298083424568176270e-01,5.598578453063964844e-01,5.843339562416076660e-01,6.369658708572387695e-01,7.102278470993041992e-01,7.736644744873046875e-01,8.186962008476257324e-01,8.505983352661132812e-01,8.689655065536499023e-01,8.814519047737121582e-01,8.862943649291992188e-01,8.855991363525390625e-01,8.797945380210876465e-01,8.710900545120239258e-01,8.582187891006469727e-01,8.297281265258789062e-01,8.087620139122009277e-01,8.011590242385864258e-01,7.751492261886596680e-01,7.224320769309997559e-01,6.163313388824462891e-01
5.884393453598022461e-01,6.138444542884826660e-01,6.563997268676757812e-01,6.571463942527770996e-01,6.806451082229614258e-01,7.048579454421997070e-01,7.412242889404296875e-01,7.626321315765380859e-01,7.834056019783020020e-01,8.020443916320800781e-01,8.198465108871459961e-01,8.363558053970336914e-01,8.513278961181640625e-01,8.646667003631591797e-01,8.763124942779541016e-01,8.858675956726074219e-01,8.929135799407958984e-01,8.976653814315795898e-01,9.009552001953125000e-01,9.031032919883728027e-01,9.043302536010742188e-01,9.050021171569824219e-01,9.052590727806091309e-01,9.053180217742919922e-01,9.053307175636291504e-01,9.053288698196411133e-01,9.053283333778381348e-01,9.053283333778381348e-01,9.053283333778381348e-01,9.053283333778381348e-01,9.053283333778381348e-01,9.053283333778381348e-01,9.053283333778381348e-01,9.053283333778381348e-01,9.053283333778381348e-01,9.053283333778381348e-01,9.053283333778381348e-01,9.053283333778381348e-01,9.053283333778381348e-01,9.053283333778381348e-01,9.053283333778381348e-01,9.053283333778381348e-01,9.053286314010620117e-01,9.053249359130859375e-01,9.053114056587219238e-01,9.055834412574768066e-01,9.056846499443054199e-01,9.052369594573974609e-01,9.021706581115722656e-01,8.945486545562744141e-01,8.816446065902709961e-01,8.641334772109985352e-01,8.338025808334350586e-01,7.874162197113037109e-01,6.987986564636230469e-01,6.380933523178100586e-01,5.846313834190368652e-01,5.444998145103454590e-01,5.322462320327758789e-01,5.328941941261291504e-01,5.534231662750244141e-01,5.814612507820129395e-01,6.377925872802734375e-01,6.944652199745178223e-01,7.684127688407897949e-01,8.171024322509765625e-01,8.467893600463867188e-01,8.705162405967712402e-01,8.798227310180664062e-01,8.855037093162536621e-01,8.848845362663269043e-01,8.798099756240844727e-01,8.708194494247436523e-01,8.582297563552856445e-01,8.297380805015563965e-01,8.087745904922485352e-01,8.011715412139892578e-01,7.751616239547729492e-01,7.224422693252563477e-01,6.163385510444641113e-01
5.884339213371276855e-01,6.138350367546081543e-01,6.563885211944580078e-01,6.571327447891235352e-01,6.806297898292541504e-01,7.048420906066894531e-01,7.412080764770507812e-01,7.626160383224487305e-01,7.833894491195678711e-01,8.020280599594116211e-01,8.198311924934387207e-01,8.363415002822875977e-01,8.513146638870239258e-01,8.646548986434936523e-01,8.763021230697631836e-01,8.858591318130493164e-01,8.929077386856079102e-01,8.976613283157348633e-01,9.009524583816528320e-01,9.031016230583190918e-01,9.043291807174682617e-01,9.050017595291137695e-01,9.052589535713195801e-01,9.053179025650024414e-01,9.053307771682739258e-01,9.053288698196411133e-01,9.053283333778381348e-01,9.053283333778381348e-01,9.053283333778381348e-01,9.053283333778381348e-01,9.053283333778381348e-01,9.053283333778381348e-01,9.053283333778381348e-01,9.053283333778381348e-01,9.053283333778381348e-01,9.053283333778381348e-01,9.053283333778381348e-01,9.053283333778381348e-01,9.053283333778381348e-01,9.053283333778381348e-01,9.053283333778381348e-01,9.053283333778381348e-01,9.053283929824829102e-01,9.053239822387695312e-01,9.053094387054443359e-01,9.053794145584106445e-01,9.058305025100708008e-01,9.055520296096801758e-01,9.027891159057617188e-01,8.966585397720336914e-01,8.837499022483825684e-01,8.676296472549438477e-01,8.365060091018676758e-01,7.994749546051025391e-01,7.117878198623657227e-01,6.387298703193664551e-01,5.914318561553955078e-01,5.472293496131896973e-01,5.342375636100769043e-01,5.342267751693725586e-01,5.505591630935668945e-01,5.760235786437988281e-01,6.319945454597473145e-01,6.960787177085876465e-01,7.606123685836791992e-01,8.207889795303344727e-01,8.433108329772949219e-01,8.693109154701232910e-01,8.800274133682250977e-01,8.852000832557678223e-01,8.854070901870727539e-01,8.788464665412902832e-01,8.707340955734252930e-01,8.581671118736267090e-01,8.297536373138427734e-01,8.087874650955200195e-01,8.011841773986816406e-01,7.751736640930175781e-01,7.224525213241577148e-01,6.163454651832580566e-01
5.884290337562561035e-01,6.138267517089843750e-01,6.563785672187805176e-01,6.571205854415893555e-01,6.806158423423767090e-01,7.048273086547851562e-01,7.411927580833435059e-01,7.626003623008728027e-01,7.833735942840576172e-01,8.020126819610595703e-01,8.198161125183105469e-01,8.363276720046997070e-01,8.513019680976867676e-01,8.646435737609863281e-01,8.762920498847961426e-01,8.858511447906494141e-01,8.929020762443542480e-01,8.976577520370483398e-01,9.009497165679931641e-01,9.031000137329101562e-01,9.043284058570861816e-01,9.050012826919555664e-01,9.052588939666748047e-01,9.053179025650024414e-01,9.053307175636291504e-01,9.053288698196411133e-01,9.053283333778381348e-01,9.053283333778381348e-01,9.053283333778381348e-01,9.053283333778381348e-01,9.053283333778381348e-01,9.053283333778381348e-01,9.053283333778381348e-01,9.053283333778381348e-01,9.053283333778381348e-01,9.053283333778381348e-01,9.053283333778381348e-01,9.053283333778381348e-01,9.053283333778381348e-01,9.053283333778381348e-01,9.053283333778381348e-01,9.053283333778381348e-01,9.053283333778381348e-01,9.053277969360351562e-01,9.053003191947937012e-01,9.052783250808715820e-01,9.059114456176757812e-01,9.060984849929809570e-01,9.037787318229675293e-01,8.972494602203369141e-01,8.899496793746948242e-01,8.719989061355590820e-01,8.463108539581298828e-01,8.021340370178222656e-01,7.298262715339660645e-01,6.527143120765686035e-01,5.903939604759216309e-01,5.576044321060180664e-01,5.442322492599487305e-01,5.419641733169555664e-01,5.444855093955993652e-01,5.816880464553833008e-01,6.359006166458129883e-01,6.918897032737731934e-01,7.625763416290283203e-01,8.126244544982910156e-01,8.475884199142456055e-01,8.693470954895019531e-01,8.791559338569641113e-01,8.866004943847656250e-01,8.851502537727355957e-01,8.788392543792724609e-01,8.706784248352050781e-01,8.581873178482055664e-01,8.297548294067382812e-01,8.088001012802124023e-01,8.011967539787292480e-01,7.751860618591308594e-01,7.224625349044799805e-01,6.163524985313415527e-01
5.884244441986083984e-01,6.138192415237426758e-01,6.563694477081298828e-01,6.571100950241088867e-01,6.806034445762634277e-01,7.048140168190002441e-01,7.411789298057556152e-01,7.625858187675476074e-01,7.833587527275085449e-01,8.019976615905761719e-01,8.198019266128540039e-01,8.363143205642700195e-01,8.512895703315734863e-01,8.646324872970581055e-01,8.762821555137634277e-01,8.858431577682495117e-01,8.928964138031005859e-01,8.976540565490722656e-01,9.009470939636230469e-01,9.030987024307250977e-01,9.043276309967041016e-01,9.050009250640869141e-01,9.052588939666748047e-01,9.053179025650024414e-01,9.053307175636291504e-01,9.053288698196411133e-01,9.053283333778381348e-01,9.053283333778381348e-01,9.053283333778381348e-01,9.053283333778381348e-01,9.053283333778381348e-01,9.053283333778381348e-01,9.053283333778381348e-01,9.053283333778381348e-01,9.053283333778381348e-01,9.053283333778381348e-01,9.053283333778381348e-01,9.053283333778381348e-01,9.053283333778381348e-01,9.053283333778381348e-01,9.053283333778381348e-01,9.053283333778381348e-01,9.053283333778381348e-01,9.053264856338500977e-01,9.053061008453369141e-01,9.052893519401550293e-01,9.057908058166503906e-01,9.066398143768310547e-01,9.035946130752563477e-01,8.996656537055969238e-01,8.923298120498657227e-01,8.746684789657592773e-01,8.521058559417724609e-01,8.163090348243713379e-01,7.480092048645019531e-01,6.828666329383850098e-01,6.128558516502380371e-01,5.673626065254211426e-01,5.502712726593017578e-01,5.527437329292297363e-01,5.596543550491333008e-01,5.896042585372924805e-01,6.395980119705200195e-01,6.989365220069885254e-01,7.736018896102905273e-01,8.136900663375854492e-01,8.432418107986450195e-01,8.678476214408874512e-01,8.811053037643432617e-01,8.857691884040832520e-01,8.851888179779052734e-01,8.785357475280761719e-01,8.711252212524414062e-01,8.582409620285034180e-01,8.297808170318603516e-01,8.088128566741943359e-01,8.012094497680664062e-01,7.751982808113098145e-01,7.224727272987365723e-01,6.163595914840698242e-01
5.884200930595397949e-01,6.138121485710144043e-01,6.563608050346374512e-01,6.571002602577209473e-01,6.805924773216247559e-01,7.048027515411376953e-01,7.411670088768005371e-01,7.625732421875000000e-01,7.833454608917236328e-01,8.019837141036987305e-01,8.197881579399108887e-01,8.363015651702880859e-01,8.512778282165527344e-01,8.646217584609985352e-01,8.762729167938232422e-01,8.858355879783630371e-01,8.928911685943603516e-01,8.976505994796752930e-01,9.009444713592529297e-01,9.030970931053161621e-01,9.043266773223876953e-01,9.050004482269287109e-01,9.052587747573852539e-01,9.053179025650024414e-01,9.053307771682739258e-01,9.053288698196411133e-01,9.053283333778381348e-01,9.053283333778381348e-01,9.053283333778381348e-01,9.053283333778381348e-01,9.053283333778381348e-01,9.053283333778381348e-01,9.053283333778381348e-01,9.053283333778381348e-01,9.053283333778381348e-01,9.053283333778381348e-01,9.053283333778381348e-01,9.053283333778381348e-01,9.053283333778381348e-01,9.053283333778381348e-01,9.053283333778381348e-01,9.053283333778381348e-01,9.053283333778381348e-01,9.053285121917724609e-01,9.053189754486083984e-01,9.053233861923217773e-01,9.058468341827392578e-01,9.066504836082458496e-01,9.041793346405029297e-01,9.017621278762817383e-01,8.970528244972229004e-01,8.802287578582763672e-01,8.604698777198791504e-01,8.277719616889953613e-01,7.713023424148559570e-01,7.121064662933349609e-01,6.461138129234313965e-01,5.923737287521362305e-01,5.741739273071289062e-01,5.747490525245666504e-01,5.665940046310424805e-01,6.088549494743347168e-01,6.432049274444580078e-01,7.229450345039367676e-01,7.739323377609252930e-01,8.191126585006713867e-01,8.464411497116088867e-01,8.706710338592529297e-01,8.818196058273315430e-01,8.892712593078613281e-01,8.854622244834899902e-01,8.793431520462036133e-01,8.709565997123718262e-01,8.582766056060791016e-01,8.297992348670959473e-01,8.088252544403076172e-01,8.012222051620483398e-01,7.752104997634887695e-01,7.224827408790588379e-01,6.163667440414428711e-01
5.884154438972473145e-01,6.138046979904174805e-01,6.563527584075927734e-01,6.570910215377807617e-01,6.805824041366577148e-01,7.047918438911437988e-01,7.411559224128723145e-01,7.625622749328613281e-01,7.833338379859924316e-01,8.019716739654541016e-01,8.197764158248901367e-01,8.362897634506225586e-01,8.512668609619140625e-01,8.646116256713867188e-01,8.762640953063964844e-01,8.858286142349243164e-01,8.928860425949096680e-01,8.976472616195678711e-01,9.009419679641723633e-01,9.030956029891967773e-01,9.043257832527160645e-01,9.050000905990600586e-01,9.052585363388061523e-01,9.053179025650024414e-01,9.053307175636291504e-01,9.053288698196411133e-01,9.053283333778381348e-01,9.053283333778381348e-01,9.053283333778381348e-01,9.053283333778381348e-01,9.053283333778381348e-01,9.053283333778381348e-01,9.053283333778381348e-01,9.053283333778381348e-01,9.053283333778381348e-01,9.053283333778381348e-01,9.053283333778381348e-01,9.053283333778381348e-01,9.053283333778381348e-01,9.053283333778381348e-01,9.053283333778381348e-01,9.053283333778381348e-01,9.053283333778381348e-01,9.053283929824829102e-01,9.053254723548889160e-01,9.052939414978027344e-01,9.058185815811157227e-01,9.060282707214355469e-01,9.040647745132446289e-01,9.015488624572753906e-01,8.971220254898071289e-01,8.847774863243103027e-01,8.689740896224975586e-01,8.460708856582641602e-01,7.934700250625610352e-01,7.363752126693725586e-01,6.698644161224365234e-01,6.202124953269958496e-01,5.931831002235412598e-01,6.031582951545715332e-01,5.904232859611511230e-01,6.186445951461791992e-01,6.671943068504333496e-01,7.272082567214965820e-01,7.891862392425537109e-01,8.265925645828247070e-01,8.541671037673950195e-01,8.723203539848327637e-01,8.859025835990905762e-01,8.885126113891601562e-01,8.860110044479370117e-01,8.797386884689331055e-01,8.712236881256103516e-01,8.582704067230224609e-01,8.297907114028930664e-01,8.088381886482238770e-01,8.012348413467407227e-01,7.752227783203125000e-01,7.224929332733154297e-01,6.163739562034606934e-01
5.884102582931518555e-01,6.137968301773071289e-01,6.563441753387451172e-01,6.570810079574584961e-01,6.805720329284667969e-01,7.047817707061767578e-01,7.411456704139709473e-01,7.625518441200256348e-01,7.833234071731567383e-01,8.019611239433288574e-01,8.197659850120544434e-01,8.362796306610107422e-01,8.512568473815917969e-01,8.646025657653808594e-01,8.762556910514831543e-01,8.858219385147094727e-01,8.928812742233276367e-01,8.976441025733947754e-01,9.009397029876708984e-01,9.030944108963012695e-01,9.043250083923339844e-01,9.049996137619018555e-01,9.052584171295166016e-01,9.053179025650024414e-01,9.053307175636291504e-01,9.053288698196411133e-01,9.053283333778381348e-01,9.053283333778381348e-01,9.053283333778381348e-01,9.053283333778381348e-01,9.053283333778381348e-01,9.053283333778381348e-01,9.053283333778381348e-01,9.053283333778381348e-01,9.053283333778381348e-01,9.053283333778381348e-01,9.053283333778381348e-01,9.053283333778381348e-01,9.053283333778381348e-01,9.053283333778381348e-01,9.053283333778381348e-01,9.053283333778381348e-01,9.053283333778381348e-01,9.053288698196411133e-01,9.053242206573486328e-01,9.053131341934204102e-01,9.056800007820129395e-01,9.057430028915405273e-01,9.047114849090576172e-01,9.028669595718383789e-01,8.985229730606079102e-01,8.857709169387817383e-01,8.726882934570312500e-01,8.538225889205932617e-01,8.178346753120422363e-01,7.568972110748291016e-01,6.797094941139221191e-01,6.491866707801818848e-01,6.307492256164550781e-01,6.160672903060913086e-01,6.195057034492492676e-01,6.385120153427124023e-01,6.891694068908691406e-01,7.479272484779357910e-01,8.039382100105285645e-01,8.360825777053833008e-01,8.614437580108642578e-01,8.788639307022094727e-01,8.859647512435913086e-01,8.912876248359680176e-01,8.885190486907958984e-01,8.795785307884216309e-01,8.712204694747924805e-01,8.582679033279418945e-01,8.298096656799316406e-01,8.088510632514953613e-01,8.012475967407226562e-01,7.752352952957153320e-01,7.225033044815063477e-01,6.163810491561889648e-01
5.884048938751220703e-01,6.137882471084594727e-01,6.563344001770019531e-01,6.570700407028198242e-01,6.805606484413146973e-01,7.047703862190246582e-01,7.411348223686218262e-01,7.625414133071899414e-01,7.833133935928344727e-01,8.019509315490722656e-01,8.197560310363769531e-01,8.362702131271362305e-01,8.512476086616516113e-01,8.645940423011779785e-01,8.762478828430175781e-01,8.858155012130737305e-01,8.928760290145874023e-01,8.976399898529052734e-01,9.009362459182739258e-01,9.030915498733520508e-01,9.043227434158325195e-01,9.049974679946899414e-01,9.052566289901733398e-01,9.053159356117248535e-01,9.053288698196411133e-01,9.053270220756530762e-01,9.053264856338500977e-01,9.053264856338500977e-01,9.053264856338500977e-01,9.053264856338500977e-01,9.053264856338500977e-01,9.053264856338500977e-01,9.053264856338500977e-01,9.053264260292053223e-01,9.053264260292053223e-01,9.053263664245605469e-01,9.053263664245605469e-01,9.053264260292053223e-01,9.053264260292053223e-01,9.053263664245605469e-01,9.053263664245605469e-01,9.053263664245605469e-01,9.053263664245605469e-01,9.053265452384948730e-01,9.053187966346740723e-01,9.053062200546264648e-01,9.054173827171325684e-01,9.056521654129028320e-01,9.044655561447143555e-01,9.039456844329833984e-01,8.991077542304992676e-01,8.856953382492065430e-01,8.758392333984375000e-01,8.554151058197021484e-01,8.299883604049682617e-01,7.689467668533325195e-01,6.905744671821594238e-01,6.603716015815734863e-01,6.571574807167053223e-01,6.506313085556030273e-01,6.288247108459472656e-01,6.653546094894409180e-01,7.046516537666320801e-01,7.682642936706542969e-01,8.059276342391967773e-01,8.475341796875000000e-01,8.711395859718322754e-01,8.791399598121643066e-01,8.904247283935546875e-01,8.917225599288940430e-01,8.886105418205261230e-01,8.803919553756713867e-01,8.711542487144470215e-01,8.583231568336486816e-01,8.298213481903076172e-01,8.088636994361877441e-01,8.012604713439941406e-01,7.752478718757629395e-01,7.225134968757629395e-01,6.163883805274963379e-01
5.883991718292236328e-01,6.137785911560058594e-01,6.563234925270080566e-01,6.570569872856140137e-01,6.805453300476074219e-01,7.047541141510009766e-01,7.411185503005981445e-01,7.625252008438110352e-01,7.832970619201660156e-01,8.019349575042724609e-01,8.197408914566040039e-01,8.362548947334289551e-01,8.512325286865234375e-01,8.645795583724975586e-01,8.762348890304565430e-01,8.858038187026977539e-01,8.928657770156860352e-01,8.976316452026367188e-01,9.009283185005187988e-01,9.030838608741760254e-01,9.043152332305908203e-01,9.049903154373168945e-01,9.052499532699584961e-01,9.053096771240234375e-01,9.053227901458740234e-01,9.053210020065307617e-01,9.053205251693725586e-01,9.053205251693725586e-01,9.053205251693725586e-01,9.053205847740173340e-01,9.053205847740173340e-01,9.053206443786621094e-01,9.053206443786621094e-01,9.053206443786621094e-01,9.053207635879516602e-01,9.053207635879516602e-01,9.053208827972412109e-01,9.053209424018859863e-01,9.053209424018859863e-01,9.053208827972412109e-01,9.053210020065307617e-01,9.053211212158203125e-01,9.053211212158203125e-01,9.053212404251098633e-01,9.053196907043457031e-01,9.052934646606445312e-01,9.053432941436767578e-01,9.054402112960815430e-01,9.053320288658142090e-01,9.044276475906372070e-01,8.979200720787048340e-01,8.877691030502319336e-01,8.752578496932983398e-01,8.567337393760681152e-01,8.333529233932495117e-01,7.734289169311523438e-01,7.030346393585205078e-01,6.851294040679931641e-01,6.813667416572570801e-01,6.659123897552490234e-01,6.526811718940734863e-01,6.730926036834716797e-01,7.245011925697326660e-01,7.831290960311889648e-01,8.323808908462524414e-01,8.526888489723205566e-01,8.742265701293945312e-01,8.840563297271728516e-01,8.921108245849609375e-01,8.936377763748168945e-01,8.878854513168334961e-01,8.810206055641174316e-01,8.710300922393798828e-01,8.583686351776123047e-01,8.298224210739135742e-01,8.088691234588623047e-01,8.012667894363403320e-01,7.752528786659240723e-01,7.225154638290405273e-01,6.163891553878784180e-01
5.883882641792297363e-01,6.137649416923522949e-01,6.563073396682739258e-01,6.570433378219604492e-01,6.805318593978881836e-01,7.047395110130310059e-01,7.411053180694580078e-01,7.625175714492797852e-01,7.832965850830078125e-01,8.019422292709350586e-01,8.197586536407470703e-01,8.362864255905151367e-01,8.512831926345825195e-01,8.646475076675415039e-01,8.763045668601989746e-01,8.858631253242492676e-01,8.929135203361511230e-01,8.976705074310302734e-01,9.009686708450317383e-01,9.031347036361694336e-01,9.043723940849304199e-01,9.050531387329101562e-01,9.053155183792114258e-01,9.053769111633300781e-01,9.053903818130493164e-01,9.053887128829956055e-01,9.053885936737060547e-01,9.053888320922851562e-01,9.053890705108642578e-01,9.053894281387329102e-01,9.053896665573120117e-01,9.053899049758911133e-01,9.053901433944702148e-01,9.053903818130493164e-01,9.053906202316284180e-01,9.053910970687866211e-01,9.053912758827209473e-01,9.053915143013000488e-01,9.053918123245239258e-01,9.053920507431030273e-01,9.053922891616821289e-01,9.053926467895507812e-01,9.053927659988403320e-01,9.053931236267089844e-01,9.053920507431030273e-01,9.053803682327270508e-01,9.054272174835205078e-01,9.052512645721435547e-01,9.057953357696533203e-01,9.037167429924011230e-01,8.973038196563720703e-01,8.898514509201049805e-01,8.790634274482727051e-01,8.628460764884948730e-01,8.354338407516479492e-01,7.679947614669799805e-01,7.212774753570556641e-01,7.072174549102783203e-01,7.053359150886535645e-01,6.689582467079162598e-01,6.719617247581481934e-01,6.892508268356323242e-01,7.477443814277648926e-01,8.068138957023620605e-01,8.394466638565063477e-01,8.573679327964782715e-01,8.765949010848999023e-01,8.858938813209533691e-01,8.925989866256713867e-01,8.945248723030090332e-01,8.886268138885498047e-01,8.804541826248168945e-01,8.713077306747436523e-01,8.584114909172058105e-01,8.298919200897216797e-01,8.089156746864318848e-01,8.012970089912414551e-01,7.752716541290283203e-01,7.225141525268554688e-01,6.163887381553649902e-01
5.883949995040893555e-01,6.137735247611999512e-01,6.563141345977783203e-01,6.570609807968139648e-01,6.805605888366699219e-01,7.048011422157287598e-01,7.412182688713073730e-01,7.626786828041076660e-01,7.834839820861816406e-01,8.021422624588012695e-01,8.199606537818908691e-01,8.364859819412231445e-01,8.514602184295654297e-01,8.647928237915039062e-01,8.764215707778930664e-01,8.859449028968811035e-01,8.929833769798278809e-01,8.977724909782409668e-01,9.010931253433227539e-01,9.032582044601440430e-01,9.044927954673767090e-01,9.051686525344848633e-01,9.054247140884399414e-01,9.054827690124511719e-01,9.054937362670898438e-01,9.054911732673645020e-01,9.054898023605346680e-01,9.054889678955078125e-01,9.054880142211914062e-01,9.054872989654541016e-01,9.054864645004272461e-01,9.054855108261108398e-01,9.054846763610839844e-01,9.054837822914123535e-01,9.054828286170959473e-01,9.054819941520690918e-01,9.054811000823974609e-01,9.054803252220153809e-01,9.054794311523437500e-01,9.054785966873168945e-01,9.054777622222900391e-01,9.054768681526184082e-01,9.054759740829467773e-01,9.054751396179199219e-01,9.054784774780273438e-01,9.054789543151855469e-01,9.055196046829223633e-01,9.053442478179931641e-01,9.055931568145751953e-01,9.022957086563110352e-01,8.961247801780700684e-01,8.887958526611328125e-01,8.827202320098876953e-01,8.659447431564331055e-01,8.331898450851440430e-01,7.759542465209960938e-01,7.432269454002380371e-01,7.269229888916015625e-01,7.131761312484741211e-01,6.958296298980712891e-01,6.882849931716918945e-01,7.199000120162963867e-01,7.622138261795043945e-01,8.236100673675537109e-01,8.522033691406250000e-01,8.653073906898498535e-01,8.794355392456054688e-01,8.907552957534790039e-01,8.952342867851257324e-01,8.940666317939758301e-01,8.889338374137878418e-01,8.809549808502197266e-01,8.714127540588378906e-01,8.585618734359741211e-01,8.301122188568115234e-01,8.091618418693542480e-01,8.015522956848144531e-01,7.755194306373596191e-01,7.227985858917236328e-01,6.167846918106079102e-01
5.885775685310363770e-01,6.139509081840515137e-01,6.565674543380737305e-01,6.573173999786376953e-01,6.808093190193176270e-01,7.049658894538879395e-01,7.413064837455749512e-01,7.626912593841552734e-01,7.833572626113891602e-01,8.018847703933715820e-01,8.195859789848327637e-01,8.359762430191040039e-01,8.508599996566772461e-01,8.641110658645629883e-01,8.756408691406250000e-01,8.851383924484252930e-01,8.922113180160522461e-01,8.969811201095581055e-01,9.002739191055297852e-01,9.024296998977661133e-01,9.036751389503479004e-01,9.043315649032592773e-01,9.045726656913757324e-01,9.046295881271362305e-01,9.046417474746704102e-01,9.046393036842346191e-01,9.046379327774047852e-01,9.046370983123779297e-01,9.046360254287719727e-01,9.046353101730346680e-01,9.046342372894287109e-01,9.046332836151123047e-01,9.046324491500854492e-01,9.046316742897033691e-01,9.046306610107421875e-01,9.046298265457153320e-01,9.046288728713989258e-01,9.046279191970825195e-01,9.046270847320556641e-01,9.046260118484497070e-01,9.046252965927124023e-01,9.046244621276855469e-01,9.046233892440795898e-01,9.046224355697631836e-01,9.046300649642944336e-01,9.046416282653808594e-01,9.046781063079833984e-01,9.047753214836120605e-01,9.037454128265380859e-01,9.005521535873413086e-01,8.939068317413330078e-01,8.873019218444824219e-01,8.877277374267578125e-01,8.730603456497192383e-01,8.363903760910034180e-01,7.762336730957031250e-01,7.617803812026977539e-01,7.511365413665771484e-01,7.302479743957519531e-01,7.181271314620971680e-01,7.156293392181396484e-01,7.366733551025390625e-01,7.827918529510498047e-01,8.287479877471923828e-01,8.565043210983276367e-01,8.711964488029479980e-01,8.818922042846679688e-01,8.927283287048339844e-01,8.960626721382141113e-01,8.942580223083496094e-01,8.879421949386596680e-01,8.798057436943054199e-01,8.707163333892822266e-01,8.577991724014282227e-01,8.292627930641174316e-01,8.083080649375915527e-01,8.009111285209655762e-01,7.746576666831970215e-01,7.219791412353515625e-01,6.162484884262084961e-01
5.889348983764648438e-01,6.138237714767456055e-01,6.562412977218627930e-01,6.566767096519470215e-01,6.799241900444030762e-01,7.037631869316101074e-01,7.398913502693176270e-01,7.610048651695251465e-01,7.815123796463012695e-01,7.999094724655151367e-01,8.175226449966430664e-01,8.339128494262695312e-01,8.489228487014770508e-01,8.623847365379333496e-01,8.741685152053833008e-01,8.838953971862792969e-01,8.910560607910156250e-01,8.958870172500610352e-01,8.992758393287658691e-01,9.014961719512939453e-01,9.027300477027893066e-01,9.033838510513305664e-01,9.036418199539184570e-01,9.037146568298339844e-01,9.037275314331054688e-01,9.037255644798278809e-01,9.037240743637084961e-01,9.037228822708129883e-01,9.037218093872070312e-01,9.037207961082458496e-01,9.037197828292846680e-01,9.037186503410339355e-01,9.037176370620727539e-01,9.037165641784667969e-01,9.037153124809265137e-01,9.037144184112548828e-01,9.037133455276489258e-01,9.037123918533325195e-01,9.037111997604370117e-01,9.037101268768310547e-01,9.037090539932250977e-01,9.037081003189086914e-01,9.037070274353027344e-01,9.037059545516967773e-01,9.037138819694519043e-01,9.037245512008666992e-01,9.036566019058227539e-01,9.035806655883789062e-01,9.026253223419189453e-01,8.982744812965393066e-01,8.914918899536132812e-01,8.894211053848266602e-01,8.854110240936279297e-01,8.701993823051452637e-01,8.339242339134216309e-01,7.849308252334594727e-01,7.845150232315063477e-01,7.657970190048217773e-01,7.650546431541442871e-01,7.265436649322509766e-01,7.288126349449157715e-01,7.516657114028930664e-01,8.120700120925903320e-01,8.382735252380371094e-01,8.560780286788940430e-01,8.752429485321044922e-01,8.859734535217285156e-01,8.947213292121887207e-01,8.960586786270141602e-01,8.934020996093750000e-01,8.874889612197875977e-01,8.793889284133911133e-01,8.700878620147705078e-01,8.571844100952148438e-01,8.286708593368530273e-01,8.075655698776245117e-01,8.000974059104919434e-01,7.738298177719116211e-01,7.208222150802612305e-01,6.147258281707763672e-01
5.881910920143127441e-01,6.121513247489929199e-01,6.544503569602966309e-01,6.547907590866088867e-01,6.775819659233093262e-01,7.009671926498413086e-01,7.370861768722534180e-01,7.582457065582275391e-01,7.788020968437194824e-01,7.971986532211303711e-01,8.147948980331420898e-01,8.312973380088806152e-01,8.464378118515014648e-01,8.599838018417358398e-01,8.718595504760742188e-01,8.816279768943786621e-01,8.889313936233520508e-01,8.940091133117675781e-01,8.974870443344116211e-01,8.997218608856201172e-01,9.009763002395629883e-01,9.016550183296203613e-01,9.019185304641723633e-01,9.019806385040283203e-01,9.019875526428222656e-01,9.019803404808044434e-01,9.019739031791687012e-01,9.019678235054016113e-01,9.019618034362792969e-01,9.019556045532226562e-01,9.019495248794555664e-01,9.019434452056884766e-01,9.019374847412109375e-01,9.019312858581542969e-01,9.019252657890319824e-01,9.019192457199096680e-01,9.019131660461425781e-01,9.019070863723754883e-01,9.019011259078979492e-01,9.018949270248413086e-01,9.018889665603637695e-01,9.018828868865966797e-01,9.018768072128295898e-01,9.018707275390625000e-01,9.018714427947998047e-01,9.018831253051757812e-01,9.017738103866577148e-01,9.017219543457031250e-01,9.012440443038940430e-01,8.957573175430297852e-01,8.886022567749023438e-01,8.888964653015136719e-01,8.836179375648498535e-01,8.688210248947143555e-01,8.289051055908203125e-01,7.923098206520080566e-01,7.954531908035278320e-01,7.877386808395385742e-01,7.738381624221801758e-01,7.453453540802001953e-01,7.375118732452392578e-01,7.779535055160522461e-01,8.247823715209960938e-01,8.439869284629821777e-01,8.596554994583129883e-01,8.746201992034912109e-01,8.848539590835571289e-01,8.938478231430053711e-01,8.957535028457641602e-01,8.918099403381347656e-01,8.863196969032287598e-01,8.778434991836547852e-01,8.685852289199829102e-01,8.557820320129394531e-01,8.273839950561523438e-01,8.065277338027954102e-01,7.989600896835327148e-01,7.723748683929443359e-01,7.195353507995605469e-01,6.129435300827026367e-01
5.862550735473632812e-01,6.094366908073425293e-01,6.514799594879150391e-01,6.515442728996276855e-01,6.740760207176208496e-01,6.969119310379028320e-01,7.324778437614440918e-01,7.531207203865051270e-01,7.730050683021545410e-01,7.909482121467590332e-01,8.082786202430725098e-01,8.245594501495361328e-01,8.395538330078125000e-01,8.531525135040283203e-01,8.651052713394165039e-01,8.749622106552124023e-01,8.823381662368774414e-01,8.874379396438598633e-01,8.910181522369384766e-01,8.932573795318603516e-01,8.945040106773376465e-01,8.952066302299499512e-01,8.954707980155944824e-01,8.955255746841430664e-01,8.955243825912475586e-01,8.955134153366088867e-01,8.955035209655761719e-01,8.954945802688598633e-01,8.954852819442749023e-01,8.954761624336242676e-01,8.954670429229736328e-01,8.954581022262573242e-01,8.954489231109619141e-01,8.954399228096008301e-01,8.954308032989501953e-01,8.954215645790100098e-01,8.954125642776489258e-01,8.954035043716430664e-01,8.953943848609924316e-01,8.953853845596313477e-01,8.953762054443359375e-01,8.953671455383300781e-01,8.953580856323242188e-01,8.953489065170288086e-01,8.953397274017333984e-01,8.953517675399780273e-01,8.952862620353698730e-01,8.955215215682983398e-01,8.943884968757629395e-01,8.895938396453857422e-01,8.834521770477294922e-01,8.820341825485229492e-01,8.752354383468627930e-01,8.524694442749023438e-01,8.238651752471923828e-01,7.998645305633544922e-01,7.861164808273315430e-01,7.985558509826660156e-01,7.790729403495788574e-01,7.477088570594787598e-01,7.496788501739501953e-01,7.844201326370239258e-01,8.311491012573242188e-01,8.444088697433471680e-01,8.596059679985046387e-01,8.701188564300537109e-01,8.821240663528442383e-01,8.891792893409729004e-01,8.898524045944213867e-01,8.860718607902526855e-01,8.805698156356811523e-01,8.723338842391967773e-01,8.629381656646728516e-01,8.499878644943237305e-01,8.217651844024658203e-01,8.014975786209106445e-01,7.943658828735351562e-01,7.679718732833862305e-01,7.155225872993469238e-01,6.079442501068115234e-01
5.823476910591125488e-01,6.035624742507934570e-01,6.450693607330322266e-01,6.443617343902587891e-01,6.657204627990722656e-01,6.876934766769409180e-01,7.224068045616149902e-01,7.425897121429443359e-01,7.618008852005004883e-01,7.788743972778320312e-01,7.956084012985229492e-01,8.115684986114501953e-01,8.266273736953735352e-01,8.405223488807678223e-01,8.527935743331909180e-01,8.630762100219726562e-01,8.709470033645629883e-01,8.763779997825622559e-01,8.801470994949340820e-01,8.825254440307617188e-01,8.838636875152587891e-01,8.845193386077880859e-01,8.847215175628662109e-01,8.847393989562988281e-01,8.847287893295288086e-01,8.847060203552246094e-01,8.846852779388427734e-01,8.846650719642639160e-01,8.846448659896850586e-01,8.846246600151062012e-01,8.846044540405273438e-01,8.845841884613037109e-01,8.845639228820800781e-01,8.845438957214355469e-01,8.845238089561462402e-01,8.845034837722778320e-01,8.844833970069885254e-01,8.844631910324096680e-01,8.844429850578308105e-01,8.844228386878967285e-01,8.844027519226074219e-01,8.843826055526733398e-01,8.843623995780944824e-01,8.843421936035156250e-01,8.843225836753845215e-01,8.843202590942382812e-01,8.842712640762329102e-01,8.846138715744018555e-01,8.829068541526794434e-01,8.773436546325683594e-01,8.741487264633178711e-01,8.729432225227355957e-01,8.634974956512451172e-01,8.416614532470703125e-01,8.139480352401733398e-01,7.936141490936279297e-01,7.821831703186035156e-01,7.829629182815551758e-01,7.698652744293212891e-01,7.418427467346191406e-01,7.499060034751892090e-01,7.833580970764160156e-01,8.155076503753662109e-01,8.370178937911987305e-01,8.511843681335449219e-01,8.620237112045288086e-01,8.733258247375488281e-01,8.786013126373291016e-01,8.789628744125366211e-01,8.751836419105529785e-01,8.698186874389648438e-01,8.619014620780944824e-01,8.528836369514465332e-01,8.399163484573364258e-01,8.112016916275024414e-01,7.921299934387207031e-01,7.858318090438842773e-01,7.610099315643310547e-01,7.075305581092834473e-01,6.019653081893920898e-01
5.752031207084655762e-01,5.937517285346984863e-01,6.341878771781921387e-01,6.314077973365783691e-01,6.507644057273864746e-01,6.714979410171508789e-01,7.052970528602600098e-01,7.246525287628173828e-01,7.431019544601440430e-01,7.594753503799438477e-01,7.753039598464965820e-01,7.904903888702392578e-01,8.051487207412719727e-01,8.185932636260986328e-01,8.304768800735473633e-01,8.404318690299987793e-01,8.479111194610595703e-01,8.532867431640625000e-01,8.570474982261657715e-01,8.593978881835937500e-01,8.606380820274353027e-01,8.611876964569091797e-01,8.613216876983642578e-01,8.613258600234985352e-01,8.612940311431884766e-01,8.612547516822814941e-01,8.612176179885864258e-01,8.611804842948913574e-01,8.611437082290649414e-01,8.611067533493041992e-01,8.610697984695434570e-01,8.610328435897827148e-01,8.609958887100219727e-01,8.609589338302612305e-01,8.609220981597900391e-01,8.608851432800292969e-01,8.608481884002685547e-01,8.608113527297973633e-01,8.607743382453918457e-01,8.607374429702758789e-01,8.607005476951599121e-01,8.606635332107543945e-01,8.606269359588623047e-01,8.605899214744567871e-01,8.605543375015258789e-01,8.605421185493469238e-01,8.608728647232055664e-01,8.612706661224365234e-01,8.589260578155517578e-01,8.544697761535644531e-01,8.513926863670349121e-01,8.497843742370605469e-01,8.374506831169128418e-01,8.140887618064880371e-01,7.816638946533203125e-01,7.689454555511474609e-01,7.710350751876831055e-01,7.580931186676025391e-01,7.406962513923645020e-01,7.238218784332275391e-01,7.289430499076843262e-01,7.747443914413452148e-01,7.943476438522338867e-01,8.110793828964233398e-01,8.286712765693664551e-01,8.402011394500732422e-01,8.519971966743469238e-01,8.559960722923278809e-01,8.556194305419921875e-01,8.521544933319091797e-01,8.467141985893249512e-01,8.389613032341003418e-01,8.302863836288452148e-01,8.173259496688842773e-01,7.881329059600830078e-01,7.704342007637023926e-01,7.674698829650878906e-01,7.442944049835205078e-01,6.928645372390747070e-01,5.924755334854125977e-01
5.642400979995727539e-01,5.783785581588745117e-01,6.170502901077270508e-01,6.110103130340576172e-01,6.274173259735107422e-01,6.464135050773620605e-01,6.783352494239807129e-01,6.956854462623596191e-01,7.117327451705932617e-01,7.257437705993652344e-01,7.394042611122131348e-01,7.528246045112609863e-01,7.661416530609130859e-01,7.786085009574890137e-01,7.895393967628479004e-01,7.988288402557373047e-01,8.062303066253662109e-01,8.115667104721069336e-01,8.152985572814941406e-01,8.176019191741943359e-01,8.186847567558288574e-01,8.189592361450195312e-01,8.189820647239685059e-01,8.189573287963867188e-01,8.189085125923156738e-01,8.188480138778686523e-01,8.187886476516723633e-01,8.187299966812133789e-01,8.186711072921752930e-01,8.186122775077819824e-01,8.185535669326782227e-01,8.184947371482849121e-01,8.184360265731811523e-01,8.183771371841430664e-01,8.183184862136840820e-01,8.182597160339355469e-01,8.182009458541870117e-01,8.181421160697937012e-01,8.180835247039794922e-01,8.180249333381652832e-01,8.179662227630615234e-01,8.179074525833129883e-01,8.178487420082092285e-01,8.177901506423950195e-01,8.177282214164733887e-01,8.176943063735961914e-01,8.182651400566101074e-01,8.179342746734619141e-01,8.146889209747314453e-01,8.116641044616699219e-01,8.135423660278320312e-01,8.053131699562072754e-01,7.963127493858337402e-01,7.720438241958618164e-01,7.435598373413085938e-01,7.370784282684326172e-01,7.317503690719604492e-01,7.206128835678100586e-01,7.074249982833862305e-01,6.856799125671386719e-01,6.988383531570434570e-01,7.345221042633056641e-01,7.546117305755615234e-01,7.653005123138427734e-01,7.847225069999694824e-01,7.954379916191101074e-01,8.094085454940795898e-01,8.130666613578796387e-01,8.119059205055236816e-01,8.097325563430786133e-01,8.044708371162414551e-01,7.972466945648193359e-01,7.896791696548461914e-01,7.776837944984436035e-01,7.482703328132629395e-01,7.333712577819824219e-01,7.347809076309204102e-01,7.137655019760131836e-01,6.687989234924316406e-01,5.797371864318847656e-01
5.497258305549621582e-01,5.539395809173583984e-01,5.888152122497558594e-01,5.787630677223205566e-01,5.919247865676879883e-01,6.082155704498291016e-01,6.378275752067565918e-01,6.524366140365600586e-01,6.663268804550170898e-01,6.780738234519958496e-01,6.894948482513427734e-01,7.006311416625976562e-01,7.116295099258422852e-01,7.215060591697692871e-01,7.303636074066162109e-01,7.380273342132568359e-01,7.437779903411865234e-01,7.477799654006958008e-01,7.504900693893432617e-01,7.519866824150085449e-01,7.524161338806152344e-01,7.524826526641845703e-01,7.524579763412475586e-01,7.523950934410095215e-01,7.523274421691894531e-01,7.522426843643188477e-01,7.521598339080810547e-01,7.520776391029357910e-01,7.519953250885009766e-01,7.519131302833557129e-01,7.518308758735656738e-01,7.517486810684204102e-01,7.516665458679199219e-01,7.515842914581298828e-01,7.515022158622741699e-01,7.514201402664184570e-01,7.513380050659179688e-01,7.512555718421936035e-01,7.511733770370483398e-01,7.510913610458374023e-01,7.510092258453369141e-01,7.509271502494812012e-01,7.508451938629150391e-01,7.507630586624145508e-01,7.506829500198364258e-01,7.506108880043029785e-01,7.512656450271606445e-01,7.506023049354553223e-01,7.470164299011230469e-01,7.435548305511474609e-01,7.462098598480224609e-01,7.342208623886108398e-01,7.270499467849731445e-01,7.145866155624389648e-01,6.806319355964660645e-01,6.761950850486755371e-01,6.715655922889709473e-01,6.563842296600341797e-01,6.576797962188720703e-01,6.453360319137573242e-01,6.452600359916687012e-01,6.831222176551818848e-01,6.964466571807861328e-01,7.061545848846435547e-01,7.199043035507202148e-01,7.367734313011169434e-01,7.435135841369628906e-01,7.460567951202392578e-01,7.440956234931945801e-01,7.415783405303955078e-01,7.366799712181091309e-01,7.303479313850402832e-01,7.243854403495788574e-01,7.131517529487609863e-01,6.837424039840698242e-01,6.730194687843322754e-01,6.819084286689758301e-01,6.631081700325012207e-01,6.338030099868774414e-01,5.564966201782226562e-01
5.325055718421936035e-01,5.236894488334655762e-01,5.544986724853515625e-01,5.385860204696655273e-01,5.464483499526977539e-01,5.593029260635375977e-01,5.835225582122802734e-01,5.946947336196899414e-01,6.051697731018066406e-01,6.133006215095520020e-01,6.213210821151733398e-01,6.292474269866943359e-01,6.369130015373229980e-01,6.437631249427795410e-01,6.499367952346801758e-01,6.547463536262512207e-01,6.579787731170654297e-01,6.604105234146118164e-01,6.619801521301269531e-01,6.628212928771972656e-01,6.630398035049438477e-01,6.630021929740905762e-01,6.629002094268798828e-01,6.628167033195495605e-01,6.627349257469177246e-01,6.626448035240173340e-01,6.625570058822631836e-01,6.624695658683776855e-01,6.623820066452026367e-01,6.622946262359619141e-01,6.622071266174316406e-01,6.621197462081909180e-01,6.620324850082397461e-01,6.619449853897094727e-01,6.618576049804687500e-01,6.617704629898071289e-01,6.616830825805664062e-01,6.615958213806152344e-01,6.615085601806640625e-01,6.614210605621337891e-01,6.613338589668273926e-01,6.612465381622314453e-01,6.611596345901489258e-01,6.610723137855529785e-01,6.609665155410766602e-01,6.608271598815917969e-01,6.614786982536315918e-01,6.605300307273864746e-01,6.584227085113525391e-01,6.574143767356872559e-01,6.551833152770996094e-01,6.463420391082763672e-01,6.363793611526489258e-01,6.288929581642150879e-01,6.148616075515747070e-01,6.088138222694396973e-01,5.944749712944030762e-01,5.868225693702697754e-01,5.913560390472412109e-01,5.795358419418334961e-01,5.861327052116394043e-01,6.163161396980285645e-01,6.188439726829528809e-01,6.265717744827270508e-01,6.421600580215454102e-01,6.516714692115783691e-01,6.555382013320922852e-01,6.571494340896606445e-01,6.547966003417968750e-01,6.526229381561279297e-01,6.491985917091369629e-01,6.444010138511657715e-01,6.405432224273681641e-01,6.308725476264953613e-01,6.034164428710937500e-01,5.960384607315063477e-01,6.116416454315185547e-01,5.968512296676635742e-01,5.880113244056701660e-01,5.268790721893310547e-01
5.115486979484558105e-01,4.893339872360229492e-01,5.141252875328063965e-01,4.908666908740997314e-01,4.924278259277343750e-01,5.010096430778503418e-01,5.196072459220886230e-01,5.275502800941467285e-01,5.347121953964233398e-01,5.395535826683044434e-01,5.444231033325195312e-01,5.495239496231079102e-01,5.544986128807067871e-01,5.588384866714477539e-01,5.624902248382568359e-01,5.651990175247192383e-01,5.675007700920104980e-01,5.691152811050415039e-01,5.702081322669982910e-01,5.707077383995056152e-01,5.708109140396118164e-01,5.707324743270874023e-01,5.705899000167846680e-01,5.705213546752929688e-01,5.704244971275329590e-01,5.703360438346862793e-01,5.702489018440246582e-01,5.701619982719421387e-01,5.700749754905700684e-01,5.699882507324218750e-01,5.699015259742736816e-01,5.698147416114807129e-01,5.697280764579772949e-01,5.696412324905395508e-01,5.695545673370361328e-01,5.694679617881774902e-01,5.693812370300292969e-01,5.692946314811706543e-01,5.692079663276672363e-01,5.691214203834533691e-01,5.690348744392395020e-01,5.689483880996704102e-01,5.688617229461669922e-01,5.687754154205322266e-01,5.686751604080200195e-01,5.685158967971801758e-01,5.687060356140136719e-01,5.684924721717834473e-01,5.663643479347229004e-01,5.669260621070861816e-01,5.651915669441223145e-01,5.553724169731140137e-01,5.447339415550231934e-01,5.377261042594909668e-01,5.381511449813842773e-01,5.369986295700073242e-01,5.155788660049438477e-01,5.142876505851745605e-01,5.171364545822143555e-01,5.109339356422424316e-01,5.291138291358947754e-01,5.325006246566772461e-01,5.416769981384277344e-01,5.436358451843261719e-01,5.544797778129577637e-01,5.618358254432678223e-01,5.660893917083740234e-01,5.660492777824401855e-01,5.645711421966552734e-01,5.623834729194641113e-01,5.592893958091735840e-01,5.556789040565490723e-01,5.537544488906860352e-01,5.455801486968994141e-01,5.215278863906860352e-01,5.174164772033691406e-01,5.384402275085449219e-01,5.280892848968505859e-01,5.396919846534729004e-01,4.965209066867828369e-01
4.905616939067840576e-01,4.556730985641479492e-01,4.712975621223449707e-01,4.408683478832244873e-01,4.361962378025054932e-01,4.405658841133117676e-01,4.539877474308013916e-01,4.580784440040588379e-01,4.624001085758209229e-01,4.647290408611297607e-01,4.672780930995941162e-01,4.700890481472015381e-01,4.728606045246124268e-01,4.754900038242340088e-01,4.777985215187072754e-01,4.795240163803100586e-01,4.808026552200317383e-01,4.817716181278228760e-01,4.823769330978393555e-01,4.826416969299316406e-01,4.826929569244384766e-01,4.826857745647430420e-01,4.826072752475738525e-01,4.825071990489959717e-01,4.824242293834686279e-01,4.823504686355590820e-01,4.822774231433868408e-01,4.822044074535369873e-01,4.821316897869110107e-01,4.820587933063507080e-01,4.819860160350799561e-01,4.819131791591644287e-01,4.818405210971832275e-01,4.817675352096557617e-01,4.816949963569641113e-01,4.816220402717590332e-01,4.815495312213897705e-01,4.814766049385070801e-01,4.814040958881378174e-01,4.813314676284790039e-01,4.812588393688201904e-01,4.811862111091613770e-01,4.811136126518249512e-01,4.810412228107452393e-01,4.809573888778686523e-01,4.808003604412078857e-01,4.807617664337158203e-01,4.811966717243194580e-01,4.813714623451232910e-01,4.816008806228637695e-01,4.804521203041076660e-01,4.767944514751434326e-01,4.663313627243041992e-01,4.654788374900817871e-01,4.635965526103973389e-01,4.619123935699462891e-01,4.480179548263549805e-01,4.505172669887542725e-01,4.474065601825714111e-01,4.525007605552673340e-01,4.500562250614166260e-01,4.585589170455932617e-01,4.636191725730895996e-01,4.675193428993225098e-01,4.730118811130523682e-01,4.766194224357604980e-01,4.805451631546020508e-01,4.785880148410797119e-01,4.790520966053009033e-01,4.778713285923004150e-01,4.769222736358642578e-01,4.753745794296264648e-01,4.753590822219848633e-01,4.695204496383666992e-01,4.495216012001037598e-01,4.482915997505187988e-01,4.718444943428039551e-01,4.688149392604827881e-01,4.950107932090759277e-01,4.691004455089569092e-01
4.694040119647979736e-01,4.224054217338562012e-01,4.285272657871246338e-01,3.950429260730743408e-01,3.840755820274353027e-01,3.856430351734161377e-01,3.960564434528350830e-01,3.989944756031036377e-01,4.020247757434844971e-01,4.032192826271057129e-01,4.044318795204162598e-01,4.056461453437805176e-01,4.066686034202575684e-01,4.076151251792907715e-01,4.084131717681884766e-01,4.090017676353454590e-01,4.096080660820007324e-01,4.101020097732543945e-01,4.103147089481353760e-01,4.103589653968811035e-01,4.103683829307556152e-01,4.102714359760284424e-01,4.102001190185546875e-01,4.101277589797973633e-01,4.100649356842041016e-01,4.100062847137451172e-01,4.099480509757995605e-01,4.098902940750122070e-01,4.098327159881591797e-01,4.097751080989837646e-01,4.097174704074859619e-01,4.096595048904418945e-01,4.096020758152008057e-01,4.095444083213806152e-01,4.094868302345275879e-01,4.094291329383850098e-01,4.093716144561767578e-01,4.093141555786132812e-01,4.092564582824707031e-01,4.091991484165191650e-01,4.091416001319885254e-01,4.090840816497802734e-01,4.090265631675720215e-01,4.089692234992980957e-01,4.089086055755615234e-01,4.088055491447448730e-01,4.086301326751708984e-01,4.087375700473785400e-01,4.092958867549896240e-01,4.092952311038970947e-01,4.077633619308471680e-01,4.058628380298614502e-01,4.011289477348327637e-01,3.985832333564758301e-01,4.033847153186798096e-01,3.996244370937347412e-01,3.914807438850402832e-01,3.895545601844787598e-01,3.898747861385345459e-01,3.923619687557220459e-01,3.958259522914886475e-01,3.975251615047454834e-01,4.003866910934448242e-01,4.019447863101959229e-01,4.056712985038757324e-01,4.055895209312438965e-01,4.077450633049011230e-01,4.082771539688110352e-01,4.074286818504333496e-01,4.065427780151367188e-01,4.056744873523712158e-01,4.045917391777038574e-01,4.052440226078033447e-01,4.015482068061828613e-01,3.856836557388305664e-01,3.876923322677612305e-01,4.135221838951110840e-01,4.177277088165283203e-01,4.560294151306152344e-01,4.460653066635131836e-01
4.513875246047973633e-01,3.938159346580505371e-01,3.929798603057861328e-01,3.572877645492553711e-01,3.413590788841247559e-01,3.406519889831542969e-01,3.481005430221557617e-01,3.498201966285705566e-01,3.515133857727050781e-01,3.519316613674163818e-01,3.524481058120727539e-01,3.529151082038879395e-01,3.533970713615417480e-01,3.538349866867065430e-01,3.541307449340820312e-01,3.542267680168151855e-01,3.543020486831665039e-01,3.541776239871978760e-01,3.540234863758087158e-01,3.539642691612243652e-01,3.539431691169738770e-01,3.539089858531951904e-01,3.538542687892913818e-01,3.538010716438293457e-01,3.537597656250000000e-01,3.537181615829467773e-01,3.536770343780517578e-01,3.536357283592224121e-01,3.535946607589721680e-01,3.535534739494323730e-01,3.535122871398925781e-01,3.534711599349975586e-01,3.534300327301025391e-01,3.533890247344970703e-01,3.533478677272796631e-01,3.533068299293518066e-01,3.532658815383911133e-01,3.532248139381408691e-01,3.531836271286010742e-01,3.531428575515747070e-01,3.531019091606140137e-01,3.530608713626861572e-01,3.530198335647583008e-01,3.529788851737976074e-01,3.529483675956726074e-01,3.528919219970703125e-01,3.528604507446289062e-01,3.529061675071716309e-01,3.531155586242675781e-01,3.531801700592041016e-01,3.532487452030181885e-01,3.526413142681121826e-01,3.508227467536926270e-01,3.475681245326995850e-01,3.487401306629180908e-01,3.496661186218261719e-01,3.474516272544860840e-01,3.463254868984222412e-01,3.439591526985168457e-01,3.460079431533813477e-01,3.449360728263854980e-01,3.456291556358337402e-01,3.490370213985443115e-01,3.517286181449890137e-01,3.510014414787292480e-01,3.529555201530456543e-01,3.518930673599243164e-01,3.521922826766967773e-01,3.521180748939514160e-01,3.520236909389495850e-01,3.517600893974304199e-01,3.512927293777465820e-01,3.521294593811035156e-01,3.495025634765625000e-01,3.363149166107177734e-01,3.391837477684020996e-01,3.653383851051330566e-01,3.756972253322601318e-01,4.224537014961242676e-01,4.258230328559875488e-01
4.349658191204071045e-01,3.689423799514770508e-01,3.612738847732543945e-01,3.251631259918212891e-01,3.061285018920898438e-01,3.047557473182678223e-01,3.108603656291961670e-01,3.122500479221343994e-01,3.134071826934814453e-01,3.134224414825439453e-01,3.134079575538635254e-01,3.133981227874755859e-01,3.134729266166687012e-01,3.135638236999511719e-01,3.135946393013000488e-01,3.136099874973297119e-01,3.135705590248107910e-01,3.135186433792114258e-01,3.135353922843933105e-01,3.135211169719696045e-01,3.134635388851165771e-01,3.134183585643768311e-01,3.133843541145324707e-01,3.133557736873626709e-01,3.133247792720794678e-01,3.132951557636260986e-01,3.132651448249816895e-01,3.132352232933044434e-01,3.132053613662719727e-01,3.131756186485290527e-01,3.131455779075622559e-01,3.131158351898193359e-01,3.130859732627868652e-01,3.130562901496887207e-01,3.130264282226562500e-01,3.129965960979461670e-01,3.129667639732360840e-01,3.129369318485260010e-01,3.129071593284606934e-01,3.128774166107177734e-01,3.128476142883300781e-01,3.128177523612976074e-01,3.127880692481994629e-01,3.127582967281341553e-01,3.127318620681762695e-01,3.127010166645050049e-01,3.126242756843566895e-01,3.127380013465881348e-01,3.126085698604583740e-01,3.122308254241943359e-01,3.125464320182800293e-01,3.130513429641723633e-01,3.116999864578247070e-01,3.113920688629150391e-01,3.103610873222351074e-01,3.103976249694824219e-01,3.110848069190979004e-01,3.101853728294372559e-01,3.074837923049926758e-01,3.115992248058319092e-01,3.092390298843383789e-01,3.108836114406585693e-01,3.118272721767425537e-01,3.108670413494110107e-01,3.111075162887573242e-01,3.117923140525817871e-01,3.123494386672973633e-01,3.122313022613525391e-01,3.119795918464660645e-01,3.118745088577270508e-01,3.117393255233764648e-01,3.115185201168060303e-01,3.122625648975372314e-01,3.104329705238342285e-01,2.992411255836486816e-01,3.026002049446105957e-01,3.288334608078002930e-01,3.441985249519348145e-01,3.968360126018524170e-01,4.101067483425140381e-01
4.212126135826110840e-01,3.491291701793670654e-01,3.364095687866210938e-01,2.999961972236633301e-01,2.791724801063537598e-01,2.769960761070251465e-01,2.819507122039794922e-01,2.831160128116607666e-01,2.839997112751007080e-01,2.838903665542602539e-01,2.838505506515502930e-01,2.838484644889831543e-01,2.838317155838012695e-01,2.838143408298492432e-01,2.838001251220703125e-01,2.837622761726379395e-01,2.837228178977966309e-01,2.836933732032775879e-01,2.836685180664062500e-01,2.836338877677917480e-01,2.836071848869323730e-01,2.835854291915893555e-01,2.835630774497985840e-01,2.835405468940734863e-01,2.835193872451782227e-01,2.834977507591247559e-01,2.834761440753936768e-01,2.834542989730834961e-01,2.834327816963195801e-01,2.834110856056213379e-01,2.833893895149230957e-01,2.833679318428039551e-01,2.833462357521057129e-01,2.833245694637298584e-01,2.833030521869659424e-01,2.832812666893005371e-01,2.832596302032470703e-01,2.832381129264831543e-01,2.832163572311401367e-01,2.831948995590209961e-01,2.831732034683227539e-01,2.831519544124603271e-01,2.831302285194396973e-01,2.831084728240966797e-01,2.830899357795715332e-01,2.830662429332733154e-01,2.830450236797332764e-01,2.830075025558471680e-01,2.830062508583068848e-01,2.829320430755615234e-01,2.829248309135437012e-01,2.831260859966278076e-01,2.832286059856414795e-01,2.823064327239990234e-01,2.822668850421905518e-01,2.829954028129577637e-01,2.823856472969055176e-01,2.819439768791198730e-01,2.815909683704376221e-01,2.814306616783142090e-01,2.822126746177673340e-01,2.828248143196105957e-01,2.822495400905609131e-01,2.825969457626342773e-01,2.830919027328491211e-01,2.824955582618713379e-01,2.826120853424072266e-01,2.825753092765808105e-01,2.826656699180603027e-01,2.825855910778045654e-01,2.825707793235778809e-01,2.824626863002777100e-01,2.831025719642639160e-01,2.817921042442321777e-01,2.718687653541564941e-01,2.751432657241821289e-01,3.007467389106750488e-01,3.195689320564270020e-01,3.763026595115661621e-01,3.975820541381835938e-01
4.091776609420776367e-01,3.324933350086212158e-01,3.159818649291992188e-01,2.799525558948516846e-01,2.584257721900939941e-01,2.558350563049316406e-01,2.600290179252624512e-01,2.610222101211547852e-01,2.617954015731811523e-01,2.617101967334747314e-01,2.616696655750274658e-01,2.616476714611053467e-01,2.616277337074279785e-01,2.616121172904968262e-01,2.615958154201507568e-01,2.615783810615539551e-01,2.615624666213989258e-01,2.615472674369812012e-01,2.615299820899963379e-01,2.615126073360443115e-01,2.614958882331848145e-01,2.614805102348327637e-01,2.614641785621643066e-01,2.614479959011077881e-01,2.614316940307617188e-01,2.614150345325469971e-01,2.613986134529113770e-01,2.613821625709533691e-01,2.613656520843505859e-01,2.613491415977478027e-01,2.613326311111450195e-01,2.613162100315093994e-01,2.612996399402618408e-01,2.612833380699157715e-01,2.612667977809906006e-01,2.612503170967102051e-01,2.612339854240417480e-01,2.612174153327941895e-01,2.612010836601257324e-01,2.611846327781677246e-01,2.611680626869201660e-01,2.611517310142517090e-01,2.611353695392608643e-01,2.611188888549804688e-01,2.611040472984313965e-01,2.610875666141510010e-01,2.610650658607482910e-01,2.610594928264617920e-01,2.610332369804382324e-01,2.609942257404327393e-01,2.610281705856323242e-01,2.611009180545806885e-01,2.609371244907379150e-01,2.610633075237274170e-01,2.607035636901855469e-01,2.609053850173950195e-01,2.608843445777893066e-01,2.607814073562622070e-01,2.599279880523681641e-01,2.606651782989501953e-01,2.606310844421386719e-01,2.607041299343109131e-01,2.608280479907989502e-01,2.607907652854919434e-01,2.608394622802734375e-01,2.607995271682739258e-01,2.607239782810211182e-01,2.607435882091522217e-01,2.606978416442871094e-01,2.606981098651885986e-01,2.606803774833679199e-01,2.606009542942047119e-01,2.611191868782043457e-01,2.600734829902648926e-01,2.511755824089050293e-01,2.544533014297485352e-01,2.794651985168457031e-01,3.009997606277465820e-01,3.605886399745941162e-01,3.876349925994873047e-01
3.991111516952514648e-01,3.188935220241546631e-01,2.997291684150695801e-01,2.643898129463195801e-01,2.423069775104522705e-01,2.394191324710845947e-01,2.430796921253204346e-01,2.439702749252319336e-01,2.446613907814025879e-01,2.445981800556182861e-01,2.445658147335052490e-01,2.445509135723114014e-01,2.445364594459533691e-01,2.445224821567535400e-01,2.445079386234283447e-01,2.444935441017150879e-01,2.444798648357391357e-01,2.444667518138885498e-01,2.444531619548797607e-01,2.444398403167724609e-01,2.444271147251129150e-01,2.444143593311309814e-01,2.444015145301818848e-01,2.443886399269104004e-01,2.443758249282836914e-01,2.443628013134002686e-01,2.443501055240631104e-01,2.443369626998901367e-01,2.443242371082305908e-01,2.443112432956695557e-01,2.442981600761413574e-01,2.442854344844818115e-01,2.442725300788879395e-01,2.442597150802612305e-01,2.442468702793121338e-01,2.442339658737182617e-01,2.442211508750915527e-01,2.442082464694976807e-01,2.441952824592590332e-01,2.441822886466979980e-01,2.441695034503936768e-01,2.441567480564117432e-01,2.441438734531402588e-01,2.441309094429016113e-01,2.441183328628540039e-01,2.441061139106750488e-01,2.440918684005737305e-01,2.440753281116485596e-01,2.440659999847412109e-01,2.440498769283294678e-01,2.440317273139953613e-01,2.440369129180908203e-01,2.440271675586700439e-01,2.439867854118347168e-01,2.439242303371429443e-01,2.440282702445983887e-01,2.440375089645385742e-01,2.438318729400634766e-01,2.437695562839508057e-01,2.438325881958007812e-01,2.438404858112335205e-01,2.439477741718292236e-01,2.439520359039306641e-01,2.437786161899566650e-01,2.438649535179138184e-01,2.438824474811553955e-01,2.438491582870483398e-01,2.438355684280395508e-01,2.438025772571563721e-01,2.437961101531982422e-01,2.437835335731506348e-01,2.437187433242797852e-01,2.441431283950805664e-01,2.433076798915863037e-01,2.352285683155059814e-01,2.385402917861938477e-01,2.629374861717224121e-01,2.863711714744567871e-01,3.479835391044616699e-01,3.796840012073516846e-01
3.908097743988037109e-01,3.077795803546905518e-01,2.866291999816894531e-01,2.519693374633789062e-01,2.295336723327636719e-01,2.264066040515899658e-01,2.296726405620574951e-01,2.304626703262329102e-01,2.310842573642730713e-01,2.310295701026916504e-01,2.310027778148651123e-01,2.309920191764831543e-01,2.309816479682922363e-01,2.309713363647460938e-01,2.309609055519104004e-01,2.309508025646209717e-01,2.309403717517852783e-01,2.309300899505615234e-01,2.309193611145019531e-01,2.309091389179229736e-01,2.308988869190216064e-01,2.308883368968963623e-01,2.308781743049621582e-01,2.308676242828369141e-01,2.308572232723236084e-01,2.308469116687774658e-01,2.308363616466522217e-01,2.308260798454284668e-01,2.308160662651062012e-01,2.308056354522705078e-01,2.307952344417572021e-01,2.307849526405334473e-01,2.307744026184082031e-01,2.307640314102172852e-01,2.307537198066711426e-01,2.307433485984802246e-01,2.307331562042236328e-01,2.307228744029998779e-01,2.307124137878417969e-01,2.307019829750061035e-01,2.306917309761047363e-01,2.306813895702362061e-01,2.306710779666900635e-01,2.306607365608215332e-01,2.306503057479858398e-01,2.306400239467620850e-01,2.306296825408935547e-01,2.306191921234130859e-01,2.306081354618072510e-01,2.305986881256103516e-01,2.305877804756164551e-01,2.305766642093658447e-01,2.305730581283569336e-01,2.305484116077423096e-01,2.305436432361602783e-01,2.305710017681121826e-01,2.305588126182556152e-01,2.305229306221008301e-01,2.304883897304534912e-01,2.304490208625793457e-01,2.304907739162445068e-01,2.304757535457611084e-01,2.304592430591583252e-01,2.304492294788360596e-01,2.304649651050567627e-01,2.304391264915466309e-01,2.304204702377319336e-01,2.304114997386932373e-01,2.304069101810455322e-01,2.303915619850158691e-01,2.303817272186279297e-01,2.303286194801330566e-01,2.306843996047973633e-01,2.300082445144653320e-01,2.225932180881500244e-01,2.259164452552795410e-01,2.498114407062530518e-01,2.745947837829589844e-01,3.377297222614288330e-01,3.731998801231384277e-01
3.838110268115997314e-01,2.985785603523254395e-01,2.758303880691528320e-01,2.418458759784698486e-01,2.191909551620483398e-01,2.158584296703338623e-01,2.188139855861663818e-01,2.195155322551727295e-01,2.200817167758941650e-01,2.200341224670410156e-01,2.200111448764801025e-01,2.200028896331787109e-01,2.199941575527191162e-01,2.199856936931610107e-01,2.199771404266357422e-01,2.199685573577880859e-01,2.199601829051971436e-01,2.199515104293823242e-01,2.199431061744689941e-01,2.199347317218780518e-01,2.199262380599975586e-01,2.199175953865051270e-01,2.199091315269470215e-01,2.199005484580993652e-01,2.198920845985412598e-01,2.198837697505950928e-01,2.198750078678131104e-01,2.198666334152221680e-01,2.198582589626312256e-01,2.198495864868164062e-01,2.198413014411926270e-01,2.198326587677001953e-01,2.198241651058197021e-01,2.198157012462615967e-01,2.198072373867034912e-01,2.197986841201782227e-01,2.197902202606201172e-01,2.197816371917724609e-01,2.197733223438262939e-01,2.197646498680114746e-01,2.197564542293548584e-01,2.197478711605072021e-01,2.197394669055938721e-01,2.197308540344238281e-01,2.197226285934448242e-01,2.197141051292419434e-01,2.197056412696838379e-01,2.196971774101257324e-01,2.196885943412780762e-01,2.196804583072662354e-01,2.196718454360961914e-01,2.196626663208007812e-01,2.196545004844665527e-01,2.196455001831054688e-01,2.196360528469085693e-01,2.196293473243713379e-01,2.196269035339355469e-01,2.196124494075775146e-01,2.195996642112731934e-01,2.195987403392791748e-01,2.195926606655120850e-01,2.195776104927062988e-01,2.195659279823303223e-01,2.195633947849273682e-01,2.195572853088378906e-01,2.195454239845275879e-01,2.195349931716918945e-01,2.195273339748382568e-01,2.195187807083129883e-01,2.195116281509399414e-01,2.195022404193878174e-01,2.194572985172271729e-01,2.197624444961547852e-01,2.192134857177734375e-01,2.123442888259887695e-01,2.156733274459838867e-01,2.391570806503295898e-01,2.649269700050354004e-01,3.292292356491088867e-01,3.678076267242431641e-01
3.778377175331115723e-01,2.908446192741394043e-01,2.668076455593109131e-01,2.334592342376708984e-01,2.106589674949645996e-01,2.071492969989776611e-01,2.098531723022460938e-01,2.104769051074981689e-01,2.109942138195037842e-01,2.109522521495819092e-01,2.109323740005493164e-01,2.109252810478210449e-01,2.109183073043823242e-01,2.109111845493316650e-01,2.109040021896362305e-01,2.108969092369079590e-01,2.108899652957916260e-01,2.108827829360961914e-01,2.108756601810455322e-01,2.108685970306396484e-01,2.108615040779113770e-01,2.108544707298278809e-01,2.108474075794219971e-01,2.108403742313385010e-01,2.108331918716430664e-01,2.108259797096252441e-01,2.108190357685089111e-01,2.108120620250701904e-01,2.108049690723419189e-01,2.107978463172912598e-01,2.107908725738525391e-01,2.107836604118347168e-01,2.107766866683959961e-01,2.107696533203125000e-01,2.107625007629394531e-01,2.107554972171783447e-01,2.107483148574829102e-01,2.107414007186889648e-01,2.107341289520263672e-01,2.107273042201995850e-01,2.107201516628265381e-01,2.107130885124206543e-01,2.107060849666595459e-01,2.106989324092864990e-01,2.106919884681701660e-01,2.106848359107971191e-01,2.106778323650360107e-01,2.106709182262420654e-01,2.106638848781585693e-01,2.106567323207855225e-01,2.106496989727020264e-01,2.106425166130065918e-01,2.106351852416992188e-01,2.106281220912933350e-01,2.106210589408874512e-01,2.106139361858367920e-01,2.106081545352935791e-01,2.106006443500518799e-01,2.105926871299743652e-01,2.105877399444580078e-01,2.105810940265655518e-01,2.105726897716522217e-01,2.105649113655090332e-01,2.105587124824523926e-01,2.105520963668823242e-01,2.105444073677062988e-01,2.105369269847869873e-01,2.105295956134796143e-01,2.105224430561065674e-01,2.105160653591156006e-01,2.105082571506500244e-01,2.104695439338684082e-01,2.107357680797576904e-01,2.102884352207183838e-01,2.038730084896087646e-01,2.072028517723083496e-01,2.303382754325866699e-01,2.568510174751281738e-01,3.220618963241577148e-01,3.632452487945556641e-01
3.726806640625000000e-01,2.842514812946319580e-01,2.591623067855834961e-01,2.263998091220855713e-01,2.035074532032012939e-01,1.998425722122192383e-01,2.023398876190185547e-01,2.028950154781341553e-01,2.033711671829223633e-01,2.033338546752929688e-01,2.033164799213409424e-01,2.033104896545410156e-01,2.033045887947082520e-01,2.032983601093292236e-01,2.032925188541412354e-01,2.032865881919860840e-01,2.032806277275085449e-01,2.032745182514190674e-01,2.032684981822967529e-01,2.032624483108520508e-01,2.032567858695983887e-01,2.032505869865417480e-01,2.032446563243865967e-01,2.032387852668762207e-01,2.032327055931091309e-01,2.032266557216644287e-01,2.032208442687988281e-01,2.032147347927093506e-01,2.032089531421661377e-01,2.032027542591094971e-01,2.031969130039215088e-01,2.031906843185424805e-01,2.031849622726440430e-01,2.031789422035217285e-01,2.031729519367218018e-01,2.031667828559875488e-01,2.031609714031219482e-01,2.031549811363220215e-01,2.031490504741668701e-01,2.031430006027221680e-01,2.031371295452117920e-01,2.031311094760894775e-01,2.031250596046447754e-01,2.031191885471343994e-01,2.031132280826568604e-01,2.031071782112121582e-01,2.031012773513793945e-01,2.030953168869018555e-01,2.030895054340362549e-01,2.030835151672363281e-01,2.030773460865020752e-01,2.030715048313140869e-01,2.030656337738037109e-01,2.030595839023590088e-01,2.030534446239471436e-01,2.030475735664367676e-01,2.030417621135711670e-01,2.030360400676727295e-01,2.030299603939056396e-01,2.030239701271057129e-01,2.030178010463714600e-01,2.030119299888610840e-01,2.030061781406402588e-01,2.030001580715179443e-01,2.029942572116851807e-01,2.029881477355957031e-01,2.029823958873748779e-01,2.029763758182525635e-01,2.029702961444854736e-01,2.029642462730407715e-01,2.029577791690826416e-01,2.029241025447845459e-01,2.031597793102264404e-01,2.027953565120697021e-01,1.967613697052001953e-01,2.000892758369445801e-01,2.229234874248504639e-01,2.500058710575103760e-01,3.159347772598266602e-01,3.593333959579467773e-01
3.681840300559997559e-01,2.785657942295074463e-01,2.526065707206726074e-01,2.203798592090606689e-01,1.974317729473114014e-01,1.936305165290832520e-01,1.959559321403503418e-01,1.964507102966308594e-01,1.968912780284881592e-01,1.968580186367034912e-01,1.968423426151275635e-01,1.968373656272888184e-01,1.968321204185485840e-01,1.968273222446441650e-01,1.968217790126800537e-01,1.968168616294860840e-01,1.968116760253906250e-01,1.968066394329071045e-01,1.968016028404235840e-01,1.967964768409729004e-01,1.967912018299102783e-01,1.967861652374267578e-01,1.967810094356536865e-01,1.967757940292358398e-01,1.967707872390747070e-01,1.967657506465911865e-01,1.967605352401733398e-01,1.967554986476898193e-01,1.967504024505615234e-01,1.967450976371765137e-01,1.967400610446929932e-01,1.967349946498870850e-01,1.967299282550811768e-01,1.967248022556304932e-01,1.967197954654693604e-01,1.967143416404724121e-01,1.967094838619232178e-01,1.967043280601501465e-01,1.966992020606994629e-01,1.966942250728607178e-01,1.966890692710876465e-01,1.966838836669921875e-01,1.966786980628967285e-01,1.966738104820251465e-01,1.966684758663177490e-01,1.966635286808013916e-01,1.966583430767059326e-01,1.966532766819000244e-01,1.966481208801269531e-01,1.966430842876434326e-01,1.966380774974822998e-01,1.966329216957092285e-01,1.966277956962585449e-01,1.966226398944854736e-01,1.966176033020019531e-01,1.966125369071960449e-01,1.966075003147125244e-01,1.966023743152618408e-01,1.965972781181335449e-01,1.965922415256500244e-01,1.965870857238769531e-01,1.965818703174591064e-01,1.965769231319427490e-01,1.965717077255249023e-01,1.965667605400085449e-01,1.965617239475250244e-01,1.965564787387847900e-01,1.965515315532684326e-01,1.965464353561401367e-01,1.965414583683013916e-01,1.965354979038238525e-01,1.965059340000152588e-01,1.967167258262634277e-01,1.964201927185058594e-01,1.907115280628204346e-01,1.940359473228454590e-01,2.166061103343963623e-01,2.441318929195404053e-01,3.106365799903869629e-01,3.559409677982330322e-01
3.642292320728302002e-01,2.736132144927978516e-01,2.469268143177032471e-01,2.151883244514465332e-01,1.922095715999603271e-01,1.882880926132202148e-01,1.904677748680114746e-01,1.909098029136657715e-01,1.913200020790100098e-01,1.912898123264312744e-01,1.912757456302642822e-01,1.912713348865509033e-01,1.912668049335479736e-01,1.912625730037689209e-01,1.912580132484436035e-01,1.912536323070526123e-01,1.912492513656616211e-01,1.912447214126586914e-01,1.912404596805572510e-01,1.912360489368438721e-01,1.912316083908081055e-01,1.912271380424499512e-01,1.912227571010589600e-01,1.912181675434112549e-01,1.912136673927307129e-01,1.912092566490173340e-01,1.912050545215606689e-01,1.912006139755249023e-01,1.911959946155548096e-01,1.911917924880981445e-01,1.911872923374176025e-01,1.911827921867370605e-01,1.911784410476684570e-01,1.911738514900207520e-01,1.911695003509521484e-01,1.911652982234954834e-01,1.911607682704925537e-01,1.911565065383911133e-01,1.911519169807434082e-01,1.911475062370300293e-01,1.911431849002838135e-01,1.911386549472808838e-01,1.911343336105346680e-01,1.911299228668212891e-01,1.911253929138183594e-01,1.911210417747497559e-01,1.911166906356811523e-01,1.911122500896453857e-01,1.911079585552215576e-01,1.911034286022186279e-01,1.910990476608276367e-01,1.910945773124694824e-01,1.910903453826904297e-01,1.910857856273651123e-01,1.910814642906188965e-01,1.910769939422607422e-01,1.910724937915802002e-01,1.910681724548339844e-01,1.910637319087982178e-01,1.910594701766967773e-01,1.910549700260162354e-01,1.910506486892700195e-01,1.910460591316223145e-01,1.910417377948760986e-01,1.910373270511627197e-01,1.910330951213836670e-01,1.910285651683807373e-01,1.910242438316345215e-01,1.910197138786315918e-01,1.910152733325958252e-01,1.910102069377899170e-01,1.909839808940887451e-01,1.911743581295013428e-01,1.909345388412475586e-01,1.855053603649139404e-01,1.888253092765808105e-01,2.111614644527435303e-01,2.390379607677459717e-01,3.060085177421569824e-01,3.529709279537200928e-01
3.607225418090820312e-01,2.692643404006958008e-01,2.419607043266296387e-01,2.106676399707794189e-01,1.876757144927978516e-01,1.836447119712829590e-01,1.856971979141235352e-01,1.860922574996948242e-01,1.864758133888244629e-01,1.864482760429382324e-01,1.864355206489562988e-01,1.864317953586578369e-01,1.864278018474578857e-01,1.864238679409027100e-01,1.864200234413146973e-01,1.864162683486938477e-01,1.864123642444610596e-01,1.864085495471954346e-01,1.864046156406402588e-01,1.864007115364074707e-01,1.863968670368194580e-01,1.863929927349090576e-01,1.863892972469329834e-01,1.863852143287658691e-01,1.863813102245330811e-01,1.863776445388793945e-01,1.863737702369689941e-01,1.863698363304138184e-01,1.863659918308258057e-01,1.863622069358825684e-01,1.863582730293273926e-01,1.863544285297393799e-01,1.863506138324737549e-01,1.863464415073394775e-01,1.863428950309753418e-01,1.863390505313873291e-01,1.863351762294769287e-01,1.863312721252441406e-01,1.863276958465576172e-01,1.863235235214233398e-01,1.863198578357696533e-01,1.863158643245697021e-01,1.863119900226593018e-01,1.863079965114593506e-01,1.863042414188385010e-01,1.863004565238952637e-01,1.862966120243072510e-01,1.862927973270416260e-01,1.862888336181640625e-01,1.862851977348327637e-01,1.862813234329223633e-01,1.862775087356567383e-01,1.862736046314239502e-01,1.862697303295135498e-01,1.862659454345703125e-01,1.862619221210479736e-01,1.862582266330718994e-01,1.862541139125823975e-01,1.862505674362182617e-01,1.862466931343078613e-01,1.862428784370422363e-01,1.862389147281646729e-01,1.862350702285766602e-01,1.862312853336334229e-01,1.862274408340454102e-01,1.862237155437469482e-01,1.862198412418365479e-01,1.862159967422485352e-01,1.862121820449829102e-01,1.862083375453948975e-01,1.862034201622009277e-01,1.861803531646728516e-01,1.863542497158050537e-01,1.861619353294372559e-01,1.809769570827484131e-01,1.842913627624511719e-01,2.064203917980194092e-01,2.345714271068572998e-01,3.019200563430786133e-01,3.503383398056030273e-01
3.576377332210540771e-01,2.654606699943542480e-01,2.376334667205810547e-01,2.067421078681945801e-01,1.837375462055206299e-01,1.796105206012725830e-01,1.815584599971771240e-01,1.819115877151489258e-01,1.822721064090728760e-01,1.822470128536224365e-01,1.822351217269897461e-01,1.822315752506256104e-01,1.822281777858734131e-01,1.822246611118316650e-01,1.822214424610137939e-01,1.822180449962615967e-01,1.822144091129302979e-01,1.822109818458557129e-01,1.822076737880706787e-01,1.822042465209960938e-01,1.822009682655334473e-01,1.821976304054260254e-01,1.821942031383514404e-01,1.821908056735992432e-01,1.821874678134918213e-01,1.821840703487396240e-01,1.821805834770202637e-01,1.821773052215576172e-01,1.821737289428710938e-01,1.821704804897308350e-01,1.821671724319458008e-01,1.821635663509368896e-01,1.821601688861846924e-01,1.821567118167877197e-01,1.821533441543579102e-01,1.821500957012176514e-01,1.821464598178863525e-01,1.821431815624237061e-01,1.821398138999938965e-01,1.821363568305969238e-01,1.821330487728118896e-01,1.821297705173492432e-01,1.821264028549194336e-01,1.821229457855224609e-01,1.821195781230926514e-01,1.821161806583404541e-01,1.821126639842987061e-01,1.821093261241912842e-01,1.821059882640838623e-01,1.821027100086212158e-01,1.820991635322570801e-01,1.820958852767944336e-01,1.820924282073974609e-01,1.820892393589019775e-01,1.820856332778930664e-01,1.820822358131408691e-01,1.820788383483886719e-01,1.820754408836364746e-01,1.820720732212066650e-01,1.820687353610992432e-01,1.820654571056365967e-01,1.820620000362396240e-01,1.820585727691650391e-01,1.820551753044128418e-01,1.820518970489501953e-01,1.820484697818756104e-01,1.820451319217681885e-01,1.820417344570159912e-01,1.820383369922637939e-01,1.820350289344787598e-01,1.820307970046997070e-01,1.820097565650939941e-01,1.821686029434204102e-01,1.820169091224670410e-01,1.770413815975189209e-01,1.803442239761352539e-01,2.022837400436401367e-01,2.306701242923736572e-01,2.983123660087585449e-01,3.479946851730346680e-01
3.552460372447967529e-01,2.622944712638854980e-01,2.341433763504028320e-01,2.035857737064361572e-01,1.805851161479949951e-01,1.763872504234313965e-01,1.782721579074859619e-01,1.786176562309265137e-01,1.789579391479492188e-01,1.789335608482360840e-01,1.789228022098541260e-01,1.789196729660034180e-01,1.789167523384094238e-01,1.789136230945587158e-01,1.789105534553527832e-01,1.789076924324035645e-01,1.789045333862304688e-01,1.789013445377349854e-01,1.788986325263977051e-01,1.788953840732574463e-01,1.788925230503082275e-01,1.788895428180694580e-01,1.788863539695739746e-01,1.788833439350128174e-01,1.788805127143859863e-01,1.788773536682128906e-01,1.788742840290069580e-01,1.788713634014129639e-01,1.788683831691741943e-01,1.788653135299682617e-01,1.788623332977294922e-01,1.788592040538787842e-01,1.788561940193176270e-01,1.788531839847564697e-01,1.788501143455505371e-01,1.788471937179565430e-01,1.788441538810729980e-01,1.788410544395446777e-01,1.788379549980163574e-01,1.788350939750671387e-01,1.788320541381835938e-01,1.788289546966552734e-01,1.788261532783508301e-01,1.788230836391448975e-01,1.788200139999389648e-01,1.788170039653778076e-01,1.788139641284942627e-01,1.788109838962554932e-01,1.788080036640167236e-01,1.788047850131988525e-01,1.788017749786376953e-01,1.787988543510437012e-01,1.787958741188049316e-01,1.787927448749542236e-01,1.787898242473602295e-01,1.787868142127990723e-01,1.787835657596588135e-01,1.787808835506439209e-01,1.787776648998260498e-01,1.787747442722320557e-01,1.787719726562500000e-01,1.787686347961425781e-01,1.787656545639038086e-01,1.787627339363098145e-01,1.787597835063934326e-01,1.787567734718322754e-01,1.787536740303039551e-01,1.787505447864532471e-01,1.787475049495697021e-01,1.787445843219757080e-01,1.787408888339996338e-01,1.787218749523162842e-01,1.788699030876159668e-01,1.787465512752532959e-01,1.739452779293060303e-01,1.772531270980834961e-01,1.989203393459320068e-01,2.273628115653991699e-01,2.952057123184204102e-01,3.462713956832885742e-01
3.522584438323974609e-01,2.585263252258300781e-01,2.300036549568176270e-01,1.997266709804534912e-01,1.766581535339355469e-01,1.722872853279113770e-01,1.739271283149719238e-01,1.741955280303955078e-01,1.744954586029052734e-01,1.744751930236816406e-01,1.744655668735504150e-01,1.744628548622131348e-01,1.744602322578430176e-01,1.744575798511505127e-01,1.744548976421356201e-01,1.744522750377655029e-01,1.744497716426849365e-01,1.744471192359924316e-01,1.744442582130432129e-01,1.744417250156402588e-01,1.744390428066253662e-01,1.744363009929656982e-01,1.744337081909179688e-01,1.744311451911926270e-01,1.744285523891448975e-01,1.744258701801300049e-01,1.744231283664703369e-01,1.744204759597778320e-01,1.744177937507629395e-01,1.744152903556823730e-01,1.744127869606018066e-01,1.744099855422973633e-01,1.744071245193481445e-01,1.744046807289123535e-01,1.744019687175750732e-01,1.743992865085601807e-01,1.743967235088348389e-01,1.743939220905303955e-01,1.743914186954498291e-01,1.743887960910797119e-01,1.743861436843872070e-01,1.743835210800170898e-01,1.743808090686798096e-01,1.743781566619873047e-01,1.743755638599395752e-01,1.743729114532470703e-01,1.743702888488769531e-01,1.743678152561187744e-01,1.743648350238800049e-01,1.743621826171875000e-01,1.743596792221069336e-01,1.743570268154144287e-01,1.743543744087219238e-01,1.743516623973846436e-01,1.743491888046264648e-01,1.743464767932891846e-01,1.743440032005310059e-01,1.743412911891937256e-01,1.743386983871459961e-01,1.743358671665191650e-01,1.743332445621490479e-01,1.743304431438446045e-01,1.743280887603759766e-01,1.743253767490386963e-01,1.743227541446685791e-01,1.743201315402984619e-01,1.743173301219940186e-01,1.743147969245910645e-01,1.743121445178985596e-01,1.743094921112060547e-01,1.743064224720001221e-01,1.742885410785675049e-01,1.744313538074493408e-01,1.743098795413970947e-01,1.696808934211730957e-01,1.730761528015136719e-01,1.948018372058868408e-01,2.234550416469573975e-01,2.916901111602783203e-01,3.432707786560058594e-01
3.534523844718933105e-01,2.556056678295135498e-01,2.290336787700653076e-01,1.991983354091644287e-01,1.747835874557495117e-01,1.703475117683410645e-01,1.715839505195617676e-01,1.718493700027465820e-01,1.721448302268981934e-01,1.721247732639312744e-01,1.721164882183074951e-01,1.721143424510955811e-01,1.721118092536926270e-01,1.721095442771911621e-01,1.721071600914001465e-01,1.721047163009643555e-01,1.721025109291076660e-01,1.721000969409942627e-01,1.720975935459136963e-01,1.720952987670898438e-01,1.720928847789764404e-01,1.720906198024749756e-01,1.720881164073944092e-01,1.720858514308929443e-01,1.720834076404571533e-01,1.720811724662780762e-01,1.720787882804870605e-01,1.720763146877288818e-01,1.720739901065826416e-01,1.720716655254364014e-01,1.720693111419677734e-01,1.720667183399200439e-01,1.720645427703857422e-01,1.720622777938842773e-01,1.720599532127380371e-01,1.720575690269470215e-01,1.720550358295440674e-01,1.720527410507202148e-01,1.720503866672515869e-01,1.720479130744934082e-01,1.720457673072814941e-01,1.720432341098785400e-01,1.720409989356994629e-01,1.720386445522308350e-01,1.720363497734069824e-01,1.720338165760040283e-01,1.720315217971801758e-01,1.720290482044219971e-01,1.720267832279205322e-01,1.720243990421295166e-01,1.720221042633056641e-01,1.720197796821594238e-01,1.720174551010131836e-01,1.720149517059326172e-01,1.720125377178192139e-01,1.720103025436401367e-01,1.720079481601715088e-01,1.720054745674133301e-01,1.720032095909118652e-01,1.720008254051208496e-01,1.719984710216522217e-01,1.719960272312164307e-01,1.719940006732940674e-01,1.719914972782135010e-01,1.719890236854553223e-01,1.719867885112762451e-01,1.719844341278076172e-01,1.719822287559509277e-01,1.719796955585479736e-01,1.719772815704345703e-01,1.719750463962554932e-01,1.719548404216766357e-01,1.720597743988037109e-01,1.720525920391082764e-01,1.679027974605560303e-01,1.713137626647949219e-01,1.922465860843658447e-01,2.205633819103240967e-01,2.916411161422729492e-01,3.415904343128204346e-01
