5.832501053810119629e-01,5.974667072296142578e-01,6.265159249305725098e-01,6.184982657432556152e-01,6.427030563354492188e-01,6.533786058425903320e-01,6.836193799972534180e-01,7.020481228828430176e-01,7.175682783126831055e-01,7.329898476600646973e-01,7.462587356567382812e-01,7.605392932891845703e-01,7.759594917297363281e-01,7.889701724052429199e-01,8.008183240890502930e-01,8.106309175491333008e-01,8.174232840538024902e-01,8.213801383972167969e-01,8.253245353698730469e-01,8.276305794715881348e-01,8.288427591323852539e-01,8.294205069541931152e-01,8.296595811843872070e-01,8.297058939933776855e-01,8.297190070152282715e-01,8.297177553176879883e-01,8.297177553176879883e-01,8.297177553176879883e-01,8.297177553176879883e-01,8.297177553176879883e-01,8.297177553176879883e-01,8.297177553176879883e-01,8.297177553176879883e-01,8.297177553176879883e-01,8.297177553176879883e-01,8.297177553176879883e-01,8.297177553176879883e-01,8.297177553176879883e-01,8.297177553176879883e-01,8.297177553176879883e-01,8.297177553176879883e-01,8.297177553176879883e-01,8.297177553176879883e-01,8.297284245491027832e-01,8.297457695007324219e-01,8.299131393432617188e-01,8.291732072830200195e-01,8.270422220230102539e-01,8.229705095291137695e-01,8.156604766845703125e-01,8.093025684356689453e-01,7.998663187026977539e-01,7.857260107994079590e-01,7.547688484191894531e-01,7.421928048133850098e-01,7.155445814132690430e-01,6.825955510139465332e-01,6.484592556953430176e-01,6.362444758415222168e-01,6.454572081565856934e-01,6.695836186408996582e-01,6.782407760620117188e-01,7.062693238258361816e-01,7.192382812500000000e-01,7.420048117637634277e-01,7.735645771026611328e-01,7.944877147674560547e-01,8.002613186836242676e-01,8.079531192779541016e-01,8.135150671005249023e-01,8.111653327941894531e-01,8.053138256072998047e-01,7.964315414428710938e-01,7.859480977058410645e-01,7.642593383789062500e-01,7.408030033111572266e-01,7.346597909927368164e-01,7.294024825096130371e-01,6.450369358062744141e-01,5.762274861335754395e-01
5.793613195419311523e-01,5.978944897651672363e-01,6.476572751998901367e-01,6.181060671806335449e-01,6.510557532310485840e-01,6.738533377647399902e-01,7.070458531379699707e-01,7.296428084373474121e-01,7.496265172958374023e-01,7.680892348289489746e-01,7.862570881843566895e-01,8.025180101394653320e-01,8.185805678367614746e-01,8.338364362716674805e-01,8.456771373748779297e-01,8.548232316970825195e-01,8.610757589340209961e-01,8.666073083877563477e-01,8.694134950637817383e-01,8.715442419052124023e-01,8.727872371673583984e-01,8.733289241790771484e-01,8.735417127609252930e-01,8.735988140106201172e-01,8.736075758934020996e-01,8.736066818237304688e-01,8.736065626144409180e-01,8.736065626144409180e-01,8.736065626144409180e-01,8.736065626144409180e-01,8.736065626144409180e-01,8.736065626144409180e-01,8.736065626144409180e-01,8.736065626144409180e-01,8.736065626144409180e-01,8.736065626144409180e-01,8.736065626144409180e-01,8.736065626144409180e-01,8.736065626144409180e-01,8.736065626144409180e-01,8.736065626144409180e-01,8.736065626144409180e-01,8.736065626144409180e-01,8.736202120780944824e-01,8.736286163330078125e-01,8.734331130981445312e-01,8.720662593841552734e-01,8.695194721221923828e-01,8.645118474960327148e-01,8.568576574325561523e-01,8.514229059219360352e-01,8.413072824478149414e-01,8.190875053405761719e-01,7.894740104675292969e-01,7.570038437843322754e-01,7.170327305793762207e-01,6.748973131179809570e-01,6.342989802360534668e-01,6.229513883590698242e-01,6.366162300109863281e-01,6.389683485031127930e-01,6.816742420196533203e-01,7.018863558769226074e-01,7.370871901512145996e-01,7.676404714584350586e-01,8.135216832160949707e-01,8.347700834274291992e-01,8.444766402244567871e-01,8.509099483489990234e-01,8.543015122413635254e-01,8.516306877136230469e-01,8.463118076324462891e-01,8.386708498001098633e-01,8.250365853309631348e-01,8.001699447631835938e-01,7.779312133789062500e-01,7.649153470993041992e-01,7.506555914878845215e-01,6.785368919372558594e-01,5.988589525222778320e-01
5.913803577423095703e-01,6.108356714248657227e-01,6.344376802444458008e-01,6.220478415489196777e-01,6.494324803352355957e-01,6.730992794036865234e-01,7.123090028762817383e-01,7.339135408401489258e-01,7.546839714050292969e-01,7.749580144882202148e-01,7.927660942077636719e-01,8.097975850105285645e-01,8.246856927871704102e-01,8.407030105590820312e-01,8.530342578887939453e-01,8.617790937423706055e-01,8.694051504135131836e-01,8.738833665847778320e-01,8.775231838226318359e-01,8.793205022811889648e-01,8.806391954421997070e-01,8.814571499824523926e-01,8.816826343536376953e-01,8.817386627197265625e-01,8.817477822303771973e-01,8.817470073699951172e-01,8.817465305328369141e-01,8.817465305328369141e-01,8.817465305328369141e-01,8.817465305328369141e-01,8.817465305328369141e-01,8.817465305328369141e-01,8.817465305328369141e-01,8.817465305328369141e-01,8.817465305328369141e-01,8.817465305328369141e-01,8.817465305328369141e-01,8.817465305328369141e-01,8.817465305328369141e-01,8.817465305328369141e-01,8.817465305328369141e-01,8.817465305328369141e-01,8.817465305328369141e-01,8.817541599273681641e-01,8.817712068557739258e-01,8.815802335739135742e-01,8.804688453674316406e-01,8.782833218574523926e-01,8.716520071029663086e-01,8.621826171875000000e-01,8.538414239883422852e-01,8.378081321716308594e-01,8.193978071212768555e-01,7.819254398345947266e-01,7.370702028274536133e-01,6.944104433059692383e-01,6.564488410949707031e-01,6.090438961982727051e-01,5.971935987472534180e-01,5.877122282981872559e-01,5.955803990364074707e-01,6.380168795585632324e-01,6.809256076812744141e-01,7.136195898056030273e-01,7.632482051849365234e-01,8.010774850845336914e-01,8.283311724662780762e-01,8.440486192703247070e-01,8.542006015777587891e-01,8.592262268066406250e-01,8.579313158988952637e-01,8.546823263168334961e-01,8.468891382217407227e-01,8.314560651779174805e-01,8.022571206092834473e-01,7.752550244331359863e-01,7.667689323425292969e-01,7.451688051223754883e-01,6.774743199348449707e-01,5.834481716156005859e-01
5.757635235786437988e-01,5.904918909072875977e-01,6.338620185852050781e-01,6.274539232254028320e-01,6.458171606063842773e-01,6.684283018112182617e-01,7.070237398147583008e-01,7.298153638839721680e-01,7.524281740188598633e-01,7.728575468063354492e-01,7.932816743850708008e-01,8.114496469497680664e-01,8.284860849380493164e-01,8.422834277153015137e-01,8.558301925659179688e-01,8.657026290893554688e-01,8.726390600204467773e-01,8.775068521499633789e-01,8.805846571922302246e-01,8.830822706222534180e-01,8.842674493789672852e-01,8.850157260894775391e-01,8.853498697280883789e-01,8.853969573974609375e-01,8.854048252105712891e-01,8.854037523269653320e-01,8.854033946990966797e-01,8.854033946990966797e-01,8.854033946990966797e-01,8.854033946990966797e-01,8.854033946990966797e-01,8.854033946990966797e-01,8.854033946990966797e-01,8.854033946990966797e-01,8.854033946990966797e-01,8.854033946990966797e-01,8.854033946990966797e-01,8.854033946990966797e-01,8.854033946990966797e-01,8.854033946990966797e-01,8.854033946990966797e-01,8.854033946990966797e-01,8.854033946990966797e-01,8.854084014892578125e-01,8.854454159736633301e-01,8.852852582931518555e-01,8.848576545715332031e-01,8.818298578262329102e-01,8.755296468734741211e-01,8.649419546127319336e-01,8.533214330673217773e-01,8.338369131088256836e-01,8.012933731079101562e-01,7.546632289886474609e-01,6.925212740898132324e-01,6.491022109985351562e-01,5.955077409744262695e-01,5.497359633445739746e-01,5.306848287582397461e-01,5.186011791229248047e-01,5.586014986038208008e-01,5.894096493721008301e-01,6.289938092231750488e-01,6.755176782608032227e-01,7.263196706771850586e-01,7.778521776199340820e-01,8.124476671218872070e-01,8.380288481712341309e-01,8.505369424819946289e-01,8.562062978744506836e-01,8.585509061813354492e-01,8.562237024307250977e-01,8.466790914535522461e-01,8.329315185546875000e-01,7.987645864486694336e-01,7.730857133865356445e-01,7.667362093925476074e-01,7.435374259948730469e-01,6.945963501930236816e-01,5.936863422393798828e-01
5.853816270828247070e-01,6.091371178627014160e-01,6.506116390228271484e-01,6.513590216636657715e-01,6.737941503524780273e-01,6.968525648117065430e-01,7.318609952926635742e-01,7.532171607017517090e-01,7.746887207031250000e-01,7.934691905975341797e-01,8.120061159133911133e-01,8.292924165725708008e-01,8.436647653579711914e-01,8.571954369544982910e-01,8.684954047203063965e-01,8.787730336189270020e-01,8.858879804611206055e-01,8.903839588165283203e-01,8.931913375854492188e-01,8.950232267379760742e-01,8.964558839797973633e-01,8.971031308174133301e-01,8.973982930183410645e-01,8.974739909172058105e-01,8.974813818931579590e-01,8.974800109863281250e-01,8.974796533584594727e-01,8.974796533584594727e-01,8.974796533584594727e-01,8.974796533584594727e-01,8.974796533584594727e-01,8.974796533584594727e-01,8.974796533584594727e-01,8.974796533584594727e-01,8.974796533584594727e-01,8.974796533584594727e-01,8.974796533584594727e-01,8.974796533584594727e-01,8.974796533584594727e-01,8.974796533584594727e-01,8.974796533584594727e-01,8.974796533584594727e-01,8.974796533584594727e-01,8.974899649620056152e-01,8.975313901901245117e-01,8.975175023078918457e-01,8.975807428359985352e-01,8.939820528030395508e-01,8.859903812408447266e-01,8.751250505447387695e-01,8.625229001045227051e-01,8.445068597793579102e-01,8.132427930831909180e-01,7.538117170333862305e-01,6.869128942489624023e-01,6.437054872512817383e-01,5.776033401489257812e-01,5.565037727355957031e-01,5.149079561233520508e-01,5.268699526786804199e-01,5.470958948135375977e-01,5.835068821907043457e-01,6.135799884796142578e-01,6.690707206726074219e-01,7.210530638694763184e-01,7.769622802734375000e-01,8.199073076248168945e-01,8.422759175300598145e-01,8.602322340011596680e-01,8.683649301528930664e-01,8.710947632789611816e-01,8.690624237060546875e-01,8.618652820587158203e-01,8.482863306999206543e-01,8.187025785446166992e-01,7.964379191398620605e-01,7.863128185272216797e-01,7.585598230361938477e-01,7.067856788635253906e-01,6.079164147377014160e-01
5.859885215759277344e-01,6.085686683654785156e-01,6.532134413719177246e-01,6.542288064956665039e-01,6.774966716766357422e-01,7.013375759124755859e-01,7.378501892089843750e-01,7.591886520385742188e-01,7.801092267036437988e-01,7.990736365318298340e-01,8.174582719802856445e-01,8.348023891448974609e-01,8.496581912040710449e-01,8.628394603729248047e-01,8.746953010559082031e-01,8.841701745986938477e-01,8.913397789001464844e-01,8.960802555084228516e-01,8.991934657096862793e-01,9.009399414062500000e-01,9.020607471466064453e-01,9.028347730636596680e-01,9.030657410621643066e-01,9.031407833099365234e-01,9.031517505645751953e-01,9.031503200531005859e-01,9.031499028205871582e-01,9.031499028205871582e-01,9.031499028205871582e-01,9.031499028205871582e-01,9.031499028205871582e-01,9.031499028205871582e-01,9.031499028205871582e-01,9.031499028205871582e-01,9.031499028205871582e-01,9.031499028205871582e-01,9.031499028205871582e-01,9.031499028205871582e-01,9.031499028205871582e-01,9.031499028205871582e-01,9.031499028205871582e-01,9.031499028205871582e-01,9.031499028205871582e-01,9.031597375869750977e-01,9.031978845596313477e-01,9.034839868545532227e-01,9.035871028900146484e-01,8.998509645462036133e-01,8.923270702362060547e-01,8.811274170875549316e-01,8.679282665252685547e-01,8.514007329940795898e-01,8.225652575492858887e-01,7.397764921188354492e-01,6.754995584487915039e-01,6.181228756904602051e-01,5.721623301506042480e-01,5.330981612205505371e-01,5.003858208656311035e-01,5.005393028259277344e-01,5.353506803512573242e-01,5.656468868255615234e-01,6.081939935684204102e-01,6.525354385375976562e-01,7.079724073410034180e-01,7.739969491958618164e-01,8.217756748199462891e-01,8.475440740585327148e-01,8.648872375488281250e-01,8.749706745147705078e-01,8.769212961196899414e-01,8.758414983749389648e-01,8.678636550903320312e-01,8.556631803512573242e-01,8.280733227729797363e-01,8.063176274299621582e-01,7.982602119445800781e-01,7.736696004867553711e-01,7.201393246650695801e-01,6.137446761131286621e-01
5.889575481414794922e-01,6.137155294418334961e-01,6.569477319717407227e-01,6.574057340621948242e-01,6.812248229980468750e-01,7.053266167640686035e-01,7.418453693389892578e-01,7.632303833961486816e-01,7.838405966758728027e-01,8.024208545684814453e-01,8.205608129501342773e-01,8.372571468353271484e-01,8.524583578109741211e-01,8.655389547348022461e-01,8.768954277038574219e-01,8.865473270416259766e-01,8.936620950698852539e-01,8.983408212661743164e-01,9.015564918518066406e-01,9.035389423370361328e-01,9.046003818511962891e-01,9.052472114562988281e-01,9.055244922637939453e-01,9.055814743041992188e-01,9.055951833724975586e-01,9.055936932563781738e-01,9.055932760238647461e-01,9.055932760238647461e-01,9.055932760238647461e-01,9.055932760238647461e-01,9.055932760238647461e-01,9.055932760238647461e-01,9.055932760238647461e-01,9.055932760238647461e-01,9.055932760238647461e-01,9.055932760238647461e-01,9.055932760238647461e-01,9.055932760238647461e-01,9.055932760238647461e-01,9.055932760238647461e-01,9.055932760238647461e-01,9.055932760238647461e-01,9.055932760238647461e-01,9.055973291397094727e-01,9.056343436241149902e-01,9.060419201850891113e-01,9.060357809066772461e-01,9.016752243041992188e-01,8.948025703430175781e-01,8.849501013755798340e-01,8.689358234405517578e-01,8.519947528839111328e-01,8.158315420150756836e-01,7.398198843002319336e-01,6.764408349990844727e-01,6.165245175361633301e-01,5.605469346046447754e-01,5.287750363349914551e-01,4.956522881984710693e-01,4.944976270198822021e-01,5.119540095329284668e-01,5.417592525482177734e-01,5.844274759292602539e-01,6.404780745506286621e-01,6.998150348663330078e-01,7.727077007293701172e-01,8.227992057800292969e-01,8.506768941879272461e-01,8.681819438934326172e-01,8.772006034851074219e-01,8.798096179962158203e-01,8.778458833694458008e-01,8.705955743789672852e-01,8.592609763145446777e-01,8.309812545776367188e-01,8.094954490661621094e-01,8.012477159500122070e-01,7.755753993988037109e-01,7.220075130462646484e-01,6.159093379974365234e-01
5.884760618209838867e-01,6.139596104621887207e-01,6.563307046890258789e-01,6.571235060691833496e-01,6.807249784469604492e-01,7.049875855445861816e-01,7.413085103034973145e-01,7.627379894256591797e-01,7.834836244583129883e-01,8.020344972610473633e-01,8.197853565216064453e-01,8.366061449050903320e-01,8.516542911529541016e-01,8.648962974548339844e-01,8.764169216156005859e-01,8.860176801681518555e-01,8.930644989013671875e-01,8.978266119956970215e-01,9.010756611824035645e-01,9.031780958175659180e-01,9.043441414833068848e-01,9.049906730651855469e-01,9.052336215972900391e-01,9.052965044975280762e-01,9.053112268447875977e-01,9.053096771240234375e-01,9.053092002868652344e-01,9.053092002868652344e-01,9.053092002868652344e-01,9.053092002868652344e-01,9.053092002868652344e-01,9.053092002868652344e-01,9.053092002868652344e-01,9.053092002868652344e-01,9.053092002868652344e-01,9.053092002868652344e-01,9.053092002868652344e-01,9.053092002868652344e-01,9.053092002868652344e-01,9.053092002868652344e-01,9.053092002868652344e-01,9.053092002868652344e-01,9.053092002868652344e-01,9.053107500076293945e-01,9.053418040275573730e-01,9.057746529579162598e-01,9.059323072433471680e-01,9.019353389739990234e-01,8.964475393295288086e-01,8.869563341140747070e-01,8.716832399368286133e-01,8.521862030029296875e-01,8.161290884017944336e-01,7.382149100303649902e-01,6.569861173629760742e-01,6.043018698692321777e-01,5.533447861671447754e-01,5.175529718399047852e-01,4.852248132228851318e-01,4.888874888420104980e-01,5.053155422210693359e-01,5.380712151527404785e-01,5.813305974006652832e-01,6.274644136428833008e-01,6.846864819526672363e-01,7.614064216613769531e-01,8.170330524444580078e-01,8.468106985092163086e-01,8.672558069229125977e-01,8.775411844253540039e-01,8.789884448051452637e-01,8.771018981933593750e-01,8.702867031097412109e-01,8.584740161895751953e-01,8.296750783920288086e-01,8.088310360908508301e-01,8.012520670890808105e-01,7.750604152679443359e-01,7.223533391952514648e-01,6.163133978843688965e-01
5.885012149810791016e-01,6.139479875564575195e-01,6.565037369728088379e-01,6.572775840759277344e-01,6.807770133018493652e-01,7.049942016601562500e-01,7.413734793663024902e-01,7.627730369567871094e-01,7.835446596145629883e-01,8.021685481071472168e-01,8.199282884597778320e-01,8.364086151123046875e-01,8.515360355377197266e-01,8.648509979248046875e-01,8.763724565505981445e-01,8.859375715255737305e-01,8.930208683013916016e-01,8.977285623550415039e-01,9.010207653045654297e-01,9.031490087509155273e-01,9.043531417846679688e-01,9.050096273422241211e-01,9.052693843841552734e-01,9.053224921226501465e-01,9.053358435630798340e-01,9.053343534469604492e-01,9.053338766098022461e-01,9.053338766098022461e-01,9.053338766098022461e-01,9.053338766098022461e-01,9.053338766098022461e-01,9.053338766098022461e-01,9.053338766098022461e-01,9.053338766098022461e-01,9.053338766098022461e-01,9.053338766098022461e-01,9.053338766098022461e-01,9.053338766098022461e-01,9.053338766098022461e-01,9.053338766098022461e-01,9.053338766098022461e-01,9.053338766098022461e-01,9.053338766098022461e-01,9.053297042846679688e-01,9.053460359573364258e-01,9.056736230850219727e-01,9.058200716972351074e-01,9.030120968818664551e-01,8.971557617187500000e-01,8.881712555885314941e-01,8.723233938217163086e-01,8.517088890075683594e-01,8.145730495452880859e-01,7.458695769309997559e-01,6.614003181457519531e-01,6.005518436431884766e-01,5.545881986618041992e-01,5.156038403511047363e-01,4.813023209571838379e-01,4.810310602188110352e-01,4.978808462619781494e-01,5.273048281669616699e-01,5.720770955085754395e-01,6.233968734741210938e-01,6.845620870590209961e-01,7.601015567779541016e-01,8.137827515602111816e-01,8.437098264694213867e-01,8.639293909072875977e-01,8.762440681457519531e-01,8.791129589080810547e-01,8.774559497833251953e-01,8.700174093246459961e-01,8.581509590148925781e-01,8.297399878501892090e-01,8.088648915290832520e-01,8.011263608932495117e-01,7.750737667083740234e-01,7.223461866378784180e-01,6.163383126258850098e-01
5.884803533554077148e-01,6.139110326766967773e-01,6.564778685569763184e-01,6.572377681732177734e-01,6.807462573051452637e-01,7.049643993377685547e-01,7.413290739059448242e-01,7.627431750297546387e-01,7.835165858268737793e-01,8.021471500396728516e-01,8.199394941329956055e-01,8.364351987838745117e-01,8.513951301574707031e-01,8.647884130477905273e-01,8.763927221298217773e-01,8.858841657638549805e-01,8.929584026336669922e-01,8.977017998695373535e-01,9.009692668914794922e-01,9.031196832656860352e-01,9.043424129486083984e-01,9.050059914588928223e-01,9.052579998970031738e-01,9.053188562393188477e-01,9.053307175636291504e-01,9.053287506103515625e-01,9.053283333778381348e-01,9.053283333778381348e-01,9.053283333778381348e-01,9.053283333778381348e-01,9.053283333778381348e-01,9.053283333778381348e-01,9.053283333778381348e-01,9.053283333778381348e-01,9.053283333778381348e-01,9.053283333778381348e-01,9.053283333778381348e-01,9.053283333778381348e-01,9.053283333778381348e-01,9.053283333778381348e-01,9.053283333778381348e-01,9.053283333778381348e-01,9.053283333778381348e-01,9.053236246109008789e-01,9.053367376327514648e-01,9.057695865631103516e-01,9.063310027122497559e-01,9.036729335784912109e-01,8.995828032493591309e-01,8.903469443321228027e-01,8.732948303222656250e-01,8.529829978942871094e-01,8.164312243461608887e-01,7.558777332305908203e-01,6.696693897247314453e-01,6.072911620140075684e-01,5.553005933761596680e-01,5.135781168937683105e-01,4.883277416229248047e-01,4.840581119060516357e-01,4.971256852149963379e-01,5.267636179924011230e-01,5.665557980537414551e-01,6.208084225654602051e-01,6.824955344200134277e-01,7.550495862960815430e-01,8.107372522354125977e-01,8.417155742645263672e-01,8.649845123291015625e-01,8.759576082229614258e-01,8.784942030906677246e-01,8.774051666259765625e-01,8.699008226394653320e-01,8.581515550613403320e-01,8.296880722045898438e-01,8.086752891540527344e-01,8.010820746421813965e-01,7.750757932662963867e-01,7.223827242851257324e-01,6.162917613983154297e-01
5.884733200073242188e-01,6.138997077941894531e-01,6.564646363258361816e-01,6.572222709655761719e-01,6.807286739349365234e-01,7.049446105957031250e-01,7.413128018379211426e-01,7.627193927764892578e-01,7.834947109222412109e-01,8.021343946456909180e-01,8.199262619018554688e-01,8.364294767379760742e-01,8.513957262039184570e-01,8.647274971008300781e-01,8.763756752014160156e-01,8.859140276908874512e-01,8.929373025894165039e-01,8.976856470108032227e-01,9.009733200073242188e-01,9.031087756156921387e-01,9.043349027633666992e-01,9.050054550170898438e-01,9.052593708038330078e-01,9.053182601928710938e-01,9.053307771682739258e-01,9.053288698196411133e-01,9.053283333778381348e-01,9.053283333778381348e-01,9.053283333778381348e-01,9.053283333778381348e-01,9.053283333778381348e-01,9.053283333778381348e-01,9.053283333778381348e-01,9.053283333778381348e-01,9.053283333778381348e-01,9.053283333778381348e-01,9.053283333778381348e-01,9.053283333778381348e-01,9.053283333778381348e-01,9.053283333778381348e-01,9.053283333778381348e-01,9.053283333778381348e-01,9.053283333778381348e-01,9.053252339363098145e-01,9.053236246109008789e-01,9.057041406631469727e-01,9.062944650650024414e-01,9.037208557128906250e-01,9.004952907562255859e-01,8.922742605209350586e-01,8.762138485908508301e-01,8.576493859291076660e-01,8.211369514465332031e-01,7.677932977676391602e-01,6.790103316307067871e-01,6.143472790718078613e-01,5.601760149002075195e-01,5.189419388771057129e-01,4.909962713718414307e-01,4.859274923801422119e-01,4.962253570556640625e-01,5.249506235122680664e-01,5.636414885520935059e-01,6.196393370628356934e-01,6.811816096305847168e-01,7.503401041030883789e-01,8.121669292449951172e-01,8.405499458312988281e-01,8.637325763702392578e-01,8.747755289077758789e-01,8.778315186500549316e-01,8.767888545989990234e-01,8.694523572921752930e-01,8.577890992164611816e-01,8.296608328819274902e-01,8.087009191513061523e-01,8.011072874069213867e-01,7.750991582870483398e-01,7.223893404006958008e-01,6.163014769554138184e-01
5.884664654731750488e-01,6.138882637023925781e-01,6.564514636993408203e-01,6.572068929672241211e-01,6.807117462158203125e-01,7.049268484115600586e-01,7.412939071655273438e-01,7.627023458480834961e-01,7.834752202033996582e-01,8.021138906478881836e-01,8.199130296707153320e-01,8.364165425300598145e-01,8.513842225074768066e-01,8.647171258926391602e-01,8.763564825057983398e-01,8.859024047851562500e-01,8.929392099380493164e-01,8.976820707321166992e-01,9.009668827056884766e-01,9.031097888946533203e-01,9.043337106704711914e-01,9.050043821334838867e-01,9.052593708038330078e-01,9.053182601928710938e-01,9.053307175636291504e-01,9.053288698196411133e-01,9.053283333778381348e-01,9.053283333778381348e-01,9.053283333778381348e-01,9.053283333778381348e-01,9.053283333778381348e-01,9.053283333778381348e-01,9.053283333778381348e-01,9.053283333778381348e-01,9.053283333778381348e-01,9.053283333778381348e-01,9.053283333778381348e-01,9.053283333778381348e-01,9.053283333778381348e-01,9.053283333778381348e-01,9.053283333778381348e-01,9.053283333778381348e-01,9.053283333778381348e-01,9.053287506103515625e-01,9.053199291229248047e-01,9.056727886199951172e-01,9.059056043624877930e-01,9.043793678283691406e-01,9.003280997276306152e-01,8.925335407257080078e-01,8.776440620422363281e-01,8.617562055587768555e-01,8.316896557807922363e-01,7.754540443420410156e-01,6.839913129806518555e-01,6.191034317016601562e-01,5.661405324935913086e-01,5.227630138397216797e-01,4.976287484169006348e-01,4.882031381130218506e-01,4.966369867324829102e-01,5.215170383453369141e-01,5.616286396980285645e-01,6.186381578445434570e-01,6.782686710357666016e-01,7.552385330200195312e-01,8.072097301483154297e-01,8.383897542953491211e-01,8.631772994995117188e-01,8.751971721649169922e-01,8.776953816413879395e-01,8.768091797828674316e-01,8.693955540657043457e-01,8.577805757522583008e-01,8.297586441040039062e-01,8.087371587753295898e-01,8.011207580566406250e-01,7.751108407974243164e-01,7.224004864692687988e-01,6.163103580474853516e-01
5.884594917297363281e-01,6.138771176338195801e-01,6.564383506774902344e-01,6.571916937828063965e-01,6.806948781013488770e-01,7.049093246459960938e-01,7.412761449813842773e-01,7.626843452453613281e-01,7.834576368331909180e-01,8.020961284637451172e-01,8.198957443237304688e-01,8.364020586013793945e-01,8.513697385787963867e-01,8.647046089172363281e-01,8.763456344604492188e-01,8.858937025070190430e-01,8.929319381713867188e-01,8.976775407791137695e-01,9.009641408920288086e-01,9.031084775924682617e-01,9.043330550193786621e-01,9.050039052963256836e-01,9.052593708038330078e-01,9.053181409835815430e-01,9.053306579589843750e-01,9.053288698196411133e-01,9.053283333778381348e-01,9.053283333778381348e-01,9.053283333778381348e-01,9.053283333778381348e-01,9.053283333778381348e-01,9.053283333778381348e-01,9.053283333778381348e-01,9.053283333778381348e-01,9.053283333778381348e-01,9.053283333778381348e-01,9.053283333778381348e-01,9.053283333778381348e-01,9.053283333778381348e-01,9.053283333778381348e-01,9.053283333778381348e-01,9.053283333778381348e-01,9.053283333778381348e-01,9.053255319595336914e-01,9.053142070770263672e-01,9.055891633033752441e-01,9.057399034500122070e-01,9.051233530044555664e-01,9.018080234527587891e-01,8.937082290649414062e-01,8.794523477554321289e-01,8.627052307128906250e-01,8.321191072463989258e-01,7.823687791824340820e-01,6.890082359313964844e-01,6.235119104385375977e-01,5.726599097251892090e-01,5.283018350601196289e-01,5.006707310676574707e-01,4.882654547691345215e-01,4.954223930835723877e-01,5.196553468704223633e-01,5.602882504463195801e-01,6.179794669151306152e-01,6.789609789848327637e-01,7.510617971420288086e-01,8.061162233352661133e-01,8.362494111061096191e-01,8.624885082244873047e-01,8.747100830078125000e-01,8.770758509635925293e-01,8.756841421127319336e-01,8.694077134132385254e-01,8.576163053512573242e-01,8.296735882759094238e-01,8.087195158004760742e-01,8.011074066162109375e-01,7.751237750053405762e-01,7.224113345146179199e-01,6.163166761398315430e-01
5.884525775909423828e-01,6.138660907745361328e-01,6.564253568649291992e-01,6.571766138076782227e-01,6.806784272193908691e-01,7.048924565315246582e-01,7.412589788436889648e-01,7.626668214797973633e-01,7.834403514862060547e-01,8.020787835121154785e-01,8.198794126510620117e-01,8.363865613937377930e-01,8.513557910919189453e-01,8.646919131278991699e-01,8.763346672058105469e-01,8.858850598335266113e-01,8.929258584976196289e-01,8.976733684539794922e-01,9.009612798690795898e-01,9.031068086624145508e-01,9.043320417404174805e-01,9.050033092498779297e-01,9.052591919898986816e-01,9.053180217742919922e-01,9.053307175636291504e-01,9.053288698196411133e-01,9.053283333778381348e-01,9.053283333778381348e-01,9.053283333778381348e-01,9.053283333778381348e-01,9.053283333778381348e-01,9.053283333778381348e-01,9.053283333778381348e-01,9.053283333778381348e-01,9.053283333778381348e-01,9.053283333778381348e-01,9.053283333778381348e-01,9.053283333778381348e-01,9.053283333778381348e-01,9.053283333778381348e-01,9.053283333778381348e-01,9.053283333778381348e-01,9.053283333778381348e-01,9.053241014480590820e-01,9.053139686584472656e-01,9.053846597671508789e-01,9.058892726898193359e-01,9.053140282630920410e-01,9.020670652389526367e-01,8.939834833145141602e-01,8.793906569480895996e-01,8.633072972297668457e-01,8.337366580963134766e-01,7.922048568725585938e-01,6.964836120605468750e-01,6.248885989189147949e-01,5.729712843894958496e-01,5.287073254585266113e-01,4.987161755561828613e-01,4.887727200984954834e-01,4.938054084777832031e-01,5.149919986724853516e-01,5.592770576477050781e-01,6.136680841445922852e-01,6.812238693237304688e-01,7.443665266036987305e-01,8.065474033355712891e-01,8.331088423728942871e-01,8.594278693199157715e-01,8.727064132690429688e-01,8.777003884315490723e-01,8.747120499610900879e-01,8.699446320533752441e-01,8.575693368911743164e-01,8.295936584472656250e-01,8.087246417999267578e-01,8.011633157730102539e-01,7.751360535621643066e-01,7.224212884902954102e-01,6.163238883018493652e-01
5.884459018707275391e-01,6.138553023338317871e-01,6.564127802848815918e-01,6.571618914604187012e-01,6.806621551513671875e-01,7.048754692077636719e-01,7.412418723106384277e-01,7.626497745513916016e-01,7.834232449531555176e-01,8.020618557929992676e-01,8.198632001876831055e-01,8.363715410232543945e-01,8.513419628143310547e-01,8.646796941757202148e-01,8.763238191604614258e-01,8.858765363693237305e-01,8.929200172424316406e-01,8.976693153381347656e-01,9.009582996368408203e-01,9.031051397323608398e-01,9.043310880661010742e-01,9.050028920173645020e-01,9.052590131759643555e-01,9.053180217742919922e-01,9.053306579589843750e-01,9.053288698196411133e-01,9.053283333778381348e-01,9.053283333778381348e-01,9.053283333778381348e-01,9.053283333778381348e-01,9.053283333778381348e-01,9.053283333778381348e-01,9.053283333778381348e-01,9.053283333778381348e-01,9.053283333778381348e-01,9.053283333778381348e-01,9.053283333778381348e-01,9.053283333778381348e-01,9.053283333778381348e-01,9.053283333778381348e-01,9.053283333778381348e-01,9.053283333778381348e-01,9.053283333778381348e-01,9.053276777267456055e-01,9.053102731704711914e-01,9.053048491477966309e-01,9.059987068176269531e-01,9.058687686920166016e-01,9.023534655570983887e-01,8.937085866928100586e-01,8.835501670837402344e-01,8.650318384170532227e-01,8.379996418952941895e-01,7.925088405609130859e-01,7.052158713340759277e-01,6.267210245132446289e-01,5.751020312309265137e-01,5.313023924827575684e-01,5.030293464660644531e-01,4.840810000896453857e-01,4.950517416000366211e-01,5.131391882896423340e-01,5.557484030723571777e-01,6.160089969635009766e-01,6.749980449676513672e-01,7.445389032363891602e-01,8.017607927322387695e-01,8.369650840759277344e-01,8.578064441680908203e-01,8.704525232315063477e-01,8.780204057693481445e-01,8.745562434196472168e-01,8.687611818313598633e-01,8.571650981903076172e-01,8.292477130889892578e-01,8.088194131851196289e-01,8.011602163314819336e-01,7.751485109329223633e-01,7.224316596984863281e-01,6.163309812545776367e-01
5.884398221969604492e-01,6.138449907302856445e-01,6.564005613327026367e-01,6.571472287178039551e-01,6.806461811065673828e-01,7.048590183258056641e-01,7.412253022193908691e-01,7.626330852508544922e-01,7.834064960479736328e-01,8.020453453063964844e-01,8.198472261428833008e-01,8.363566398620605469e-01,8.513286709785461426e-01,8.646672368049621582e-01,8.763130903244018555e-01,8.858678340911865234e-01,8.929136991500854492e-01,8.976655006408691406e-01,9.009553194046020508e-01,9.031034708023071289e-01,9.043302536010742188e-01,9.050022363662719727e-01,9.052590727806091309e-01,9.053180217742919922e-01,9.053307175636291504e-01,9.053288698196411133e-01,9.053283333778381348e-01,9.053283333778381348e-01,9.053283333778381348e-01,9.053283333778381348e-01,9.053283333778381348e-01,9.053283333778381348e-01,9.053283333778381348e-01,9.053283333778381348e-01,9.053283333778381348e-01,9.053283333778381348e-01,9.053283333778381348e-01,9.053283333778381348e-01,9.053283333778381348e-01,9.053283333778381348e-01,9.053283333778381348e-01,9.053283333778381348e-01,9.053283333778381348e-01,9.053264856338500977e-01,9.053155779838562012e-01,9.053167104721069336e-01,9.057565927505493164e-01,9.060943126678466797e-01,9.018285870552062988e-01,8.946962952613830566e-01,8.853225708007812500e-01,8.667203783988952637e-01,8.401064872741699219e-01,7.987407445907592773e-01,7.050610780715942383e-01,6.369023323059082031e-01,5.831357240676879883e-01,5.347674489021301270e-01,4.955226778984069824e-01,4.881547689437866211e-01,4.962128996849060059e-01,5.177973508834838867e-01,5.531699657440185547e-01,6.100881099700927734e-01,6.790202260017395020e-01,7.410261631011962891e-01,7.974637746810913086e-01,8.329102993011474609e-01,8.551734685897827148e-01,8.701406717300415039e-01,8.766753673553466797e-01,8.731824159622192383e-01,8.671661615371704102e-01,8.569706678390502930e-01,8.289934396743774414e-01,8.085957169532775879e-01,8.011493086814880371e-01,7.751609086990356445e-01,7.224416732788085938e-01,6.163380146026611328e-01
5.884342789649963379e-01,6.138355731964111328e-01,6.563892364501953125e-01,6.571336388587951660e-01,6.806306838989257812e-01,7.048431038856506348e-01,7.412091493606567383e-01,7.626169919967651367e-01,7.833901643753051758e-01,8.020288348197937012e-01,8.198319673538208008e-01,8.363422155380249023e-01,8.513154983520507812e-01,8.646554946899414062e-01,8.763027191162109375e-01,8.858594894409179688e-01,8.929079174995422363e-01,8.976615667343139648e-01,9.009525775909423828e-01,9.031017422676086426e-01,9.043292999267578125e-01,9.050017595291137695e-01,9.052588939666748047e-01,9.053179025650024414e-01,9.053307175636291504e-01,9.053288698196411133e-01,9.053283333778381348e-01,9.053283333778381348e-01,9.053283333778381348e-01,9.053283333778381348e-01,9.053283333778381348e-01,9.053283333778381348e-01,9.053283333778381348e-01,9.053283333778381348e-01,9.053283333778381348e-01,9.053283333778381348e-01,9.053283333778381348e-01,9.053283333778381348e-01,9.053283333778381348e-01,9.053283333778381348e-01,9.053283333778381348e-01,9.053283333778381348e-01,9.053283333778381348e-01,9.053285121917724609e-01,9.053249359130859375e-01,9.053474068641662598e-01,9.057472348213195801e-01,9.060724377632141113e-01,9.020966291427612305e-01,8.967916965484619141e-01,8.884571790695190430e-01,8.703417778015136719e-01,8.472804427146911621e-01,7.982753515243530273e-01,7.118648886680603027e-01,6.515168547630310059e-01,5.904186367988586426e-01,5.411639809608459473e-01,5.049612522125244141e-01,4.940439462661743164e-01,5.017217993736267090e-01,5.178864002227783203e-01,5.617151260375976562e-01,6.063914895057678223e-01,6.834447383880615234e-01,7.465204000473022461e-01,7.839643955230712891e-01,8.304159045219421387e-01,8.580537438392639160e-01,8.688688278198242188e-01,8.767863512039184570e-01,8.740928173065185547e-01,8.665710687637329102e-01,8.568242788314819336e-01,8.291600942611694336e-01,8.086162805557250977e-01,8.011157512664794922e-01,7.751733064651489258e-01,7.224518656730651855e-01,6.163451671600341797e-01
5.884293317794799805e-01,6.138272881507873535e-01,6.563791036605834961e-01,6.571213006973266602e-01,6.806166768074035645e-01,7.048281431198120117e-01,7.411937117576599121e-01,7.626011371612548828e-01,7.833744287490844727e-01,8.020133972167968750e-01,8.198169469833374023e-01,8.363282680511474609e-01,8.513025045394897461e-01,8.646439313888549805e-01,8.762927055358886719e-01,8.858513832092285156e-01,8.929023146629333496e-01,8.976578712463378906e-01,9.009498357772827148e-01,9.031001925468444824e-01,9.043283462524414062e-01,9.050014019012451172e-01,9.052587747573852539e-01,9.053179025650024414e-01,9.053307175636291504e-01,9.053288698196411133e-01,9.053283333778381348e-01,9.053283333778381348e-01,9.053283333778381348e-01,9.053283333778381348e-01,9.053283333778381348e-01,9.053283333778381348e-01,9.053283333778381348e-01,9.053283333778381348e-01,9.053283333778381348e-01,9.053283333778381348e-01,9.053283333778381348e-01,9.053283333778381348e-01,9.053283333778381348e-01,9.053283333778381348e-01,9.053283333778381348e-01,9.053283333778381348e-01,9.053283333778381348e-01,9.053283929824829102e-01,9.053244590759277344e-01,9.053103923797607422e-01,9.057111740112304688e-01,9.057302474975585938e-01,9.023520350456237793e-01,8.983582258224487305e-01,8.903737664222717285e-01,8.784964084625244141e-01,8.540992736816406250e-01,8.081990480422973633e-01,7.308804392814636230e-01,6.615551114082336426e-01,6.026811003684997559e-01,5.473724603652954102e-01,5.218870043754577637e-01,5.072075724601745605e-01,5.098332166671752930e-01,5.261412858963012695e-01,5.730060935020446777e-01,6.104535460472106934e-01,6.830688714981079102e-01,7.598559260368347168e-01,7.965256571769714355e-01,8.241091966629028320e-01,8.582123517990112305e-01,8.689286708831787109e-01,8.721817135810852051e-01,8.717564344406127930e-01,8.674926757812500000e-01,8.565956354141235352e-01,8.290504217147827148e-01,8.084732890129089355e-01,8.011777400970458984e-01,7.751855254173278809e-01,7.224619388580322266e-01,6.163522005081176758e-01
5.884248018264770508e-01,6.138198971748352051e-01,6.563700437545776367e-01,6.571109294891357422e-01,6.806042194366455078e-01,7.048149108886718750e-01,7.411795854568481445e-01,7.625867128372192383e-01,7.833594679832458496e-01,8.019983768463134766e-01,8.198024630546569824e-01,8.363148570060729980e-01,8.512902259826660156e-01,8.646328449249267578e-01,8.762825131416320801e-01,8.858435750007629395e-01,8.928966522216796875e-01,8.976541757583618164e-01,9.009472131729125977e-01,9.030987620353698730e-01,9.043276309967041016e-01,9.050009250640869141e-01,9.052587747573852539e-01,9.053179025650024414e-01,9.053307175636291504e-01,9.053288698196411133e-01,9.053283333778381348e-01,9.053283333778381348e-01,9.053283333778381348e-01,9.053283333778381348e-01,9.053283333778381348e-01,9.053283333778381348e-01,9.053283333778381348e-01,9.053283333778381348e-01,9.053283333778381348e-01,9.053283333778381348e-01,9.053283333778381348e-01,9.053283333778381348e-01,9.053283333778381348e-01,9.053283333778381348e-01,9.053283333778381348e-01,9.053283333778381348e-01,9.053283333778381348e-01,9.053288698196411133e-01,9.053233861923217773e-01,9.053233861923217773e-01,9.056298732757568359e-01,9.058706164360046387e-01,9.042461514472961426e-01,8.995357751846313477e-01,8.945410251617431641e-01,8.816991448402404785e-01,8.591697216033935547e-01,8.200078010559082031e-01,7.501813173294067383e-01,6.859443187713623047e-01,6.344337463378906250e-01,5.737042427062988281e-01,5.393915176391601562e-01,5.174772143363952637e-01,5.336436033248901367e-01,5.358761548995971680e-01,5.871369242668151855e-01,6.344606876373291016e-01,7.025455236434936523e-01,7.666452527046203613e-01,8.083823919296264648e-01,8.334915637969970703e-01,8.567585945129394531e-01,8.696116209030151367e-01,8.751648664474487305e-01,8.754904270172119141e-01,8.682242631912231445e-01,8.575837612152099609e-01,8.292266130447387695e-01,8.086700439453125000e-01,8.010953664779663086e-01,7.751977443695068359e-01,7.224721908569335938e-01,6.163592934608459473e-01
5.884205102920532227e-01,6.138126850128173828e-01,6.563614606857299805e-01,6.571007966995239258e-01,6.805931925773620605e-01,7.048034071922302246e-01,7.411677241325378418e-01,7.625738978385925293e-01,7.833461761474609375e-01,8.019845485687255859e-01,8.197888135910034180e-01,8.363019824028015137e-01,8.512781858444213867e-01,8.646222949028015137e-01,8.762733936309814453e-01,8.858358860015869141e-01,8.928912878036499023e-01,8.976507186889648438e-01,9.009445309638977051e-01,9.030971527099609375e-01,9.043266773223876953e-01,9.050004482269287109e-01,9.052587747573852539e-01,9.053179025650024414e-01,9.053307771682739258e-01,9.053288698196411133e-01,9.053283333778381348e-01,9.053283333778381348e-01,9.053283333778381348e-01,9.053283333778381348e-01,9.053283333778381348e-01,9.053283333778381348e-01,9.053283333778381348e-01,9.053283333778381348e-01,9.053283333778381348e-01,9.053283333778381348e-01,9.053283333778381348e-01,9.053283333778381348e-01,9.053283333778381348e-01,9.053283333778381348e-01,9.053283333778381348e-01,9.053283333778381348e-01,9.053283333778381348e-01,9.053286314010620117e-01,9.053224325180053711e-01,9.053251743316650391e-01,9.057340025901794434e-01,9.066059589385986328e-01,9.043985605239868164e-01,9.019038677215576172e-01,8.982387781143188477e-01,8.865946531295776367e-01,8.663465976715087891e-01,8.317579030990600586e-01,7.797346115112304688e-01,7.288709282875061035e-01,6.734952926635742188e-01,6.021841764450073242e-01,5.625122785568237305e-01,5.425976514816284180e-01,5.454062819480895996e-01,5.551500320434570312e-01,6.076038479804992676e-01,6.649783849716186523e-01,7.185064554214477539e-01,7.711193561553955078e-01,8.240875601768493652e-01,8.470127582550048828e-01,8.608965277671813965e-01,8.772590160369873047e-01,8.779779076576232910e-01,8.764138221740722656e-01,8.694384098052978516e-01,8.567960262298583984e-01,8.292456269264221191e-01,8.086367845535278320e-01,8.012172579765319824e-01,7.752101421356201172e-01,7.224823832511901855e-01,6.163665056228637695e-01
5.884158015251159668e-01,6.138052344322204590e-01,6.563533544540405273e-01,6.570916771888732910e-01,6.805829405784606934e-01,7.047926187515258789e-01,7.411566376686096191e-01,7.625628113746643066e-01,7.833345532417297363e-01,8.019723296165466309e-01,8.197768330574035645e-01,8.362902402877807617e-01,8.512672185897827148e-01,8.646121621131896973e-01,8.762644529342651367e-01,8.858288526535034180e-01,8.928862810134887695e-01,8.976473808288574219e-01,9.009420275688171387e-01,9.030956625938415527e-01,9.043258428573608398e-01,9.050000905990600586e-01,9.052585363388061523e-01,9.053179025650024414e-01,9.053307175636291504e-01,9.053288698196411133e-01,9.053283333778381348e-01,9.053283333778381348e-01,9.053283333778381348e-01,9.053283333778381348e-01,9.053283333778381348e-01,9.053283333778381348e-01,9.053283333778381348e-01,9.053283333778381348e-01,9.053283333778381348e-01,9.053283333778381348e-01,9.053283333778381348e-01,9.053283333778381348e-01,9.053283333778381348e-01,9.053283333778381348e-01,9.053283333778381348e-01,9.053283333778381348e-01,9.053283333778381348e-01,9.053283929824829102e-01,9.053257107734680176e-01,9.053208827972412109e-01,9.057263731956481934e-01,9.064118862152099609e-01,9.039353728294372559e-01,9.027036428451538086e-01,9.003555774688720703e-01,8.908067941665649414e-01,8.759052753448486328e-01,8.463019728660583496e-01,8.119993209838867188e-01,7.579774856567382812e-01,7.048036456108093262e-01,6.341158747673034668e-01,5.895862579345703125e-01,5.726398229598999023e-01,5.720725059509277344e-01,5.833187699317932129e-01,6.098766922950744629e-01,6.866275072097778320e-01,7.487740516662597656e-01,7.924109697341918945e-01,8.319440484046936035e-01,8.605972528457641602e-01,8.714430332183837891e-01,8.835448026657104492e-01,8.832157850265502930e-01,8.785070776939392090e-01,8.703969120979309082e-01,8.574175834655761719e-01,8.297504186630249023e-01,8.087093830108642578e-01,8.012588024139404297e-01,7.752224206924438477e-01,7.224925756454467773e-01,6.163736581802368164e-01
5.884105563163757324e-01,6.137973070144653320e-01,6.563447117805480957e-01,6.570814847946166992e-01,6.805727481842041016e-01,7.047824263572692871e-01,7.411463856697082520e-01,7.625523805618286133e-01,7.833240032196044922e-01,8.019616603851318359e-01,8.197662830352783203e-01,8.362802267074584961e-01,8.512573838233947754e-01,8.646029233932495117e-01,8.762559294700622559e-01,8.858221769332885742e-01,8.928814530372619629e-01,8.976442813873291016e-01,9.009398221969604492e-01,9.030944705009460449e-01,9.043250083923339844e-01,9.049996137619018555e-01,9.052584767341613770e-01,9.053179025650024414e-01,9.053307175636291504e-01,9.053288698196411133e-01,9.053283333778381348e-01,9.053283333778381348e-01,9.053283333778381348e-01,9.053283333778381348e-01,9.053283333778381348e-01,9.053283333778381348e-01,9.053283333778381348e-01,9.053283333778381348e-01,9.053283333778381348e-01,9.053283333778381348e-01,9.053283333778381348e-01,9.053283333778381348e-01,9.053283333778381348e-01,9.053283333778381348e-01,9.053283333778381348e-01,9.053283333778381348e-01,9.053283333778381348e-01,9.053283333778381348e-01,9.053291082382202148e-01,9.053127765655517578e-01,9.056897163391113281e-01,9.058771133422851562e-01,9.044488668441772461e-01,9.035680890083312988e-01,9.020307064056396484e-01,8.934621810913085938e-01,8.793029189109802246e-01,8.590919971466064453e-01,8.292959928512573242e-01,7.893924117088317871e-01,7.294026613235473633e-01,6.592466831207275391e-01,6.241933107376098633e-01,6.193159818649291992e-01,5.876604914665222168e-01,6.144701838493347168e-01,6.386387348175048828e-01,7.096033692359924316e-01,7.732452154159545898e-01,8.053886890411376953e-01,8.406975865364074707e-01,8.687996864318847656e-01,8.762716650962829590e-01,8.871953487396240234e-01,8.871079087257385254e-01,8.780391216278076172e-01,8.717218637466430664e-01,8.575797080993652344e-01,8.296843767166137695e-01,8.087795376777648926e-01,8.011818528175354004e-01,7.752348780632019043e-01,7.225028276443481445e-01,6.163808107376098633e-01
5.884052515029907227e-01,6.137886643409729004e-01,6.563349962234497070e-01,6.570707559585571289e-01,6.805614233016967773e-01,7.047709822654724121e-01,7.411353588104248047e-01,7.625422477722167969e-01,7.833139896392822266e-01,8.019515275955200195e-01,8.197563886642456055e-01,8.362705707550048828e-01,8.512479066848754883e-01,8.645943403244018555e-01,8.762481212615966797e-01,8.858156204223632812e-01,8.928762674331665039e-01,8.976399898529052734e-01,9.009363651275634766e-01,9.030916690826416016e-01,9.043226838111877441e-01,9.049974679946899414e-01,9.052566289901733398e-01,9.053159952163696289e-01,9.053288698196411133e-01,9.053270220756530762e-01,9.053264856338500977e-01,9.053264856338500977e-01,9.053264856338500977e-01,9.053264856338500977e-01,9.053264856338500977e-01,9.053264856338500977e-01,9.053264856338500977e-01,9.053264260292053223e-01,9.053264260292053223e-01,9.053264260292053223e-01,9.053263664245605469e-01,9.053264260292053223e-01,9.053263664245605469e-01,9.053264260292053223e-01,9.053263664245605469e-01,9.053263664245605469e-01,9.053262472152709961e-01,9.053262472152709961e-01,9.053236246109008789e-01,9.053035378456115723e-01,9.056028127670288086e-01,9.054279327392578125e-01,9.049428701400756836e-01,9.050227999687194824e-01,9.045051932334899902e-01,8.951877355575561523e-01,8.807437419891357422e-01,8.644682168960571289e-01,8.391497135162353516e-01,8.066545724868774414e-01,7.414616942405700684e-01,6.767151951789855957e-01,6.412924528121948242e-01,6.348320245742797852e-01,6.145196557044982910e-01,6.349710822105407715e-01,6.714662313461303711e-01,7.224625349044799805e-01,7.864266037940979004e-01,8.272249698638916016e-01,8.529313206672668457e-01,8.721036911010742188e-01,8.841370344161987305e-01,8.883171081542968750e-01,8.877454996109008789e-01,8.791971206665039062e-01,8.713750839233398438e-01,8.583350181579589844e-01,8.295161724090576172e-01,8.090733885765075684e-01,8.012004494667053223e-01,7.752473354339599609e-01,7.225133180618286133e-01,6.163881421089172363e-01
5.883994698524475098e-01,6.137790083885192871e-01,6.563239097595214844e-01,6.570574641227722168e-01,6.805459260940551758e-01,7.047546505928039551e-01,7.411190867424011230e-01,7.625257372856140137e-01,7.832975983619689941e-01,8.019354343414306641e-01,8.197411298751831055e-01,8.362553119659423828e-01,8.512326478958129883e-01,8.645800352096557617e-01,8.762350678443908691e-01,8.858039379119873047e-01,8.928660154342651367e-01,8.976317644119262695e-01,9.009284377098083496e-01,9.030839204788208008e-01,9.043152332305908203e-01,9.049903154373168945e-01,9.052499532699584961e-01,9.053096771240234375e-01,9.053227901458740234e-01,9.053210020065307617e-01,9.053205251693725586e-01,9.053205251693725586e-01,9.053205847740173340e-01,9.053205847740173340e-01,9.053206443786621094e-01,9.053206443786621094e-01,9.053206443786621094e-01,9.053207635879516602e-01,9.053207635879516602e-01,9.053207635879516602e-01,9.053208827972412109e-01,9.053209424018859863e-01,9.053209424018859863e-01,9.053209424018859863e-01,9.053210020065307617e-01,9.053211212158203125e-01,9.053211212158203125e-01,9.053211212158203125e-01,9.053167104721069336e-01,9.053013324737548828e-01,9.053360223770141602e-01,9.054989814758300781e-01,9.052065610885620117e-01,9.061896800994873047e-01,9.050374031066894531e-01,8.942021727561950684e-01,8.825672864913940430e-01,8.652565479278564453e-01,8.473073244094848633e-01,8.107385635375976562e-01,7.530895471572875977e-01,6.883025765419006348e-01,6.570544242858886719e-01,6.498893499374389648e-01,6.337303519248962402e-01,6.614810228347778320e-01,6.902803778648376465e-01,7.413117885589599609e-01,8.061536550521850586e-01,8.410068750381469727e-01,8.625614643096923828e-01,8.765594959259033203e-01,8.857157230377197266e-01,8.893607258796691895e-01,8.883572816848754883e-01,8.796751499176025391e-01,8.706178069114685059e-01,8.585133552551269531e-01,8.299081325531005859e-01,8.087676763534545898e-01,8.012925386428833008e-01,7.752525806427001953e-01,7.225152254104614258e-01,6.163890361785888672e-01
5.883884429931640625e-01,6.137653589248657227e-01,6.563079357147216797e-01,6.570436954498291016e-01,6.805323362350463867e-01,7.047401070594787598e-01,7.411059141159057617e-01,7.625180482864379883e-01,7.832970619201660156e-01,8.019427061080932617e-01,8.197591304779052734e-01,8.362867832183837891e-01,8.512834310531616211e-01,8.646477460861206055e-01,8.763048648834228516e-01,8.858634233474731445e-01,8.929136395454406738e-01,8.976705074310302734e-01,9.009687304496765137e-01,9.031348228454589844e-01,9.043723344802856445e-01,9.050532579421997070e-01,9.053156375885009766e-01,9.053767919540405273e-01,9.053904414176940918e-01,9.053888320922851562e-01,9.053886532783508301e-01,9.053889513015747070e-01,9.053890705108642578e-01,9.053894281387329102e-01,9.053897261619567871e-01,9.053899645805358887e-01,9.053902029991149902e-01,9.053905010223388672e-01,9.053907394409179688e-01,9.053910970687866211e-01,9.053912758827209473e-01,9.053915143013000488e-01,9.053918123245239258e-01,9.053921103477478027e-01,9.053922891616821289e-01,9.053925871849060059e-01,9.053930044174194336e-01,9.053932428359985352e-01,9.053927659988403320e-01,9.053658246994018555e-01,9.053193330764770508e-01,9.056487083435058594e-01,9.056791067123413086e-01,9.066702723503112793e-01,9.040017127990722656e-01,8.970173001289367676e-01,8.846559524536132812e-01,8.709689378738403320e-01,8.494862914085388184e-01,8.194292187690734863e-01,7.550175786018371582e-01,7.066273689270019531e-01,6.764194965362548828e-01,6.533833146095275879e-01,6.410425901412963867e-01,6.635515689849853516e-01,7.058412432670593262e-01,7.697745561599731445e-01,8.160104751586914062e-01,8.484827280044555664e-01,8.694785237312316895e-01,8.823109865188598633e-01,8.914309144020080566e-01,8.921818733215332031e-01,8.874845504760742188e-01,8.801658153533935547e-01,8.708665370941162109e-01,8.583302497863769531e-01,8.299487829208374023e-01,8.090183734893798828e-01,8.012999892234802246e-01,7.752715349197387695e-01,7.225140333175659180e-01,6.163886785507202148e-01
5.883952379226684570e-01,6.137739419937133789e-01,6.563144922256469727e-01,6.570613980293273926e-01,6.805610060691833496e-01,7.048015594482421875e-01,7.412187457084655762e-01,7.626791000366210938e-01,7.834844589233398438e-01,8.021426200866699219e-01,8.199610710144042969e-01,8.364862203598022461e-01,8.514603376388549805e-01,8.647931814193725586e-01,8.764218091964721680e-01,8.859450221061706543e-01,8.929834365844726562e-01,8.977726101875305176e-01,9.010931253433227539e-01,9.032580852508544922e-01,9.044926762580871582e-01,9.051685333251953125e-01,9.054245948791503906e-01,9.054825305938720703e-01,9.054936170578002930e-01,9.054909944534301758e-01,9.054896831512451172e-01,9.054887890815734863e-01,9.054880142211914062e-01,9.054870605468750000e-01,9.054863452911376953e-01,9.054853320121765137e-01,9.054844379425048828e-01,9.054835438728332520e-01,9.054826498031616211e-01,9.054818749427795410e-01,9.054809808731079102e-01,9.054800868034362793e-01,9.054791927337646484e-01,9.054784774780273438e-01,9.054775238037109375e-01,9.054765701293945312e-01,9.054757356643676758e-01,9.054748415946960449e-01,9.054720401763916016e-01,9.054536819458007812e-01,9.054378271102905273e-01,9.055492877960205078e-01,9.058864116668701172e-01,9.060845375061035156e-01,9.033228754997253418e-01,8.962996602058410645e-01,8.848037719726562500e-01,8.732453584671020508e-01,8.552758693695068359e-01,8.155105113983154297e-01,7.586562633514404297e-01,7.163543701171875000e-01,7.103160619735717773e-01,6.543449163436889648e-01,6.550810337066650391e-01,6.710598468780517578e-01,7.372715473175048828e-01,7.865611910820007324e-01,8.311802744865417480e-01,8.552727699279785156e-01,8.734903335571289062e-01,8.853554725646972656e-01,8.936199545860290527e-01,8.938640952110290527e-01,8.881002664566040039e-01,8.805061578750610352e-01,8.711973428726196289e-01,8.586274385452270508e-01,8.301248550415039062e-01,8.090949058532714844e-01,8.015816211700439453e-01,7.755192518234252930e-01,7.227985262870788574e-01,6.167848706245422363e-01
5.885777473449707031e-01,6.139512062072753906e-01,6.565676927566528320e-01,6.573179364204406738e-01,6.808097362518310547e-01,7.049663662910461426e-01,7.413067221641540527e-01,7.626916170120239258e-01,7.833575010299682617e-01,8.018850088119506836e-01,8.195862174034118652e-01,8.359763622283935547e-01,8.508600592613220215e-01,8.641110658645629883e-01,8.756406307220458984e-01,8.851382136344909668e-01,8.922111988067626953e-01,8.969808816909790039e-01,9.002737402915954590e-01,9.024296402931213379e-01,9.036749601364135742e-01,9.043314456939697266e-01,9.045724868774414062e-01,9.046293497085571289e-01,9.046415686607360840e-01,9.046390056610107422e-01,9.046377539634704590e-01,9.046367406845092773e-01,9.046360254287719727e-01,9.046350121498107910e-01,9.046341180801391602e-01,9.046330451965332031e-01,9.046322107315063477e-01,9.046313762664794922e-01,9.046303033828735352e-01,9.046295881271362305e-01,9.046286344528198242e-01,9.046277403831481934e-01,9.046268463134765625e-01,9.046257734298706055e-01,9.046248197555541992e-01,9.046241044998168945e-01,9.046230316162109375e-01,9.046221971511840820e-01,9.046214222908020020e-01,9.046143889427185059e-01,9.046305418014526367e-01,9.047387838363647461e-01,9.049842357635498047e-01,9.050083160400390625e-01,9.020010828971862793e-01,8.960896730422973633e-01,8.873276114463806152e-01,8.784321546554565430e-01,8.621026873588562012e-01,8.185154199600219727e-01,7.553669214248657227e-01,7.296615242958068848e-01,7.026981115341186523e-01,6.804020404815673828e-01,6.817914247512817383e-01,7.064394354820251465e-01,7.437161207199096680e-01,8.120130300521850586e-01,8.409569263458251953e-01,8.618609309196472168e-01,8.781919479370117188e-01,8.896487355232238770e-01,8.951499462127685547e-01,8.937441110610961914e-01,8.879023790359497070e-01,8.799787759780883789e-01,8.706103563308715820e-01,8.576952219009399414e-01,8.292778730392456055e-01,8.083429336547851562e-01,8.008947372436523438e-01,7.746571302413940430e-01,7.219786643981933594e-01,6.162477135658264160e-01
5.889351963996887207e-01,6.138239502906799316e-01,6.562414765357971191e-01,6.566768884658813477e-01,6.799243092536926270e-01,7.037634253501892090e-01,7.398912906646728516e-01,7.610051035881042480e-01,7.815123796463012695e-01,7.999096512794494629e-01,8.175226449966430664e-01,8.339126706123352051e-01,8.489228487014770508e-01,8.623846769332885742e-01,8.741685152053833008e-01,8.838953971862792969e-01,8.910558223724365234e-01,8.958868980407714844e-01,8.992756009101867676e-01,9.014959335327148438e-01,9.027296304702758789e-01,9.033836722373962402e-01,9.036414623260498047e-01,9.037144184112548828e-01,9.037274122238159180e-01,9.037250280380249023e-01,9.037236571311950684e-01,9.037225842475891113e-01,9.037215113639831543e-01,9.037203788757324219e-01,9.037195444107055664e-01,9.037184715270996094e-01,9.037173986434936523e-01,9.037162065505981445e-01,9.037151336669921875e-01,9.037141799926757812e-01,9.037129878997802734e-01,9.037119746208190918e-01,9.037107825279235840e-01,9.037098884582519531e-01,9.037086963653564453e-01,9.037077426910400391e-01,9.037066102027893066e-01,9.037055969238281250e-01,9.037045240402221680e-01,9.037013053894042969e-01,9.036893844604492188e-01,9.038120508193969727e-01,9.039310812950134277e-01,9.034775495529174805e-01,9.002808332443237305e-01,8.945291042327880859e-01,8.877074122428894043e-01,8.795205354690551758e-01,8.642568588256835938e-01,8.246173262596130371e-01,7.736966609954833984e-01,7.416146993637084961e-01,7.206302881240844727e-01,6.957643628120422363e-01,7.012200355529785156e-01,7.244923114776611328e-01,7.617099285125732422e-01,8.122015595436096191e-01,8.467363119125366211e-01,8.689351677894592285e-01,8.816056251525878906e-01,8.916233777999877930e-01,8.951978683471679688e-01,8.938090801239013672e-01,8.872166872024536133e-01,8.793581724166870117e-01,8.701452612876892090e-01,8.571879267692565918e-01,8.286606669425964355e-01,8.075668215751647949e-01,8.000982999801635742e-01,7.738292813301086426e-01,7.208215594291687012e-01,6.147252321243286133e-01
5.881912112236022949e-01,6.121512651443481445e-01,6.544504165649414062e-01,6.547906398773193359e-01,6.775819063186645508e-01,7.009671926498413086e-01,7.370862960815429688e-01,7.582457065582275391e-01,7.788020372390747070e-01,7.971985340118408203e-01,8.147945404052734375e-01,8.312971591949462891e-01,8.464374542236328125e-01,8.599831461906433105e-01,8.718590140342712402e-01,8.816272020339965820e-01,8.889306783676147461e-01,8.940085172653198242e-01,8.974863290786743164e-01,8.997208476066589355e-01,9.009752869606018066e-01,9.016540050506591797e-01,9.019173383712768555e-01,9.019795656204223633e-01,9.019864201545715332e-01,9.019792675971984863e-01,9.019726514816284180e-01,9.019665718078613281e-01,9.019604921340942383e-01,9.019542932510375977e-01,9.019482135772705078e-01,9.019421935081481934e-01,9.019360542297363281e-01,9.019297957420349121e-01,9.019238352775573730e-01,9.019176959991455078e-01,9.019116163253784180e-01,9.019054174423217773e-01,9.018995165824890137e-01,9.018933773040771484e-01,9.018872976303100586e-01,9.018811583518981934e-01,9.018750786781311035e-01,9.018688797950744629e-01,9.018634557723999023e-01,9.018599987030029297e-01,9.018560647964477539e-01,9.018113613128662109e-01,9.020282626152038574e-01,9.019969701766967773e-01,8.982596993446350098e-01,8.937673568725585938e-01,8.870884180068969727e-01,8.788751363754272461e-01,8.618838191032409668e-01,8.234905004501342773e-01,7.899273037910461426e-01,7.583706378936767578e-01,7.401098012924194336e-01,6.942179799079895020e-01,7.129974961280822754e-01,7.365793585777282715e-01,7.888410091400146484e-01,8.244735002517700195e-01,8.517572879791259766e-01,8.723125457763671875e-01,8.827474713325500488e-01,8.920279145240783691e-01,8.946806788444519043e-01,8.920865058898925781e-01,8.862510919570922852e-01,8.778502941131591797e-01,8.685858249664306641e-01,8.557835817337036133e-01,8.273801803588867188e-01,8.065258264541625977e-01,7.989590167999267578e-01,7.723736763000488281e-01,7.195340394973754883e-01,6.129416823387145996e-01
5.862550139427185059e-01,6.094365715980529785e-01,6.514797210693359375e-01,6.515440940856933594e-01,6.740757226943969727e-01,6.969115734100341797e-01,7.324773669242858887e-01,7.531203031539916992e-01,7.730043530464172363e-01,7.909477949142456055e-01,8.082778453826904297e-01,8.245583772659301758e-01,8.395527005195617676e-01,8.531513214111328125e-01,8.651040196418762207e-01,8.749606609344482422e-01,8.823365569114685059e-01,8.874365091323852539e-01,8.910167217254638672e-01,8.932559490203857422e-01,8.945024013519287109e-01,8.952049016952514648e-01,8.954691886901855469e-01,8.955239057540893555e-01,8.955227136611938477e-01,8.955115079879760742e-01,8.955017328262329102e-01,8.954925537109375000e-01,8.954834938049316406e-01,8.954741954803466797e-01,8.954648971557617188e-01,8.954560756683349609e-01,8.954469561576843262e-01,8.954377174377441406e-01,8.954286575317382812e-01,8.954193592071533203e-01,8.954101204872131348e-01,8.954011201858520508e-01,8.953920602798461914e-01,8.953827619552612305e-01,8.953737020492553711e-01,8.953645229339599609e-01,8.953553438186645508e-01,8.953463435173034668e-01,8.953374624252319336e-01,8.953304290771484375e-01,8.953241705894470215e-01,8.953559994697570801e-01,8.955769538879394531e-01,8.951557278633117676e-01,8.926794528961181641e-01,8.853271603584289551e-01,8.829259872436523438e-01,8.741844296455383301e-01,8.527050018310546875e-01,8.216655254364013672e-01,7.875301837921142578e-01,7.722595930099487305e-01,7.423944473266601562e-01,7.257412672042846680e-01,7.207581996917724609e-01,7.506754398345947266e-01,8.001815080642700195e-01,8.310499191284179688e-01,8.474801778793334961e-01,8.662707805633544922e-01,8.772423267364501953e-01,8.880147337913513184e-01,8.896350264549255371e-01,8.858172893524169922e-01,8.805161118507385254e-01,8.723419904708862305e-01,8.629381656646728516e-01,8.499847650527954102e-01,8.217632770538330078e-01,8.014948368072509766e-01,7.943633794784545898e-01,7.679692506790161133e-01,7.155197858810424805e-01,6.079421043395996094e-01
5.823472738265991211e-01,6.035619378089904785e-01,6.450688838958740234e-01,6.443610191345214844e-01,6.657198667526245117e-01,6.876926422119140625e-01,7.224057316780090332e-01,7.425886392593383789e-01,7.617995738983154297e-01,7.788731455802917480e-01,7.956069111824035645e-01,8.115665912628173828e-01,8.266257047653198242e-01,8.405205607414245605e-01,8.527916073799133301e-01,8.630738258361816406e-01,8.709444999694824219e-01,8.763751983642578125e-01,8.801442384719848633e-01,8.825223445892333984e-01,8.838604688644409180e-01,8.845158815383911133e-01,8.847179412841796875e-01,8.847357630729675293e-01,8.847250938415527344e-01,8.847022056579589844e-01,8.846812248229980469e-01,8.846608996391296387e-01,8.846405744552612305e-01,8.846203088760375977e-01,8.845999836921691895e-01,8.845796585083007812e-01,8.845593333244323730e-01,8.845390081405639648e-01,8.845186829566955566e-01,8.844984769821166992e-01,8.844782114028930664e-01,8.844578266143798828e-01,8.844375014305114746e-01,8.844172954559326172e-01,8.843970298767089844e-01,8.843768239021301270e-01,8.843566179275512695e-01,8.843362331390380859e-01,8.843162059783935547e-01,8.842970132827758789e-01,8.842711448669433594e-01,8.841593861579895020e-01,8.840310573577880859e-01,8.842547535896301270e-01,8.795715570449829102e-01,8.753772974014282227e-01,8.729410171508789062e-01,8.638913035392761230e-01,8.394901752471923828e-01,8.156839013099670410e-01,7.853610515594482422e-01,7.492819428443908691e-01,7.336677908897399902e-01,7.215749621391296387e-01,7.260451316833496094e-01,7.477679252624511719e-01,7.955278158187866211e-01,8.268971443176269531e-01,8.432153463363647461e-01,8.552461266517639160e-01,8.700423240661621094e-01,8.782464265823364258e-01,8.789460659027099609e-01,8.752487301826477051e-01,8.698621392250061035e-01,8.618781566619873047e-01,8.528733253479003906e-01,8.399089574813842773e-01,8.111950159072875977e-01,7.921240329742431641e-01,7.858271598815917969e-01,7.610061168670654297e-01,7.075262665748596191e-01,6.019625663757324219e-01
5.752025246620178223e-01,5.937509536743164062e-01,6.341868042945861816e-01,6.314066648483276367e-01,6.507629752159118652e-01,6.714965701103210449e-01,7.052953839302062988e-01,7.246507406234741211e-01,7.431001663208007812e-01,7.594729661941528320e-01,7.753014564514160156e-01,7.904872894287109375e-01,8.051455020904541016e-01,8.185894489288330078e-01,8.304730653762817383e-01,8.404272198677062988e-01,8.479063510894775391e-01,8.532816171646118164e-01,8.570419549942016602e-01,8.593920469284057617e-01,8.606320023536682129e-01,8.611814379692077637e-01,8.613152503967285156e-01,8.613193035125732422e-01,8.612869977951049805e-01,8.612476587295532227e-01,8.612102270126342773e-01,8.611731529235839844e-01,8.611359596252441406e-01,8.610986471176147461e-01,8.610616326332092285e-01,8.610246181488037109e-01,8.609874248504638672e-01,8.609502315521240234e-01,8.609131574630737305e-01,8.608759641647338867e-01,8.608387708663940430e-01,8.608019948005676270e-01,8.607645034790039062e-01,8.607275485992431641e-01,8.606905341148376465e-01,8.606534004211425781e-01,8.606163263320922852e-01,8.605793118476867676e-01,8.605422973632812500e-01,8.605054616928100586e-01,8.604832887649536133e-01,8.604502677917480469e-01,8.610373735427856445e-01,8.610115051269531250e-01,8.556892871856689453e-01,8.521959781646728516e-01,8.496425747871398926e-01,8.334646224975585938e-01,8.123749494552612305e-01,7.892723083496093750e-01,7.665928006172180176e-01,7.236896157264709473e-01,7.152435183525085449e-01,7.021077871322631836e-01,7.119241952896118164e-01,7.381457090377807617e-01,7.804267406463623047e-01,8.013659715652465820e-01,8.222260475158691406e-01,8.368885517120361328e-01,8.507053852081298828e-01,8.554570674896240234e-01,8.555628061294555664e-01,8.518695235252380371e-01,8.467962741851806641e-01,8.389669656753540039e-01,8.302786350250244141e-01,8.173147439956665039e-01,7.881214618682861328e-01,7.704232931137084961e-01,7.674597501754760742e-01,7.442849874496459961e-01,6.928569674491882324e-01,5.924710035324096680e-01
5.642392635345458984e-01,5.783771276473999023e-01,6.170486211776733398e-01,6.110084056854248047e-01,6.274150609970092773e-01,6.464110612869262695e-01,6.783325076103210449e-01,6.956825256347656250e-01,7.117292881011962891e-01,7.257398366928100586e-01,7.394000887870788574e-01,7.528203725814819336e-01,7.661373615264892578e-01,7.786036729812622070e-01,7.895333766937255859e-01,7.988224029541015625e-01,8.062233924865722656e-01,8.115593194961547852e-01,8.152904510498046875e-01,8.175933361053466797e-01,8.186754584312438965e-01,8.189495801925659180e-01,8.189722299575805664e-01,8.189469575881958008e-01,8.188979625701904297e-01,8.188371658325195312e-01,8.187774419784545898e-01,8.187183737754821777e-01,8.186592459678649902e-01,8.186001777648925781e-01,8.185409307479858398e-01,8.184820413589477539e-01,8.184229731559753418e-01,8.183637261390686035e-01,8.183046579360961914e-01,8.182455301284790039e-01,8.181865215301513672e-01,8.181275129318237305e-01,8.180686235427856445e-01,8.180094957351684570e-01,8.179504871368408203e-01,8.178915381431579590e-01,8.178324103355407715e-01,8.177733421325683594e-01,8.177143931388854980e-01,8.176503181457519531e-01,8.175877332687377930e-01,8.176023960113525391e-01,8.185343146324157715e-01,8.172360658645629883e-01,8.140130043029785156e-01,8.122471570968627930e-01,8.117105960845947266e-01,7.881648540496826172e-01,7.608799934387207031e-01,7.491729855537414551e-01,7.098740339279174805e-01,7.005614638328552246e-01,6.816030740737915039e-01,6.625025868415832520e-01,6.643091440200805664e-01,7.124344110488891602e-01,7.372560501098632812e-01,7.554328441619873047e-01,7.802019715309143066e-01,7.940241694450378418e-01,8.092476725578308105e-01,8.123280405998229980e-01,8.125588893890380859e-01,8.094820976257324219e-01,8.044612407684326172e-01,7.972278594970703125e-01,7.896624207496643066e-01,7.776627540588378906e-01,7.482496500015258789e-01,7.333519458770751953e-01,7.347636222839355469e-01,7.137501835823059082e-01,6.687874197959899902e-01,5.797303915023803711e-01
5.497247576713562012e-01,5.539374947547912598e-01,5.888129472732543945e-01,5.787605047225952148e-01,5.919219851493835449e-01,6.082126498222351074e-01,6.378241777420043945e-01,6.524325609207153320e-01,6.663222312927246094e-01,6.780685186386108398e-01,6.894892454147338867e-01,7.006250619888305664e-01,7.116224765777587891e-01,7.214983701705932617e-01,7.303553819656372070e-01,7.380184531211853027e-01,7.437682151794433594e-01,7.477694749832153320e-01,7.504785656929016113e-01,7.519743442535400391e-01,7.524031996726989746e-01,7.524693012237548828e-01,7.524441480636596680e-01,7.523809671401977539e-01,7.523126602172851562e-01,7.522274851799011230e-01,7.521444559097290039e-01,7.520616054534912109e-01,7.519790530204772949e-01,7.518962621688842773e-01,7.518137693405151367e-01,7.517309784889221191e-01,7.516483664512634277e-01,7.515655755996704102e-01,7.514831423759460449e-01,7.514004707336425781e-01,7.513179779052734375e-01,7.512353658676147461e-01,7.511527538299560547e-01,7.510701417922973633e-01,7.509877681732177734e-01,7.509051561355590820e-01,7.508225440979003906e-01,7.507399320602416992e-01,7.506576776504516602e-01,7.505846023559570312e-01,7.505226135253906250e-01,7.504861950874328613e-01,7.513213157653808594e-01,7.481824159622192383e-01,7.448968887329101562e-01,7.449187040328979492e-01,7.401844263076782227e-01,7.186708450317382812e-01,7.089507579803466797e-01,6.830160617828369141e-01,6.498561501502990723e-01,6.305177211761474609e-01,6.374820470809936523e-01,6.166307330131530762e-01,6.150678396224975586e-01,6.581011414527893066e-01,6.823526024818420410e-01,6.989256739616394043e-01,7.142675518989562988e-01,7.338435649871826172e-01,7.444460988044738770e-01,7.463264465332031250e-01,7.435685396194458008e-01,7.415339946746826172e-01,7.366561889648437500e-01,7.303223609924316406e-01,7.243570089340209961e-01,7.131237983703613281e-01,6.837143301963806152e-01,6.729929447174072266e-01,6.818839907646179199e-01,6.630852222442626953e-01,6.337874531745910645e-01,5.564864873886108398e-01
5.325043201446533203e-01,5.236873626708984375e-01,5.544961094856262207e-01,5.385829210281372070e-01,5.464448332786560059e-01,5.592986941337585449e-01,5.835179090499877930e-01,5.946896076202392578e-01,6.051642298698425293e-01,6.132941246032714844e-01,6.213139891624450684e-01,6.292397379875183105e-01,6.369047164916992188e-01,6.437543034553527832e-01,6.499276161193847656e-01,6.547355651855468750e-01,6.579673886299133301e-01,6.603983044624328613e-01,6.619673371315002441e-01,6.628079414367675781e-01,6.630260944366455078e-01,6.629878878593444824e-01,6.628852486610412598e-01,6.628015041351318359e-01,6.627193093299865723e-01,6.626285910606384277e-01,6.625401973724365234e-01,6.624523401260375977e-01,6.623645424842834473e-01,6.622764468193054199e-01,6.621887683868408203e-01,6.621006727218627930e-01,6.620130538940429688e-01,6.619251966476440430e-01,6.618373394012451172e-01,6.617496013641357422e-01,6.616617441177368164e-01,6.615740656852722168e-01,6.614862680435180664e-01,6.613985300064086914e-01,6.613108515739440918e-01,6.612231731414794922e-01,6.611354947090148926e-01,6.610478162765502930e-01,6.609601974487304688e-01,6.608699560165405273e-01,6.607708930969238281e-01,6.612104773521423340e-01,6.607490777969360352e-01,6.602380871772766113e-01,6.569285392761230469e-01,6.567255258560180664e-01,6.505091786384582520e-01,6.297332048416137695e-01,6.327039003372192383e-01,6.042349338531494141e-01,5.799742341041564941e-01,5.586566329002380371e-01,5.739614367485046387e-01,5.582509636878967285e-01,5.653162002563476562e-01,6.039257049560546875e-01,6.107339859008789062e-01,6.224508881568908691e-01,6.363465785980224609e-01,6.502617001533508301e-01,6.535359621047973633e-01,6.576359868049621582e-01,6.551047563552856445e-01,6.526446342468261719e-01,6.491541862487792969e-01,6.443588137626647949e-01,6.405091285705566406e-01,6.308410167694091797e-01,6.033853888511657715e-01,5.960078835487365723e-01,6.116127371788024902e-01,5.968232750892639160e-01,5.879915952682495117e-01,5.268663167953491211e-01
5.115472078323364258e-01,4.893316030502319336e-01,5.141223073005676270e-01,4.908632934093475342e-01,4.924239218235015869e-01,5.010049939155578613e-01,5.196019411087036133e-01,5.275447964668273926e-01,5.347056388854980469e-01,5.395463109016418457e-01,5.444155931472778320e-01,5.495157837867736816e-01,5.544894337654113770e-01,5.588285326957702637e-01,5.624794960021972656e-01,5.651878714561462402e-01,5.674889087677001953e-01,5.691028833389282227e-01,5.701949596405029297e-01,5.706940889358520508e-01,5.707967281341552734e-01,5.707179307937622070e-01,5.705752968788146973e-01,5.705057978630065918e-01,5.704087018966674805e-01,5.703198313713073730e-01,5.702320337295532227e-01,5.701446533203125000e-01,5.700575113296508789e-01,5.699701905250549316e-01,5.698830485343933105e-01,5.697957277297973633e-01,5.697085261344909668e-01,5.696215033531188965e-01,5.695343017578125000e-01,5.694472193717956543e-01,5.693600177764892578e-01,5.692729949951171875e-01,5.691860318183898926e-01,5.690989494323730469e-01,5.690118074417114258e-01,5.689248442649841309e-01,5.688378810882568359e-01,5.687510967254638672e-01,5.686640143394470215e-01,5.685726404190063477e-01,5.684785246849060059e-01,5.685515403747558594e-01,5.680391788482666016e-01,5.658237934112548828e-01,5.649011731147766113e-01,5.645618438720703125e-01,5.524196624755859375e-01,5.428047180175781250e-01,5.317714810371398926e-01,5.357990264892578125e-01,5.066438913345336914e-01,5.031498670578002930e-01,5.006409287452697754e-01,4.999102056026458740e-01,5.158151388168334961e-01,5.254691243171691895e-01,5.355626344680786133e-01,5.404504537582397461e-01,5.539904236793518066e-01,5.625709295272827148e-01,5.660982131958007812e-01,5.656635165214538574e-01,5.642753243446350098e-01,5.625361204147338867e-01,5.592803955078125000e-01,5.556545853614807129e-01,5.537252426147460938e-01,5.455497503280639648e-01,5.214985609054565430e-01,5.173875093460083008e-01,5.384124517440795898e-01,5.280639529228210449e-01,5.396720767021179199e-01,4.965097904205322266e-01
4.905603528022766113e-01,4.556706547737121582e-01,4.712945222854614258e-01,4.408650100231170654e-01,4.361920654773712158e-01,4.405612647533416748e-01,4.539825916290283203e-01,4.580726027488708496e-01,4.623940289020538330e-01,4.647223353385925293e-01,4.672713577747344971e-01,4.700818955898284912e-01,4.728529453277587891e-01,4.754820168018341064e-01,4.777900576591491699e-01,4.795147776603698730e-01,4.807927310466766357e-01,4.817611277103424072e-01,4.823657870292663574e-01,4.826300740242004395e-01,4.826813042163848877e-01,4.826737046241760254e-01,4.825947284698486328e-01,4.824942946434020996e-01,4.824107587337493896e-01,4.823366105556488037e-01,4.822632968425750732e-01,4.821899831295013428e-01,4.821167588233947754e-01,4.820435941219329834e-01,4.819702506065368652e-01,4.818970859050750732e-01,4.818240106105804443e-01,4.817507565021514893e-01,4.816777408123016357e-01,4.816045463085174561e-01,4.815315306186676025e-01,4.814585447311401367e-01,4.813855588436126709e-01,4.813124537467956543e-01,4.812395572662353516e-01,4.811665415763854980e-01,4.810936152935028076e-01,4.810208082199096680e-01,4.809476733207702637e-01,4.808705449104309082e-01,4.807488620281219482e-01,4.807626903057098389e-01,4.809148311614990234e-01,4.809617102146148682e-01,4.813305139541625977e-01,4.817126691341400146e-01,4.757666587829589844e-01,4.705174565315246582e-01,4.628517627716064453e-01,4.523244798183441162e-01,4.444149732589721680e-01,4.359171390533447266e-01,4.358050525188446045e-01,4.428337514400482178e-01,4.454065263271331787e-01,4.541794955730438232e-01,4.620930254459381104e-01,4.676032066345214844e-01,4.728496968746185303e-01,4.754951596260070801e-01,4.803973734378814697e-01,4.786222875118255615e-01,4.792095422744750977e-01,4.777847528457641602e-01,4.768961071968078613e-01,4.753498435020446777e-01,4.753311276435852051e-01,4.694933891296386719e-01,4.494954943656921387e-01,4.482666254043579102e-01,4.718213975429534912e-01,4.687934517860412598e-01,4.949952960014343262e-01,4.690905809402465820e-01
4.694025516510009766e-01,4.224030971527099609e-01,4.285243451595306396e-01,3.950397372245788574e-01,3.840719759464263916e-01,3.856391906738281250e-01,3.960521817207336426e-01,3.989898562431335449e-01,4.020194411277770996e-01,4.032139480113983154e-01,4.044260382652282715e-01,4.056400656700134277e-01,4.066617488861083984e-01,4.076081514358520508e-01,4.084057807922363281e-01,4.089941084384918213e-01,4.095999300479888916e-01,4.100935161113739014e-01,4.103057980537414551e-01,4.103497564792633057e-01,4.103587567806243896e-01,4.102613329887390137e-01,4.101899266242980957e-01,4.101171791553497314e-01,4.100540876388549805e-01,4.099949598312377930e-01,4.099366068840026855e-01,4.098787903785705566e-01,4.098206162452697754e-01,4.097627103328704834e-01,4.097046256065368652e-01,4.096466302871704102e-01,4.095887243747711182e-01,4.095308780670166016e-01,4.094730615615844727e-01,4.094150662422180176e-01,4.093573689460754395e-01,4.092994928359985352e-01,4.092415571212768555e-01,4.091837406158447266e-01,4.091260731220245361e-01,4.090682864189147949e-01,4.090105295181274414e-01,4.089527130126953125e-01,4.088950753211975098e-01,4.088240861892700195e-01,4.087342619895935059e-01,4.084659516811370850e-01,4.084505438804626465e-01,4.088754951953887939e-01,4.089214205741882324e-01,4.064324498176574707e-01,4.052156805992126465e-01,4.010598957538604736e-01,3.967551589012145996e-01,3.939679265022277832e-01,3.893403708934783936e-01,3.843639194965362549e-01,3.837283253669738770e-01,3.892270922660827637e-01,3.905068635940551758e-01,3.937703073024749756e-01,3.992845416069030762e-01,4.019028842449188232e-01,4.058937430381774902e-01,4.057562351226806641e-01,4.079297184944152832e-01,4.081074595451354980e-01,4.074556529521942139e-01,4.065443873405456543e-01,4.056456685066223145e-01,4.045688211917877197e-01,4.052207171916961670e-01,4.015250504016876221e-01,3.856616616249084473e-01,3.876703977584838867e-01,4.135014712810516357e-01,4.177089631557464600e-01,4.560150802135467529e-01,4.460575282573699951e-01
4.513864219188690186e-01,3.938139975070953369e-01,3.929774165153503418e-01,3.572849929332733154e-01,3.413559198379516602e-01,3.406484723091125488e-01,3.480966091156005859e-01,3.498161435127258301e-01,3.515090942382812500e-01,3.519273698329925537e-01,3.524434566497802734e-01,3.529102802276611328e-01,3.533920645713806152e-01,3.538297414779663086e-01,3.541249632835388184e-01,3.542208671569824219e-01,3.542956709861755371e-01,3.541709184646606445e-01,3.540168702602386475e-01,3.539572954177856445e-01,3.539362549781799316e-01,3.539016842842102051e-01,3.538470566272735596e-01,3.537932038307189941e-01,3.537520170211791992e-01,3.537099957466125488e-01,3.536685705184936523e-01,3.536271154880523682e-01,3.535858094692230225e-01,3.535443544387817383e-01,3.535030782222747803e-01,3.534617722034454346e-01,3.534206151962280273e-01,3.533791005611419678e-01,3.533380627632141113e-01,3.532966673374176025e-01,3.532553315162658691e-01,3.532140851020812988e-01,3.531731367111206055e-01,3.531316816806793213e-01,3.530904650688171387e-01,3.530493080615997314e-01,3.530081510543823242e-01,3.529668450355529785e-01,3.529256880283355713e-01,3.528928756713867188e-01,3.528426885604858398e-01,3.528490364551544189e-01,3.526611626148223877e-01,3.532916307449340820e-01,3.535310328006744385e-01,3.533232510089874268e-01,3.530337214469909668e-01,3.522696197032928467e-01,3.459516167640686035e-01,3.460938036441802979e-01,3.449575901031494141e-01,3.413076996803283691e-01,3.409860730171203613e-01,3.416839241981506348e-01,3.450208604335784912e-01,3.447785675525665283e-01,3.478393554687500000e-01,3.515096902847290039e-01,3.511323928833007812e-01,3.529849648475646973e-01,3.518884181976318359e-01,3.521979451179504395e-01,3.520908951759338379e-01,3.520152568817138672e-01,3.517388701438903809e-01,3.512737154960632324e-01,3.521119356155395508e-01,3.494855165481567383e-01,3.362984061241149902e-01,3.391672074794769287e-01,3.653220534324645996e-01,3.756833672523498535e-01,4.224427938461303711e-01,4.258162975311279297e-01
4.349647462368011475e-01,3.689404726028442383e-01,3.612716495990753174e-01,3.251608610153198242e-01,3.061258792877197266e-01,3.047530353069305420e-01,3.108574450016021729e-01,3.122468292713165283e-01,3.134039640426635742e-01,3.134188950061798096e-01,3.134042620658874512e-01,3.133942484855651855e-01,3.134689331054687500e-01,3.135595917701721191e-01,3.135903775691986084e-01,3.136056661605834961e-01,3.135659694671630859e-01,3.135141134262084961e-01,3.135305643081665039e-01,3.135157823562622070e-01,3.134578764438629150e-01,3.134130835533142090e-01,3.133786916732788086e-01,3.133501410484313965e-01,3.133188486099243164e-01,3.132891058921813965e-01,3.132591247558593750e-01,3.132289052009582520e-01,3.131989836692810059e-01,3.131688237190246582e-01,3.131389319896697998e-01,3.131088018417358398e-01,3.130789101123809814e-01,3.130487203598022461e-01,3.130189180374145508e-01,3.129889965057373047e-01,3.129590451717376709e-01,3.129290044307708740e-01,3.128990530967712402e-01,3.128689527511596680e-01,3.128393292427062988e-01,3.128093779087066650e-01,3.127793073654174805e-01,3.127494454383850098e-01,3.127196431159973145e-01,3.126900792121887207e-01,3.126652240753173828e-01,3.125780224800109863e-01,3.126926422119140625e-01,3.125170469284057617e-01,3.121248781681060791e-01,3.124020397663116455e-01,3.129206895828247070e-01,3.113445639610290527e-01,3.106622993946075439e-01,3.076682090759277344e-01,3.091968894004821777e-01,3.091962933540344238e-01,3.072463572025299072e-01,3.103450536727905273e-01,3.083325922489166260e-01,3.104412853717803955e-01,3.115313649177551270e-01,3.104847073554992676e-01,3.112638592720031738e-01,3.120226263999938965e-01,3.123540580272674561e-01,3.122144341468811035e-01,3.119590282440185547e-01,3.118556141853332520e-01,3.117282986640930176e-01,3.115064203739166260e-01,3.122497200965881348e-01,3.104199171066284180e-01,2.992283701896667480e-01,3.025878667831420898e-01,3.288207352161407471e-01,3.441873788833618164e-01,3.968273997306823730e-01,4.101015329360961914e-01
4.212115705013275146e-01,3.491276204586029053e-01,3.364078700542449951e-01,2.999944090843200684e-01,2.791703939437866211e-01,2.769939303398132324e-01,2.819480895996093750e-01,2.831137478351593018e-01,2.839971482753753662e-01,2.838878929615020752e-01,2.838478684425354004e-01,2.838453054428100586e-01,2.838285565376281738e-01,2.838110923767089844e-01,2.837965488433837891e-01,2.837588787078857422e-01,2.837192416191101074e-01,2.836895883083343506e-01,2.836647331714630127e-01,2.836299538612365723e-01,2.836030721664428711e-01,2.835814058780670166e-01,2.835590243339538574e-01,2.835361063480377197e-01,2.835150361061096191e-01,2.834933102130889893e-01,2.834716737270355225e-01,2.834496498107910156e-01,2.834279537200927734e-01,2.834061980247497559e-01,2.833845913410186768e-01,2.833627760410308838e-01,2.833409309387207031e-01,2.833192348480224609e-01,2.832974791526794434e-01,2.832758426666259766e-01,2.832539081573486328e-01,2.832321822643280029e-01,2.832105159759521484e-01,2.831888198852539062e-01,2.831671833992004395e-01,2.831454277038574219e-01,2.831237912178039551e-01,2.831022143363952637e-01,2.830805182456970215e-01,2.830597162246704102e-01,2.830386161804199219e-01,2.830237150192260742e-01,2.829623520374298096e-01,2.830003201961517334e-01,2.829393446445465088e-01,2.828949391841888428e-01,2.831478714942932129e-01,2.835154235363006592e-01,2.819048166275024414e-01,2.824419736862182617e-01,2.817131280899047852e-01,2.809558510780334473e-01,2.814192175865173340e-01,2.815882563591003418e-01,2.817215323448181152e-01,2.830252051353454590e-01,2.825419008731842041e-01,2.824673652648925781e-01,2.829619050025939941e-01,2.824899554252624512e-01,2.826334238052368164e-01,2.825928926467895508e-01,2.826538681983947754e-01,2.825763523578643799e-01,2.825611829757690430e-01,2.824530005455017090e-01,2.830929756164550781e-01,2.817823290824890137e-01,2.718593776226043701e-01,2.751336097717285156e-01,3.007370531558990479e-01,3.195607662200927734e-01,3.762958645820617676e-01,3.975778818130493164e-01
4.091768264770507812e-01,3.324921131134033203e-01,3.159802258014678955e-01,2.799509763717651367e-01,2.584241628646850586e-01,2.558332085609436035e-01,2.600270509719848633e-01,2.610202431678771973e-01,2.617934346199035645e-01,2.617080807685852051e-01,2.616676390171051025e-01,2.616451382637023926e-01,2.616254091262817383e-01,2.616097331047058105e-01,2.615931034088134766e-01,2.615757584571838379e-01,2.615597248077392578e-01,2.615443468093872070e-01,2.615269720554351807e-01,2.615092694759368896e-01,2.614931464195251465e-01,2.614772915840148926e-01,2.614609897136688232e-01,2.614444196224212646e-01,2.614282369613647461e-01,2.614117264747619629e-01,2.613950371742248535e-01,2.613785564899444580e-01,2.613619565963745117e-01,2.613454461097717285e-01,2.613287270069122314e-01,2.613121867179870605e-01,2.612956166267395020e-01,2.612790465354919434e-01,2.612626552581787109e-01,2.612459659576416016e-01,2.612294554710388184e-01,2.612130045890808105e-01,2.611963152885437012e-01,2.611799538135528564e-01,2.611635327339172363e-01,2.611470222473144531e-01,2.611303627490997314e-01,2.611141204833984375e-01,2.610973119735717773e-01,2.610825300216674805e-01,2.610664665699005127e-01,2.610453069210052490e-01,2.610400617122650146e-01,2.610054612159729004e-01,2.610006034374237061e-01,2.610009014606475830e-01,2.609518170356750488e-01,2.609277069568634033e-01,2.609821557998657227e-01,2.606360912322998047e-01,2.605941295623779297e-01,2.605909705162048340e-01,2.598484754562377930e-01,2.605867981910705566e-01,2.606855034828186035e-01,2.606371343135833740e-01,2.607463300228118896e-01,2.608240842819213867e-01,2.609104812145233154e-01,2.608163654804229736e-01,2.606927752494812012e-01,2.607253491878509521e-01,2.606975734233856201e-01,2.606909871101379395e-01,2.606729567050933838e-01,2.605934441089630127e-01,2.611117959022521973e-01,2.600658535957336426e-01,2.511683106422424316e-01,2.544461190700531006e-01,2.794576883316040039e-01,3.009933829307556152e-01,3.605831861495971680e-01,3.876317739486694336e-01
3.991104662418365479e-01,3.188924193382263184e-01,2.997279167175292969e-01,2.643885612487792969e-01,2.423056364059448242e-01,2.394180595874786377e-01,2.430782020092010498e-01,2.439687550067901611e-01,2.446598708629608154e-01,2.445965707302093506e-01,2.445638775825500488e-01,2.445490658283233643e-01,2.445343136787414551e-01,2.445205152034759521e-01,2.445058524608612061e-01,2.444915473461151123e-01,2.444777786731719971e-01,2.444642782211303711e-01,2.444508075714111328e-01,2.444375157356262207e-01,2.444246113300323486e-01,2.444117665290832520e-01,2.443988919258117676e-01,2.443860173225402832e-01,2.443732023239135742e-01,2.443600296974182129e-01,2.443470358848571777e-01,2.443341016769409180e-01,2.443211674690246582e-01,2.443082332611083984e-01,2.442952990531921387e-01,2.442823350429534912e-01,2.442692816257476807e-01,2.442561984062194824e-01,2.442435026168823242e-01,2.442306280136108398e-01,2.442175149917602539e-01,2.442043721675872803e-01,2.441916465759277344e-01,2.441786229610443115e-01,2.441658079624176025e-01,2.441529631614685059e-01,2.441398799419403076e-01,2.441270351409912109e-01,2.441141903400421143e-01,2.441012263298034668e-01,2.440891265869140625e-01,2.440758645534515381e-01,2.440572381019592285e-01,2.440514862537384033e-01,2.440309226512908936e-01,2.439957857131958008e-01,2.440324723720550537e-01,2.440532147884368896e-01,2.439243495464324951e-01,2.440351545810699463e-01,2.439762651920318604e-01,2.437666058540344238e-01,2.437095642089843750e-01,2.438478767871856689e-01,2.438731491565704346e-01,2.439417541027069092e-01,2.439713478088378906e-01,2.437680065631866455e-01,2.438480257987976074e-01,2.438909113407135010e-01,2.438448071479797363e-01,2.438291907310485840e-01,2.437954246997833252e-01,2.437906563282012939e-01,2.437777221202850342e-01,2.437129914760589600e-01,2.441372871398925781e-01,2.433018982410430908e-01,2.352230548858642578e-01,2.385345995426177979e-01,2.629316449165344238e-01,2.863660454750061035e-01,3.479789793491363525e-01,3.796812891960144043e-01
3.908092677593231201e-01,3.077787756919860840e-01,2.866280376911163330e-01,2.519683837890625000e-01,2.295327484607696533e-01,2.264051735401153564e-01,2.296712696552276611e-01,2.304612398147583008e-01,2.310827970504760742e-01,2.310282588005065918e-01,2.310011982917785645e-01,2.309902608394622803e-01,2.309799194335937500e-01,2.309696972370147705e-01,2.309592068195343018e-01,2.309490740299224854e-01,2.309386432170867920e-01,2.309281527996063232e-01,2.309175729751586914e-01,2.309071123600006104e-01,2.308968603610992432e-01,2.308863103389739990e-01,2.308759391307830811e-01,2.308655381202697754e-01,2.308549582958221436e-01,2.308445870876312256e-01,2.308341562747955322e-01,2.308239936828613281e-01,2.308133840560913086e-01,2.308030426502227783e-01,2.307924628257751465e-01,2.307821810245513916e-01,2.307716906070709229e-01,2.307615280151367188e-01,2.307509481906890869e-01,2.307405471801757812e-01,2.307301163673400879e-01,2.307196557521820068e-01,2.307094633579254150e-01,2.306990325450897217e-01,2.306886017322540283e-01,2.306782305240631104e-01,2.306677401065826416e-01,2.306574285030364990e-01,2.306469082832336426e-01,2.306367456912994385e-01,2.306264340877532959e-01,2.306164503097534180e-01,2.306056022644042969e-01,2.305932343006134033e-01,2.305840849876403809e-01,2.305725812911987305e-01,2.305568754673004150e-01,2.305541038513183594e-01,2.305556237697601318e-01,2.305611968040466309e-01,2.305600047111511230e-01,2.305133640766143799e-01,2.304746806621551514e-01,2.304345369338989258e-01,2.304779589176177979e-01,2.304772734642028809e-01,2.304622530937194824e-01,2.304468154907226562e-01,2.304578721523284912e-01,2.304320633411407471e-01,2.304179072380065918e-01,2.304074168205261230e-01,2.304024100303649902e-01,2.303870916366577148e-01,2.303772270679473877e-01,2.303237318992614746e-01,2.306796312332153320e-01,2.300034165382385254e-01,2.225885987281799316e-01,2.259117960929870605e-01,2.498067915439605713e-01,2.745903730392456055e-01,3.377258479595184326e-01,3.731976747512817383e-01
3.838103711605072021e-01,2.985778450965881348e-01,2.758295834064483643e-01,2.418451607227325439e-01,2.191900014877319336e-01,2.158575057983398438e-01,2.188129723072052002e-01,2.195141613483428955e-01,2.200804650783538818e-01,2.200328707695007324e-01,2.200098931789398193e-01,2.200012803077697754e-01,2.199927270412445068e-01,2.199842035770416260e-01,2.199755907058715820e-01,2.199672162532806396e-01,2.199586033821105957e-01,2.199500501155853271e-01,2.199415266513824463e-01,2.199329733848571777e-01,2.199243605136871338e-01,2.199158072471618652e-01,2.199073433876037598e-01,2.198988199234008789e-01,2.198902964591979980e-01,2.198817431926727295e-01,2.198730409145355225e-01,2.198645472526550293e-01,2.198560535907745361e-01,2.198475599288940430e-01,2.198390364646911621e-01,2.198306620121002197e-01,2.198219299316406250e-01,2.198133468627929688e-01,2.198048233985900879e-01,2.197964191436767578e-01,2.197879254817962646e-01,2.197793424129486084e-01,2.197708487510681152e-01,2.197622060775756836e-01,2.197537422180175781e-01,2.197453379631042480e-01,2.197367846965789795e-01,2.197284400463104248e-01,2.197197973728179932e-01,2.197114527225494385e-01,2.197026014328002930e-01,2.196942567825317383e-01,2.196857035160064697e-01,2.196775078773498535e-01,2.196679115295410156e-01,2.196587026119232178e-01,2.196504771709442139e-01,2.196413278579711914e-01,2.196347117424011230e-01,2.196268439292907715e-01,2.196229398250579834e-01,2.196126580238342285e-01,2.196007370948791504e-01,2.195962071418762207e-01,2.195886075496673584e-01,2.195752859115600586e-01,2.195641696453094482e-01,2.195602059364318848e-01,2.195537090301513672e-01,2.195408940315246582e-01,2.195303440093994141e-01,2.195237576961517334e-01,2.195153534412384033e-01,2.195077538490295410e-01,2.194983363151550293e-01,2.194533348083496094e-01,2.197585999965667725e-01,2.192093431949615479e-01,2.123405933380126953e-01,2.156693041324615479e-01,2.391532659530639648e-01,2.649236321449279785e-01,3.292261362075805664e-01,3.678056895732879639e-01
3.778372108936309814e-01,2.908439636230468750e-01,2.668067812919616699e-01,2.334584295749664307e-01,2.106582224369049072e-01,2.071484923362731934e-01,2.098521590232849121e-01,2.104757428169250488e-01,2.109932899475097656e-01,2.109514474868774414e-01,2.109312415122985840e-01,2.109242081642150879e-01,2.109170258045196533e-01,2.109099924564361572e-01,2.109026610851287842e-01,2.108958363533020020e-01,2.108887135982513428e-01,2.108815312385559082e-01,2.108743786811828613e-01,2.108671069145202637e-01,2.108601331710815430e-01,2.108527421951293945e-01,2.108458876609802246e-01,2.108387649059295654e-01,2.108317911624908447e-01,2.108243405818939209e-01,2.108174562454223633e-01,2.108103036880493164e-01,2.108031213283538818e-01,2.107960283756256104e-01,2.107889354228973389e-01,2.107819914817810059e-01,2.107747495174407959e-01,2.107676863670349121e-01,2.107606232166290283e-01,2.107534408569335938e-01,2.107463181018829346e-01,2.107393443584442139e-01,2.107323706150054932e-01,2.107250690460205078e-01,2.107179462909698486e-01,2.107109129428863525e-01,2.107037305831909180e-01,2.106967568397521973e-01,2.106896638870239258e-01,2.106825411319732666e-01,2.106756269931793213e-01,2.106683850288391113e-01,2.106613814830780029e-01,2.106541097164154053e-01,2.106470465660095215e-01,2.106399834156036377e-01,2.106324732303619385e-01,2.106254398822784424e-01,2.106185853481292725e-01,2.106112241744995117e-01,2.106055915355682373e-01,2.105978727340698242e-01,2.105898857116699219e-01,2.105849981307983398e-01,2.105784714221954346e-01,2.105698585510253906e-01,2.105619609355926514e-01,2.105555832386016846e-01,2.105488479137420654e-01,2.105411291122436523e-01,2.105336487293243408e-01,2.105265855789184570e-01,2.105191051959991455e-01,2.105128467082977295e-01,2.105050384998321533e-01,2.104661166667938232e-01,2.107325792312622070e-01,2.102853655815124512e-01,2.038698792457580566e-01,2.071997523307800293e-01,2.303350269794464111e-01,2.568477392196655273e-01,3.220590353012084961e-01,3.632435202598571777e-01
3.726800978183746338e-01,2.842509448528289795e-01,2.591615021228790283e-01,2.263989746570587158e-01,2.035067677497863770e-01,1.998418867588043213e-01,2.023389637470245361e-01,2.028942108154296875e-01,2.033703029155731201e-01,2.033329606056213379e-01,2.033154666423797607e-01,2.033095061779022217e-01,2.033035457134246826e-01,2.032975256443023682e-01,2.032915055751800537e-01,2.032856047153472900e-01,2.032794058322906494e-01,2.032735049724578857e-01,2.032670676708221436e-01,2.032612264156341553e-01,2.032553553581237793e-01,2.032492458820343018e-01,2.032433152198791504e-01,2.032373547554016113e-01,2.032313048839569092e-01,2.032252550125122070e-01,2.032192647457122803e-01,2.032134532928466797e-01,2.032075822353363037e-01,2.032013833522796631e-01,2.031951844692230225e-01,2.031890749931335449e-01,2.031831443309783936e-01,2.031773030757904053e-01,2.031712234020233154e-01,2.031651735305786133e-01,2.031591832637786865e-01,2.031532227993011475e-01,2.031472623348236084e-01,2.031413018703460693e-01,2.031351327896118164e-01,2.031292021274566650e-01,2.031232416629791260e-01,2.031171917915344238e-01,2.031114399433135986e-01,2.031052410602569580e-01,2.030992209911346436e-01,2.030931711196899414e-01,2.030873596668243408e-01,2.030813694000244141e-01,2.030750513076782227e-01,2.030692994594573975e-01,2.030632495880126953e-01,2.030572295188903809e-01,2.030515372753143311e-01,2.030453979969024658e-01,2.030395567417144775e-01,2.030335068702697754e-01,2.030275464057922363e-01,2.030214965343475342e-01,2.030152678489685059e-01,2.030094563961029053e-01,2.030035555362701416e-01,2.029975652694702148e-01,2.029915750026702881e-01,2.029856443405151367e-01,2.029797434806823730e-01,2.029736042022705078e-01,2.029678821563720703e-01,2.029617726802825928e-01,2.029549777507781982e-01,2.029211521148681641e-01,2.031567096710205078e-01,2.027924954891204834e-01,1.967588067054748535e-01,2.000867426395416260e-01,2.229205667972564697e-01,2.500032484531402588e-01,3.159325420856475830e-01,3.593320250511169434e-01
