5.889574289321899414e-01,6.137154102325439453e-01,6.569474339485168457e-01,6.574054360389709473e-01,6.812246441841125488e-01,7.053263187408447266e-01,7.418450117111206055e-01,7.632301449775695801e-01,7.838404178619384766e-01,8.024206757545471191e-01,8.205607533454895020e-01,8.372571468353271484e-01,8.524582982063293457e-01,8.655390143394470215e-01,8.768954277038574219e-01,8.865473270416259766e-01,8.936621546745300293e-01,8.983408212661743164e-01,9.015564918518066406e-01,9.035387635231018066e-01,9.046003818511962891e-01,9.052472710609436035e-01,9.055244922637939453e-01,9.055815339088439941e-01,9.055951833724975586e-01,9.055936932563781738e-01,9.055932760238647461e-01,9.055932760238647461e-01,9.055932760238647461e-01,9.055932760238647461e-01,9.055932760238647461e-01,9.055932760238647461e-01,9.055932760238647461e-01,9.055932760238647461e-01,9.055932760238647461e-01,9.055932760238647461e-01,9.055932760238647461e-01,9.055932760238647461e-01,9.055932760238647461e-01,9.055932760238647461e-01,9.055932760238647461e-01,9.055932760238647461e-01,9.055932760238647461e-01,9.055917859077453613e-01,9.056149721145629883e-01,9.061167240142822266e-01,9.062681198120117188e-01,9.032258987426757812e-01,8.990994691848754883e-01,8.917207121849060059e-01,8.756758570671081543e-01,8.606761693954467773e-01,8.285536766052246094e-01,7.768262624740600586e-01,6.870324611663818359e-01,6.218433380126953125e-01,5.633706450462341309e-01,5.186463594436645508e-01,4.855349063873291016e-01,4.610057473182678223e-01,4.677012860774993896e-01,4.892699122428894043e-01,5.226246714591979980e-01,5.659950971603393555e-01,6.172140836715698242e-01,6.820331811904907227e-01,7.604612708091735840e-01,8.133434057235717773e-01,8.427017927169799805e-01,8.609749674797058105e-01,8.694293498992919922e-01,8.693237304687500000e-01,8.673715591430664062e-01,8.581140041351318359e-01,8.308156728744506836e-01,8.095121383666992188e-01,8.012284636497497559e-01,7.755752801895141602e-01,7.220070362091064453e-01,6.159089803695678711e-01
5.884758234024047852e-01,6.139593124389648438e-01,6.563305258750915527e-01,6.571232676506042480e-01,6.807248592376708984e-01,7.049874067306518555e-01,7.413082718849182129e-01,7.627379894256591797e-01,7.834835052490234375e-01,8.020343184471130371e-01,8.197852373123168945e-01,8.366062045097351074e-01,8.516542315483093262e-01,8.648961782455444336e-01,8.764170408248901367e-01,8.860176801681518555e-01,8.930644989013671875e-01,8.978266716003417969e-01,9.010756015777587891e-01,9.031780958175659180e-01,9.043442010879516602e-01,9.049906730651855469e-01,9.052336215972900391e-01,9.052965044975280762e-01,9.053112268447875977e-01,9.053096771240234375e-01,9.053092002868652344e-01,9.053092002868652344e-01,9.053092002868652344e-01,9.053092002868652344e-01,9.053092002868652344e-01,9.053092002868652344e-01,9.053092002868652344e-01,9.053092002868652344e-01,9.053092002868652344e-01,9.053092002868652344e-01,9.053092002868652344e-01,9.053092002868652344e-01,9.053092002868652344e-01,9.053092002868652344e-01,9.053092002868652344e-01,9.053092002868652344e-01,9.053092002868652344e-01,9.053119421005249023e-01,9.053199291229248047e-01,9.057490825653076172e-01,9.058457612991333008e-01,9.037041664123535156e-01,8.998512029647827148e-01,8.928061723709106445e-01,8.762452602386474609e-01,8.630366325378417969e-01,8.369439840316772461e-01,7.740217447280883789e-01,6.797389984130859375e-01,6.197694540023803711e-01,5.623565912246704102e-01,5.139986872673034668e-01,4.845778644084930420e-01,4.565316438674926758e-01,4.581254422664642334e-01,4.826329946517944336e-01,5.113748908042907715e-01,5.613132119178771973e-01,6.166018247604370117e-01,6.698282957077026367e-01,7.478051185607910156e-01,8.047237396240234375e-01,8.390923738479614258e-01,8.606998920440673828e-01,8.696469068527221680e-01,8.686234951019287109e-01,8.673800230026245117e-01,8.576299548149108887e-01,8.294214606285095215e-01,8.088798522949218750e-01,8.012689948081970215e-01,7.750593423843383789e-01,7.223527431488037109e-01,6.163129806518554688e-01
5.885010957717895508e-01,6.139477491378784180e-01,6.565035581588745117e-01,6.572772860527038574e-01,6.807766556739807129e-01,7.049939632415771484e-01,7.413733601570129395e-01,7.627728581428527832e-01,7.835445404052734375e-01,8.021685481071472168e-01,8.199281692504882812e-01,8.364084959030151367e-01,8.515359163284301758e-01,8.648509979248046875e-01,8.763724565505981445e-01,8.859375715255737305e-01,8.930208683013916016e-01,8.977285623550415039e-01,9.010208249092102051e-01,9.031490087509155273e-01,9.043530821800231934e-01,9.050096273422241211e-01,9.052693843841552734e-01,9.053225517272949219e-01,9.053358435630798340e-01,9.053343534469604492e-01,9.053338766098022461e-01,9.053338766098022461e-01,9.053338766098022461e-01,9.053338766098022461e-01,9.053338766098022461e-01,9.053338766098022461e-01,9.053338766098022461e-01,9.053338766098022461e-01,9.053338766098022461e-01,9.053338766098022461e-01,9.053338766098022461e-01,9.053338766098022461e-01,9.053338766098022461e-01,9.053338766098022461e-01,9.053338766098022461e-01,9.053338766098022461e-01,9.053338766098022461e-01,9.053310155868530273e-01,9.053264856338500977e-01,9.055972695350646973e-01,9.056972265243530273e-01,9.048618078231811523e-01,9.015187621116638184e-01,8.928805589675903320e-01,8.782141804695129395e-01,8.629388809204101562e-01,8.339959383010864258e-01,7.806023955345153809e-01,6.868369579315185547e-01,6.177521944046020508e-01,5.618924498558044434e-01,5.164097547531127930e-01,4.856010675430297852e-01,4.586058259010314941e-01,4.604373574256896973e-01,4.703411459922790527e-01,5.040587186813354492e-01,5.510063171386718750e-01,6.073705554008483887e-01,6.714001893997192383e-01,7.367713451385498047e-01,8.049625158309936523e-01,8.318272233009338379e-01,8.556926250457763672e-01,8.663223981857299805e-01,8.686909675598144531e-01,8.663600087165832520e-01,8.568276762962341309e-01,8.291821479797363281e-01,8.089491128921508789e-01,8.011316061019897461e-01,7.750453948974609375e-01,7.223456501960754395e-01,6.163379549980163574e-01
5.884801149368286133e-01,6.139109134674072266e-01,6.564777493476867676e-01,6.572376489639282227e-01,6.807460188865661621e-01,7.049643397331237793e-01,7.413289546966552734e-01,7.627429366111755371e-01,7.835165858268737793e-01,8.021470308303833008e-01,8.199396133422851562e-01,8.364349603652954102e-01,8.513950109481811523e-01,8.647883534431457520e-01,8.763927221298217773e-01,8.858841657638549805e-01,8.929585218429565430e-01,8.977017402648925781e-01,9.009692668914794922e-01,9.031196832656860352e-01,9.043424129486083984e-01,9.050059318542480469e-01,9.052580595016479492e-01,9.053188562393188477e-01,9.053306579589843750e-01,9.053287506103515625e-01,9.053283333778381348e-01,9.053283333778381348e-01,9.053283333778381348e-01,9.053283333778381348e-01,9.053283333778381348e-01,9.053283333778381348e-01,9.053283333778381348e-01,9.053283333778381348e-01,9.053283333778381348e-01,9.053283333778381348e-01,9.053283333778381348e-01,9.053283333778381348e-01,9.053283333778381348e-01,9.053283333778381348e-01,9.053283333778381348e-01,9.053283333778381348e-01,9.053283333778381348e-01,9.053237438201904297e-01,9.053167104721069336e-01,9.054190516471862793e-01,9.058680534362792969e-01,9.054351449012756348e-01,9.023125171661376953e-01,8.939204216003417969e-01,8.789913058280944824e-01,8.623358011245727539e-01,8.325980305671691895e-01,7.919251918792724609e-01,6.912248730659484863e-01,6.160308718681335449e-01,5.627701282501220703e-01,5.195041298866271973e-01,4.865342080593109131e-01,4.582768678665161133e-01,4.596970975399017334e-01,4.721007347106933594e-01,4.956495761871337891e-01,5.442262291908264160e-01,6.022670269012451172e-01,6.675504446029663086e-01,7.342957854270935059e-01,7.936789989471435547e-01,8.341431617736816406e-01,8.560296297073364258e-01,8.635687232017517090e-01,8.679458498954772949e-01,8.655483722686767578e-01,8.563252091407775879e-01,8.286533355712890625e-01,8.084539175033569336e-01,8.010995388031005859e-01,7.750922441482543945e-01,7.223820686340332031e-01,6.162914037704467773e-01
5.884732007980346680e-01,6.138994693756103516e-01,6.564643979072570801e-01,6.572220921516418457e-01,6.807285547256469727e-01,7.049444317817687988e-01,7.413126230239868164e-01,7.627193927764892578e-01,7.834947109222412109e-01,8.021343946456909180e-01,8.199262619018554688e-01,8.364293575286865234e-01,8.513956069946289062e-01,8.647274971008300781e-01,8.763756752014160156e-01,8.859139680862426758e-01,8.929373025894165039e-01,8.976856470108032227e-01,9.009732604026794434e-01,9.031088352203369141e-01,9.043349027633666992e-01,9.050054550170898438e-01,9.052593708038330078e-01,9.053182601928710938e-01,9.053307771682739258e-01,9.053288698196411133e-01,9.053283333778381348e-01,9.053283333778381348e-01,9.053283333778381348e-01,9.053283333778381348e-01,9.053283333778381348e-01,9.053283333778381348e-01,9.053283333778381348e-01,9.053283333778381348e-01,9.053283333778381348e-01,9.053283333778381348e-01,9.053283333778381348e-01,9.053283333778381348e-01,9.053283333778381348e-01,9.053283333778381348e-01,9.053283333778381348e-01,9.053283333778381348e-01,9.053283333778381348e-01,9.053270220756530762e-01,9.053090810775756836e-01,9.053131341934204102e-01,9.060179591178894043e-01,9.060190916061401367e-01,9.022870659828186035e-01,8.936796188354492188e-01,8.827785253524780273e-01,8.638082146644592285e-01,8.367288112640380859e-01,7.907333374023437500e-01,6.983738541603088379e-01,6.174380779266357422e-01,5.636646747589111328e-01,5.216773152351379395e-01,4.868580996990203857e-01,4.599244594573974609e-01,4.564481079578399658e-01,4.763156771659851074e-01,4.925823807716369629e-01,5.424031019210815430e-01,6.103663444519042969e-01,6.515278816223144531e-01,7.308104634284973145e-01,7.856438159942626953e-01,8.276894092559814453e-01,8.517051935195922852e-01,8.618297576904296875e-01,8.668959140777587891e-01,8.625693321228027344e-01,8.546994924545288086e-01,8.287137746810913086e-01,8.084524869918823242e-01,8.011851310729980469e-01,7.750925421714782715e-01,7.223476767539978027e-01,6.163011789321899414e-01
5.884663462638854980e-01,6.138881444931030273e-01,6.564511060714721680e-01,6.572067141532897949e-01,6.807116270065307617e-01,7.049264907836914062e-01,7.412937879562377930e-01,7.627023458480834961e-01,7.834751605987548828e-01,8.021138906478881836e-01,8.199130296707153320e-01,8.364164829254150391e-01,8.513841629028320312e-01,8.647171258926391602e-01,8.763564825057983398e-01,8.859024643898010254e-01,8.929392099380493164e-01,8.976819515228271484e-01,9.009667634963989258e-01,9.031099081039428711e-01,9.043335914611816406e-01,9.050043821334838867e-01,9.052593708038330078e-01,9.053182005882263184e-01,9.053307175636291504e-01,9.053288698196411133e-01,9.053283333778381348e-01,9.053283333778381348e-01,9.053283333778381348e-01,9.053283333778381348e-01,9.053283333778381348e-01,9.053283333778381348e-01,9.053283333778381348e-01,9.053283333778381348e-01,9.053283333778381348e-01,9.053283333778381348e-01,9.053283333778381348e-01,9.053283333778381348e-01,9.053283333778381348e-01,9.053283333778381348e-01,9.053283333778381348e-01,9.053283333778381348e-01,9.053283333778381348e-01,9.053262472152709961e-01,9.053150415420532227e-01,9.053123593330383301e-01,9.057897329330444336e-01,9.061716794967651367e-01,9.016057252883911133e-01,8.946028947830200195e-01,8.841476440429687500e-01,8.641045689582824707e-01,8.388428092002868652e-01,7.968345880508422852e-01,7.003316879272460938e-01,6.264703869819641113e-01,5.672718882560729980e-01,5.247196555137634277e-01,4.873712062835693359e-01,4.577202498912811279e-01,4.644305706024169922e-01,4.691092371940612793e-01,4.904298484325408936e-01,5.491446852684020996e-01,5.980929136276245117e-01,6.634347438812255859e-01,7.150752544403076172e-01,7.800556421279907227e-01,8.191508054733276367e-01,8.469539880752563477e-01,8.625395298004150391e-01,8.649536371231079102e-01,8.604573011398315430e-01,8.532614111900329590e-01,8.290829658508300781e-01,8.081647157669067383e-01,8.011066913604736328e-01,7.751361131668090820e-01,7.224309444427490234e-01,6.163099408149719238e-01
5.884594321250915527e-01,6.138769984245300293e-01,6.564382314682006836e-01,6.571915149688720703e-01,6.806948184967041016e-01,7.049092650413513184e-01,7.412760257720947266e-01,7.626840472221374512e-01,7.834575176239013672e-01,8.020961284637451172e-01,8.198956251144409180e-01,8.364019989967346191e-01,8.513697385787963867e-01,8.647045493125915527e-01,8.763456344604492188e-01,8.858937025070190430e-01,8.929319381713867188e-01,8.976775407791137695e-01,9.009641408920288086e-01,9.031084775924682617e-01,9.043331146240234375e-01,9.050039052963256836e-01,9.052593111991882324e-01,9.053181409835815430e-01,9.053307175636291504e-01,9.053288698196411133e-01,9.053283333778381348e-01,9.053283333778381348e-01,9.053283333778381348e-01,9.053283333778381348e-01,9.053283333778381348e-01,9.053283333778381348e-01,9.053283333778381348e-01,9.053283333778381348e-01,9.053283333778381348e-01,9.053283333778381348e-01,9.053283333778381348e-01,9.053283333778381348e-01,9.053283333778381348e-01,9.053283333778381348e-01,9.053283333778381348e-01,9.053283333778381348e-01,9.053283333778381348e-01,9.053283929824829102e-01,9.053226709365844727e-01,9.053511619567871094e-01,9.057478904724121094e-01,9.061203598976135254e-01,9.019447565078735352e-01,8.961116671562194824e-01,8.854281902313232422e-01,8.660234808921813965e-01,8.417881727218627930e-01,7.957915067672729492e-01,7.035045027732849121e-01,6.347391605377197266e-01,5.773958563804626465e-01,5.222427845001220703e-01,4.898279011249542236e-01,4.684213399887084961e-01,4.628072977066040039e-01,4.749652147293090820e-01,4.998724758625030518e-01,5.492655038833618164e-01,5.947848558425903320e-01,6.615713834762573242e-01,7.225990891456604004e-01,7.662800550460815430e-01,8.087065219879150391e-01,8.443442583084106445e-01,8.578490018844604492e-01,8.615833520889282227e-01,8.577651381492614746e-01,8.524369001388549805e-01,8.278542757034301758e-01,8.078613281250000000e-01,8.007142543792724609e-01,7.752060294151306152e-01,7.223929762840270996e-01,6.163163185119628906e-01
5.884525179862976074e-01,6.138660311698913574e-01,6.564253568649291992e-01,6.571763753890991211e-01,6.806781888008117676e-01,7.048922777175903320e-01,7.412588000297546387e-01,7.626668214797973633e-01,7.834403514862060547e-01,8.020787835121154785e-01,8.198792934417724609e-01,8.363864421844482422e-01,8.513559103012084961e-01,8.646919727325439453e-01,8.763346672058105469e-01,8.858850598335266113e-01,8.929258584976196289e-01,8.976734280586242676e-01,9.009613990783691406e-01,9.031069278717041016e-01,9.043320417404174805e-01,9.050033092498779297e-01,9.052591919898986816e-01,9.053180217742919922e-01,9.053307175636291504e-01,9.053288698196411133e-01,9.053283333778381348e-01,9.053283333778381348e-01,9.053283333778381348e-01,9.053283333778381348e-01,9.053283333778381348e-01,9.053283333778381348e-01,9.053283333778381348e-01,9.053283333778381348e-01,9.053283333778381348e-01,9.053283333778381348e-01,9.053283333778381348e-01,9.053283333778381348e-01,9.053283333778381348e-01,9.053283333778381348e-01,9.053283333778381348e-01,9.053283333778381348e-01,9.053283333778381348e-01,9.053283929824829102e-01,9.053256511688232422e-01,9.053167104721069336e-01,9.058403968811035156e-01,9.057333469390869141e-01,9.020981788635253906e-01,8.961981534957885742e-01,8.859258890151977539e-01,8.701363801956176758e-01,8.455380201339721680e-01,7.989815473556518555e-01,7.194753289222717285e-01,6.327776908874511719e-01,5.782072544097900391e-01,5.259534716606140137e-01,4.914208054542541504e-01,4.755344390869140625e-01,4.665071666240692139e-01,4.726751446723937988e-01,5.053427219390869141e-01,5.408406257629394531e-01,6.071786284446716309e-01,6.639251708984375000e-01,7.241103053092956543e-01,7.641243934631347656e-01,8.075382709503173828e-01,8.387072086334228516e-01,8.538680076599121094e-01,8.584268093109130859e-01,8.609460592269897461e-01,8.502549529075622559e-01,8.259358406066894531e-01,8.069673776626586914e-01,8.004262447357177734e-01,7.749915122985839844e-01,7.223975658416748047e-01,6.163235306739807129e-01
5.884458422660827637e-01,6.138553619384765625e-01,6.564127206802368164e-01,6.571618318557739258e-01,6.806619167327880859e-01,7.048753499984741211e-01,7.412417531013488770e-01,7.626496553421020508e-01,7.834231853485107422e-01,8.020618557929992676e-01,8.198630809783935547e-01,8.363713622093200684e-01,8.513419628143310547e-01,8.646796941757202148e-01,8.763238787651062012e-01,8.858765363693237305e-01,8.929199576377868652e-01,8.976693749427795410e-01,9.009582400321960449e-01,9.031051397323608398e-01,9.043312072753906250e-01,9.050028324127197266e-01,9.052590131759643555e-01,9.053180217742919922e-01,9.053307175636291504e-01,9.053288698196411133e-01,9.053283333778381348e-01,9.053283333778381348e-01,9.053283333778381348e-01,9.053283333778381348e-01,9.053283333778381348e-01,9.053283333778381348e-01,9.053283333778381348e-01,9.053283333778381348e-01,9.053283333778381348e-01,9.053283333778381348e-01,9.053283333778381348e-01,9.053283333778381348e-01,9.053283333778381348e-01,9.053283333778381348e-01,9.053283333778381348e-01,9.053283333778381348e-01,9.053283333778381348e-01,9.053289890289306641e-01,9.053249359130859375e-01,9.053441286087036133e-01,9.057062864303588867e-01,9.058702588081359863e-01,9.029117226600646973e-01,8.972241282463073730e-01,8.881217241287231445e-01,8.741233348846435547e-01,8.496661782264709473e-01,8.040357828140258789e-01,7.310941219329833984e-01,6.385318636894226074e-01,5.779139399528503418e-01,5.441311001777648926e-01,5.055522918701171875e-01,4.715997576713562012e-01,4.663316607475280762e-01,4.893442094326019287e-01,5.076783299446105957e-01,5.662924647331237793e-01,6.071866154670715332e-01,6.813293695449829102e-01,7.177224159240722656e-01,7.694221138954162598e-01,8.105670213699340820e-01,8.355093002319335938e-01,8.503564596176147461e-01,8.570898175239562988e-01,8.587950468063354492e-01,8.502016067504882812e-01,8.242337703704833984e-01,8.077933788299560547e-01,8.005028367042541504e-01,7.749668359756469727e-01,7.223309278488159180e-01,6.163306832313537598e-01
5.884396433830261230e-01,6.138448715209960938e-01,6.564003229141235352e-01,6.571470499038696289e-01,6.806459426879882812e-01,7.048588395118713379e-01,7.412251234054565430e-01,7.626329660415649414e-01,7.834063172340393066e-01,8.020452260971069336e-01,8.198472261428833008e-01,8.363566398620605469e-01,8.513286113739013672e-01,8.646672964096069336e-01,8.763130903244018555e-01,8.858679533004760742e-01,8.929138183593750000e-01,8.976655006408691406e-01,9.009553790092468262e-01,9.031034708023071289e-01,9.043302536010742188e-01,9.050022363662719727e-01,9.052590131759643555e-01,9.053180217742919922e-01,9.053307175636291504e-01,9.053288698196411133e-01,9.053283333778381348e-01,9.053283333778381348e-01,9.053283333778381348e-01,9.053283333778381348e-01,9.053283333778381348e-01,9.053283333778381348e-01,9.053283333778381348e-01,9.053283333778381348e-01,9.053283333778381348e-01,9.053283333778381348e-01,9.053283333778381348e-01,9.053283333778381348e-01,9.053283333778381348e-01,9.053283333778381348e-01,9.053283333778381348e-01,9.053283333778381348e-01,9.053283333778381348e-01,9.053286314010620117e-01,9.053261280059814453e-01,9.053339958190917969e-01,9.057058095932006836e-01,9.062370061874389648e-01,9.034460783004760742e-01,8.982754349708557129e-01,8.903745412826538086e-01,8.742525577545166016e-01,8.548754453659057617e-01,8.144650459289550781e-01,7.385306358337402344e-01,6.632160544395446777e-01,6.080747842788696289e-01,5.407724976539611816e-01,5.067148804664611816e-01,4.823995828628540039e-01,4.870513081550598145e-01,4.931686818599700928e-01,5.019793510437011719e-01,5.552850961685180664e-01,6.386452317237854004e-01,6.862506270408630371e-01,7.269496321678161621e-01,7.729541063308715820e-01,8.069075942039489746e-01,8.341395854949951172e-01,8.562225103378295898e-01,8.560615777969360352e-01,8.550367951393127441e-01,8.495119810104370117e-01,8.240530490875244141e-01,8.055374622344970703e-01,8.000981211662292480e-01,7.747448086738586426e-01,7.224310040473937988e-01,6.163376569747924805e-01
5.884341001510620117e-01,6.138353943824768066e-01,6.563889980316162109e-01,6.571333408355712891e-01,6.806305646896362305e-01,7.048429250717163086e-01,7.412089109420776367e-01,7.626168727874755859e-01,7.833901643753051758e-01,8.020288348197937012e-01,8.198319673538208008e-01,8.363422155380249023e-01,8.513153791427612305e-01,8.646554946899414062e-01,8.763027191162109375e-01,8.858594894409179688e-01,8.929079174995422363e-01,8.976615667343139648e-01,9.009525775909423828e-01,9.031018018722534180e-01,9.043292999267578125e-01,9.050018787384033203e-01,9.052589535713195801e-01,9.053179025650024414e-01,9.053307771682739258e-01,9.053288698196411133e-01,9.053283333778381348e-01,9.053283333778381348e-01,9.053283333778381348e-01,9.053283333778381348e-01,9.053283333778381348e-01,9.053283333778381348e-01,9.053283333778381348e-01,9.053283333778381348e-01,9.053283333778381348e-01,9.053283333778381348e-01,9.053283333778381348e-01,9.053283333778381348e-01,9.053283333778381348e-01,9.053283333778381348e-01,9.053283333778381348e-01,9.053283333778381348e-01,9.053283333778381348e-01,9.053283929824829102e-01,9.053294062614440918e-01,9.053317308425903320e-01,9.057312011718750000e-01,9.062437415122985840e-01,9.030759334564208984e-01,9.005738496780395508e-01,8.937890529632568359e-01,8.793382048606872559e-01,8.622143864631652832e-01,8.212898969650268555e-01,7.559982538223266602e-01,6.750057935714721680e-01,6.346157789230346680e-01,5.586970448493957520e-01,5.096362829208374023e-01,5.022649168968200684e-01,5.057221055030822754e-01,5.093580484390258789e-01,5.192943811416625977e-01,5.667631030082702637e-01,6.597425341606140137e-01,7.044008970260620117e-01,7.353892326354980469e-01,7.845700979232788086e-01,8.134158849716186523e-01,8.360794782638549805e-01,8.576864004135131836e-01,8.611600399017333984e-01,8.527947664260864258e-01,8.490979075431823730e-01,8.246607780456542969e-01,8.078678846359252930e-01,8.001140356063842773e-01,7.751106023788452148e-01,7.223188281059265137e-01,6.163449287414550781e-01
5.884292125701904297e-01,6.138271093368530273e-01,6.563789844512939453e-01,6.571211814880371094e-01,6.806163787841796875e-01,7.048280239105224609e-01,7.411937117576599121e-01,7.626011371612548828e-01,7.833743095397949219e-01,8.020132780075073242e-01,8.198168277740478516e-01,8.363283276557922363e-01,8.513025045394897461e-01,8.646439313888549805e-01,8.762927055358886719e-01,8.858513832092285156e-01,8.929023146629333496e-01,8.976578712463378906e-01,9.009498357772827148e-01,9.031001925468444824e-01,9.043284058570861816e-01,9.050014019012451172e-01,9.052588939666748047e-01,9.053179025650024414e-01,9.053307771682739258e-01,9.053288698196411133e-01,9.053283333778381348e-01,9.053283333778381348e-01,9.053283333778381348e-01,9.053283333778381348e-01,9.053283333778381348e-01,9.053283333778381348e-01,9.053283333778381348e-01,9.053283333778381348e-01,9.053283333778381348e-01,9.053283333778381348e-01,9.053283333778381348e-01,9.053283333778381348e-01,9.053283333778381348e-01,9.053283333778381348e-01,9.053283333778381348e-01,9.053283333778381348e-01,9.053283333778381348e-01,9.053283333778381348e-01,9.053298830986022949e-01,9.053153991699218750e-01,9.055637121200561523e-01,9.054270982742309570e-01,9.044408202171325684e-01,9.001524448394775391e-01,8.963392972946166992e-01,8.859926462173461914e-01,8.733661174774169922e-01,8.345316648483276367e-01,7.767825126647949219e-01,6.902586221694946289e-01,6.459093093872070312e-01,5.932571887969970703e-01,5.419495701789855957e-01,5.225720405578613281e-01,5.201251506805419922e-01,5.249117612838745117e-01,5.449926257133483887e-01,5.962375998497009277e-01,6.594067811965942383e-01,7.363544702529907227e-01,7.664137482643127441e-01,7.935353517532348633e-01,8.289517164230346680e-01,8.329464197158813477e-01,8.559093475341796875e-01,8.606070280075073242e-01,8.577619194984436035e-01,8.490297794342041016e-01,8.243702650070190430e-01,8.055796623229980469e-01,8.005359172821044922e-01,7.749945521354675293e-01,7.224699854850769043e-01,6.163519620895385742e-01
5.884246826171875000e-01,6.138195991516113281e-01,6.563698053359985352e-01,6.571106314659118652e-01,6.806039214134216309e-01,7.048148512840270996e-01,7.411795854568481445e-01,7.625867128372192383e-01,7.833594083786010742e-01,8.019982576370239258e-01,8.198022842407226562e-01,8.363146781921386719e-01,8.512902259826660156e-01,8.646328449249267578e-01,8.762825727462768555e-01,8.858435750007629395e-01,8.928966522216796875e-01,8.976541757583618164e-01,9.009472131729125977e-01,9.030987024307250977e-01,9.043276309967041016e-01,9.050009250640869141e-01,9.052587747573852539e-01,9.053179025650024414e-01,9.053307771682739258e-01,9.053288698196411133e-01,9.053283333778381348e-01,9.053283333778381348e-01,9.053283333778381348e-01,9.053283333778381348e-01,9.053283333778381348e-01,9.053283333778381348e-01,9.053283333778381348e-01,9.053283333778381348e-01,9.053283333778381348e-01,9.053283333778381348e-01,9.053283333778381348e-01,9.053283333778381348e-01,9.053283333778381348e-01,9.053283333778381348e-01,9.053283333778381348e-01,9.053283333778381348e-01,9.053283333778381348e-01,9.053283333778381348e-01,9.053236246109008789e-01,9.053153991699218750e-01,9.055876731872558594e-01,9.057766199111938477e-01,9.056162834167480469e-01,9.029324650764465332e-01,8.963187932968139648e-01,8.900682926177978516e-01,8.764725923538208008e-01,8.468884229660034180e-01,7.962291240692138672e-01,7.260988354682922363e-01,6.853718161582946777e-01,6.218195557594299316e-01,5.740097761154174805e-01,5.429472327232360840e-01,5.271986722946166992e-01,5.372819900512695312e-01,5.779458284378051758e-01,6.188102960586547852e-01,6.894141435623168945e-01,7.621902227401733398e-01,7.863508462905883789e-01,8.081430196762084961e-01,8.360512852668762207e-01,8.541142344474792480e-01,8.608413338661193848e-01,8.675551414489746094e-01,8.611257076263427734e-01,8.534479141235351562e-01,8.256132602691650391e-01,8.072314262390136719e-01,8.009889125823974609e-01,7.750236392021179199e-01,7.225143313407897949e-01,6.163591146469116211e-01
5.884202718734741211e-01,6.138123869895935059e-01,6.563612222671508789e-01,6.571007370948791504e-01,6.805929541587829590e-01,7.048032879829406738e-01,7.411675453186035156e-01,7.625738382339477539e-01,7.833460569381713867e-01,8.019843101501464844e-01,8.197886943817138672e-01,8.363019824028015137e-01,8.512782454490661621e-01,8.646223545074462891e-01,8.762733936309814453e-01,8.858358860015869141e-01,8.928911685943603516e-01,8.976505994796752930e-01,9.009445905685424805e-01,9.030971527099609375e-01,9.043266177177429199e-01,9.050005078315734863e-01,9.052587747573852539e-01,9.053179025650024414e-01,9.053307771682739258e-01,9.053288698196411133e-01,9.053283333778381348e-01,9.053283333778381348e-01,9.053283333778381348e-01,9.053283333778381348e-01,9.053283333778381348e-01,9.053283333778381348e-01,9.053283333778381348e-01,9.053283333778381348e-01,9.053283333778381348e-01,9.053283333778381348e-01,9.053283333778381348e-01,9.053283333778381348e-01,9.053283333778381348e-01,9.053283333778381348e-01,9.053283333778381348e-01,9.053283333778381348e-01,9.053283333778381348e-01,9.053283333778381348e-01,9.053205847740173340e-01,9.053080081939697266e-01,9.053907394409179688e-01,9.063279628753662109e-01,9.054850339889526367e-01,9.043893218040466309e-01,9.025517106056213379e-01,8.943474292755126953e-01,8.803949356079101562e-01,8.504710197448730469e-01,8.259699344635009766e-01,7.664166688919067383e-01,7.246417999267578125e-01,6.582160592079162598e-01,6.039092540740966797e-01,5.731917023658752441e-01,5.526351928710937500e-01,5.581040382385253906e-01,6.050803661346435547e-01,6.385524868965148926e-01,7.067168951034545898e-01,7.853419184684753418e-01,8.118940591812133789e-01,8.206679821014404297e-01,8.554821014404296875e-01,8.681347370147705078e-01,8.679665327072143555e-01,8.694308996200561523e-01,8.660758137702941895e-01,8.523294925689697266e-01,8.272774815559387207e-01,8.077813386917114258e-01,8.009767532348632812e-01,7.751352190971374512e-01,7.224024534225463867e-01,6.163662075996398926e-01
5.884155631065368652e-01,6.138050556182861328e-01,6.563531160354614258e-01,6.570914387702941895e-01,6.805827021598815918e-01,7.047923803329467773e-01,7.411564588546752930e-01,7.625626921653747559e-01,7.833343744277954102e-01,8.019722700119018555e-01,8.197768330574035645e-01,8.362902402877807617e-01,8.512672185897827148e-01,8.646122217178344727e-01,8.762644529342651367e-01,8.858288526535034180e-01,8.928864002227783203e-01,8.976474404335021973e-01,9.009420275688171387e-01,9.030956029891967773e-01,9.043258428573608398e-01,9.050001502037048340e-01,9.052585363388061523e-01,9.053179025650024414e-01,9.053307771682739258e-01,9.053288698196411133e-01,9.053283333778381348e-01,9.053283333778381348e-01,9.053283333778381348e-01,9.053283333778381348e-01,9.053283333778381348e-01,9.053283333778381348e-01,9.053283333778381348e-01,9.053283333778381348e-01,9.053283333778381348e-01,9.053283333778381348e-01,9.053283333778381348e-01,9.053283333778381348e-01,9.053283333778381348e-01,9.053283333778381348e-01,9.053283333778381348e-01,9.053283333778381348e-01,9.053283333778381348e-01,9.053283333778381348e-01,9.053311347961425781e-01,9.053048491477966309e-01,9.053469896316528320e-01,9.062371850013732910e-01,9.057857394218444824e-01,9.025399684906005859e-01,9.030538797378540039e-01,9.010858535766601562e-01,8.881766796112060547e-01,8.728784322738647461e-01,8.342932462692260742e-01,7.996200323104858398e-01,7.568818330764770508e-01,7.020733356475830078e-01,6.276069283485412598e-01,6.074858903884887695e-01,5.834717750549316406e-01,5.880929827690124512e-01,6.287099123001098633e-01,6.632466316223144531e-01,7.248326539993286133e-01,7.923390269279479980e-01,8.306473493576049805e-01,8.445317745208740234e-01,8.606924414634704590e-01,8.765007853507995605e-01,8.763166069984436035e-01,8.740484714508056641e-01,8.657773137092590332e-01,8.561378717422485352e-01,8.297523260116577148e-01,8.078889846801757812e-01,8.009508252143859863e-01,7.754859924316406250e-01,7.224162817001342773e-01,6.163734197616577148e-01
5.884103775024414062e-01,6.137970685958862305e-01,6.563444137573242188e-01,6.570813655853271484e-01,6.805724501609802246e-01,7.047821879386901855e-01,7.411462068557739258e-01,7.625521421432495117e-01,7.833238244056701660e-01,8.019614219665527344e-01,8.197662830352783203e-01,8.362800478935241699e-01,8.512573242187500000e-01,8.646031022071838379e-01,8.762559890747070312e-01,8.858221769332885742e-01,8.928815126419067383e-01,8.976442813873291016e-01,9.009398221969604492e-01,9.030944108963012695e-01,9.043251276016235352e-01,9.049996137619018555e-01,9.052584171295166016e-01,9.053179025650024414e-01,9.053307175636291504e-01,9.053288698196411133e-01,9.053283333778381348e-01,9.053283333778381348e-01,9.053283333778381348e-01,9.053283333778381348e-01,9.053283333778381348e-01,9.053283333778381348e-01,9.053283333778381348e-01,9.053283333778381348e-01,9.053283333778381348e-01,9.053283333778381348e-01,9.053283333778381348e-01,9.053283333778381348e-01,9.053283333778381348e-01,9.053283333778381348e-01,9.053283333778381348e-01,9.053283333778381348e-01,9.053283333778381348e-01,9.053283333778381348e-01,9.053281545639038086e-01,9.053115844726562500e-01,9.054839015007019043e-01,9.056962728500366211e-01,9.056118726730346680e-01,9.039869904518127441e-01,9.034041166305541992e-01,9.043180942535400391e-01,8.907918930053710938e-01,8.785365819931030273e-01,8.537355065345764160e-01,8.200936317443847656e-01,7.953222990036010742e-01,7.387185096740722656e-01,6.603963375091552734e-01,6.283907294273376465e-01,6.173295974731445312e-01,6.143535971641540527e-01,6.519072651863098145e-01,6.926917433738708496e-01,7.473800182342529297e-01,7.961024045944213867e-01,8.318299055099487305e-01,8.626447319984436035e-01,8.651609420776367188e-01,8.784288167953491211e-01,8.802695274353027344e-01,8.742868900299072266e-01,8.706340789794921875e-01,8.563710451126098633e-01,8.297070264816284180e-01,8.089873790740966797e-01,8.011124134063720703e-01,7.751638889312744141e-01,7.225368618965148926e-01,6.163806319236755371e-01
5.884050130844116211e-01,6.137884259223937988e-01,6.563346982002258301e-01,6.570704579353332520e-01,6.805610656738281250e-01,7.047708034515380859e-01,7.411351203918457031e-01,7.625419497489929199e-01,7.833138704299926758e-01,8.019514083862304688e-01,8.197565078735351562e-01,8.362704515457153320e-01,8.512477874755859375e-01,8.645943403244018555e-01,8.762482404708862305e-01,8.858156204223632812e-01,8.928762078285217285e-01,8.976399898529052734e-01,9.009363651275634766e-01,9.030916690826416016e-01,9.043226838111877441e-01,9.049975275993347168e-01,9.052566289901733398e-01,9.053159952163696289e-01,9.053288698196411133e-01,9.053269624710083008e-01,9.053264856338500977e-01,9.053264856338500977e-01,9.053264856338500977e-01,9.053264856338500977e-01,9.053264856338500977e-01,9.053264856338500977e-01,9.053264856338500977e-01,9.053264260292053223e-01,9.053263664245605469e-01,9.053264260292053223e-01,9.053264260292053223e-01,9.053264260292053223e-01,9.053263664245605469e-01,9.053263664245605469e-01,9.053263664245605469e-01,9.053263664245605469e-01,9.053262472152709961e-01,9.053262472152709961e-01,9.053224921226501465e-01,9.053223133087158203e-01,9.054024219512939453e-01,9.055762290954589844e-01,9.047909975051879883e-01,9.052729606628417969e-01,9.067969918251037598e-01,9.032408595085144043e-01,8.935725688934326172e-01,8.842830061912536621e-01,8.644561767578125000e-01,8.377719521522521973e-01,8.064616918563842773e-01,7.617681026458740234e-01,6.948519349098205566e-01,6.478496789932250977e-01,6.305071115493774414e-01,6.338433027267456055e-01,6.675750017166137695e-01,7.109632492065429688e-01,7.778060436248779297e-01,8.052655458450317383e-01,8.422183990478515625e-01,8.657967448234558105e-01,8.794267177581787109e-01,8.804751634597778320e-01,8.833131194114685059e-01,8.764709234237670898e-01,8.711253404617309570e-01,8.588241338729858398e-01,8.282748460769653320e-01,8.093634247779846191e-01,8.010562658309936523e-01,7.753820419311523438e-01,7.225028276443481445e-01,6.163879632949829102e-01
5.883992314338684082e-01,6.137788891792297363e-01,6.563237309455871582e-01,6.570572853088378906e-01,6.805456280708312988e-01,7.047545313835144043e-01,7.411188483238220215e-01,7.625255584716796875e-01,7.832974195480346680e-01,8.019353151321411133e-01,8.197410106658935547e-01,8.362551927566528320e-01,8.512326478958129883e-01,8.645800352096557617e-01,8.762350678443908691e-01,8.858039379119873047e-01,8.928658962249755859e-01,8.976317048072814941e-01,9.009284377098083496e-01,9.030840396881103516e-01,9.043152332305908203e-01,9.049903154373168945e-01,9.052499532699584961e-01,9.053096771240234375e-01,9.053227305412292480e-01,9.053210020065307617e-01,9.053205251693725586e-01,9.053205251693725586e-01,9.053205847740173340e-01,9.053205847740173340e-01,9.053206443786621094e-01,9.053206443786621094e-01,9.053206443786621094e-01,9.053207635879516602e-01,9.053207635879516602e-01,9.053207635879516602e-01,9.053208827972412109e-01,9.053208827972412109e-01,9.053209424018859863e-01,9.053210020065307617e-01,9.053210020065307617e-01,9.053211212158203125e-01,9.053211212158203125e-01,9.053211212158203125e-01,9.053226709365844727e-01,9.053059816360473633e-01,9.052612781524658203e-01,9.056468009948730469e-01,9.053210020065307617e-01,9.054846763610839844e-01,9.069780111312866211e-01,9.042518734931945801e-01,8.948808908462524414e-01,8.855579495429992676e-01,8.597830533981323242e-01,8.527588844299316406e-01,8.184005022048950195e-01,7.766034603118896484e-01,7.132916450500488281e-01,6.763595342636108398e-01,6.446136236190795898e-01,6.509461402893066406e-01,6.871479153633117676e-01,7.298654913902282715e-01,7.927638292312622070e-01,8.235679864883422852e-01,8.508589267730712891e-01,8.733919858932495117e-01,8.801161646842956543e-01,8.869601488113403320e-01,8.856152296066284180e-01,8.765579462051391602e-01,8.691758513450622559e-01,8.589418530464172363e-01,8.301142454147338867e-01,8.086348772048950195e-01,8.012087345123291016e-01,7.751795053482055664e-01,7.225594520568847656e-01,6.163888573646545410e-01
5.883883237838745117e-01,6.137650609016418457e-01,6.563076972961425781e-01,6.570434570312500000e-01,6.805320978164672852e-01,7.047397494316101074e-01,7.411057353019714355e-01,7.625179290771484375e-01,7.832968235015869141e-01,8.019425868988037109e-01,8.197590112686157227e-01,8.362866640090942383e-01,8.512835502624511719e-01,8.646478652954101562e-01,8.763048648834228516e-01,8.858633041381835938e-01,8.929136395454406738e-01,8.976705074310302734e-01,9.009687900543212891e-01,9.031348228454589844e-01,9.043724536895751953e-01,9.050532579421997070e-01,9.053155779838562012e-01,9.053767919540405273e-01,9.053903818130493164e-01,9.053887128829956055e-01,9.053885936737060547e-01,9.053888320922851562e-01,9.053891897201538086e-01,9.053894281387329102e-01,9.053897261619567871e-01,9.053899645805358887e-01,9.053901433944702148e-01,9.053905010223388672e-01,9.053907394409179688e-01,9.053910970687866211e-01,9.053912758827209473e-01,9.053915143013000488e-01,9.053918123245239258e-01,9.053921699523925781e-01,9.053922891616821289e-01,9.053925275802612305e-01,9.053928852081298828e-01,9.053932428359985352e-01,9.053918123245239258e-01,9.053812026977539062e-01,9.053195714950561523e-01,9.053500294685363770e-01,9.058362245559692383e-01,9.055183529853820801e-01,9.057321548461914062e-01,9.042410254478454590e-01,8.973081111907958984e-01,8.847395181655883789e-01,8.727004528045654297e-01,8.563277721405029297e-01,8.240610957145690918e-01,7.753905057907104492e-01,7.185692191123962402e-01,6.753535866737365723e-01,6.493602991104125977e-01,6.734878420829772949e-01,7.088379263877868652e-01,7.466309070587158203e-01,7.963338494300842285e-01,8.359670639038085938e-01,8.606444597244262695e-01,8.757640719413757324e-01,8.889924287796020508e-01,8.921403288841247559e-01,8.870358467102050781e-01,8.784806728363037109e-01,8.697386980056762695e-01,8.576576113700866699e-01,8.300874233245849609e-01,8.091441392898559570e-01,8.013784885406494141e-01,7.753151655197143555e-01,7.224897742271423340e-01,6.163884401321411133e-01
5.883951783180236816e-01,6.137738227844238281e-01,6.563143730163574219e-01,6.570613384246826172e-01,6.805608868598937988e-01,7.048013806343078613e-01,7.412186861038208008e-01,7.626790404319763184e-01,7.834842205047607422e-01,8.021425008773803711e-01,8.199608922004699707e-01,8.364861011505126953e-01,8.514602184295654297e-01,8.647930026054382324e-01,8.764216899871826172e-01,8.859450221061706543e-01,8.929835557937622070e-01,8.977726101875305176e-01,9.010932445526123047e-01,9.032582044601440430e-01,9.044927358627319336e-01,9.051686525344848633e-01,9.054245948791503906e-01,9.054826498031616211e-01,9.054937362670898438e-01,9.054911136627197266e-01,9.054898023605346680e-01,9.054888486862182617e-01,9.054880142211914062e-01,9.054870605468750000e-01,9.054862260818481445e-01,9.054852724075317383e-01,9.054844379425048828e-01,9.054836630821228027e-01,9.054828286170959473e-01,9.054819345474243164e-01,9.054811000823974609e-01,9.054801464080810547e-01,9.054793119430541992e-01,9.054785370826721191e-01,9.054775238037109375e-01,9.054766893386840820e-01,9.054758548736572266e-01,9.054749011993408203e-01,9.054743051528930664e-01,9.054667949676513672e-01,9.054839611053466797e-01,9.054456949234008789e-01,9.057701826095581055e-01,9.060274362564086914e-01,9.057157039642333984e-01,9.041569232940673828e-01,8.968865871429443359e-01,8.820669651031494141e-01,8.730215430259704590e-01,8.575187921524047852e-01,8.263667821884155273e-01,7.839092612266540527e-01,7.345219850540161133e-01,6.800259351730346680e-01,6.606975793838500977e-01,6.827967762947082520e-01,7.222031950950622559e-01,7.681338787078857422e-01,8.147757053375244141e-01,8.470077514648437500e-01,8.684966564178466797e-01,8.837220668792724609e-01,8.927129507064819336e-01,8.924992680549621582e-01,8.879010081291198730e-01,8.800781965255737305e-01,8.712947368621826172e-01,8.583567142486572266e-01,8.300825357437133789e-01,8.089231848716735840e-01,8.016757965087890625e-01,7.755467891693115234e-01,7.228022813796997070e-01,6.167843937873840332e-01
5.885776877403259277e-01,6.139510869979858398e-01,6.565676331520080566e-01,6.573175787925720215e-01,6.808096766471862793e-01,7.049662470817565918e-01,7.413066625595092773e-01,7.626914381980895996e-01,7.833573222160339355e-01,8.018848896026611328e-01,8.195861577987670898e-01,8.359764814376831055e-01,8.508599996566772461e-01,8.641110658645629883e-01,8.756406307220458984e-01,8.851382732391357422e-01,8.922113180160522461e-01,8.969808816909790039e-01,9.002738595008850098e-01,9.024296998977661133e-01,9.036749601364135742e-01,9.043313860893249512e-01,9.045724868774414062e-01,9.046294689178466797e-01,9.046415090560913086e-01,9.046392440795898438e-01,9.046377539634704590e-01,9.046368598937988281e-01,9.046360254287719727e-01,9.046350717544555664e-01,9.046341180801391602e-01,9.046332836151123047e-01,9.046323299407958984e-01,9.046314954757690430e-01,9.046304225921630859e-01,9.046295881271362305e-01,9.046286344528198242e-01,9.046277999877929688e-01,9.046267867088317871e-01,9.046257734298706055e-01,9.046249389648437500e-01,9.046240448951721191e-01,9.046230912208557129e-01,9.046224355697631836e-01,9.046208858489990234e-01,9.046176075935363770e-01,9.045889377593994141e-01,9.046843051910400391e-01,9.046400785446166992e-01,9.046162366867065430e-01,9.053248167037963867e-01,9.036922454833984375e-01,8.969726562500000000e-01,8.848577737808227539e-01,8.746961355209350586e-01,8.535324335098266602e-01,8.183009624481201172e-01,7.824738621711730957e-01,7.438199520111083984e-01,6.844233274459838867e-01,6.779849529266357422e-01,7.014729976654052734e-01,7.275505661964416504e-01,7.912231683731079102e-01,8.252761363983154297e-01,8.524860143661499023e-01,8.732115030288696289e-01,8.853738903999328613e-01,8.946900367736816406e-01,8.931783437728881836e-01,8.882142901420593262e-01,8.799161911010742188e-01,8.702458143234252930e-01,8.576111793518066406e-01,8.292928934097290039e-01,8.083825111389160156e-01,8.008701801300048828e-01,7.746604084968566895e-01,7.219839096069335938e-01,6.162477135658264160e-01
5.889350771903991699e-01,6.138238906860351562e-01,6.562412977218627930e-01,6.566768884658813477e-01,6.799243092536926270e-01,7.037634253501892090e-01,7.398911714553833008e-01,7.610049843788146973e-01,7.815123796463012695e-01,7.999095916748046875e-01,8.175226449966430664e-01,8.339128494262695312e-01,8.489228487014770508e-01,8.623846769332885742e-01,8.741686344146728516e-01,8.838952779769897461e-01,8.910557031631469727e-01,8.958868384361267090e-01,8.992757797241210938e-01,9.014959335327148438e-01,9.027296304702758789e-01,9.033837318420410156e-01,9.036414623260498047e-01,9.037144780158996582e-01,9.037274122238159180e-01,9.037250280380249023e-01,9.037236571311950684e-01,9.037225246429443359e-01,9.037215113639831543e-01,9.037203788757324219e-01,9.037194252014160156e-01,9.037184119224548340e-01,9.037172794342041016e-01,9.037162661552429199e-01,9.037152528762817383e-01,9.037141799926757812e-01,9.037131667137145996e-01,9.037119150161743164e-01,9.037108421325683594e-01,9.037097692489624023e-01,9.037088155746459961e-01,9.037076234817504883e-01,9.037067294120788574e-01,9.037055969238281250e-01,9.037050008773803711e-01,9.037039279937744141e-01,9.036991596221923828e-01,9.036645889282226562e-01,9.037672281265258789e-01,9.036561250686645508e-01,9.042701721191406250e-01,9.016127586364746094e-01,8.955910801887512207e-01,8.843066096305847168e-01,8.748896121978759766e-01,8.532449007034301758e-01,8.259607553482055664e-01,7.859525680541992188e-01,7.354871034622192383e-01,6.903934478759765625e-01,6.961869597434997559e-01,7.204732894897460938e-01,7.431018352508544922e-01,7.966381311416625977e-01,8.345167636871337891e-01,8.600807189941406250e-01,8.748947381973266602e-01,8.879565000534057617e-01,8.955051898956298828e-01,8.940435647964477539e-01,8.871281147003173828e-01,8.792528510093688965e-01,8.702000379562377930e-01,8.571985363960266113e-01,8.286341428756713867e-01,8.075715303421020508e-01,8.001062870025634766e-01,7.738247513771057129e-01,7.208219766616821289e-01,6.147252321243286133e-01
5.881911516189575195e-01,6.121512651443481445e-01,6.544502973556518555e-01,6.547906994819641113e-01,6.775819063186645508e-01,7.009669542312622070e-01,7.370861768722534180e-01,7.582455873489379883e-01,7.788019776344299316e-01,7.971986532211303711e-01,8.147946596145629883e-01,8.312970399856567383e-01,8.464375138282775879e-01,8.599831461906433105e-01,8.718591332435607910e-01,8.816273212432861328e-01,8.889309167861938477e-01,8.940086364746093750e-01,8.974864482879638672e-01,8.997211456298828125e-01,9.009755849838256836e-01,9.016542434692382812e-01,9.019176363945007324e-01,9.019798040390014648e-01,9.019867777824401855e-01,9.019795656204223633e-01,9.019730687141418457e-01,9.019669294357299805e-01,9.019608497619628906e-01,9.019546508789062500e-01,9.019486904144287109e-01,9.019424915313720703e-01,9.019364714622497559e-01,9.019303321838378906e-01,9.019241333007812500e-01,9.019180536270141602e-01,9.019118547439575195e-01,9.019060134887695312e-01,9.018998146057128906e-01,9.018937349319458008e-01,9.018876552581787109e-01,9.018816351890563965e-01,9.018753767013549805e-01,9.018692970275878906e-01,9.018633365631103516e-01,9.018570184707641602e-01,9.018478989601135254e-01,9.018470644950866699e-01,9.018536806106567383e-01,9.020540118217468262e-01,9.021428823471069336e-01,9.003643989562988281e-01,8.932093381881713867e-01,8.855113983154296875e-01,8.748682737350463867e-01,8.536558151245117188e-01,8.307924866676330566e-01,7.841697931289672852e-01,7.322962284088134766e-01,6.924862265586853027e-01,7.043422460556030273e-01,7.338917255401611328e-01,7.624314427375793457e-01,8.125082254409790039e-01,8.419067859649658203e-01,8.640630245208740234e-01,8.802635669708251953e-01,8.893679380416870117e-01,8.936631679534912109e-01,8.923586606979370117e-01,8.860661387443542480e-01,8.779397010803222656e-01,8.686125278472900391e-01,8.557927608489990234e-01,8.273729681968688965e-01,8.065298795700073242e-01,7.989629507064819336e-01,7.723698019981384277e-01,7.195321321487426758e-01,6.129419803619384766e-01
5.862549543380737305e-01,6.094365119934082031e-01,6.514797210693359375e-01,6.515442132949829102e-01,6.740757226943969727e-01,6.969114542007446289e-01,7.324773073196411133e-01,7.531203627586364746e-01,7.730043530464172363e-01,7.909478545188903809e-01,8.082779645919799805e-01,8.245586752891540527e-01,8.395531177520751953e-01,8.531515598297119141e-01,8.651041984558105469e-01,8.749609589576721191e-01,8.823369145393371582e-01,8.874368667602539062e-01,8.910169601440429688e-01,8.932561874389648438e-01,8.945028185844421387e-01,8.952052593231201172e-01,8.954696655273437500e-01,8.955243229866027832e-01,8.955230712890625000e-01,8.955119848251342773e-01,8.955022096633911133e-01,8.954931497573852539e-01,8.954839110374450684e-01,8.954746723175048828e-01,8.954656124114990234e-01,8.954565525054931641e-01,8.954472541809082031e-01,8.954381346702575684e-01,8.954290151596069336e-01,8.954198956489562988e-01,8.954108357429504395e-01,8.954015970230102539e-01,8.953926563262939453e-01,8.953834772109985352e-01,8.953742980957031250e-01,8.953652977943420410e-01,8.953561782836914062e-01,8.953469991683959961e-01,8.953380584716796875e-01,8.953289985656738281e-01,8.953182697296142578e-01,8.953024148941040039e-01,8.953427076339721680e-01,8.957678675651550293e-01,8.959329724311828613e-01,8.931217193603515625e-01,8.881351947784423828e-01,8.806543946266174316e-01,8.647652864456176758e-01,8.490798473358154297e-01,8.270027637481689453e-01,7.891486883163452148e-01,7.327888011932373047e-01,7.041403055191040039e-01,7.126460671424865723e-01,7.329568862915039062e-01,7.794477939605712891e-01,8.138320446014404297e-01,8.384733200073242188e-01,8.608550429344177246e-01,8.756753206253051758e-01,8.868817090988159180e-01,8.887796998023986816e-01,8.860509395599365234e-01,8.802717924118041992e-01,8.724039793014526367e-01,8.629581332206726074e-01,8.499954938888549805e-01,8.217650651931762695e-01,8.014969825744628906e-01,7.943602204322814941e-01,7.679698467254638672e-01,7.155204415321350098e-01,6.079423427581787109e-01
5.823472738265991211e-01,6.035619974136352539e-01,6.450687646865844727e-01,6.443611979484558105e-01,6.657197475433349609e-01,6.876927018165588379e-01,7.224056720733642578e-01,7.425887584686279297e-01,7.617998123168945312e-01,7.788732051849365234e-01,7.956073284149169922e-01,8.115670680999755859e-01,8.266258239746093750e-01,8.405208587646484375e-01,8.527920246124267578e-01,8.630744218826293945e-01,8.709449768066406250e-01,8.763757944107055664e-01,8.801447153091430664e-01,8.825230002403259277e-01,8.838611841201782227e-01,8.845166563987731934e-01,8.847188353538513184e-01,8.847367763519287109e-01,8.847259283065795898e-01,8.847030401229858398e-01,8.846822977066040039e-01,8.846618533134460449e-01,8.846417665481567383e-01,8.846215009689331055e-01,8.846011161804199219e-01,8.845807909965515137e-01,8.845605850219726562e-01,8.845403790473937988e-01,8.845200538635253906e-01,8.844996690750122070e-01,8.844794034957885742e-01,8.844592571258544922e-01,8.844388723373413086e-01,8.844187259674072266e-01,8.843985795974731445e-01,8.843784332275390625e-01,8.843581676483154297e-01,8.843379020690917969e-01,8.843177556991577148e-01,8.842976689338684082e-01,8.842771053314208984e-01,8.842575550079345703e-01,8.842448592185974121e-01,8.846778869628906250e-01,8.847936391830444336e-01,8.817213773727416992e-01,8.790730834007263184e-01,8.732101917266845703e-01,8.543851375579833984e-01,8.445696234703063965e-01,8.166294693946838379e-01,7.773123979568481445e-01,7.194330692291259766e-01,7.108689546585083008e-01,7.157207727432250977e-01,7.298071384429931641e-01,7.734314203262329102e-01,8.082615137100219727e-01,8.311518430709838867e-01,8.505300283432006836e-01,8.671597242355346680e-01,8.771567940711975098e-01,8.786286115646362305e-01,8.748454451560974121e-01,8.698865175247192383e-01,8.618728518486022949e-01,8.528804779052734375e-01,8.399146199226379395e-01,8.111964464187622070e-01,7.921251058578491211e-01,7.858279347419738770e-01,7.610068321228027344e-01,7.075269818305969238e-01,6.019629240036010742e-01
5.752025246620178223e-01,5.937508344650268555e-01,6.341868638992309570e-01,6.314067244529724121e-01,6.507631540298461914e-01,6.714966297149658203e-01,7.052956819534301758e-01,7.246510982513427734e-01,7.431002855300903320e-01,7.594733238220214844e-01,7.753018140792846680e-01,7.904877662658691406e-01,8.051461577415466309e-01,8.185902833938598633e-01,8.304737806320190430e-01,8.404283523559570312e-01,8.479074239730834961e-01,8.532826900482177734e-01,8.570433855056762695e-01,8.593933582305908203e-01,8.606334924697875977e-01,8.611832857131958008e-01,8.613168001174926758e-01,8.613208532333374023e-01,8.612889051437377930e-01,8.612494468688964844e-01,8.612121343612670898e-01,8.611750602722167969e-01,8.611381053924560547e-01,8.611007928848266602e-01,8.610638380050659180e-01,8.610268235206604004e-01,8.609895110130310059e-01,8.609523773193359375e-01,8.609155416488647461e-01,8.608784675598144531e-01,8.608413338661193848e-01,8.608044385910034180e-01,8.607672452926635742e-01,8.607300519943237305e-01,8.606932759284973145e-01,8.606563806533813477e-01,8.606191873550415039e-01,8.605822324752807617e-01,8.605451583862304688e-01,8.605081439018249512e-01,8.604713678359985352e-01,8.604353666305541992e-01,8.603928089141845703e-01,8.608812093734741211e-01,8.607133030891418457e-01,8.586646914482116699e-01,8.550006151199340820e-01,8.488991260528564453e-01,8.300887346267700195e-01,8.246573805809020996e-01,7.998827099800109863e-01,7.454878687858581543e-01,6.942535042762756348e-01,6.914969086647033691e-01,6.945897340774536133e-01,7.175770998001098633e-01,7.661486864089965820e-01,7.893840670585632324e-01,8.096036911010742188e-01,8.308044672012329102e-01,8.465560674667358398e-01,8.537589311599731445e-01,8.559265136718750000e-01,8.519880771636962891e-01,8.468171954154968262e-01,8.389687538146972656e-01,8.302748203277587891e-01,8.173167705535888672e-01,7.881239652633666992e-01,7.704257965087890625e-01,7.674620747566223145e-01,7.442873120307922363e-01,6.928586959838867188e-01,5.924723148345947266e-01
5.642391443252563477e-01,5.783771276473999023e-01,6.170486211776733398e-01,6.110084652900695801e-01,6.274151802062988281e-01,6.464114189147949219e-01,6.783326268196105957e-01,6.956830024719238281e-01,7.117297649383544922e-01,7.257405519485473633e-01,7.394007444381713867e-01,7.528210282325744629e-01,7.661380767822265625e-01,7.786045074462890625e-01,7.895346283912658691e-01,7.988238334655761719e-01,8.062248229980468750e-01,8.115607500076293945e-01,8.152924776077270508e-01,8.175954818725585938e-01,8.186777830123901367e-01,8.189521431922912598e-01,8.189746141433715820e-01,8.189495801925659180e-01,8.189007043838500977e-01,8.188397288322448730e-01,8.187805414199829102e-01,8.187212347984313965e-01,8.186624050140380859e-01,8.186032772064208984e-01,8.185442686080932617e-01,8.184854984283447266e-01,8.184262514114379883e-01,8.183672428131103516e-01,8.183082342147827148e-01,8.182494640350341797e-01,8.181904554367065430e-01,8.181315660476684570e-01,8.180724978446960449e-01,8.180137276649475098e-01,8.179545998573303223e-01,8.178957700729370117e-01,8.178368806838989258e-01,8.177778720855712891e-01,8.177191615104675293e-01,8.176603317260742188e-01,8.176014423370361328e-01,8.175351619720458984e-01,8.174396753311157227e-01,8.179841041564941406e-01,8.173739910125732422e-01,8.173993229866027832e-01,8.129265308380126953e-01,8.048135042190551758e-01,7.899980545043945312e-01,7.807132005691528320e-01,7.544801831245422363e-01,7.048599720001220703e-01,6.616679430007934570e-01,6.538059711456298828e-01,6.617891788482666016e-01,6.973413228988647461e-01,7.256919145584106445e-01,7.428573369979858398e-01,7.669005393981933594e-01,7.898739576339721680e-01,8.067287802696228027e-01,8.111392259597778320e-01,8.119394779205322266e-01,8.092657923698425293e-01,8.045887947082519531e-01,7.972543239593505859e-01,7.896693944931030273e-01,7.776674032211303711e-01,7.482551932334899902e-01,7.333570718765258789e-01,7.347682714462280273e-01,7.137542963027954102e-01,6.687904596328735352e-01,5.797321796417236328e-01
5.497246980667114258e-01,5.539374351501464844e-01,5.888129472732543945e-01,5.787603855133056641e-01,5.919221639633178711e-01,6.082127690315246582e-01,6.378243565559387207e-01,6.524330377578735352e-01,6.663228273391723633e-01,6.780692338943481445e-01,6.894900202751159668e-01,7.006258964538574219e-01,7.116236686706542969e-01,7.214999198913574219e-01,7.303571701049804688e-01,7.380203604698181152e-01,7.437705993652343750e-01,7.477717399597167969e-01,7.504812479019165039e-01,7.519773244857788086e-01,7.524064779281616211e-01,7.524726390838623047e-01,7.524476647377014160e-01,7.523845434188842773e-01,7.523163557052612305e-01,7.522312998771667480e-01,7.521484494209289551e-01,7.520659565925598145e-01,7.519832253456115723e-01,7.519009113311767578e-01,7.518181800842285156e-01,7.517358660697937012e-01,7.516534328460693359e-01,7.515709400177001953e-01,7.514884471893310547e-01,7.514059543609619141e-01,7.513234019279479980e-01,7.512409687042236328e-01,7.511585950851440430e-01,7.510762214660644531e-01,7.509938478469848633e-01,7.509113550186157227e-01,7.508291006088256836e-01,7.507467269897460938e-01,7.506644725799560547e-01,7.505820393562316895e-01,7.504997253417968750e-01,7.504035234451293945e-01,7.502807378768920898e-01,7.504423856735229492e-01,7.513123750686645508e-01,7.498263120651245117e-01,7.448253035545349121e-01,7.344784140586853027e-01,7.241604924201965332e-01,7.058447599411010742e-01,6.808041334152221680e-01,6.522413492202758789e-01,6.167685389518737793e-01,6.125699877738952637e-01,6.154035329818725586e-01,6.404845714569091797e-01,6.679410338401794434e-01,6.863341927528381348e-01,7.087444663047790527e-01,7.286551594734191895e-01,7.417405843734741211e-01,7.449631690979003906e-01,7.436045408248901367e-01,7.414296865463256836e-01,7.366168498992919922e-01,7.303296923637390137e-01,7.243707776069641113e-01,7.131320238113403320e-01,6.837220191955566406e-01,6.730001568794250488e-01,6.818907856941223145e-01,6.630920171737670898e-01,6.337918043136596680e-01,5.564894676208496094e-01
5.325041413307189941e-01,5.236872434616088867e-01,5.544959306716918945e-01,5.385828018188476562e-01,5.464448332786560059e-01,5.592986345291137695e-01,5.835180878639221191e-01,5.946900248527526855e-01,6.051646471023559570e-01,6.132948398590087891e-01,6.213150620460510254e-01,6.292408704757690430e-01,6.369060873985290527e-01,6.437558531761169434e-01,6.499294042587280273e-01,6.547376513481140137e-01,6.579698324203491211e-01,6.604008674621582031e-01,6.619702577590942383e-01,6.628107428550720215e-01,6.630290746688842773e-01,6.629912257194519043e-01,6.628887653350830078e-01,6.628049612045288086e-01,6.627230048179626465e-01,6.626326441764831543e-01,6.625444293022155762e-01,6.624566316604614258e-01,6.623687744140625000e-01,6.622809767723083496e-01,6.621934175491333008e-01,6.621056795120239258e-01,6.620178818702697754e-01,6.619302034378051758e-01,6.618425846099853516e-01,6.617549657821655273e-01,6.616674065589904785e-01,6.615798473358154297e-01,6.614922285079956055e-01,6.614046096801757812e-01,6.613171696662902832e-01,6.612296104431152344e-01,6.611419916152954102e-01,6.610547900199890137e-01,6.609672307968139648e-01,6.608796119689941406e-01,6.607922315597534180e-01,6.606949567794799805e-01,6.605160236358642578e-01,6.605203151702880859e-01,6.624121665954589844e-01,6.605418324470520020e-01,6.567374467849731445e-01,6.487356424331665039e-01,6.468560695648193359e-01,6.197320222854614258e-01,5.933049917221069336e-01,5.747379660606384277e-01,5.539393424987792969e-01,5.467795729637145996e-01,5.539842844009399414e-01,5.860877633094787598e-01,5.952050685882568359e-01,6.153519749641418457e-01,6.304892897605895996e-01,6.480535268783569336e-01,6.519469022750854492e-01,6.561685204505920410e-01,6.548992991447448730e-01,6.524197459220886230e-01,6.491799354553222656e-01,6.443643569946289062e-01,6.405187845230102539e-01,6.308500170707702637e-01,6.033940315246582031e-01,5.960168242454528809e-01,6.116211414337158203e-01,5.968317985534667969e-01,5.879974365234375000e-01,5.268703103065490723e-01
5.115470290184020996e-01,4.893313944339752197e-01,5.141220688819885254e-01,4.908631742000579834e-01,4.924237728118896484e-01,5.010052323341369629e-01,5.196021199226379395e-01,5.275451540946960449e-01,5.347061157226562500e-01,5.395472645759582520e-01,5.444164276123046875e-01,5.495169162750244141e-01,5.544907450675964355e-01,5.588303208351135254e-01,5.624814033508300781e-01,5.651899576187133789e-01,5.674912929534912109e-01,5.691053271293640137e-01,5.701977014541625977e-01,5.706969499588012695e-01,5.708000063896179199e-01,5.707212090492248535e-01,5.705786943435668945e-01,5.705094337463378906e-01,5.704125761985778809e-01,5.703237056732177734e-01,5.702360868453979492e-01,5.701490044593811035e-01,5.700616240501403809e-01,5.699747204780578613e-01,5.698875784873962402e-01,5.698007345199584961e-01,5.697136521339416504e-01,5.696265101432800293e-01,5.695396065711975098e-01,5.694525837898254395e-01,5.693657398223876953e-01,5.692787170410156250e-01,5.691919922828674316e-01,5.691047310829162598e-01,5.690180063247680664e-01,5.689312219619750977e-01,5.688444375991821289e-01,5.687577128410339355e-01,5.686709880828857422e-01,5.685840845108032227e-01,5.684973597526550293e-01,5.684081315994262695e-01,5.682738423347473145e-01,5.680592060089111328e-01,5.692970752716064453e-01,5.672974586486816406e-01,5.619025230407714844e-01,5.582529902458190918e-01,5.578947663307189941e-01,5.333104133605957031e-01,5.181921720504760742e-01,5.064586997032165527e-01,4.927251338958740234e-01,4.848131239414215088e-01,5.012816786766052246e-01,5.158074498176574707e-01,5.178536772727966309e-01,5.362527370452880859e-01,5.490486025810241699e-01,5.604546666145324707e-01,5.634018182754516602e-01,5.650950074195861816e-01,5.643081068992614746e-01,5.624648332595825195e-01,5.592857599258422852e-01,5.556583404541015625e-01,5.537316203117370605e-01,5.455582141876220703e-01,5.215069651603698730e-01,5.173959136009216309e-01,5.384206771850585938e-01,5.280716419219970703e-01,5.396782755851745605e-01,4.965133368968963623e-01
4.905600547790527344e-01,4.556704163551330566e-01,4.712943434715270996e-01,4.408648014068603516e-01,4.361920356750488281e-01,4.405611753463745117e-01,4.539827406406402588e-01,4.580728113651275635e-01,4.623943567276000977e-01,4.647229313850402832e-01,4.672719240188598633e-01,4.700825810432434082e-01,4.728538990020751953e-01,4.754831492900848389e-01,4.777914285659790039e-01,4.795164465904235840e-01,4.807944297790527344e-01,4.817630350589752197e-01,4.823679625988006592e-01,4.826323390007019043e-01,4.826836884021759033e-01,4.826762080192565918e-01,4.825973808765411377e-01,4.824968874454498291e-01,4.824137389659881592e-01,4.823395609855651855e-01,4.822663366794586182e-01,4.821930229663848877e-01,4.821201562881469727e-01,4.820470213890075684e-01,4.819739758968353271e-01,4.819008111953735352e-01,4.818279147148132324e-01,4.817548096179962158e-01,4.816818535327911377e-01,4.816089570522308350e-01,4.815358221530914307e-01,4.814629554748535156e-01,4.813901484012603760e-01,4.813172519207000732e-01,4.812444448471069336e-01,4.811716675758361816e-01,4.810987412929534912e-01,4.810259640216827393e-01,4.809532165527343750e-01,4.808805584907531738e-01,4.808078408241271973e-01,4.807446897029876709e-01,4.806382060050964355e-01,4.807592630386352539e-01,4.810120165348052979e-01,4.803858995437622070e-01,4.780887961387634277e-01,4.789669215679168701e-01,4.760003983974456787e-01,4.588598608970642090e-01,4.474860727787017822e-01,4.408270716667175293e-01,4.342961609363555908e-01,4.322562813758850098e-01,4.419216811656951904e-01,4.457162916660308838e-01,4.528236389160156250e-01,4.615643024444580078e-01,4.691466987133026123e-01,4.745305478572845459e-01,4.785503447055816650e-01,4.783157706260681152e-01,4.788269400596618652e-01,4.778316020965576172e-01,4.769055545330047607e-01,4.753591418266296387e-01,4.753398299217224121e-01,4.695011377334594727e-01,4.495030045509338379e-01,4.482737481594085693e-01,4.718280136585235596e-01,4.688000977039337158e-01,4.950002431869506836e-01,4.690940976142883301e-01
4.694021940231323242e-01,4.224027991294860840e-01,4.285239577293395996e-01,3.950395584106445312e-01,3.840718567371368408e-01,3.856392204761505127e-01,3.960520625114440918e-01,3.989899158477783203e-01,4.020197093486785889e-01,4.032141268253326416e-01,4.044265151023864746e-01,4.056404232978820801e-01,4.066625237464904785e-01,4.076089262962341309e-01,4.084067046642303467e-01,4.089950919151306152e-01,4.096012413501739502e-01,4.100947678089141846e-01,4.103072583675384521e-01,4.103511869907379150e-01,4.103604853153228760e-01,4.102630019187927246e-01,4.101917147636413574e-01,4.101191759109497070e-01,4.100559949874877930e-01,4.099970459938049316e-01,4.099387824535369873e-01,4.098809361457824707e-01,4.098229110240936279e-01,4.097651541233062744e-01,4.097071588039398193e-01,4.096493721008300781e-01,4.095916152000427246e-01,4.095338582992553711e-01,4.094759821891784668e-01,4.094182252883911133e-01,4.093605279922485352e-01,4.093028604984283447e-01,4.092449843883514404e-01,4.091873764991760254e-01,4.091296195983886719e-01,4.090719223022460938e-01,4.090143442153930664e-01,4.089566767215728760e-01,4.088990092277526855e-01,4.088414907455444336e-01,4.087841510772705078e-01,4.087301492691040039e-01,4.086525440216064453e-01,4.085341393947601318e-01,4.085021615028381348e-01,4.073747992515563965e-01,4.071371853351593018e-01,4.084575772285461426e-01,4.038911163806915283e-01,3.944709300994873047e-01,3.872291445732116699e-01,3.866339921951293945e-01,3.826922774314880371e-01,3.855780959129333496e-01,3.871050179004669189e-01,3.905803561210632324e-01,3.963394463062286377e-01,3.984751105308532715e-01,4.040138721466064453e-01,4.043990969657897949e-01,4.070494771003723145e-01,4.074109494686126709e-01,4.076295495033264160e-01,4.064745306968688965e-01,4.056485891342163086e-01,4.045751392841339111e-01,4.052271246910095215e-01,4.015315771102905273e-01,3.856676816940307617e-01,3.876765966415405273e-01,4.135072827339172363e-01,4.177144765853881836e-01,4.560195803642272949e-01,4.460601806640625000e-01
4.513860940933227539e-01,3.938135504722595215e-01,3.929771184921264648e-01,3.572849333286285400e-01,3.413556814193725586e-01,3.406483829021453857e-01,3.480965495109558105e-01,3.498160839080810547e-01,3.515091538429260254e-01,3.519273400306701660e-01,3.524437546730041504e-01,3.529106080532073975e-01,3.533922135829925537e-01,3.538300395011901855e-01,3.541254997253417969e-01,3.542212247848510742e-01,3.542963266372680664e-01,3.541717827320098877e-01,3.540177047252655029e-01,3.539582490921020508e-01,3.539372086524963379e-01,3.539028465747833252e-01,3.538480401039123535e-01,3.537943959236145020e-01,3.537532687187194824e-01,3.537113368511199951e-01,3.536698222160339355e-01,3.536286354064941406e-01,3.535872101783752441e-01,3.535460233688354492e-01,3.535047769546508789e-01,3.534635305404663086e-01,3.534223437309265137e-01,3.533812165260314941e-01,3.533399105072021484e-01,3.532986342906951904e-01,3.532573580741882324e-01,3.532163202762603760e-01,3.531753122806549072e-01,3.531340360641479492e-01,3.530928790569305420e-01,3.530517816543579102e-01,3.530106544494628906e-01,3.529695272445678711e-01,3.529284596443176270e-01,3.528873324394226074e-01,3.528464436531066895e-01,3.528070449829101562e-01,3.527495265007019043e-01,3.527246117591857910e-01,3.527266979217529297e-01,3.526595234870910645e-01,3.534582853317260742e-01,3.537958860397338867e-01,3.510526418685913086e-01,3.479557633399963379e-01,3.440380096435546875e-01,3.391082286834716797e-01,3.402546048164367676e-01,3.385191559791564941e-01,3.422953486442565918e-01,3.426260650157928467e-01,3.473607301712036133e-01,3.494833707809448242e-01,3.509562611579895020e-01,3.520141541957855225e-01,3.519077599048614502e-01,3.521499037742614746e-01,3.521125912666320801e-01,3.519803881645202637e-01,3.517281413078308105e-01,3.512783050537109375e-01,3.521163761615753174e-01,3.494899868965148926e-01,3.363026678562164307e-01,3.391715288162231445e-01,3.653264641761779785e-01,3.756871819496154785e-01,4.224460124969482422e-01,4.258186221122741699e-01
4.349644184112548828e-01,3.689399957656860352e-01,3.612712621688842773e-01,3.251605331897735596e-01,3.061255216598510742e-01,3.047528266906738281e-01,3.108571171760559082e-01,3.122468590736389160e-01,3.134038448333740234e-01,3.134188652038574219e-01,3.134042024612426758e-01,3.133943676948547363e-01,3.134691417217254639e-01,3.135598897933959961e-01,3.135905265808105469e-01,3.136056363582611084e-01,3.135663270950317383e-01,3.135144114494323730e-01,3.135309815406799316e-01,3.135164082050323486e-01,3.134586215019226074e-01,3.134136199951171875e-01,3.133794963359832764e-01,3.133507370948791504e-01,3.133198618888854980e-01,3.132897913455963135e-01,3.132598400115966797e-01,3.132297992706298828e-01,3.131998777389526367e-01,3.131698966026306152e-01,3.131400346755981445e-01,3.131099641323089600e-01,3.130798935890197754e-01,3.130501806735992432e-01,3.130201697349548340e-01,3.129902780055999756e-01,3.129604458808898926e-01,3.129305541515350342e-01,3.129006028175354004e-01,3.128707408905029297e-01,3.128409385681152344e-01,3.128110170364379883e-01,3.127810359001159668e-01,3.127514123916625977e-01,3.127214908599853516e-01,3.126915693283081055e-01,3.126616775989532471e-01,3.126299381256103516e-01,3.125932216644287109e-01,3.124912381172180176e-01,3.124654293060302734e-01,3.125624060630798340e-01,3.127997517585754395e-01,3.121085166931152344e-01,3.115443587303161621e-01,3.101777434349060059e-01,3.094628453254699707e-01,3.073533773422241211e-01,3.069975078105926514e-01,3.069229722023010254e-01,3.077009022235870361e-01,3.086624145507812500e-01,3.105609118938446045e-01,3.107362985610961914e-01,3.105354309082031250e-01,3.120230436325073242e-01,3.117982745170593262e-01,3.122380971908569336e-01,3.119789958000183105e-01,3.118833899497985840e-01,3.117195367813110352e-01,3.115096092224121094e-01,3.122528791427612305e-01,3.104232549667358398e-01,2.992315292358398438e-01,3.025909960269927979e-01,3.288240134716033936e-01,3.441903591156005859e-01,3.968298733234405518e-01,4.101032912731170654e-01
4.212112426757812500e-01,3.491272032260894775e-01,3.364073038101196289e-01,2.999939322471618652e-01,2.791700661182403564e-01,2.769936621189117432e-01,2.819479107856750488e-01,2.831133306026458740e-01,2.839970588684082031e-01,2.838876247406005859e-01,2.838476002216339111e-01,2.838451862335205078e-01,2.838286161422729492e-01,2.838110923767089844e-01,2.837967276573181152e-01,2.837589979171752930e-01,2.837193608283996582e-01,2.836899161338806152e-01,2.836648821830749512e-01,2.836304008960723877e-01,2.836033701896667480e-01,2.835814952850341797e-01,2.835591733455657959e-01,2.835366725921630859e-01,2.835154235363006592e-01,2.834937572479248047e-01,2.834721207618713379e-01,2.834500968456268311e-01,2.834285199642181396e-01,2.834068536758422852e-01,2.833849191665649414e-01,2.833632230758666992e-01,2.833415865898132324e-01,2.833199203014373779e-01,2.832982540130615234e-01,2.832764983177185059e-01,2.832549214363098145e-01,2.832331657409667969e-01,2.832112908363342285e-01,2.831897735595703125e-01,2.831683754920959473e-01,2.831466495990753174e-01,2.831247746944427490e-01,2.831031382083892822e-01,2.830815613269805908e-01,2.830599546432495117e-01,2.830383479595184326e-01,2.830197513103485107e-01,2.829970419406890869e-01,2.829861640930175781e-01,2.828961610794067383e-01,2.830755114555358887e-01,2.831360101699829102e-01,2.827348709106445312e-01,2.827716171741485596e-01,2.828895449638366699e-01,2.810947597026824951e-01,2.801656424999237061e-01,2.808387875556945801e-01,2.808973193168640137e-01,2.819119989871978760e-01,2.826246619224548340e-01,2.820002436637878418e-01,2.818564176559448242e-01,2.824553251266479492e-01,2.826173305511474609e-01,2.825901806354522705e-01,2.826997637748718262e-01,2.826031446456909180e-01,2.825869917869567871e-01,2.825646400451660156e-01,2.824549973011016846e-01,2.830952405929565430e-01,2.817845940589904785e-01,2.718615829944610596e-01,2.751359045505523682e-01,3.007395267486572266e-01,3.195629119873046875e-01,3.762977719306945801e-01,3.975791931152343750e-01
4.091764390468597412e-01,3.324915766716003418e-01,3.159797787666320801e-01,2.799504995346069336e-01,2.584238350391387939e-01,2.558327913284301758e-01,2.600268125534057617e-01,2.610200941562652588e-01,2.617932558059692383e-01,2.617079913616180420e-01,2.616673409938812256e-01,2.616449594497680664e-01,2.616253495216369629e-01,2.616093456745147705e-01,2.615931034088134766e-01,2.615757584571838379e-01,2.615597248077392578e-01,2.615444660186767578e-01,2.615271210670471191e-01,2.615094184875488281e-01,2.614930868148803711e-01,2.614774107933044434e-01,2.614612579345703125e-01,2.614445686340332031e-01,2.614284455776214600e-01,2.614118456840515137e-01,2.613952159881591797e-01,2.613787949085235596e-01,2.613621354103088379e-01,2.613456845283508301e-01,2.613291740417480469e-01,2.613127827644348145e-01,2.612961530685424805e-01,2.612796425819396973e-01,2.612631916999816895e-01,2.612465918064117432e-01,2.612299025058746338e-01,2.612135410308837891e-01,2.611970007419586182e-01,2.611805498600006104e-01,2.611641883850097656e-01,2.611474692821502686e-01,2.611310184001922607e-01,2.611148357391357422e-01,2.610982060432434082e-01,2.610817849636077881e-01,2.610651850700378418e-01,2.610489130020141602e-01,2.610355317592620850e-01,2.610003352165222168e-01,2.610293626785278320e-01,2.609814703464508057e-01,2.608259320259094238e-01,2.608628273010253906e-01,2.611733376979827881e-01,2.608375549316406250e-01,2.607296705245971680e-01,2.599602639675140381e-01,2.597715854644775391e-01,2.601715922355651855e-01,2.605866193771362305e-01,2.607335746288299561e-01,2.605728507041931152e-01,2.608853876590728760e-01,2.609257996082305908e-01,2.606354653835296631e-01,2.607061266899108887e-01,2.606714963912963867e-01,2.607377767562866211e-01,2.606941461563110352e-01,2.606784999370574951e-01,2.605950832366943359e-01,2.611134946346282959e-01,2.600674927234649658e-01,2.511699497699737549e-01,2.544479370117187500e-01,2.794594466686248779e-01,3.009950220584869385e-01,3.605846166610717773e-01,3.876328170299530029e-01
3.991101384162902832e-01,3.188920617103576660e-01,2.997273504734039307e-01,2.643883228302001953e-01,2.423052191734313965e-01,2.394177317619323730e-01,2.430780231952667236e-01,2.439684271812438965e-01,2.446596324443817139e-01,2.445963025093078613e-01,2.445637881755828857e-01,2.445487082004547119e-01,2.445341348648071289e-01,2.445202171802520752e-01,2.445056140422821045e-01,2.444912791252136230e-01,2.444775700569152832e-01,2.444642484188079834e-01,2.444506585597991943e-01,2.444374263286590576e-01,2.444244921207427979e-01,2.444117367267608643e-01,2.443988919258117676e-01,2.443861365318298340e-01,2.443732023239135742e-01,2.443601787090301514e-01,2.443470656871795654e-01,2.443343997001647949e-01,2.443214058876037598e-01,2.443084418773651123e-01,2.442955076694488525e-01,2.442824840545654297e-01,2.442696690559387207e-01,2.442566454410552979e-01,2.442437708377838135e-01,2.442308664321899414e-01,2.442179024219512939e-01,2.442048788070678711e-01,2.441919147968292236e-01,2.441790401935577393e-01,2.441663444042205811e-01,2.441532015800476074e-01,2.441404163837432861e-01,2.441274225711822510e-01,2.441146671772003174e-01,2.441016733646392822e-01,2.440887987613677979e-01,2.440761923789978027e-01,2.440639734268188477e-01,2.440537512302398682e-01,2.440288662910461426e-01,2.440236806869506836e-01,2.440069019794464111e-01,2.439588010311126709e-01,2.439647316932678223e-01,2.441122233867645264e-01,2.437950074672698975e-01,2.437523007392883301e-01,2.436472773551940918e-01,2.437631189823150635e-01,2.437902688980102539e-01,2.438075840473175049e-01,2.438647150993347168e-01,2.438308894634246826e-01,2.438382804393768311e-01,2.439039051532745361e-01,2.438742220401763916e-01,2.438374459743499756e-01,2.437899112701416016e-01,2.437840700149536133e-01,2.437803447246551514e-01,2.437140047550201416e-01,2.441385686397552490e-01,2.433030009269714355e-01,2.352244257926940918e-01,2.385357022285461426e-01,2.629330158233642578e-01,2.863671183586120605e-01,3.479802012443542480e-01,3.796821236610412598e-01
3.908089101314544678e-01,3.077782392501831055e-01,2.866277098655700684e-01,2.519682049751281738e-01,2.295323014259338379e-01,2.264048755168914795e-01,2.296709716320037842e-01,2.304609119892120361e-01,2.310826182365417480e-01,2.310279309749603271e-01,2.310008704662322998e-01,2.309901416301727295e-01,2.309796810150146484e-01,2.309694588184356689e-01,2.309589684009552002e-01,2.309488356113433838e-01,2.309385836124420166e-01,2.309279441833496094e-01,2.309176027774810791e-01,2.309068739414215088e-01,2.308968007564544678e-01,2.308862209320068359e-01,2.308759093284606934e-01,2.308655083179473877e-01,2.308549284934997559e-01,2.308447659015655518e-01,2.308343350887298584e-01,2.308238446712493896e-01,2.308134436607360840e-01,2.308031022548675537e-01,2.307925820350646973e-01,2.307822704315185547e-01,2.307719886302947998e-01,2.307615578174591064e-01,2.307510673999786377e-01,2.307407855987548828e-01,2.307304143905639648e-01,2.307199239730834961e-01,2.307095527648925781e-01,2.306993007659912109e-01,2.306889891624450684e-01,2.306786477565765381e-01,2.306680083274841309e-01,2.306577265262603760e-01,2.306475043296813965e-01,2.306371033191680908e-01,2.306268215179443359e-01,2.306169271469116211e-01,2.306066453456878662e-01,2.305949926376342773e-01,2.305879592895507812e-01,2.305744588375091553e-01,2.305577695369720459e-01,2.305567562580108643e-01,2.305803298950195312e-01,2.305511534214019775e-01,2.305523753166198730e-01,2.304741144180297852e-01,2.304582595825195312e-01,2.304247915744781494e-01,2.304292023181915283e-01,2.304407060146331787e-01,2.304615080356597900e-01,2.304635941982269287e-01,2.304607629776000977e-01,2.304126322269439697e-01,2.304095625877380371e-01,2.304179370403289795e-01,2.304067909717559814e-01,2.303920984268188477e-01,2.303757369518280029e-01,2.303248047828674316e-01,2.306804358959197998e-01,2.300044000148773193e-01,2.225893437862396240e-01,2.259127497673034668e-01,2.498078346252441406e-01,2.745913863182067871e-01,3.377269506454467773e-01,3.731983006000518799e-01
3.838100135326385498e-01,2.985775470733642578e-01,2.758292555809020996e-01,2.418448328971862793e-01,2.191897630691528320e-01,2.158572077751159668e-01,2.188124954700469971e-01,2.195139825344085693e-01,2.200802564620971680e-01,2.200326025485992432e-01,2.200095951557159424e-01,2.200010418891906738e-01,2.199925482273101807e-01,2.199841439723968506e-01,2.199757397174835205e-01,2.199669778347015381e-01,2.199586033821105957e-01,2.199500203132629395e-01,2.199412584304809570e-01,2.199329435825347900e-01,2.199242711067199707e-01,2.199158370494842529e-01,2.199071347713470459e-01,2.198986709117889404e-01,2.198901474475860596e-01,2.198817431926727295e-01,2.198730409145355225e-01,2.198646962642669678e-01,2.198562324047088623e-01,2.198476493358612061e-01,2.198392450809478760e-01,2.198308110237121582e-01,2.198220491409301758e-01,2.198135256767272949e-01,2.198050618171691895e-01,2.197964489459991455e-01,2.197879552841186523e-01,2.197794318199157715e-01,2.197709679603576660e-01,2.197624146938323975e-01,2.197539806365966797e-01,2.197455763816833496e-01,2.197370231151580811e-01,2.197286188602447510e-01,2.197200655937194824e-01,2.197115123271942139e-01,2.197028696537017822e-01,2.196946144104003906e-01,2.196862697601318359e-01,2.196777164936065674e-01,2.196676731109619141e-01,2.196597158908843994e-01,2.196505367755889893e-01,2.196402549743652344e-01,2.196373939514160156e-01,2.196279466152191162e-01,2.196254134178161621e-01,2.196117341518402100e-01,2.196172475814819336e-01,2.195891439914703369e-01,2.195739746093750000e-01,2.195532321929931641e-01,2.195639610290527344e-01,2.195604145526885986e-01,2.195530831813812256e-01,2.195400893688201904e-01,2.195354104042053223e-01,2.195239067077636719e-01,2.195193171501159668e-01,2.195079326629638672e-01,2.194995880126953125e-01,2.194539606571197510e-01,2.197591364383697510e-01,2.192101478576660156e-01,2.123413085937500000e-01,2.156702280044555664e-01,2.391540706157684326e-01,2.649242877960205078e-01,3.292266726493835449e-01,3.678061962127685547e-01
3.778370022773742676e-01,2.908436655998229980e-01,2.668066322803497314e-01,2.334582209587097168e-01,2.106579840183258057e-01,2.071482837200164795e-01,2.098518610000610352e-01,2.104756236076354980e-01,2.109929621219635010e-01,2.109511494636535645e-01,2.109311521053314209e-01,2.109239697456359863e-01,2.109168171882629395e-01,2.109098732471466064e-01,2.109025120735168457e-01,2.108956277370452881e-01,2.108884453773498535e-01,2.108813822269439697e-01,2.108741998672485352e-01,2.108672261238098145e-01,2.108599841594696045e-01,2.108527421951293945e-01,2.108457088470458984e-01,2.108385562896728516e-01,2.108316421508789062e-01,2.108244001865386963e-01,2.108172774314880371e-01,2.108102738857269287e-01,2.108032405376434326e-01,2.107959389686584473e-01,2.107890248298645020e-01,2.107819318771362305e-01,2.107747793197631836e-01,2.107675671577453613e-01,2.107606232166290283e-01,2.107534110546112061e-01,2.107463777065277100e-01,2.107393443584442139e-01,2.107322514057159424e-01,2.107253074645996094e-01,2.107181847095489502e-01,2.107111513614654541e-01,2.107038497924804688e-01,2.106969356536865234e-01,2.106899023056030273e-01,2.106827199459075928e-01,2.106756865978240967e-01,2.106687426567077637e-01,2.106615304946899414e-01,2.106543481349945068e-01,2.106472253799438477e-01,2.106398642063140869e-01,2.106326818466186523e-01,2.106254398822784424e-01,2.106181681156158447e-01,2.106129229068756104e-01,2.106049060821533203e-01,2.105984389781951904e-01,2.105921208858489990e-01,2.105871438980102539e-01,2.105785608291625977e-01,2.105700969696044922e-01,2.105627954006195068e-01,2.105570733547210693e-01,2.105491161346435547e-01,2.105417847633361816e-01,2.105336189270019531e-01,2.105269432067871094e-01,2.105199396610260010e-01,2.105133831501007080e-01,2.105054855346679688e-01,2.104666531085968018e-01,2.107330560684204102e-01,2.102858126163482666e-01,2.038703858852386475e-01,2.072004675865173340e-01,2.303355932235717773e-01,2.568483650684356689e-01,3.220595717430114746e-01,3.632438778877258301e-01
3.726798892021179199e-01,2.842505574226379395e-01,2.591610550880432129e-01,2.263987362384796143e-01,2.035065293312072754e-01,1.998415887355804443e-01,2.023388743400573730e-01,2.028939723968505859e-01,2.033701837062835693e-01,2.033329606056213379e-01,2.033151686191558838e-01,2.033092379570007324e-01,2.033033668994903564e-01,2.032973468303680420e-01,2.032912969589233398e-01,2.032853364944458008e-01,2.032792568206787109e-01,2.032733261585235596e-01,2.032672166824340820e-01,2.032611966133117676e-01,2.032552659511566162e-01,2.032490372657775879e-01,2.032431066036224365e-01,2.032371461391448975e-01,2.032311260700225830e-01,2.032252252101898193e-01,2.032190859317779541e-01,2.032132744789123535e-01,2.032073736190795898e-01,2.032014429569244385e-01,2.031951248645782471e-01,2.031891942024230957e-01,2.031830549240112305e-01,2.031772732734680176e-01,2.031714320182800293e-01,2.031650543212890625e-01,2.031592130661010742e-01,2.031531631946563721e-01,2.031474113464355469e-01,2.031414210796356201e-01,2.031352818012237549e-01,2.031294703483581543e-01,2.031232714653015137e-01,2.031173408031463623e-01,2.031114399433135986e-01,2.031054198741912842e-01,2.030995786190032959e-01,2.030934691429138184e-01,2.030875682830810547e-01,2.030815184116363525e-01,2.030755579471588135e-01,2.030694186687469482e-01,2.030635178089141846e-01,2.030575871467590332e-01,2.030517458915710449e-01,2.030456662178039551e-01,2.030398547649383545e-01,2.030338346958160400e-01,2.030277550220489502e-01,2.030217051506042480e-01,2.030157148838043213e-01,2.030098438262939453e-01,2.030040323734283447e-01,2.029976844787597656e-01,2.029919326305389404e-01,2.029860317707061768e-01,2.029801905155181885e-01,2.029741108417510986e-01,2.029681503772735596e-01,2.029619812965393066e-01,2.029553353786468506e-01,2.029217183589935303e-01,2.031571567058563232e-01,2.027928531169891357e-01,1.967591643333435059e-01,2.000870704650878906e-01,2.229212224483489990e-01,2.500034570693969727e-01,3.159330189228057861e-01,3.593323230743408203e-01
3.681833148002624512e-01,2.785649001598358154e-01,2.526057064533233643e-01,2.203789055347442627e-01,1.974309086799621582e-01,1.936295926570892334e-01,1.959547400474548340e-01,1.964496970176696777e-01,1.968904137611389160e-01,1.968570053577423096e-01,1.968415081501007080e-01,1.968363225460052490e-01,1.968310773372650146e-01,1.968259811401367188e-01,1.968208253383636475e-01,1.968156099319458008e-01,1.968106329441070557e-01,1.968054771423339844e-01,1.968003809452056885e-01,1.967951059341430664e-01,1.967898011207580566e-01,1.967849731445312500e-01,1.967797875404357910e-01,1.967746615409851074e-01,1.967693269252777100e-01,1.967643797397613525e-01,1.967591643333435059e-01,1.967539787292480469e-01,1.967489421367645264e-01,1.967439651489257812e-01,1.967386007308959961e-01,1.967335641384124756e-01,1.967284679412841797e-01,1.967233419418334961e-01,1.967180669307708740e-01,1.967131197452545166e-01,1.967079639434814453e-01,1.967028379440307617e-01,1.966975331306457520e-01,1.966924965381622314e-01,1.966875195503234863e-01,1.966822147369384766e-01,1.966772675514221191e-01,1.966720521450042725e-01,1.966670155525207520e-01,1.966618597507476807e-01,1.966567337512969971e-01,1.966516375541687012e-01,1.966466307640075684e-01,1.966414153575897217e-01,1.966363191604614258e-01,1.966313123703002930e-01,1.966262161731719971e-01,1.966209113597869873e-01,1.966157555580139160e-01,1.966107487678527832e-01,1.966055631637573242e-01,1.966004073619842529e-01,1.965953707695007324e-01,1.965903043746948242e-01,1.965851187705993652e-01,1.965800523757934570e-01,1.965747773647308350e-01,1.965698301792144775e-01,1.965647041797637939e-01,1.965595781803131104e-01,1.965544819831848145e-01,1.965494453907012939e-01,1.965443193912506104e-01,1.965392827987670898e-01,1.965332925319671631e-01,1.965036392211914062e-01,1.967144608497619629e-01,1.964180767536163330e-01,1.907095611095428467e-01,1.940339207649230957e-01,2.166039347648620605e-01,2.441300153732299805e-01,3.106347918510437012e-01,3.559400737285614014e-01
3.642285764217376709e-01,2.736124396324157715e-01,2.469260096549987793e-01,2.151876091957092285e-01,1.922087669372558594e-01,1.882871091365814209e-01,1.904670000076293945e-01,1.909089088439941406e-01,1.913189291954040527e-01,1.912887394428253174e-01,1.912748217582702637e-01,1.912700831890106201e-01,1.912659108638763428e-01,1.912615299224853516e-01,1.912569403648376465e-01,1.912526786327362061e-01,1.912482380867004395e-01,1.912436485290527344e-01,1.912392377853393555e-01,1.912347674369812012e-01,1.912303864955902100e-01,1.912258267402648926e-01,1.912212669849395752e-01,1.912170648574829102e-01,1.912124454975128174e-01,1.912082731723785400e-01,1.912037432193756104e-01,1.911993920803070068e-01,1.911949813365936279e-01,1.911903023719787598e-01,1.911860406398773193e-01,1.911817193031311035e-01,1.911770105361938477e-01,1.911728382110595703e-01,1.911682486534118652e-01,1.911638677120208740e-01,1.911594867706298828e-01,1.911548078060150146e-01,1.911505758762359619e-01,1.911461651325225830e-01,1.911417543888092041e-01,1.911372542381286621e-01,1.911329329013824463e-01,1.911283731460571289e-01,1.911239922046661377e-01,1.911196112632751465e-01,1.911151707172393799e-01,1.911107003688812256e-01,1.911064684391021729e-01,1.911019086837768555e-01,1.910973787307739258e-01,1.910929083824157715e-01,1.910887658596038818e-01,1.910840272903442383e-01,1.910797655582427979e-01,1.910753846168518066e-01,1.910709738731384277e-01,1.910664141178131104e-01,1.910620927810668945e-01,1.910575628280639648e-01,1.910533010959625244e-01,1.910488307476043701e-01,1.910444200038909912e-01,1.910399496555328369e-01,1.910356879234313965e-01,1.910310983657836914e-01,1.910267174243927002e-01,1.910223364830017090e-01,1.910178959369659424e-01,1.910134851932525635e-01,1.910083889961242676e-01,1.909822225570678711e-01,1.911723613739013672e-01,1.909326612949371338e-01,1.855036914348602295e-01,1.888233721256256104e-01,2.111596465110778809e-01,2.390359938144683838e-01,3.060068488121032715e-01,3.529698848724365234e-01
3.607219755649566650e-01,2.692636251449584961e-01,2.419600486755371094e-01,2.106667757034301758e-01,1.876749992370605469e-01,1.836439371109008789e-01,1.856964826583862305e-01,1.860912442207336426e-01,1.864746510982513428e-01,1.864474713802337646e-01,1.864347457885742188e-01,1.864306032657623291e-01,1.864268779754638672e-01,1.864229440689086914e-01,1.864191293716430664e-01,1.864151954650878906e-01,1.864113509654998779e-01,1.864076852798461914e-01,1.864037513732910156e-01,1.863997876644134521e-01,1.863958239555358887e-01,1.863920688629150391e-01,1.863882541656494141e-01,1.863843500614166260e-01,1.863803267478942871e-01,1.863766014575958252e-01,1.863727569580078125e-01,1.863686740398406982e-01,1.863647997379302979e-01,1.863612234592437744e-01,1.863570809364318848e-01,1.863533556461334229e-01,1.863494217395782471e-01,1.863456666469573975e-01,1.863416433334350586e-01,1.863378286361694336e-01,1.863338649272918701e-01,1.863300800323486328e-01,1.863261759281158447e-01,1.863222420215606689e-01,1.863186359405517578e-01,1.863146126270294189e-01,1.863106489181518555e-01,1.863068640232086182e-01,1.863029301166534424e-01,1.862990856170654297e-01,1.862952113151550293e-01,1.862914860248565674e-01,1.862874627113342285e-01,1.862837672233581543e-01,1.862799227237701416e-01,1.862760186195373535e-01,1.862722337245941162e-01,1.862681806087493896e-01,1.862643361091613770e-01,1.862605512142181396e-01,1.862566769123077393e-01,1.862528622150421143e-01,1.862490475177764893e-01,1.862451136112213135e-01,1.862412691116333008e-01,1.862373948097229004e-01,1.862335205078125000e-01,1.862295269966125488e-01,1.862259507179260254e-01,1.862219572067260742e-01,1.862181425094604492e-01,1.862144768238067627e-01,1.862104833126068115e-01,1.862063109874725342e-01,1.862017512321472168e-01,1.861787438392639160e-01,1.863524615764617920e-01,1.861602067947387695e-01,1.809754073619842529e-01,1.842899620532989502e-01,2.064187228679656982e-01,2.345698773860931396e-01,3.019186854362487793e-01,3.503374457359313965e-01
3.576371073722839355e-01,2.654600739479064941e-01,2.376327812671661377e-01,2.067413628101348877e-01,1.837368309497833252e-01,1.796098351478576660e-01,1.815576851367950439e-01,1.819109916687011719e-01,1.822713911533355713e-01,1.822461485862731934e-01,1.822342276573181152e-01,1.822308301925659180e-01,1.822272837162017822e-01,1.822239160537719727e-01,1.822205483913421631e-01,1.822171211242675781e-01,1.822136342525482178e-01,1.822102367877960205e-01,1.822068095207214355e-01,1.822033822536468506e-01,1.822001039981842041e-01,1.821967065334320068e-01,1.821931600570678711e-01,1.821899712085723877e-01,1.821867525577545166e-01,1.821829676628112793e-01,1.821796000003814697e-01,1.821762025356292725e-01,1.821728646755218506e-01,1.821693480014801025e-01,1.821659803390502930e-01,1.821626126766204834e-01,1.821590363979339600e-01,1.821557879447937012e-01,1.821524202823638916e-01,1.821489632129669189e-01,1.821453869342803955e-01,1.821421086788177490e-01,1.821385622024536133e-01,1.821353137493133545e-01,1.821319758892059326e-01,1.821285486221313477e-01,1.821249723434448242e-01,1.821217536926269531e-01,1.821182370185852051e-01,1.821149289608001709e-01,1.821115911006927490e-01,1.821081340312957764e-01,1.821048855781555176e-01,1.821013391017913818e-01,1.820980906486511230e-01,1.820946931838989258e-01,1.820911467075347900e-01,1.820879280567169189e-01,1.820844113826751709e-01,1.820810139179229736e-01,1.820775270462036133e-01,1.820741593837738037e-01,1.820708513259887695e-01,1.820673644542694092e-01,1.820638477802276611e-01,1.820605397224426270e-01,1.820572018623352051e-01,1.820538043975830078e-01,1.820504665374755859e-01,1.820469796657562256e-01,1.820437014102935791e-01,1.820402145385742188e-01,1.820369064807891846e-01,1.820335090160369873e-01,1.820294559001922607e-01,1.820081770420074463e-01,1.821671128273010254e-01,1.820153295993804932e-01,1.770402491092681885e-01,1.803427636623382568e-01,2.022822797298431396e-01,2.306686639785766602e-01,2.983110249042510986e-01,3.479940295219421387e-01
3.552455306053161621e-01,2.622937560081481934e-01,2.341426312923431396e-01,2.035852968692779541e-01,1.805843710899353027e-01,1.763865649700164795e-01,1.782716810703277588e-01,1.786167919635772705e-01,1.789572536945343018e-01,1.789327561855316162e-01,1.789220869541168213e-01,1.789188981056213379e-01,1.789157688617706299e-01,1.789128780364990234e-01,1.789098680019378662e-01,1.789068281650543213e-01,1.789037585258483887e-01,1.789007782936096191e-01,1.788978278636932373e-01,1.788947284221649170e-01,1.788916587829589844e-01,1.788885593414306641e-01,1.788855195045471191e-01,1.788825690746307373e-01,1.788795590400695801e-01,1.788764894008636475e-01,1.788735091686248779e-01,1.788704097270965576e-01,1.788673400878906250e-01,1.788643598556518555e-01,1.788612604141235352e-01,1.788581609725952148e-01,1.788550913333892822e-01,1.788522303104400635e-01,1.788491606712341309e-01,1.788459122180938721e-01,1.788430213928222656e-01,1.788399219512939453e-01,1.788370907306671143e-01,1.788341104984283447e-01,1.788311004638671875e-01,1.788278520107269287e-01,1.788249909877777100e-01,1.788218021392822266e-01,1.788187623023986816e-01,1.788157522678375244e-01,1.788129210472106934e-01,1.788097023963928223e-01,1.788066923618316650e-01,1.788037121295928955e-01,1.788007616996765137e-01,1.787976324558258057e-01,1.787946522235870361e-01,1.787915229797363281e-01,1.787886619567871094e-01,1.787856817245483398e-01,1.787825524806976318e-01,1.787795722484588623e-01,1.787765622138977051e-01,1.787735223770141602e-01,1.787705123424530029e-01,1.787673234939575195e-01,1.787644624710083008e-01,1.787614226341247559e-01,1.787582933902740479e-01,1.787553131580352783e-01,1.787523329257965088e-01,1.787493228912353516e-01,1.787462830543518066e-01,1.787431836128234863e-01,1.787394583225250244e-01,1.787205338478088379e-01,1.788684725761413574e-01,1.787451207637786865e-01,1.739439666271209717e-01,1.772519648075103760e-01,1.989186704158782959e-01,2.273615002632141113e-01,2.952044308185577393e-01,3.462705910205841064e-01
3.522578477859497070e-01,2.585258185863494873e-01,2.300030887126922607e-01,1.997260749340057373e-01,1.766575872898101807e-01,1.722867786884307861e-01,1.739263832569122314e-01,1.741947829723358154e-01,1.744945049285888672e-01,1.744745075702667236e-01,1.744648516178131104e-01,1.744621396064758301e-01,1.744595468044281006e-01,1.744568049907684326e-01,1.744542717933654785e-01,1.744514703750610352e-01,1.744490861892700195e-01,1.744463145732879639e-01,1.744433939456939697e-01,1.744410991668701172e-01,1.744382381439208984e-01,1.744356453418731689e-01,1.744329929351806641e-01,1.744303107261657715e-01,1.744277477264404297e-01,1.744250059127807617e-01,1.744223535060882568e-01,1.744196712970733643e-01,1.744168400764465332e-01,1.744143366813659668e-01,1.744118332862854004e-01,1.744090020656585693e-01,1.744063496589660645e-01,1.744036972522735596e-01,1.744010150432586670e-01,1.743983626365661621e-01,1.743959486484527588e-01,1.743930578231811523e-01,1.743905246257781982e-01,1.743879616260528564e-01,1.743852794170379639e-01,1.743825972080230713e-01,1.743796765804290771e-01,1.743772923946380615e-01,1.743745803833007812e-01,1.743719577789306641e-01,1.743693649768829346e-01,1.743665635585784912e-01,1.743639111518859863e-01,1.743611991405487061e-01,1.743586063385009766e-01,1.743558645248413086e-01,1.743532121181488037e-01,1.743507087230682373e-01,1.743480265140533447e-01,1.743453741073608398e-01,1.743427813053131104e-01,1.743402183055877686e-01,1.743374466896057129e-01,1.743347942829132080e-01,1.743320822715759277e-01,1.743294298648834229e-01,1.743267774581909180e-01,1.743242144584655762e-01,1.743215918540954590e-01,1.743189096450805664e-01,1.743162870407104492e-01,1.743136346340179443e-01,1.743108928203582764e-01,1.743083298206329346e-01,1.743049919605255127e-01,1.742872595787048340e-01,1.744301319122314453e-01,1.743084788322448730e-01,1.696799099445343018e-01,1.730750501155853271e-01,1.948006749153137207e-01,2.234538495540618896e-01,2.916890382766723633e-01,3.432702124118804932e-01
