5.757635235786437988e-01,5.904917120933532715e-01,6.338619589805603027e-01,6.274536848068237305e-01,6.458170413970947266e-01,6.684278845787048340e-01,7.070233821868896484e-01,7.298148274421691895e-01,7.524275183677673340e-01,7.728568315505981445e-01,7.932811975479125977e-01,8.114491701126098633e-01,8.284856081008911133e-01,8.422829508781433105e-01,8.558297753334045410e-01,8.657025098800659180e-01,8.726385831832885742e-01,8.775066137313842773e-01,8.805844783782958984e-01,8.830821514129638672e-01,8.842673301696777344e-01,8.850157260894775391e-01,8.853498697280883789e-01,8.853969573974609375e-01,8.854047060012817383e-01,8.854037523269653320e-01,8.854033946990966797e-01,8.854033946990966797e-01,8.854033946990966797e-01,8.854033946990966797e-01,8.854033946990966797e-01,8.854033946990966797e-01,8.854033946990966797e-01,8.854033946990966797e-01,8.854033946990966797e-01,8.854033946990966797e-01,8.854033946990966797e-01,8.854033946990966797e-01,8.854033946990966797e-01,8.854033946990966797e-01,8.854033946990966797e-01,8.854033946990966797e-01,8.854033946990966797e-01,8.853963613510131836e-01,8.854280114173889160e-01,8.854568004608154297e-01,8.859864473342895508e-01,8.848444223403930664e-01,8.797467947006225586e-01,8.675150275230407715e-01,8.531415462493896484e-01,8.333816528320312500e-01,8.017376661300659180e-01,7.592899799346923828e-01,6.834277510643005371e-01,5.945376753807067871e-01,5.419614911079406738e-01,4.953230023384094238e-01,4.544604718685150146e-01,4.311581850051879883e-01,4.360201656818389893e-01,4.619892239570617676e-01,4.896119534969329834e-01,5.414161682128906250e-01,5.688674449920654297e-01,6.135390400886535645e-01,6.893761157989501953e-01,7.462963461875915527e-01,7.958421707153320312e-01,8.197890520095825195e-01,8.365286588668823242e-01,8.376945257186889648e-01,8.356593847274780273e-01,8.299974203109741211e-01,7.981018424034118652e-01,7.730047702789306641e-01,7.667360901832580566e-01,7.435446977615356445e-01,6.945965290069580078e-01,5.936860442161560059e-01
5.853816270828247070e-01,6.091370582580566406e-01,6.506116390228271484e-01,6.513591408729553223e-01,6.737940907478332520e-01,6.968524456024169922e-01,7.318607568740844727e-01,7.532169818878173828e-01,7.746884822845458984e-01,7.934688925743103027e-01,8.120058774948120117e-01,8.292919397354125977e-01,8.436642885208129883e-01,8.571949601173400879e-01,8.684949874877929688e-01,8.787726163864135742e-01,8.858878612518310547e-01,8.903839588165283203e-01,8.931913375854492188e-01,8.950231075286865234e-01,8.964558839797973633e-01,8.971030712127685547e-01,8.973983526229858398e-01,8.974739909172058105e-01,8.974814414978027344e-01,8.974800109863281250e-01,8.974796533584594727e-01,8.974796533584594727e-01,8.974796533584594727e-01,8.974796533584594727e-01,8.974796533584594727e-01,8.974796533584594727e-01,8.974796533584594727e-01,8.974796533584594727e-01,8.974796533584594727e-01,8.974796533584594727e-01,8.974796533584594727e-01,8.974796533584594727e-01,8.974796533584594727e-01,8.974796533584594727e-01,8.974796533584594727e-01,8.974796533584594727e-01,8.974796533584594727e-01,8.974805474281311035e-01,8.975011110305786133e-01,8.976483941078186035e-01,8.984673023223876953e-01,8.959759473800659180e-01,8.910930752754211426e-01,8.811980485916137695e-01,8.666083812713623047e-01,8.518778085708618164e-01,8.204230666160583496e-01,7.758013606071472168e-01,6.774997711181640625e-01,6.194274425506591797e-01,5.577319264411926270e-01,5.139155387878417969e-01,4.704735279083251953e-01,4.486694931983947754e-01,4.427093565464019775e-01,4.561548531055450439e-01,4.893827736377716064e-01,5.405054092407226562e-01,5.832006931304931641e-01,6.283140182495117188e-01,6.961746215820312500e-01,7.643131017684936523e-01,8.114819526672363281e-01,8.348801136016845703e-01,8.487585186958312988e-01,8.511421680450439453e-01,8.526292443275451660e-01,8.444745540618896484e-01,8.178697824478149414e-01,7.964017391204833984e-01,7.863538265228271484e-01,7.585655450820922852e-01,7.067840099334716797e-01,6.079161763191223145e-01
5.859885215759277344e-01,6.085688471794128418e-01,6.532136797904968262e-01,6.542290449142456055e-01,6.774966716766357422e-01,7.013376355171203613e-01,7.378500103950500488e-01,7.591884136199951172e-01,7.801090478897094727e-01,7.990734577178955078e-01,8.174579143524169922e-01,8.348021507263183594e-01,8.496578931808471680e-01,8.628393411636352539e-01,8.746949434280395508e-01,8.841697573661804199e-01,8.913396000862121582e-01,8.960802555084228516e-01,8.991934657096862793e-01,9.009399414062500000e-01,9.020606279373168945e-01,9.028347730636596680e-01,9.030658006668090820e-01,9.031409025192260742e-01,9.031517505645751953e-01,9.031503200531005859e-01,9.031499028205871582e-01,9.031499028205871582e-01,9.031499028205871582e-01,9.031499028205871582e-01,9.031499028205871582e-01,9.031499028205871582e-01,9.031499028205871582e-01,9.031499028205871582e-01,9.031499028205871582e-01,9.031499028205871582e-01,9.031499028205871582e-01,9.031499028205871582e-01,9.031499028205871582e-01,9.031499028205871582e-01,9.031499028205871582e-01,9.031499028205871582e-01,9.031499028205871582e-01,9.031557440757751465e-01,9.031620025634765625e-01,9.035406112670898438e-01,9.036297798156738281e-01,9.022338986396789551e-01,8.964793086051940918e-01,8.881554007530212402e-01,8.767108917236328125e-01,8.613799810409545898e-01,8.374382257461547852e-01,7.753356695175170898e-01,6.913828849792480469e-01,6.146200895309448242e-01,5.589032173156738281e-01,5.071294903755187988e-01,4.787795841693878174e-01,4.503451883792877197e-01,4.409670829772949219e-01,4.471604824066162109e-01,4.775864481925964355e-01,5.197046995162963867e-01,5.626830458641052246e-01,6.233230829238891602e-01,6.764490604400634766e-01,7.650324106216430664e-01,8.095853328704833984e-01,8.369941711425781250e-01,8.552947044372558594e-01,8.574984073638916016e-01,8.579857349395751953e-01,8.518816232681274414e-01,8.277053236961364746e-01,8.065081834793090820e-01,7.983686923980712891e-01,7.736698985099792480e-01,7.201436161994934082e-01,6.137451529502868652e-01
5.889575481414794922e-01,6.137157082557678223e-01,6.569477319717407227e-01,6.574057936668395996e-01,6.812250614166259766e-01,7.053266167640686035e-01,7.418453097343444824e-01,7.632303237915039062e-01,7.838405370712280273e-01,8.024207353591918945e-01,8.205605149269104004e-01,8.372570276260375977e-01,8.524580597877502441e-01,8.655387163162231445e-01,8.768951892852783203e-01,8.865472078323364258e-01,8.936619758605957031e-01,8.983408212661743164e-01,9.015563726425170898e-01,9.035387635231018066e-01,9.046003818511962891e-01,9.052472114562988281e-01,9.055244922637939453e-01,9.055814743041992188e-01,9.055951833724975586e-01,9.055936932563781738e-01,9.055932760238647461e-01,9.055932760238647461e-01,9.055932760238647461e-01,9.055932760238647461e-01,9.055932760238647461e-01,9.055932760238647461e-01,9.055932760238647461e-01,9.055932760238647461e-01,9.055932760238647461e-01,9.055932760238647461e-01,9.055932760238647461e-01,9.055932760238647461e-01,9.055932760238647461e-01,9.055932760238647461e-01,9.055932760238647461e-01,9.055932760238647461e-01,9.055932760238647461e-01,9.055914878845214844e-01,9.056090712547302246e-01,9.059730768203735352e-01,9.057544469833374023e-01,9.048688411712646484e-01,9.007887840270996094e-01,8.936597704887390137e-01,8.790653944015502930e-01,8.631546497344970703e-01,8.375596404075622559e-01,7.882826924324035645e-01,6.848418712615966797e-01,6.165558099746704102e-01,5.642702579498291016e-01,5.141364932060241699e-01,4.796991348266601562e-01,4.449256360530853271e-01,4.335472583770751953e-01,4.400190711021423340e-01,4.676510393619537354e-01,5.015226602554321289e-01,5.629611611366271973e-01,6.194620132446289062e-01,6.765211224555969238e-01,7.460802793502807617e-01,8.089897632598876953e-01,8.357548117637634277e-01,8.560343980789184570e-01,8.578041791915893555e-01,8.596079349517822266e-01,8.550036549568176270e-01,8.294776678085327148e-01,8.093091249465942383e-01,8.012018203735351562e-01,7.755702733993530273e-01,7.220128774642944336e-01,6.159069538116455078e-01
5.884761810302734375e-01,6.139597892761230469e-01,6.563309431076049805e-01,6.571236848831176758e-01,6.807252764701843262e-01,7.049878835678100586e-01,7.413086891174316406e-01,7.627382278442382812e-01,7.834836244583129883e-01,8.020343780517578125e-01,8.197852373123168945e-01,8.366061449050903320e-01,8.516541123390197754e-01,8.648961186408996582e-01,8.764170408248901367e-01,8.860176205635070801e-01,8.930643796920776367e-01,8.978266119956970215e-01,9.010756611824035645e-01,9.031780958175659180e-01,9.043441414833068848e-01,9.049906730651855469e-01,9.052335619926452637e-01,9.052965641021728516e-01,9.053111076354980469e-01,9.053096771240234375e-01,9.053092002868652344e-01,9.053092002868652344e-01,9.053092002868652344e-01,9.053092002868652344e-01,9.053092002868652344e-01,9.053092002868652344e-01,9.053092002868652344e-01,9.053092002868652344e-01,9.053092002868652344e-01,9.053092002868652344e-01,9.053092002868652344e-01,9.053092002868652344e-01,9.053092002868652344e-01,9.053092002868652344e-01,9.053092002868652344e-01,9.053092002868652344e-01,9.053092002868652344e-01,9.053066968917846680e-01,9.053124189376831055e-01,9.054200649261474609e-01,9.057850837707519531e-01,9.051123857498168945e-01,9.019008874893188477e-01,8.947991728782653809e-01,8.791112303733825684e-01,8.640695214271545410e-01,8.378179073333740234e-01,7.896782159805297852e-01,6.879890561103820801e-01,6.165285706520080566e-01,5.547707676887512207e-01,5.088545680046081543e-01,4.791519939899444580e-01,4.431822001934051514e-01,4.377682805061340332e-01,4.431310892105102539e-01,4.627127647399902344e-01,4.967527389526367188e-01,5.637513399124145508e-01,6.076279282569885254e-01,6.611102819442749023e-01,7.373360395431518555e-01,8.017290234565734863e-01,8.350102901458740234e-01,8.532596826553344727e-01,8.571474552154541016e-01,8.599981069564819336e-01,8.542505502700805664e-01,8.276199102401733398e-01,8.083485960960388184e-01,8.012699484825134277e-01,7.751157283782958984e-01,7.223519682884216309e-01,6.163166761398315430e-01
5.885013937950134277e-01,6.139481663703918457e-01,6.565039753913879395e-01,6.572778224945068359e-01,6.807773709297180176e-01,7.049943804740905762e-01,7.413736581802368164e-01,7.627732157707214355e-01,7.835449576377868652e-01,8.021687269210815430e-01,8.199285268783569336e-01,8.364084959030151367e-01,8.515360355377197266e-01,8.648509979248046875e-01,8.763723373413085938e-01,8.859375715255737305e-01,8.930208086967468262e-01,8.977285027503967285e-01,9.010207653045654297e-01,9.031490087509155273e-01,9.043530821800231934e-01,9.050096869468688965e-01,9.052693843841552734e-01,9.053225517272949219e-01,9.053357839584350586e-01,9.053343534469604492e-01,9.053338766098022461e-01,9.053338766098022461e-01,9.053338766098022461e-01,9.053338766098022461e-01,9.053338766098022461e-01,9.053338766098022461e-01,9.053338766098022461e-01,9.053338766098022461e-01,9.053338766098022461e-01,9.053338766098022461e-01,9.053338766098022461e-01,9.053338766098022461e-01,9.053338766098022461e-01,9.053338766098022461e-01,9.053338766098022461e-01,9.053338766098022461e-01,9.053338766098022461e-01,9.053329825401306152e-01,9.053183794021606445e-01,9.052908420562744141e-01,9.059619903564453125e-01,9.060549736022949219e-01,9.024530649185180664e-01,8.947927951812744141e-01,8.832576274871826172e-01,8.638350963592529297e-01,8.377190828323364258e-01,7.878205776214599609e-01,6.962920427322387695e-01,6.204987168312072754e-01,5.548070073127746582e-01,5.075395107269287109e-01,4.783378541469573975e-01,4.483725428581237793e-01,4.371218681335449219e-01,4.388082623481750488e-01,4.568801224231719971e-01,4.901490211486816406e-01,5.509663224220275879e-01,6.091929078102111816e-01,6.527062058448791504e-01,7.340677380561828613e-01,7.896937131881713867e-01,8.212933540344238281e-01,8.445302248001098633e-01,8.552314043045043945e-01,8.560234308242797852e-01,8.507283329963684082e-01,8.256934881210327148e-01,8.085629343986511230e-01,8.010885715484619141e-01,7.749863862991333008e-01,7.223386168479919434e-01,6.163445711135864258e-01
5.884804129600524902e-01,6.139112710952758789e-01,6.564781069755554199e-01,6.572380661964416504e-01,6.807466745376586914e-01,7.049648165702819824e-01,7.413295507431030273e-01,7.627432942390441895e-01,7.835168838500976562e-01,8.021472692489624023e-01,8.199397325515747070e-01,8.364350795745849609e-01,8.513951301574707031e-01,8.647882938385009766e-01,8.763926029205322266e-01,8.858840465545654297e-01,8.929584622383117676e-01,8.977017402648925781e-01,9.009692668914794922e-01,9.031196236610412598e-01,9.043424129486083984e-01,9.050059318542480469e-01,9.052580595016479492e-01,9.053188562393188477e-01,9.053306579589843750e-01,9.053287506103515625e-01,9.053283333778381348e-01,9.053283333778381348e-01,9.053283333778381348e-01,9.053283333778381348e-01,9.053283333778381348e-01,9.053283333778381348e-01,9.053283333778381348e-01,9.053283333778381348e-01,9.053283333778381348e-01,9.053283333778381348e-01,9.053283333778381348e-01,9.053283333778381348e-01,9.053283333778381348e-01,9.053283333778381348e-01,9.053283333778381348e-01,9.053283333778381348e-01,9.053283333778381348e-01,9.053262472152709961e-01,9.053122997283935547e-01,9.053384661674499512e-01,9.057896137237548828e-01,9.065285921096801758e-01,9.023199081420898438e-01,8.962744474411010742e-01,8.855258226394653320e-01,8.661018013954162598e-01,8.384273052215576172e-01,7.978903055191040039e-01,7.092995047569274902e-01,6.205639243125915527e-01,5.665720105171203613e-01,5.156323909759521484e-01,4.802514016628265381e-01,4.531191885471343994e-01,4.417493641376495361e-01,4.452866017818450928e-01,4.663707315921783447e-01,4.822359383106231689e-01,5.545432567596435547e-01,6.006038188934326172e-01,6.598210334777832031e-01,7.162895798683166504e-01,7.693250179290771484e-01,8.205828070640563965e-01,8.438271284103393555e-01,8.533661365509033203e-01,8.516331315040588379e-01,8.487993478775024414e-01,8.247237801551818848e-01,8.070602416992187500e-01,8.006970882415771484e-01,7.752045989036560059e-01,7.224334478378295898e-01,6.162918210029602051e-01
5.884734988212585449e-01,6.139000058174133301e-01,6.564648747444152832e-01,6.572226881980895996e-01,6.807290315628051758e-01,7.049449682235717773e-01,7.413130998611450195e-01,7.627198100090026855e-01,7.834951877593994141e-01,8.021347522735595703e-01,8.199265003204345703e-01,8.364295959472656250e-01,8.513957262039184570e-01,8.647276163101196289e-01,8.763757944107055664e-01,8.859140276908874512e-01,8.929373025894165039e-01,8.976856470108032227e-01,9.009732604026794434e-01,9.031088352203369141e-01,9.043349027633666992e-01,9.050054550170898438e-01,9.052594304084777832e-01,9.053182601928710938e-01,9.053307771682739258e-01,9.053288698196411133e-01,9.053283333778381348e-01,9.053283333778381348e-01,9.053283333778381348e-01,9.053283333778381348e-01,9.053283333778381348e-01,9.053283333778381348e-01,9.053283333778381348e-01,9.053283333778381348e-01,9.053283333778381348e-01,9.053283333778381348e-01,9.053283333778381348e-01,9.053283333778381348e-01,9.053283333778381348e-01,9.053283333778381348e-01,9.053283333778381348e-01,9.053283333778381348e-01,9.053283333778381348e-01,9.053279161453247070e-01,9.053173661231994629e-01,9.053429365158081055e-01,9.058016538619995117e-01,9.060972929000854492e-01,9.030314087867736816e-01,8.970923423767089844e-01,8.881367444992065430e-01,8.697957396507263184e-01,8.447853922843933105e-01,8.008052110671997070e-01,7.199445962905883789e-01,6.298224925994873047e-01,5.656424760818481445e-01,5.184488892555236816e-01,4.864539206027984619e-01,4.594514667987823486e-01,4.432118833065032959e-01,4.528856575489044189e-01,4.715726971626281738e-01,4.913690686225891113e-01,5.558637976646423340e-01,5.953326225280761719e-01,6.521810889244079590e-01,6.968832015991210938e-01,7.615768909454345703e-01,8.118364810943603516e-01,8.373702764511108398e-01,8.472701311111450195e-01,8.483526706695556641e-01,8.457571268081665039e-01,8.241841197013854980e-01,8.065819740295410156e-01,8.009577989578247070e-01,7.750017642974853516e-01,7.222285270690917969e-01,6.162749528884887695e-01
5.884665846824645996e-01,6.138885617256164551e-01,6.564517617225646973e-01,6.572073698043823242e-01,6.807121038436889648e-01,7.049270868301391602e-01,7.412943243980407715e-01,7.627028226852416992e-01,7.834756374359130859e-01,8.021143674850463867e-01,8.199133872985839844e-01,8.364169597625732422e-01,8.513844013214111328e-01,8.647172451019287109e-01,8.763564825057983398e-01,8.859024643898010254e-01,8.929393291473388672e-01,8.976819515228271484e-01,9.009668231010437012e-01,9.031099081039428711e-01,9.043335914611816406e-01,9.050043821334838867e-01,9.052593708038330078e-01,9.053182601928710938e-01,9.053307175636291504e-01,9.053288698196411133e-01,9.053283333778381348e-01,9.053283333778381348e-01,9.053283333778381348e-01,9.053283333778381348e-01,9.053283333778381348e-01,9.053283333778381348e-01,9.053283333778381348e-01,9.053283333778381348e-01,9.053283333778381348e-01,9.053283333778381348e-01,9.053283333778381348e-01,9.053283333778381348e-01,9.053283333778381348e-01,9.053283333778381348e-01,9.053283333778381348e-01,9.053283333778381348e-01,9.053283333778381348e-01,9.053282737731933594e-01,9.053205251693725586e-01,9.053109884262084961e-01,9.058336019515991211e-01,9.062627553939819336e-01,9.033441543579101562e-01,8.989182710647583008e-01,8.899936676025390625e-01,8.711215257644653320e-01,8.494070172309875488e-01,8.066328763961791992e-01,7.348781824111938477e-01,6.453492045402526855e-01,5.803535580635070801e-01,5.297380685806274414e-01,4.925733506679534912e-01,4.587706327438354492e-01,4.498407244682312012e-01,4.614771306514739990e-01,4.713269472122192383e-01,5.083736777305603027e-01,5.458363890647888184e-01,6.059985756874084473e-01,6.550413966178894043e-01,7.028018236160278320e-01,7.450741529464721680e-01,7.944626808166503906e-01,8.319315910339355469e-01,8.432693481445312500e-01,8.430510759353637695e-01,8.392280340194702148e-01,8.210771679878234863e-01,8.054812550544738770e-01,7.999293804168701172e-01,7.748290896415710449e-01,7.225264310836791992e-01,6.163604259490966797e-01
5.884596705436706543e-01,6.138774156570434570e-01,6.564387679100036621e-01,6.571921706199645996e-01,6.806955337524414062e-01,7.049099206924438477e-01,7.412766814231872559e-01,7.626848220825195312e-01,7.834582328796386719e-01,8.020966053009033203e-01,8.198962211608886719e-01,8.364021778106689453e-01,8.513700962066650391e-01,8.647048473358154297e-01,8.763458132743835449e-01,8.858938217163085938e-01,8.929320573806762695e-01,8.976775407791137695e-01,9.009642601013183594e-01,9.031084775924682617e-01,9.043330550193786621e-01,9.050039052963256836e-01,9.052593111991882324e-01,9.053181409835815430e-01,9.053306579589843750e-01,9.053288698196411133e-01,9.053283333778381348e-01,9.053283333778381348e-01,9.053283333778381348e-01,9.053283333778381348e-01,9.053283333778381348e-01,9.053283333778381348e-01,9.053283333778381348e-01,9.053283333778381348e-01,9.053283333778381348e-01,9.053283333778381348e-01,9.053283333778381348e-01,9.053283333778381348e-01,9.053283333778381348e-01,9.053283333778381348e-01,9.053283333778381348e-01,9.053283333778381348e-01,9.053283333778381348e-01,9.053288698196411133e-01,9.053249359130859375e-01,9.053214192390441895e-01,9.057409763336181641e-01,9.062686562538146973e-01,9.034203290939331055e-01,9.005201458930969238e-01,8.922982215881347656e-01,8.761650323867797852e-01,8.560099601745605469e-01,8.155453801155090332e-01,7.550547122955322266e-01,6.584082841873168945e-01,5.993520617485046387e-01,5.318803191184997559e-01,4.938165843486785889e-01,4.742591381072998047e-01,4.631450474262237549e-01,4.765090942382812500e-01,4.775340259075164795e-01,5.033472180366516113e-01,5.612304210662841797e-01,6.200386285781860352e-01,6.634463071823120117e-01,7.056856155395507812e-01,7.435983419418334961e-01,7.864412069320678711e-01,8.190840482711791992e-01,8.442019820213317871e-01,8.447390794754028320e-01,8.393604159355163574e-01,8.181107640266418457e-01,8.035150766372680664e-01,7.990667819976806641e-01,7.751558423042297363e-01,7.223923206329345703e-01,6.163148283958435059e-01
5.884527564048767090e-01,6.138664484024047852e-01,6.564259529113769531e-01,6.571772098541259766e-01,6.806789636611938477e-01,7.048929929733276367e-01,7.412595152854919434e-01,7.626674175262451172e-01,7.834409475326538086e-01,8.020792603492736816e-01,8.198798894882202148e-01,8.363869786262512207e-01,8.513562083244323730e-01,8.646920919418334961e-01,8.763349056243896484e-01,8.858852982521057129e-01,8.929260373115539551e-01,8.976734280586242676e-01,9.009613394737243652e-01,9.031068682670593262e-01,9.043321609497070312e-01,9.050034284591674805e-01,9.052591323852539062e-01,9.053180217742919922e-01,9.053307175636291504e-01,9.053288698196411133e-01,9.053283333778381348e-01,9.053283333778381348e-01,9.053283333778381348e-01,9.053283333778381348e-01,9.053283333778381348e-01,9.053283333778381348e-01,9.053283333778381348e-01,9.053283333778381348e-01,9.053283333778381348e-01,9.053283333778381348e-01,9.053283333778381348e-01,9.053283333778381348e-01,9.053283333778381348e-01,9.053283333778381348e-01,9.053283333778381348e-01,9.053283333778381348e-01,9.053283333778381348e-01,9.053286314010620117e-01,9.053280353546142578e-01,9.053165912628173828e-01,9.056902527809143066e-01,9.059427380561828613e-01,9.040941596031188965e-01,9.003623127937316895e-01,8.931289315223693848e-01,8.773082494735717773e-01,8.639099597930908203e-01,8.266010880470275879e-01,7.622789740562438965e-01,6.684009432792663574e-01,6.019392609596252441e-01,5.492671132087707520e-01,4.929248392581939697e-01,4.785381853580474854e-01,4.733772575855255127e-01,4.799624979496002197e-01,4.797920882701873779e-01,5.154100060462951660e-01,5.915449857711791992e-01,6.381464004516601562e-01,6.802697181701660156e-01,7.090405225753784180e-01,7.518138885498046875e-01,7.776100635528564453e-01,8.102901577949523926e-01,8.415080308914184570e-01,8.450590968132019043e-01,8.339478969573974609e-01,8.109438419342041016e-01,8.000967502593994141e-01,7.970223426818847656e-01,7.738833427429199219e-01,7.220761775970458984e-01,6.163303256034851074e-01
5.884461402893066406e-01,6.138556599617004395e-01,6.564131975173950195e-01,6.571623086929321289e-01,6.806627511978149414e-01,7.048760652542114258e-01,7.412425875663757324e-01,7.626503705978393555e-01,7.834239006042480469e-01,8.020622730255126953e-01,8.198636770248413086e-01,8.363718390464782715e-01,8.513423800468444824e-01,8.646800518035888672e-01,8.763239383697509766e-01,8.858766555786132812e-01,8.929201364517211914e-01,8.976694345474243164e-01,9.009582996368408203e-01,9.031051397323608398e-01,9.043312072753906250e-01,9.050028920173645020e-01,9.052590727806091309e-01,9.053180217742919922e-01,9.053307175636291504e-01,9.053288698196411133e-01,9.053283333778381348e-01,9.053283333778381348e-01,9.053283333778381348e-01,9.053283333778381348e-01,9.053283333778381348e-01,9.053283333778381348e-01,9.053283333778381348e-01,9.053283333778381348e-01,9.053283333778381348e-01,9.053283333778381348e-01,9.053283333778381348e-01,9.053283333778381348e-01,9.053283333778381348e-01,9.053283333778381348e-01,9.053283333778381348e-01,9.053283333778381348e-01,9.053283333778381348e-01,9.053283929824829102e-01,9.053255915641784668e-01,9.053156375885009766e-01,9.056015014648437500e-01,9.057977199554443359e-01,9.051633477210998535e-01,9.023612737655639648e-01,8.940497636795043945e-01,8.836823105812072754e-01,8.668220043182373047e-01,8.317875266075134277e-01,7.773783802986145020e-01,6.828405261039733887e-01,6.272346377372741699e-01,5.621114969253540039e-01,5.270377993583679199e-01,4.912917017936706543e-01,4.799755215644836426e-01,4.949580729007720947e-01,4.948557615280151367e-01,5.329492092132568359e-01,5.796669125556945801e-01,6.727380156517028809e-01,7.058492898941040039e-01,7.178292274475097656e-01,7.686804533004760742e-01,7.859932184219360352e-01,8.085082769393920898e-01,8.282575607299804688e-01,8.472715616226196289e-01,8.373958468437194824e-01,8.111231923103332520e-01,7.980024814605712891e-01,7.981315851211547852e-01,7.742780447006225586e-01,7.218385934829711914e-01,6.161965727806091309e-01
5.884400010108947754e-01,6.138453483581542969e-01,6.564009189605712891e-01,6.571477651596069336e-01,6.806467771530151367e-01,7.048596739768981934e-01,7.412258386611938477e-01,7.626336216926574707e-01,7.834071516990661621e-01,8.020460605621337891e-01,8.198480010032653809e-01,8.363571763038635254e-01,8.513292074203491211e-01,8.646678924560546875e-01,8.763133287429809570e-01,8.858681321144104004e-01,8.929139971733093262e-01,8.976656794548034668e-01,9.009555578231811523e-01,9.031034708023071289e-01,9.043302536010742188e-01,9.050022363662719727e-01,9.052591323852539062e-01,9.053180217742919922e-01,9.053307175636291504e-01,9.053288698196411133e-01,9.053283333778381348e-01,9.053283333778381348e-01,9.053283333778381348e-01,9.053283333778381348e-01,9.053283333778381348e-01,9.053283333778381348e-01,9.053283333778381348e-01,9.053283333778381348e-01,9.053283333778381348e-01,9.053283333778381348e-01,9.053283333778381348e-01,9.053283333778381348e-01,9.053283333778381348e-01,9.053283333778381348e-01,9.053283333778381348e-01,9.053283333778381348e-01,9.053283333778381348e-01,9.053283333778381348e-01,9.053238034248352051e-01,9.053134918212890625e-01,9.053907394409179688e-01,9.058389663696289062e-01,9.054448604583740234e-01,9.019700288772583008e-01,8.957766890525817871e-01,8.848576545715332031e-01,8.730089068412780762e-01,8.416429162025451660e-01,8.008303642272949219e-01,6.925992369651794434e-01,6.529417037963867188e-01,5.751417279243469238e-01,5.204095244407653809e-01,4.979352951049804688e-01,4.949760735034942627e-01,5.018176436424255371e-01,5.079941749572753906e-01,5.392924547195434570e-01,6.025587320327758789e-01,7.004492878913879395e-01,7.390118837356567383e-01,7.565721273422241211e-01,7.696318030357360840e-01,8.003881573677062988e-01,8.239528536796569824e-01,8.306598663330078125e-01,8.349226713180541992e-01,8.385617733001708984e-01,8.134213089942932129e-01,7.953334450721740723e-01,7.948991060256958008e-01,7.725846767425537109e-01,7.222931385040283203e-01,6.163038015365600586e-01
5.884345173835754395e-01,6.138358712196350098e-01,6.563895940780639648e-01,6.571340560913085938e-01,6.806312799453735352e-01,7.048437595367431641e-01,7.412096261978149414e-01,7.626174688339233398e-01,7.833909988403320312e-01,8.020297288894653320e-01,8.198326826095581055e-01,8.363428115844726562e-01,8.513159155845642090e-01,8.646558523178100586e-01,8.763031959533691406e-01,8.858599066734313965e-01,8.929082155227661133e-01,8.976618051528930664e-01,9.009527564048767090e-01,9.031018018722534180e-01,9.043291807174682617e-01,9.050018787384033203e-01,9.052589535713195801e-01,9.053179025650024414e-01,9.053307175636291504e-01,9.053288698196411133e-01,9.053283333778381348e-01,9.053283333778381348e-01,9.053283333778381348e-01,9.053283333778381348e-01,9.053283333778381348e-01,9.053283333778381348e-01,9.053283333778381348e-01,9.053283333778381348e-01,9.053283333778381348e-01,9.053283333778381348e-01,9.053283333778381348e-01,9.053283333778381348e-01,9.053283333778381348e-01,9.053283333778381348e-01,9.053283333778381348e-01,9.053283333778381348e-01,9.053283333778381348e-01,9.053283333778381348e-01,9.053276777267456055e-01,9.053058624267578125e-01,9.052857756614685059e-01,9.059041142463684082e-01,9.061913490295410156e-01,9.026324748992919922e-01,8.976610898971557617e-01,8.905694484710693359e-01,8.746693134307861328e-01,8.483102917671203613e-01,8.046748638153076172e-01,7.221372723579406738e-01,6.701275110244750977e-01,6.070159077644348145e-01,5.411067008972167969e-01,5.180377960205078125e-01,5.080545544624328613e-01,5.220082998275756836e-01,5.345705151557922363e-01,5.574544668197631836e-01,6.228137016296386719e-01,7.053977251052856445e-01,7.738423347473144531e-01,7.800588607788085938e-01,7.963891029357910156e-01,8.183463811874389648e-01,8.331435322761535645e-01,8.384115695953369141e-01,8.412632346153259277e-01,8.378831148147583008e-01,8.150462508201599121e-01,8.016047477722167969e-01,7.967287898063659668e-01,7.741115093231201172e-01,7.220166921615600586e-01,6.161874532699584961e-01
5.884296298027038574e-01,6.138275861740112305e-01,6.563795804977416992e-01,6.571218967437744141e-01,6.806172132492065430e-01,7.048287391662597656e-01,7.411943674087524414e-01,7.626018524169921875e-01,7.833750247955322266e-01,8.020140528678894043e-01,8.198176622390747070e-01,8.363289237022399902e-01,8.513028621673583984e-01,8.646444678306579590e-01,8.762928843498229980e-01,8.858518600463867188e-01,8.929025530815124512e-01,8.976581096649169922e-01,9.009499549865722656e-01,9.031003117561340332e-01,9.043283462524414062e-01,9.050014019012451172e-01,9.052587747573852539e-01,9.053179025650024414e-01,9.053307771682739258e-01,9.053288698196411133e-01,9.053283333778381348e-01,9.053283333778381348e-01,9.053283333778381348e-01,9.053283333778381348e-01,9.053283333778381348e-01,9.053283333778381348e-01,9.053283333778381348e-01,9.053283333778381348e-01,9.053283333778381348e-01,9.053283333778381348e-01,9.053283333778381348e-01,9.053283333778381348e-01,9.053283333778381348e-01,9.053283333778381348e-01,9.053283333778381348e-01,9.053283333778381348e-01,9.053283333778381348e-01,9.053283333778381348e-01,9.053263664245605469e-01,9.053092002868652344e-01,9.052934050559997559e-01,9.057141542434692383e-01,9.063024520874023438e-01,9.027014970779418945e-01,8.992692232131958008e-01,8.955883383750915527e-01,8.837191462516784668e-01,8.610999584197998047e-01,8.217639923095703125e-01,7.421989440917968750e-01,6.967628598213195801e-01,6.444296836853027344e-01,5.867186784744262695e-01,5.357028841972351074e-01,5.285031199455261230e-01,5.270257592201232910e-01,5.530939698219299316e-01,5.959540605545043945e-01,6.459131240844726562e-01,7.272893786430358887e-01,7.852388024330139160e-01,8.137618303298950195e-01,8.275165557861328125e-01,8.209465146064758301e-01,8.421074151992797852e-01,8.556356430053710938e-01,8.513436317443847656e-01,8.434414863586425781e-01,8.222537636756896973e-01,8.005766868591308594e-01,7.957233190536499023e-01,7.737668752670288086e-01,7.222207784652709961e-01,6.164053678512573242e-01
5.884250402450561523e-01,6.138201355934143066e-01,6.563704013824462891e-01,6.571112275123596191e-01,6.806046962738037109e-01,7.048154473304748535e-01,7.411803007125854492e-01,7.625873684883117676e-01,7.833603024482727051e-01,8.019990324974060059e-01,8.198033571243286133e-01,8.363155126571655273e-01,8.512908220291137695e-01,8.646334409713745117e-01,8.762831091880798340e-01,8.858439326286315918e-01,8.928970098495483398e-01,8.976544141769409180e-01,9.009473323822021484e-01,9.030987620353698730e-01,9.043276309967041016e-01,9.050009250640869141e-01,9.052587747573852539e-01,9.053179025650024414e-01,9.053307771682739258e-01,9.053288698196411133e-01,9.053283333778381348e-01,9.053283333778381348e-01,9.053283333778381348e-01,9.053283333778381348e-01,9.053283333778381348e-01,9.053283333778381348e-01,9.053283333778381348e-01,9.053283333778381348e-01,9.053283333778381348e-01,9.053283333778381348e-01,9.053283333778381348e-01,9.053283333778381348e-01,9.053283333778381348e-01,9.053283333778381348e-01,9.053283333778381348e-01,9.053283333778381348e-01,9.053283333778381348e-01,9.053283333778381348e-01,9.053285121917724609e-01,9.053167104721069336e-01,9.053374528884887695e-01,9.056888818740844727e-01,9.058967828750610352e-01,9.035506248474121094e-01,9.000182151794433594e-01,8.966113924980163574e-01,8.878763318061828613e-01,8.690143823623657227e-01,8.329856395721435547e-01,7.797682285308837891e-01,7.339968085289001465e-01,6.813982129096984863e-01,6.195811033248901367e-01,5.747578144073486328e-01,5.330282449722290039e-01,5.454108715057373047e-01,5.889856219291687012e-01,6.201418638229370117e-01,6.645557880401611328e-01,7.429385185241699219e-01,7.923197746276855469e-01,8.277044296264648438e-01,8.453928232192993164e-01,8.568394184112548828e-01,8.575435280799865723e-01,8.590291738510131836e-01,8.592323064804077148e-01,8.514466285705566406e-01,8.239076733589172363e-01,8.050172328948974609e-01,8.009483814239501953e-01,7.739899158477783203e-01,7.222585678100585938e-01,6.163254380226135254e-01
5.884206891059875488e-01,6.138130426406860352e-01,6.563618779182434082e-01,6.571013927459716797e-01,6.805936694145202637e-01,7.048040032386779785e-01,7.411684989929199219e-01,7.625747323036193848e-01,7.833468914031982422e-01,8.019852638244628906e-01,8.197895288467407227e-01,8.363026976585388184e-01,8.512790203094482422e-01,8.646228313446044922e-01,8.762737512588500977e-01,8.858363628387451172e-01,8.928914666175842285e-01,8.976508378982543945e-01,9.009445905685424805e-01,9.030972123146057129e-01,9.043266773223876953e-01,9.050004482269287109e-01,9.052587747573852539e-01,9.053179025650024414e-01,9.053307771682739258e-01,9.053288698196411133e-01,9.053283333778381348e-01,9.053283333778381348e-01,9.053283333778381348e-01,9.053283333778381348e-01,9.053283333778381348e-01,9.053283333778381348e-01,9.053283333778381348e-01,9.053283333778381348e-01,9.053283333778381348e-01,9.053283333778381348e-01,9.053283333778381348e-01,9.053283333778381348e-01,9.053283333778381348e-01,9.053283333778381348e-01,9.053283333778381348e-01,9.053283333778381348e-01,9.053283333778381348e-01,9.053283333778381348e-01,9.053283929824829102e-01,9.053194522857666016e-01,9.053057432174682617e-01,9.058372974395751953e-01,9.062495231628417969e-01,9.035579562187194824e-01,9.030743241310119629e-01,9.015403985977172852e-01,8.905310630798339844e-01,8.811658620834350586e-01,8.459817767143249512e-01,8.029718399047851562e-01,7.697378396987915039e-01,7.189400196075439453e-01,6.531751155853271484e-01,6.129468083381652832e-01,5.811773538589477539e-01,5.689435601234436035e-01,6.167742013931274414e-01,6.466200351715087891e-01,7.134884595870971680e-01,7.648148536682128906e-01,8.054153323173522949e-01,8.327864408493041992e-01,8.597226738929748535e-01,8.684152960777282715e-01,8.637738227844238281e-01,8.651602268218994141e-01,8.638181090354919434e-01,8.544806241989135742e-01,8.288466930389404297e-01,8.090355992317199707e-01,8.006362915039062500e-01,7.749313712120056152e-01,7.220120429992675781e-01,6.163341999053955078e-01
5.884160995483398438e-01,6.138057112693786621e-01,6.563538312911987305e-01,6.570922136306762695e-01,6.805834770202636719e-01,7.047933936119079590e-01,7.411572933197021484e-01,7.625635266304016113e-01,7.833352684974670410e-01,8.019731044769287109e-01,8.197774887084960938e-01,8.362909555435180664e-01,8.512678146362304688e-01,8.646126985549926758e-01,8.762649297714233398e-01,8.858292102813720703e-01,8.928866386413574219e-01,8.976476192474365234e-01,9.009422063827514648e-01,9.030957221984863281e-01,9.043259024620056152e-01,9.050000905990600586e-01,9.052586555480957031e-01,9.053179025650024414e-01,9.053307771682739258e-01,9.053288698196411133e-01,9.053283333778381348e-01,9.053283333778381348e-01,9.053283333778381348e-01,9.053283333778381348e-01,9.053283333778381348e-01,9.053283333778381348e-01,9.053283333778381348e-01,9.053283333778381348e-01,9.053283333778381348e-01,9.053283333778381348e-01,9.053283333778381348e-01,9.053283333778381348e-01,9.053283333778381348e-01,9.053283333778381348e-01,9.053283333778381348e-01,9.053283333778381348e-01,9.053283333778381348e-01,9.053283333778381348e-01,9.053289890289306641e-01,9.053248167037963867e-01,9.053115844726562500e-01,9.058114290237426758e-01,9.060674905776977539e-01,9.029772877693176270e-01,9.040393233299255371e-01,9.048309326171875000e-01,8.957642316818237305e-01,8.854352831840515137e-01,8.573077917098999023e-01,8.254193663597106934e-01,8.133306503295898438e-01,7.521196603775024414e-01,6.981698870658874512e-01,6.375930905342102051e-01,6.128563284873962402e-01,5.881997346878051758e-01,6.414139270782470703e-01,6.857753396034240723e-01,7.234091758728027344e-01,7.844153642654418945e-01,8.241163492202758789e-01,8.466540575027465820e-01,8.650587797164916992e-01,8.756125569343566895e-01,8.806211948394775391e-01,8.706191182136535645e-01,8.619819283485412598e-01,8.536613583564758301e-01,8.296629190444946289e-01,8.097225427627563477e-01,8.007647395133972168e-01,7.757931947708129883e-01,7.224775552749633789e-01,6.163010597229003906e-01
5.884107947349548340e-01,6.137976646423339844e-01,6.563451886177062988e-01,6.570822000503540039e-01,6.805732846260070801e-01,7.047829627990722656e-01,7.411469817161560059e-01,7.625530958175659180e-01,7.833246588706970215e-01,8.019622564315795898e-01,8.197671175003051758e-01,8.362808227539062500e-01,8.512579202651977539e-01,8.646035790443420410e-01,8.762564659118652344e-01,8.858225345611572266e-01,8.928817510604858398e-01,8.976445198059082031e-01,9.009399414062500000e-01,9.030944705009460449e-01,9.043250679969787598e-01,9.049996733665466309e-01,9.052584171295166016e-01,9.053179025650024414e-01,9.053307771682739258e-01,9.053288698196411133e-01,9.053283333778381348e-01,9.053283333778381348e-01,9.053283333778381348e-01,9.053283333778381348e-01,9.053283333778381348e-01,9.053283333778381348e-01,9.053283333778381348e-01,9.053283333778381348e-01,9.053283333778381348e-01,9.053283333778381348e-01,9.053283333778381348e-01,9.053283333778381348e-01,9.053283333778381348e-01,9.053283333778381348e-01,9.053283333778381348e-01,9.053283333778381348e-01,9.053283333778381348e-01,9.053283333778381348e-01,9.053286314010620117e-01,9.053280353546142578e-01,9.053137302398681641e-01,9.057740569114685059e-01,9.054899215698242188e-01,9.038679599761962891e-01,9.047139883041381836e-01,9.059865474700927734e-01,8.986228704452514648e-01,8.935534954071044922e-01,8.733669519424438477e-01,8.418393731117248535e-01,8.204047679901123047e-01,7.981432080268859863e-01,7.320156097412109375e-01,6.680847406387329102e-01,6.346392631530761719e-01,6.185095310211181641e-01,6.533754467964172363e-01,7.055422067642211914e-01,7.525372505187988281e-01,7.962908744812011719e-01,8.335199356079101562e-01,8.575900197029113770e-01,8.738241195678710938e-01,8.838927149772644043e-01,8.802461624145507812e-01,8.745931386947631836e-01,8.656575679779052734e-01,8.536758422851562500e-01,8.266947269439697266e-01,8.097801208496093750e-01,8.020227551460266113e-01,7.751663327217102051e-01,7.222656607627868652e-01,6.164265275001525879e-01
5.884054303169250488e-01,6.137890815734863281e-01,6.563353538513183594e-01,6.570712327957153320e-01,6.805619001388549805e-01,7.047716379165649414e-01,7.411363124847412109e-01,7.625429630279541016e-01,7.833147048950195312e-01,8.019522428512573242e-01,8.197572231292724609e-01,8.362712860107421875e-01,8.512486219406127930e-01,8.645948171615600586e-01,8.762487173080444336e-01,8.858159780502319336e-01,8.928763866424560547e-01,8.976402282714843750e-01,9.009364843368530273e-01,9.030917286872863770e-01,9.043228030204772949e-01,9.049974679946899414e-01,9.052566289901733398e-01,9.053159356117248535e-01,9.053288698196411133e-01,9.053269624710083008e-01,9.053264856338500977e-01,9.053264856338500977e-01,9.053264856338500977e-01,9.053264856338500977e-01,9.053264856338500977e-01,9.053264856338500977e-01,9.053264856338500977e-01,9.053264856338500977e-01,9.053264260292053223e-01,9.053264260292053223e-01,9.053263664245605469e-01,9.053264260292053223e-01,9.053263664245605469e-01,9.053263664245605469e-01,9.053263664245605469e-01,9.053263664245605469e-01,9.053262472152709961e-01,9.053263664245605469e-01,9.053263664245605469e-01,9.053233861923217773e-01,9.053052663803100586e-01,9.056456089019775391e-01,9.051896333694458008e-01,9.045009613037109375e-01,9.063777923583984375e-01,9.060907959938049316e-01,9.004833102226257324e-01,8.972514867782592773e-01,8.797562122344970703e-01,8.585618734359741211e-01,8.401386737823486328e-01,8.148300647735595703e-01,7.686100006103515625e-01,6.950344443321228027e-01,6.529746055603027344e-01,6.361448168754577637e-01,6.722116470336914062e-01,7.171007394790649414e-01,7.809045314788818359e-01,8.124175667762756348e-01,8.401842117309570312e-01,8.649119138717651367e-01,8.784508705139160156e-01,8.862553238868713379e-01,8.859275579452514648e-01,8.788729906082153320e-01,8.695120811462402344e-01,8.557317256927490234e-01,8.271354436874389648e-01,8.068525195121765137e-01,8.013773560523986816e-01,7.756984233856201172e-01,7.227041125297546387e-01,6.163789033889770508e-01
5.883996486663818359e-01,6.137794256210327148e-01,6.563243865966796875e-01,6.570580005645751953e-01,6.805465221405029297e-01,7.047553658485412598e-01,7.411197423934936523e-01,7.625264525413513184e-01,7.832984924316406250e-01,8.019362092018127441e-01,8.197419643402099609e-01,8.362560272216796875e-01,8.512333631515502930e-01,8.645805716514587402e-01,8.762356638908386230e-01,8.858045339584350586e-01,8.928663134574890137e-01,8.976319432258605957e-01,9.009284973144531250e-01,9.030840396881103516e-01,9.043152928352355957e-01,9.049903154373168945e-01,9.052499532699584961e-01,9.053096771240234375e-01,9.053227305412292480e-01,9.053210020065307617e-01,9.053205251693725586e-01,9.053205251693725586e-01,9.053205251693725586e-01,9.053205847740173340e-01,9.053206443786621094e-01,9.053206443786621094e-01,9.053206443786621094e-01,9.053207635879516602e-01,9.053207635879516602e-01,9.053207635879516602e-01,9.053208827972412109e-01,9.053208827972412109e-01,9.053209424018859863e-01,9.053209424018859863e-01,9.053210616111755371e-01,9.053211212158203125e-01,9.053211212158203125e-01,9.053211212158203125e-01,9.053212404251098633e-01,9.053165912628173828e-01,9.053022861480712891e-01,9.053919315338134766e-01,9.054837226867675781e-01,9.047068357467651367e-01,9.064946770668029785e-01,9.069075584411621094e-01,9.014726877212524414e-01,8.980463743209838867e-01,8.828783631324768066e-01,8.700241446495056152e-01,8.460566401481628418e-01,8.252149820327758789e-01,7.960946559906005859e-01,7.230691909790039062e-01,6.666018962860107422e-01,6.714714765548706055e-01,6.883099079132080078e-01,7.374611496925354004e-01,7.937255501747131348e-01,8.271623849868774414e-01,8.490262031555175781e-01,8.706955909729003906e-01,8.816915750503540039e-01,8.886283040046691895e-01,8.886436223983764648e-01,8.789479136466979980e-01,8.694525957107543945e-01,8.574448823928833008e-01,8.295108079910278320e-01,8.086509704589843750e-01,8.012337684631347656e-01,7.749667167663574219e-01,7.225949168205261230e-01,6.164759397506713867e-01
5.883886814117431641e-01,6.137657165527343750e-01,6.563084125518798828e-01,6.570441126823425293e-01,6.805329918861389160e-01,7.047407627105712891e-01,7.411064505577087402e-01,7.625187635421752930e-01,7.832978367805480957e-01,8.019435405731201172e-01,8.197598457336425781e-01,8.362876176834106445e-01,8.512843847274780273e-01,8.646485209465026855e-01,8.763052225112915039e-01,8.858638405799865723e-01,8.929138183593750000e-01,8.976706266403198242e-01,9.009687900543212891e-01,9.031348228454589844e-01,9.043725132942199707e-01,9.050532579421997070e-01,9.053155183792114258e-01,9.053769111633300781e-01,9.053903222084045410e-01,9.053887128829956055e-01,9.053886532783508301e-01,9.053889513015747070e-01,9.053890705108642578e-01,9.053894281387329102e-01,9.053896665573120117e-01,9.053899049758911133e-01,9.053901433944702148e-01,9.053905010223388672e-01,9.053907394409179688e-01,9.053910970687866211e-01,9.053912758827209473e-01,9.053914546966552734e-01,9.053918123245239258e-01,9.053920507431030273e-01,9.053922295570373535e-01,9.053926467895507812e-01,9.053927659988403320e-01,9.053931236267089844e-01,9.053934216499328613e-01,9.053930044174194336e-01,9.053673148155212402e-01,9.053450226783752441e-01,9.056833982467651367e-01,9.056788086891174316e-01,9.061836004257202148e-01,9.057384133338928223e-01,9.055054187774658203e-01,8.994656801223754883e-01,8.860136270523071289e-01,8.764961957931518555e-01,8.544573783874511719e-01,8.329122066497802734e-01,8.031951189041137695e-01,7.300597429275512695e-01,6.746424436569213867e-01,6.910006999969482422e-01,7.150462865829467773e-01,7.518529891967773438e-01,8.051240444183349609e-01,8.358204960823059082e-01,8.597786426544189453e-01,8.740601539611816406e-01,8.865906000137329102e-01,8.921513557434082031e-01,8.892946839332580566e-01,8.798587918281555176e-01,8.713296651840209961e-01,8.584984540939331055e-01,8.294024467468261719e-01,8.085687160491943359e-01,8.012713193893432617e-01,7.754448056221008301e-01,7.225291132926940918e-01,6.163651347160339355e-01
5.883955359458923340e-01,6.137743592262268066e-01,6.563150286674499512e-01,6.570620536804199219e-01,6.805617809295654297e-01,7.048022747039794922e-01,7.412195205688476562e-01,7.626800537109375000e-01,7.834852933883666992e-01,8.021435737609863281e-01,8.199617862701416016e-01,8.364870548248291016e-01,8.514611124992370605e-01,8.647936582565307617e-01,8.764224052429199219e-01,8.859454989433288574e-01,8.929839134216308594e-01,8.977728486061096191e-01,9.010934829711914062e-01,9.032582044601440430e-01,9.044928550720214844e-01,9.051687121391296387e-01,9.054247140884399414e-01,9.054827690124511719e-01,9.054937362670898438e-01,9.054911732673645020e-01,9.054898619651794434e-01,9.054890871047973633e-01,9.054880738258361816e-01,9.054872989654541016e-01,9.054864645004272461e-01,9.054855108261108398e-01,9.054846763610839844e-01,9.054838418960571289e-01,9.054828286170959473e-01,9.054820537567138672e-01,9.054810404777526855e-01,9.054803252220153809e-01,9.054794311523437500e-01,9.054785966873168945e-01,9.054777622222900391e-01,9.054768681526184082e-01,9.054759740829467773e-01,9.054750800132751465e-01,9.054741859436035156e-01,9.054713249206542969e-01,9.054541587829589844e-01,9.054359197616577148e-01,9.055450558662414551e-01,9.057291746139526367e-01,9.056562185287475586e-01,9.051991701126098633e-01,9.061745405197143555e-01,8.978201746940612793e-01,8.871693611145019531e-01,8.820208907127380371e-01,8.577222824096679688e-01,8.399348258972167969e-01,8.216788768768310547e-01,7.387874126434326172e-01,6.927440166473388672e-01,7.029057145118713379e-01,7.353985309600830078e-01,7.724922299385070801e-01,8.177364468574523926e-01,8.430813550949096680e-01,8.663554191589355469e-01,8.821238875389099121e-01,8.917661905288696289e-01,8.930897116661071777e-01,8.886263370513916016e-01,8.806118965148925781e-01,8.717048168182373047e-01,8.583995103836059570e-01,8.301687836647033691e-01,8.092055320739746094e-01,8.015094995498657227e-01,7.755217552185058594e-01,7.228009700775146484e-01,6.167811155319213867e-01
5.885779857635498047e-01,6.139516830444335938e-01,6.565683484077453613e-01,6.573183536529541016e-01,6.808106303215026855e-01,7.049672603607177734e-01,7.413077354431152344e-01,7.626925706863403320e-01,7.833585739135742188e-01,8.018859624862670898e-01,8.195871114730834961e-01,8.359774351119995117e-01,8.508611321449279785e-01,8.641119599342346191e-01,8.756414651870727539e-01,8.851389884948730469e-01,8.922117352485656738e-01,8.969814777374267578e-01,9.002741575241088867e-01,9.024299383163452148e-01,9.036751985549926758e-01,9.043315649032592773e-01,9.045727252960205078e-01,9.046295881271362305e-01,9.046416282653808594e-01,9.046393036842346191e-01,9.046378135681152344e-01,9.046370387077331543e-01,9.046360254287719727e-01,9.046351909637451172e-01,9.046343564987182617e-01,9.046332836151123047e-01,9.046324491500854492e-01,9.046316742897033691e-01,9.046306014060974121e-01,9.046298265457153320e-01,9.046288728713989258e-01,9.046279191970825195e-01,9.046270251274108887e-01,9.046259522438049316e-01,9.046251773834228516e-01,9.046243429183959961e-01,9.046233892440795898e-01,9.046224355697631836e-01,9.046215415000915527e-01,9.046208858489990234e-01,9.046124219894409180e-01,9.046342372894287109e-01,9.046863317489624023e-01,9.047983884811401367e-01,9.050394892692565918e-01,9.052765369415283203e-01,9.051839113235473633e-01,8.974338769912719727e-01,8.882443904876708984e-01,8.802485466003417969e-01,8.575252294540405273e-01,8.453196287155151367e-01,8.250320553779602051e-01,7.410230636596679688e-01,7.051837444305419922e-01,7.180085778236389160e-01,7.447553873062133789e-01,7.968561649322509766e-01,8.257740736007690430e-01,8.476988077163696289e-01,8.709766864776611328e-01,8.828905820846557617e-01,8.932938575744628906e-01,8.932965397834777832e-01,8.880947232246398926e-01,8.798842430114746094e-01,8.705961704254150391e-01,8.578042984008789062e-01,8.292940855026245117e-01,8.083238005638122559e-01,8.008995056152343750e-01,7.746598720550537109e-01,7.219870686531066895e-01,6.162448525428771973e-01
5.889354944229125977e-01,6.138247251510620117e-01,6.562421917915344238e-01,6.566777825355529785e-01,6.799253821372985840e-01,7.037645578384399414e-01,7.398924231529235840e-01,7.610060572624206543e-01,7.815136313438415527e-01,7.999107241630554199e-01,8.175237178802490234e-01,8.339141607284545898e-01,8.489238023757934570e-01,8.623857498168945312e-01,8.741693496704101562e-01,8.838960528373718262e-01,8.910564184188842773e-01,8.958873748779296875e-01,8.992760777473449707e-01,9.014962911605834961e-01,9.027301073074340820e-01,9.033838510513305664e-01,9.036417603492736816e-01,9.037146568298339844e-01,9.037276506423950195e-01,9.037255048751831055e-01,9.037239551544189453e-01,9.037228822708129883e-01,9.037216901779174805e-01,9.037207365036010742e-01,9.037197828292846680e-01,9.037187099456787109e-01,9.037175774574279785e-01,9.037165045738220215e-01,9.037153720855712891e-01,9.037143588066101074e-01,9.037133455276489258e-01,9.037122726440429688e-01,9.037111997604370117e-01,9.037101864814758301e-01,9.037090539932250977e-01,9.037079811096191406e-01,9.037070274353027344e-01,9.037059545516967773e-01,9.037047624588012695e-01,9.037037491798400879e-01,9.036988019943237305e-01,9.036725759506225586e-01,9.037625789642333984e-01,9.035971164703369141e-01,9.035875797271728516e-01,9.040149450302124023e-01,9.034956693649291992e-01,8.961430788040161133e-01,8.878996372222900391e-01,8.760648369789123535e-01,8.621164560317993164e-01,8.478821516036987305e-01,8.146867752075195312e-01,7.469177842140197754e-01,7.232799530029296875e-01,7.301359176635742188e-01,7.549469470977783203e-01,8.030356764793395996e-01,8.326392173767089844e-01,8.516181707382202148e-01,8.717525005340576172e-01,8.855735063552856445e-01,8.943104743957519531e-01,8.933901786804199219e-01,8.869322538375854492e-01,8.794167041778564453e-01,8.701148033142089844e-01,8.571923375129699707e-01,8.286733627319335938e-01,8.075696229934692383e-01,8.000999689102172852e-01,7.738319635391235352e-01,7.208186388015747070e-01,6.147267818450927734e-01
5.881916284561157227e-01,6.121519804000854492e-01,6.544510126113891602e-01,6.547915935516357422e-01,6.775832176208496094e-01,7.009683847427368164e-01,7.370875477790832520e-01,7.582468986511230469e-01,7.788032889366149902e-01,7.971999645233154297e-01,8.147960901260375977e-01,8.312984704971313477e-01,8.464387059211730957e-01,8.599846363067626953e-01,8.718605041503906250e-01,8.816287517547607422e-01,8.889319300651550293e-01,8.940092921257019043e-01,8.974874019622802734e-01,8.997220396995544434e-01,9.009763598442077637e-01,9.016550779342651367e-01,9.019183516502380371e-01,9.019806385040283203e-01,9.019874334335327148e-01,9.019804596900939941e-01,9.019738435745239258e-01,9.019677639007568359e-01,9.019617438316345215e-01,9.019555449485778809e-01,9.019496440887451172e-01,9.019434452056884766e-01,9.019373059272766113e-01,9.019312858581542969e-01,9.019252061843872070e-01,9.019191265106201172e-01,9.019130468368530273e-01,9.019070267677307129e-01,9.019008874893188477e-01,9.018949270248413086e-01,9.018887281417846680e-01,9.018827080726623535e-01,9.018765687942504883e-01,9.018705487251281738e-01,9.018645286560058594e-01,9.018590450286865234e-01,9.018516540527343750e-01,9.018438458442687988e-01,9.018400907516479492e-01,9.018214941024780273e-01,9.018285274505615234e-01,9.020482301712036133e-01,9.008162021636962891e-01,8.949790596961975098e-01,8.848587274551391602e-01,8.736547231674194336e-01,8.616476058959960938e-01,8.445636034011840820e-01,8.051263093948364258e-01,7.409501075744628906e-01,7.264950275421142578e-01,7.286134362220764160e-01,7.627682685852050781e-01,8.119727373123168945e-01,8.348015546798706055e-01,8.544648885726928711e-01,8.744498491287231445e-01,8.855360150337219238e-01,8.913221359252929688e-01,8.920294642448425293e-01,8.859604597091674805e-01,8.779555559158325195e-01,8.685917854309082031e-01,8.557834625244140625e-01,8.273831605911254883e-01,8.065280914306640625e-01,7.989606857299804688e-01,7.723751068115234375e-01,7.195357084274291992e-01,6.129435896873474121e-01
5.862556099891662598e-01,6.094375252723693848e-01,6.514807939529418945e-01,6.515455245971679688e-01,6.740771532058715820e-01,6.969132423400878906e-01,7.324790954589843750e-01,7.531221508979797363e-01,7.730063199996948242e-01,7.909495830535888672e-01,8.082798719406127930e-01,8.245605230331420898e-01,8.395549058914184570e-01,8.531534671783447266e-01,8.651062250137329102e-01,8.749629259109497070e-01,8.823386430740356445e-01,8.874384164810180664e-01,8.910183310508728027e-01,8.932577371597290039e-01,8.945040702819824219e-01,8.952066898345947266e-01,8.954709172248840332e-01,8.955256342887878418e-01,8.955243825912475586e-01,8.955132961273193359e-01,8.955035209655761719e-01,8.954944610595703125e-01,8.954852819442749023e-01,8.954761624336242676e-01,8.954670429229736328e-01,8.954581022262573242e-01,8.954488039016723633e-01,8.954396843910217285e-01,8.954305648803710938e-01,8.954215645790100098e-01,8.954125642776489258e-01,8.954033851623535156e-01,8.953943252563476562e-01,8.953850865364074707e-01,8.953759670257568359e-01,8.953670263290405273e-01,8.953579664230346680e-01,8.953487873077392578e-01,8.953397274017333984e-01,8.953309059143066406e-01,8.953205347061157227e-01,8.953090906143188477e-01,8.953113555908203125e-01,8.953040838241577148e-01,8.951160311698913574e-01,8.949289321899414062e-01,8.943226337432861328e-01,8.873755931854248047e-01,8.771003484725952148e-01,8.685523271560668945e-01,8.537801504135131836e-01,8.336233496665954590e-01,7.924550771713256836e-01,7.243816256523132324e-01,7.143073081970214844e-01,7.219656109809875488e-01,7.636821269989013672e-01,8.012834191322326660e-01,8.259725570678710938e-01,8.498661518096923828e-01,8.692965507507324219e-01,8.815505504608154297e-01,8.862487077713012695e-01,8.855383396148681641e-01,8.801124095916748047e-01,8.724138736724853516e-01,8.629516363143920898e-01,8.499971628189086914e-01,8.217667341232299805e-01,8.014978170394897461e-01,7.943662405014038086e-01,7.679721117019653320e-01,7.155226469039916992e-01,6.079443693161010742e-01
5.823482871055603027e-01,6.035633087158203125e-01,6.450704336166381836e-01,6.443628072738647461e-01,6.657220125198364258e-01,6.876947879791259766e-01,7.224079966545104980e-01,7.425910234451293945e-01,7.618023157119750977e-01,7.788759469985961914e-01,7.956098914146423340e-01,8.115697503089904785e-01,8.266285657882690430e-01,8.405234217643737793e-01,8.527947068214416504e-01,8.630770444869995117e-01,8.709475994110107422e-01,8.763784766197204590e-01,8.801474571228027344e-01,8.825255632400512695e-01,8.838638067245483398e-01,8.845194578170776367e-01,8.847215175628662109e-01,8.847393989562988281e-01,8.847287893295288086e-01,8.847060203552246094e-01,8.846851587295532227e-01,8.846650123596191406e-01,8.846447467803955078e-01,8.846246600151062012e-01,8.846042752265930176e-01,8.845840096473693848e-01,8.845639228820800781e-01,8.845434784889221191e-01,8.845235109329223633e-01,8.845032453536987305e-01,8.844829797744750977e-01,8.844628930091857910e-01,8.844426870346069336e-01,8.844223618507385254e-01,8.844023942947387695e-01,8.843823075294494629e-01,8.843618631362915039e-01,8.843417763710021973e-01,8.843218088150024414e-01,8.843017220497131348e-01,8.842812776565551758e-01,8.842607736587524414e-01,8.842436075210571289e-01,8.842403888702392578e-01,8.840309977531433105e-01,8.841354846954345703e-01,8.834447860717773438e-01,8.759088516235351562e-01,8.639752864837646484e-01,8.575642108917236328e-01,8.367536664009094238e-01,8.187459111213684082e-01,7.639721632003784180e-01,7.147489190101623535e-01,6.959556341171264648e-01,7.087968587875366211e-01,7.514680027961730957e-01,7.807794809341430664e-01,8.101274371147155762e-01,8.377828598022460938e-01,8.563919067382812500e-01,8.693966865539550781e-01,8.755085468292236328e-01,8.744791746139526367e-01,8.697576522827148438e-01,8.619054555892944336e-01,8.528879284858703613e-01,8.399194478988647461e-01,8.112015724182128906e-01,7.921300530433654785e-01,7.858320474624633789e-01,7.610101699829101562e-01,7.075307965278625488e-01,6.019653081893920898e-01
5.752038359642028809e-01,5.937528014183044434e-01,6.341889500617980957e-01,6.314089894294738770e-01,6.507658958435058594e-01,6.714994311332702637e-01,7.052985429763793945e-01,7.246540784835815430e-01,7.431033849716186523e-01,7.594767808914184570e-01,7.753054499626159668e-01,7.904919385910034180e-01,8.051500916481018066e-01,8.185943365097045898e-01,8.304780125617980957e-01,8.404328823089599609e-01,8.479118347167968750e-01,8.532872200012207031e-01,8.570479154586791992e-01,8.593979477882385254e-01,8.606382608413696289e-01,8.611878156661987305e-01,8.613218069076538086e-01,8.613258600234985352e-01,8.612940907478332520e-01,8.612548112869262695e-01,8.612176179885864258e-01,8.611806035041809082e-01,8.611435890197753906e-01,8.611066341400146484e-01,8.610696792602539062e-01,8.610326051712036133e-01,8.609957695007324219e-01,8.609586954116821289e-01,8.609216809272766113e-01,8.608849644660949707e-01,8.608478307723999023e-01,8.608108162879943848e-01,8.607738614082336426e-01,8.607369661331176758e-01,8.607000112533569336e-01,8.606631755828857422e-01,8.606262207031250000e-01,8.605893850326538086e-01,8.605525493621826172e-01,8.605155348777770996e-01,8.604788780212402344e-01,8.604418635368347168e-01,8.604022860527038574e-01,8.603835701942443848e-01,8.603427410125732422e-01,8.612364530563354492e-01,8.593515157699584961e-01,8.525164723396301270e-01,8.420101404190063477e-01,8.340690135955810547e-01,8.077839612960815430e-01,7.753743529319763184e-01,7.246283888816833496e-01,6.829829216003417969e-01,6.657834053039550781e-01,6.835376620292663574e-01,7.284370660781860352e-01,7.533926963806152344e-01,7.806730270385742188e-01,8.104830980300903320e-01,8.341240286827087402e-01,8.468425273895263672e-01,8.530175685882568359e-01,8.514260053634643555e-01,8.467280864715576172e-01,8.390131592750549316e-01,8.302829265594482422e-01,8.173251152038574219e-01,7.881323695182800293e-01,7.704339623451232910e-01,7.674696445465087891e-01,7.442944049835205078e-01,6.928647160530090332e-01,5.924759507179260254e-01
5.642409324645996094e-01,5.783798098564147949e-01,6.170516610145568848e-01,6.110117435455322266e-01,6.274189949035644531e-01,6.464153528213500977e-01,6.783372163772583008e-01,6.956874728202819824e-01,7.117347121238708496e-01,7.257456779479980469e-01,7.394059896469116211e-01,7.528265118598937988e-01,7.661436200141906738e-01,7.786101102828979492e-01,7.895407676696777344e-01,7.988300919532775879e-01,8.062313795089721680e-01,8.115676641464233398e-01,8.152993917465209961e-01,8.176027536392211914e-01,8.186850547790527344e-01,8.189599514007568359e-01,8.189826011657714844e-01,8.189576864242553711e-01,8.189088106155395508e-01,8.188483715057373047e-01,8.187890052795410156e-01,8.187301158905029297e-01,8.186712265014648438e-01,8.186123967170715332e-01,8.185536861419677734e-01,8.184947371482849121e-01,8.184359073638916016e-01,8.183771371841430664e-01,8.183183670043945312e-01,8.182594776153564453e-01,8.182009458541870117e-01,8.181420564651489258e-01,8.180831670761108398e-01,8.180244565010070801e-01,8.179656863212585449e-01,8.179069757461547852e-01,8.178483247756958008e-01,8.177895545959472656e-01,8.177309036254882812e-01,8.176720142364501953e-01,8.176134824752807617e-01,8.175547122955322266e-01,8.174996376037597656e-01,8.174673318862915039e-01,8.176417350769042969e-01,8.187129497528076172e-01,8.145337700843811035e-01,8.066365718841552734e-01,7.994927167892456055e-01,7.885274291038513184e-01,7.644236087799072266e-01,7.319883704185485840e-01,6.726275682449340820e-01,6.439965367317199707e-01,6.285130381584167480e-01,6.444089412689208984e-01,6.781302690505981445e-01,7.069058418273925781e-01,7.352778911590576172e-01,7.656810879707336426e-01,7.911059856414794922e-01,8.037703633308410645e-01,8.085966110229492188e-01,8.086252212524414062e-01,8.044704198837280273e-01,7.972735166549682617e-01,7.896813154220581055e-01,7.776818275451660156e-01,7.482695579528808594e-01,7.333707809448242188e-01,7.347804307937622070e-01,7.137653231620788574e-01,6.687988042831420898e-01,5.797371268272399902e-01
5.497268438339233398e-01,5.539411306381225586e-01,5.888170599937438965e-01,5.787650346755981445e-01,5.919268131256103516e-01,6.082176566123962402e-01,6.378297805786132812e-01,6.524388790130615234e-01,6.663291454315185547e-01,6.780760288238525391e-01,6.894972920417785645e-01,7.006334066390991211e-01,7.116314768791198730e-01,7.215080261230468750e-01,7.303655147552490234e-01,7.380292415618896484e-01,7.437800168991088867e-01,7.477815151214599609e-01,7.504913806915283203e-01,7.519879341125488281e-01,7.524173259735107422e-01,7.524837851524353027e-01,7.524590492248535156e-01,7.523962259292602539e-01,7.523283958435058594e-01,7.522434592247009277e-01,7.521606683731079102e-01,7.520782947540283203e-01,7.519958615303039551e-01,7.519139051437377930e-01,7.518314719200134277e-01,7.517492771148681641e-01,7.516669631004333496e-01,7.515846490859985352e-01,7.515025734901428223e-01,7.514202594757080078e-01,7.513381242752075195e-01,7.512558698654174805e-01,7.511738538742065430e-01,7.510915994644165039e-01,7.510094642639160156e-01,7.509271502494812012e-01,7.508451938629150391e-01,7.507629394531250000e-01,7.506808638572692871e-01,7.505987882614135742e-01,7.505166530609130859e-01,7.504345774650573730e-01,7.503578662872314453e-01,7.503066658973693848e-01,7.511273622512817383e-01,7.508354783058166504e-01,7.463319301605224609e-01,7.379904985427856445e-01,7.336065173149108887e-01,7.176367640495300293e-01,6.924389004707336426e-01,6.642000675201416016e-01,6.005401611328125000e-01,5.948538780212402344e-01,5.897558331489562988e-01,5.906037688255310059e-01,6.212952136993408203e-01,6.530427932739257812e-01,6.810483932495117188e-01,7.036956548690795898e-01,7.293715476989746094e-01,7.387440204620361328e-01,7.414031028747558594e-01,7.404188513755798340e-01,7.365179061889648438e-01,7.303614616394042969e-01,7.243777513504028320e-01,7.131514549255371094e-01,6.837415695190429688e-01,6.730187535285949707e-01,6.819078922271728516e-01,6.631079316139221191e-01,6.338030099868774414e-01,5.564965605735778809e-01
5.325066447257995605e-01,5.236910581588745117e-01,5.545005798339843750e-01,5.385881662368774414e-01,5.464507937431335449e-01,5.593053698539733887e-01,5.835253000259399414e-01,5.946973562240600586e-01,6.051725745201110840e-01,6.133033037185668945e-01,6.213237643241882324e-01,6.292502284049987793e-01,6.369156241416931152e-01,6.437656283378601074e-01,6.499392390251159668e-01,6.547486782073974609e-01,6.579811573028564453e-01,6.604126691818237305e-01,6.619820594787597656e-01,6.628232002258300781e-01,6.630416512489318848e-01,6.630041003227233887e-01,6.629018187522888184e-01,6.628183722496032715e-01,6.627365946769714355e-01,6.626462936401367188e-01,6.625583767890930176e-01,6.624706983566284180e-01,6.623833179473876953e-01,6.622958779335021973e-01,6.622083187103271484e-01,6.621209383010864258e-01,6.620334982872009277e-01,6.619459986686706543e-01,6.618586778640747070e-01,6.617711782455444336e-01,6.616838574409484863e-01,6.615965366363525391e-01,6.615092158317565918e-01,6.614220142364501953e-01,6.613346338272094727e-01,6.612474322319030762e-01,6.611599922180175781e-01,6.610728502273559570e-01,6.609855890274047852e-01,6.608985066413879395e-01,6.608113050460815430e-01,6.607240438461303711e-01,6.606329679489135742e-01,6.605643630027770996e-01,6.617072820663452148e-01,6.597589254379272461e-01,6.548980474472045898e-01,6.498409509658813477e-01,6.480592489242553711e-01,6.246554851531982422e-01,6.092605590820312500e-01,5.815687775611877441e-01,5.399740338325500488e-01,5.281910300254821777e-01,5.256102681159973145e-01,5.380197167396545410e-01,5.607879757881164551e-01,5.884680747985839844e-01,6.050485968589782715e-01,6.279779672622680664e-01,6.427640914916992188e-01,6.492898464202880859e-01,6.530412435531616211e-01,6.510244607925415039e-01,6.489637494087219238e-01,6.443581581115722656e-01,6.405419111251831055e-01,6.308723688125610352e-01,6.034159064292907715e-01,5.960384011268615723e-01,6.116414070129394531e-01,5.968513488769531250e-01,5.880115032196044922e-01,5.268791317939758301e-01
5.115498304367065430e-01,4.893356859683990479e-01,5.141274333000183105e-01,4.908692836761474609e-01,4.924305379390716553e-01,5.010125637054443359e-01,5.196100473403930664e-01,5.275532007217407227e-01,5.347149968147277832e-01,5.395566225051879883e-01,5.444260835647583008e-01,5.495268106460571289e-01,5.545014142990112305e-01,5.588411092758178711e-01,5.624929666519165039e-01,5.652015209197998047e-01,5.675034523010253906e-01,5.691178441047668457e-01,5.702104568481445312e-01,5.707101821899414062e-01,5.708132386207580566e-01,5.707347393035888672e-01,5.705921053886413574e-01,5.705233812332153320e-01,5.704266428947448730e-01,5.703381896018981934e-01,5.702508687973022461e-01,5.701639056205749512e-01,5.700769424438476562e-01,5.699900388717651367e-01,5.699033141136169434e-01,5.698164105415344238e-01,5.697296857833862305e-01,5.696428418159484863e-01,5.695561766624450684e-01,5.694693922996520996e-01,5.693827271461486816e-01,5.692961215972900391e-01,5.692095160484313965e-01,5.691227316856384277e-01,5.690360665321350098e-01,5.689496397972106934e-01,5.688629746437072754e-01,5.687764883041381836e-01,5.686899423599243164e-01,5.686035752296447754e-01,5.685170888900756836e-01,5.684306621551513672e-01,5.683377981185913086e-01,5.682111382484436035e-01,5.691107511520385742e-01,5.673720240592956543e-01,5.634697675704956055e-01,5.613284111022949219e-01,5.603908300399780273e-01,5.358838438987731934e-01,5.263364911079406738e-01,5.054928064346313477e-01,4.724638760089874268e-01,4.698483049869537354e-01,4.674641489982604980e-01,4.898194670677185059e-01,4.904204905033111572e-01,5.185612440109252930e-01,5.257501602172851562e-01,5.426974296569824219e-01,5.544922351837158203e-01,5.610387325286865234e-01,5.625744462013244629e-01,5.616991519927978516e-01,5.590626001358032227e-01,5.556799769401550293e-01,5.537372827529907227e-01,5.455802679061889648e-01,5.215280652046203613e-01,5.174166560173034668e-01,5.384405851364135742e-01,5.280900001525878906e-01,5.396925210952758789e-01,4.965213537216186523e-01
4.905627667903900146e-01,4.556748270988464355e-01,4.712998270988464355e-01,4.408707916736602783e-01,4.361986517906188965e-01,4.405686259269714355e-01,4.539903700351715088e-01,4.580813050270080566e-01,4.624029994010925293e-01,4.647319614887237549e-01,4.672811031341552734e-01,4.700918197631835938e-01,4.728634953498840332e-01,4.754928946495056152e-01,4.778014719486236572e-01,4.795268774032592773e-01,4.808054566383361816e-01,4.817743003368377686e-01,4.823795557022094727e-01,4.826441705226898193e-01,4.826956093311309814e-01,4.826883077621459961e-01,4.826096892356872559e-01,4.825098216533660889e-01,4.824265241622924805e-01,4.823526740074157715e-01,4.822795987129211426e-01,4.822067022323608398e-01,4.821337461471557617e-01,4.820609390735626221e-01,4.819879233837127686e-01,4.819149971008300781e-01,4.818423092365264893e-01,4.817694425582885742e-01,4.816966354846954346e-01,4.816239476203918457e-01,4.815511703491210938e-01,4.814786016941070557e-01,4.814056456089019775e-01,4.813331067562103271e-01,4.812603294849395752e-01,4.811878204345703125e-01,4.811151921749114990e-01,4.810426235198974609e-01,4.809699952602386475e-01,4.808975756168365479e-01,4.808249771595001221e-01,4.807525277137756348e-01,4.806572198867797852e-01,4.804948568344116211e-01,4.809271097183227539e-01,4.798116683959960938e-01,4.789406657218933105e-01,4.795105159282684326e-01,4.761278331279754639e-01,4.613886773586273193e-01,4.528108835220336914e-01,4.408454895019531250e-01,4.261993467807769775e-01,4.182940721511840820e-01,4.191154837608337402e-01,4.190162420272827148e-01,4.324944019317626953e-01,4.444363117218017578e-01,4.563859105110168457e-01,4.643680751323699951e-01,4.713867604732513428e-01,4.762310087680816650e-01,4.766066372394561768e-01,4.772635698318481445e-01,4.767442643642425537e-01,4.753666520118713379e-01,4.753714799880981445e-01,4.695212543010711670e-01,4.495222866535186768e-01,4.482921361923217773e-01,4.718453884124755859e-01,4.688161015510559082e-01,4.950120449066162109e-01,4.691013395786285400e-01
4.694050550460815430e-01,4.224072396755218506e-01,4.285292625427246094e-01,3.950449824333190918e-01,3.840778172016143799e-01,3.856455981731414795e-01,3.960590660572052002e-01,3.989968895912170410e-01,4.020273089408874512e-01,4.032220244407653809e-01,4.044345617294311523e-01,4.056486487388610840e-01,4.066712260246276855e-01,4.076178669929504395e-01,4.084160327911376953e-01,4.090044498443603516e-01,4.096105694770812988e-01,4.101043939590454102e-01,4.103171825408935547e-01,4.103614389896392822e-01,4.103709161281585693e-01,4.102736115455627441e-01,4.102023839950561523e-01,4.101300239562988281e-01,4.100670516490936279e-01,4.100084006786346436e-01,4.099501967430114746e-01,4.098924398422241211e-01,4.098348021507263184e-01,4.097769260406494141e-01,4.097191691398620605e-01,4.096614122390747070e-01,4.096038937568664551e-01,4.095461666584014893e-01,4.094884097576141357e-01,4.094308316707611084e-01,4.093732833862304688e-01,4.093158245086669922e-01,4.092579782009124756e-01,4.092006087303161621e-01,4.091430306434631348e-01,4.090855419635772705e-01,4.090281724929809570e-01,4.089706540107727051e-01,4.089133739471435547e-01,4.088557958602905273e-01,4.087984859943389893e-01,4.087409675121307373e-01,4.086744189262390137e-01,4.085432887077331543e-01,4.086679220199584961e-01,4.081633090972900391e-01,4.084841609001159668e-01,4.094404578208923340e-01,4.054599702358245850e-01,3.969460725784301758e-01,3.900888562202453613e-01,3.783553540706634521e-01,3.763436675071716309e-01,3.717678785324096680e-01,3.725418150424957275e-01,3.792432844638824463e-01,3.835988640785217285e-01,3.895541429519653320e-01,3.937491476535797119e-01,3.998491764068603516e-01,4.027487039566040039e-01,4.054816663265228271e-01,4.071375131607055664e-01,4.061467647552490234e-01,4.055760204792022705e-01,4.045444726943969727e-01,4.052386283874511719e-01,4.015489518642425537e-01,3.856844902038574219e-01,3.876928687095642090e-01,4.135228991508483887e-01,4.177285432815551758e-01,4.560304880142211914e-01,4.460662603378295898e-01
4.513885974884033203e-01,3.938175141811370850e-01,3.929817974567413330e-01,3.572897315025329590e-01,3.413614034652709961e-01,3.406541943550109863e-01,3.481028079986572266e-01,3.498224020004272461e-01,3.515157699584960938e-01,3.519340753555297852e-01,3.524504303932189941e-01,3.529174327850341797e-01,3.533993065357208252e-01,3.538373708724975586e-01,3.541330695152282715e-01,3.542287647724151611e-01,3.543042540550231934e-01,3.541797697544097900e-01,3.540257811546325684e-01,3.539663851261138916e-01,3.539451360702514648e-01,3.539111614227294922e-01,3.538565039634704590e-01,3.538028597831726074e-01,3.537616729736328125e-01,3.537201881408691406e-01,3.536789119243621826e-01,3.536375164985656738e-01,3.535963892936706543e-01,3.535551428794860840e-01,3.535140454769134521e-01,3.534730076789855957e-01,3.534318208694458008e-01,3.533908426761627197e-01,3.533495068550109863e-01,3.533086180686950684e-01,3.532673716545104980e-01,3.532265722751617432e-01,3.531853258609771729e-01,3.531443774700164795e-01,3.531033098697662354e-01,3.530622720718383789e-01,3.530212044715881348e-01,3.529802560806274414e-01,3.529393970966339111e-01,3.528982996940612793e-01,3.528574109077453613e-01,3.528166413307189941e-01,3.527747392654418945e-01,3.526944220066070557e-01,3.526843786239624023e-01,3.527162969112396240e-01,3.531966805458068848e-01,3.533071279525756836e-01,3.520710170269012451e-01,3.496087789535522461e-01,3.449050784111022949e-01,3.396403491497039795e-01,3.352794647216796875e-01,3.331964015960693359e-01,3.330209553241729736e-01,3.357154726982116699e-01,3.374888300895690918e-01,3.440502882003784180e-01,3.471810817718505859e-01,3.492649197578430176e-01,3.522312045097351074e-01,3.516312539577484131e-01,3.520815372467041016e-01,3.519715666770935059e-01,3.516907691955566406e-01,3.512730002403259277e-01,3.521134555339813232e-01,3.495033383369445801e-01,3.363156318664550781e-01,3.391842842102050781e-01,3.653392195701599121e-01,3.756982088088989258e-01,4.224547147750854492e-01,4.258238673210144043e-01
4.349668025970458984e-01,3.689436316490173340e-01,3.612755537033081055e-01,3.251648843288421631e-01,3.061301708221435547e-01,3.047577142715454102e-01,3.108623623847961426e-01,3.122518658638000488e-01,3.134092688560485840e-01,3.134244978427886963e-01,3.134099245071411133e-01,3.134000301361083984e-01,3.134750127792358398e-01,3.135657310485839844e-01,3.135964870452880859e-01,3.136118650436401367e-01,3.135724961757659912e-01,3.135206699371337891e-01,3.135372996330261230e-01,3.135229647159576416e-01,3.134653270244598389e-01,3.134200274944305420e-01,3.133861422538757324e-01,3.133575320243835449e-01,3.133265376091003418e-01,3.132967948913574219e-01,3.132668733596801758e-01,3.132369518280029297e-01,3.132071793079376221e-01,3.131771981716156006e-01,3.131473064422607422e-01,3.131175339221954346e-01,3.130875825881958008e-01,3.130578100681304932e-01,3.130280077457427979e-01,3.129981756210327148e-01,3.129683732986450195e-01,3.129385113716125488e-01,3.129086494445800781e-01,3.128789067268371582e-01,3.128490447998046875e-01,3.128191828727722168e-01,3.127892613410949707e-01,3.127598762512207031e-01,3.127298355102539062e-01,3.127002418041229248e-01,3.126704692840576172e-01,3.126407861709594727e-01,3.126136064529418945e-01,3.125675618648529053e-01,3.125076889991760254e-01,3.125153183937072754e-01,3.127245306968688965e-01,3.122784197330474854e-01,3.120236992835998535e-01,3.112660646438598633e-01,3.090177476406097412e-01,3.055462241172790527e-01,3.044874668121337891e-01,3.018688559532165527e-01,3.056722879409790039e-01,3.045906424522399902e-01,3.072821199893951416e-01,3.083962798118591309e-01,3.085309863090515137e-01,3.096264600753784180e-01,3.112628161907196045e-01,3.120011091232299805e-01,3.119904994964599609e-01,3.119424581527709961e-01,3.116596937179565430e-01,3.115557432174682617e-01,3.122445344924926758e-01,3.104337155818939209e-01,2.992417812347412109e-01,3.026009500026702881e-01,3.288342356681823730e-01,3.441992402076721191e-01,3.968370258808135986e-01,4.101076126098632812e-01
4.212135672569274902e-01,3.491303920745849609e-01,3.364110887050628662e-01,2.999976873397827148e-01,2.791742682456970215e-01,2.769976258277893066e-01,2.819523811340332031e-01,2.831178009510040283e-01,2.840014696121215820e-01,2.838922739028930664e-01,2.838523387908935547e-01,2.838500738143920898e-01,2.838335633277893066e-01,2.838159799575805664e-01,2.838016748428344727e-01,2.837640345096588135e-01,2.837244570255279541e-01,2.836949229240417480e-01,2.836700677871704102e-01,2.836354970932006836e-01,2.836087048053741455e-01,2.835869491100311279e-01,2.835645377635955811e-01,2.835419774055480957e-01,2.835209369659423828e-01,2.834993600845336914e-01,2.834776043891906738e-01,2.834558486938476562e-01,2.834342718124389648e-01,2.834126651287078857e-01,2.833909392356872559e-01,2.833691835403442383e-01,2.833475172519683838e-01,2.833259403705596924e-01,2.833043932914733887e-01,2.832826972007751465e-01,2.832610309123992920e-01,2.832394540309906006e-01,2.832178473472595215e-01,2.831961810588836670e-01,2.831746935844421387e-01,2.831529974937438965e-01,2.831315398216247559e-01,2.831099629402160645e-01,2.830881476402282715e-01,2.830666005611419678e-01,2.830451726913452148e-01,2.830234766006469727e-01,2.830073833465576172e-01,2.829796075820922852e-01,2.829545736312866211e-01,2.829530239105224609e-01,2.829577922821044922e-01,2.827641963958740234e-01,2.830186486244201660e-01,2.831742465496063232e-01,2.827543616294860840e-01,2.805215716361999512e-01,2.796681523323059082e-01,2.797122001647949219e-01,2.796091437339782715e-01,2.802708148956298828e-01,2.800711393356323242e-01,2.804903388023376465e-01,2.810696363449096680e-01,2.824656367301940918e-01,2.821516692638397217e-01,2.826069891452789307e-01,2.826196551322937012e-01,2.826815843582153320e-01,2.825614809989929199e-01,2.824527621269226074e-01,2.831079363822937012e-01,2.817929983139038086e-01,2.718695104122161865e-01,2.751440405845642090e-01,3.007478117942810059e-01,3.195698261260986328e-01,3.763036727905273438e-01,3.975827693939208984e-01
4.091785550117492676e-01,3.324946761131286621e-01,3.159831464290618896e-01,2.799538075923919678e-01,2.584270834922790527e-01,2.558364272117614746e-01,2.600303888320922852e-01,2.610238790512084961e-01,2.617969512939453125e-01,2.617118954658508301e-01,2.616712450981140137e-01,2.616490423679351807e-01,2.616293430328369141e-01,2.616136372089385986e-01,2.615970969200134277e-01,2.615798115730285645e-01,2.615639865398406982e-01,2.615485787391662598e-01,2.615315318107604980e-01,2.615138292312622070e-01,2.614974677562713623e-01,2.614818811416625977e-01,2.614655494689941406e-01,2.614492177963256836e-01,2.614330053329467773e-01,2.614164650440216064e-01,2.613998949527740479e-01,2.613832354545593262e-01,2.613669037818908691e-01,2.613504528999328613e-01,2.613338828086853027e-01,2.613175511360168457e-01,2.613008618354797363e-01,2.612845301628112793e-01,2.612681686878204346e-01,2.612515687942504883e-01,2.612352967262268066e-01,2.612186670303344727e-01,2.612023353576660156e-01,2.611856460571289062e-01,2.611691951751708984e-01,2.611529529094696045e-01,2.611364722251892090e-01,2.611199021339416504e-01,2.611038088798522949e-01,2.610872685909271240e-01,2.610708177089691162e-01,2.610544264316558838e-01,2.610403299331665039e-01,2.610230743885040283e-01,2.609962224960327148e-01,2.610124349594116211e-01,2.609299421310424805e-01,2.607793211936950684e-01,2.610370218753814697e-01,2.610839307308197021e-01,2.605859637260437012e-01,2.601713240146636963e-01,2.594966292381286621e-01,2.587650716304779053e-01,2.598191201686859131e-01,2.602367103099822998e-01,2.602630257606506348e-01,2.606577873229980469e-01,2.606315612792968750e-01,2.604659199714660645e-01,2.605445683002471924e-01,2.603693008422851562e-01,2.608076333999633789e-01,2.606577873229980469e-01,2.607304453849792480e-01,2.606154680252075195e-01,2.611263990402221680e-01,2.600743770599365234e-01,2.511764168739318848e-01,2.544541358947753906e-01,2.794659733772277832e-01,3.010007143020629883e-01,3.605895042419433594e-01,3.876357972621917725e-01
3.991120457649230957e-01,3.188945055007934570e-01,2.997304201126098633e-01,2.643912434577941895e-01,2.423082292079925537e-01,2.394204735755920410e-01,2.430811226367950439e-01,2.439716458320617676e-01,2.446628510951995850e-01,2.445996105670928955e-01,2.445671856403350830e-01,2.445522844791412354e-01,2.445377409458160400e-01,2.445238828659057617e-01,2.445093095302581787e-01,2.444947957992553711e-01,2.444810867309570312e-01,2.444678544998168945e-01,2.444544434547424316e-01,2.444411218166351318e-01,2.444281876087188721e-01,2.444153726100921631e-01,2.444028854370117188e-01,2.443898916244506836e-01,2.443768680095672607e-01,2.443639338016510010e-01,2.443512380123138428e-01,2.443381547927856445e-01,2.443253099918365479e-01,2.443123757839202881e-01,2.442993819713592529e-01,2.442865371704101562e-01,2.442736625671386719e-01,2.442609369754791260e-01,2.442479431629180908e-01,2.442350685596466064e-01,2.442222833633422852e-01,2.442092597484588623e-01,2.441962063312530518e-01,2.441834211349487305e-01,2.441707849502563477e-01,2.441577017307281494e-01,2.441448867321014404e-01,2.441319227218627930e-01,2.441191673278808594e-01,2.441065609455108643e-01,2.440934181213378906e-01,2.440805435180664062e-01,2.440690696239471436e-01,2.440552711486816406e-01,2.440451383590698242e-01,2.440255582332611084e-01,2.440107464790344238e-01,2.439845502376556396e-01,2.440163195133209229e-01,2.439856231212615967e-01,2.441214025020599365e-01,2.439576983451843262e-01,2.437417805194854736e-01,2.434242367744445801e-01,2.434034645557403564e-01,2.433324158191680908e-01,2.436468899250030518e-01,2.438091337680816650e-01,2.438247203826904297e-01,2.439287900924682617e-01,2.440025508403778076e-01,2.438569366931915283e-01,2.438454329967498779e-01,2.437714040279388428e-01,2.437815666198730469e-01,2.437132000923156738e-01,2.441461980342864990e-01,2.433085441589355469e-01,2.352291643619537354e-01,2.385410964488983154e-01,2.629382610321044922e-01,2.863720357418060303e-01,3.479843139648437500e-01,3.796846270561218262e-01
3.908106088638305664e-01,3.077807426452636719e-01,2.866303324699401855e-01,2.519702613353729248e-01,2.295346558094024658e-01,2.264076173305511475e-01,2.296737730503082275e-01,2.304637432098388672e-01,2.310855686664581299e-01,2.310307323932647705e-01,2.310038506984710693e-01,2.309933304786682129e-01,2.309826016426086426e-01,2.309724688529968262e-01,2.309619188308715820e-01,2.309519350528717041e-01,2.309416532516479492e-01,2.309310138225555420e-01,2.309206426143646240e-01,2.309100925922393799e-01,2.308998107910156250e-01,2.308894693851470947e-01,2.308791279792785645e-01,2.308687865734100342e-01,2.308583855628967285e-01,2.308479845523834229e-01,2.308376133441925049e-01,2.308273613452911377e-01,2.308168411254882812e-01,2.308066785335540771e-01,2.307962775230407715e-01,2.307857573032379150e-01,2.307756245136260986e-01,2.307651638984680176e-01,2.307547032833099365e-01,2.307445406913757324e-01,2.307341396808624268e-01,2.307238578796386719e-01,2.307132184505462646e-01,2.307030856609344482e-01,2.306925654411315918e-01,2.306823730468750000e-01,2.306721508502960205e-01,2.306617200374603271e-01,2.306511700153350830e-01,2.306409776210784912e-01,2.306306958198547363e-01,2.306202054023742676e-01,2.306105494499206543e-01,2.306003570556640625e-01,2.305892109870910645e-01,2.305796742439270020e-01,2.305598556995391846e-01,2.305543422698974609e-01,2.305486798286437988e-01,2.305195629596710205e-01,2.305030226707458496e-01,2.305453121662139893e-01,2.304033339023590088e-01,2.303540706634521484e-01,2.302394211292266846e-01,2.303526997566223145e-01,2.304132282733917236e-01,2.304494082927703857e-01,2.304296195507049561e-01,2.303937077522277832e-01,2.303959429264068604e-01,2.304100394248962402e-01,2.304031252861022949e-01,2.304113209247589111e-01,2.303846776485443115e-01,2.303343117237091064e-01,2.306823730468750000e-01,2.300089299678802490e-01,2.225940227508544922e-01,2.259171307086944580e-01,2.498122453689575195e-01,2.745953798294067383e-01,3.377305269241333008e-01,3.732004463672637939e-01
3.838117420673370361e-01,2.985795140266418457e-01,2.758316993713378906e-01,2.418469488620758057e-01,2.191918790340423584e-01,2.158593535423278809e-01,2.188150286674499512e-01,2.195166349411010742e-01,2.200828194618225098e-01,2.200352549552917480e-01,2.200123965740203857e-01,2.200038135051727295e-01,2.199952602386474609e-01,2.199866473674774170e-01,2.199780941009521484e-01,2.199696004390716553e-01,2.199610769748687744e-01,2.199524939060211182e-01,2.199441194534301758e-01,2.199356555938720703e-01,2.199271917343139648e-01,2.199185490608215332e-01,2.199101150035858154e-01,2.199015319347381592e-01,2.198930680751800537e-01,2.198845744132995605e-01,2.198758721351623535e-01,2.198674976825714111e-01,2.198591530323028564e-01,2.198506593704223633e-01,2.198422253131866455e-01,2.198337614536285400e-01,2.198251187801361084e-01,2.198166251182556152e-01,2.198080122470855713e-01,2.197996079921722412e-01,2.197909653186798096e-01,2.197827100753784180e-01,2.197740375995635986e-01,2.197657525539398193e-01,2.197573482990264893e-01,2.197487950325012207e-01,2.197404801845550537e-01,2.197318077087402344e-01,2.197235226631164551e-01,2.197149395942687988e-01,2.197064459323883057e-01,2.196981310844421387e-01,2.196894884109497070e-01,2.196811735630035400e-01,2.196730077266693115e-01,2.196631729602813721e-01,2.196554839611053467e-01,2.196467220783233643e-01,2.196335494518280029e-01,2.196291983127593994e-01,2.196422517299652100e-01,2.196361422538757324e-01,2.196450233459472656e-01,2.195850014686584473e-01,2.195885181427001953e-01,2.195274531841278076e-01,2.195669710636138916e-01,2.195306718349456787e-01,2.195594310760498047e-01,2.195514440536499023e-01,2.195478081703186035e-01,2.195361256599426270e-01,2.195244133472442627e-01,2.195134758949279785e-01,2.195084095001220703e-01,2.194568514823913574e-01,2.197639346122741699e-01,2.192143499851226807e-01,2.123450040817260742e-01,2.156739532947540283e-01,2.391579449176788330e-01,2.649279832839965820e-01,3.292300105094909668e-01,3.678081035614013672e-01
3.778383433818817139e-01,2.908454537391662598e-01,2.668085098266601562e-01,2.334601581096649170e-01,2.106600105762481689e-01,2.071501910686492920e-01,2.098540663719177246e-01,2.104777693748474121e-01,2.109951078891754150e-01,2.109532356262207031e-01,2.109333872795104980e-01,2.109262049198150635e-01,2.109191417694091797e-01,2.109121978282928467e-01,2.109050154685974121e-01,2.108977437019348145e-01,2.108910083770751953e-01,2.108837068080902100e-01,2.108767628669738770e-01,2.108694612979888916e-01,2.108623683452606201e-01,2.108552455902099609e-01,2.108482122421264648e-01,2.108413577079772949e-01,2.108341157436370850e-01,2.108270227909088135e-01,2.108197510242462158e-01,2.108129262924194336e-01,2.108057141304016113e-01,2.107987105846405029e-01,2.107914984226226807e-01,2.107845842838287354e-01,2.107775509357452393e-01,2.107704877853393555e-01,2.107634246349334717e-01,2.107562422752380371e-01,2.107491791248321533e-01,2.107419371604919434e-01,2.107350528240203857e-01,2.107281088829040527e-01,2.107209265232086182e-01,2.107138931751251221e-01,2.107068598270416260e-01,2.106998562812805176e-01,2.106928825378417969e-01,2.106855213642120361e-01,2.106787562370300293e-01,2.106716334819793701e-01,2.106646299362182617e-01,2.106574475765228271e-01,2.106506526470184326e-01,2.106434404850006104e-01,2.106355428695678711e-01,2.106287777423858643e-01,2.106209695339202881e-01,2.106139957904815674e-01,2.106091678142547607e-01,2.106050252914428711e-01,2.105969190597534180e-01,2.105852365493774414e-01,2.105803191661834717e-01,2.105760872364044189e-01,2.105645239353179932e-01,2.105553448200225830e-01,2.105498909950256348e-01,2.105472087860107422e-01,2.105390429496765137e-01,2.105289399623870850e-01,2.105217576026916504e-01,2.105151414871215820e-01,2.105095088481903076e-01,2.104701101779937744e-01,2.107363939285278320e-01,2.102893292903900146e-01,2.038737535476684570e-01,2.072034478187561035e-01,2.303389906883239746e-01,2.568516135215759277e-01,3.220625519752502441e-01,3.632458448410034180e-01
3.726812005043029785e-01,2.842522561550140381e-01,2.591628432273864746e-01,2.264006435871124268e-01,2.035081386566162109e-01,1.998436152935028076e-01,2.023409903049468994e-01,2.028959393501281738e-01,2.033720910549163818e-01,2.033348977565765381e-01,2.033174037933349609e-01,2.033112943172454834e-01,2.033053636550903320e-01,2.032993435859680176e-01,2.032934427261352539e-01,2.032872736454010010e-01,2.032814323902130127e-01,2.032754719257354736e-01,2.032694220542907715e-01,2.032633125782012939e-01,2.032574713230133057e-01,2.032514810562133789e-01,2.032455205917358398e-01,2.032395303249359131e-01,2.032334804534912109e-01,2.032275795936584473e-01,2.032213211059570312e-01,2.032154798507690430e-01,2.032096683979034424e-01,2.032036483287811279e-01,2.031976282596588135e-01,2.031915485858917236e-01,2.031857073307037354e-01,2.031796276569366455e-01,2.031737864017486572e-01,2.031675279140472412e-01,2.031616568565368652e-01,2.031558752059936523e-01,2.031498253345489502e-01,2.031438648700714111e-01,2.031381130218505859e-01,2.031319141387939453e-01,2.031260132789611816e-01,2.031199038028717041e-01,2.031139433383941650e-01,2.031080722808837891e-01,2.031020224094390869e-01,2.030960321426391602e-01,2.030900716781616211e-01,2.030842304229736328e-01,2.030782103538513184e-01,2.030723989009857178e-01,2.030664682388305664e-01,2.030602991580963135e-01,2.030539512634277344e-01,2.030477523803710938e-01,2.030417621135711670e-01,2.030372619628906250e-01,2.030304670333862305e-01,2.030253708362579346e-01,2.030191123485565186e-01,2.030154466629028320e-01,2.030085623264312744e-01,2.030014991760253906e-01,2.029947042465209961e-01,2.029899060726165771e-01,2.029836177825927734e-01,2.029775381088256836e-01,2.029702961444854736e-01,2.029649019241333008e-01,2.029578983783721924e-01,2.029251456260681152e-01,2.031604349613189697e-01,2.027960419654846191e-01,1.967620551586151123e-01,2.000899612903594971e-01,2.229240238666534424e-01,2.500064969062805176e-01,3.159354627132415771e-01,3.593337535858154297e-01
3.681846261024475098e-01,2.785665988922119141e-01,2.526071667671203613e-01,2.203805446624755859e-01,1.974323391914367676e-01,1.936313509941101074e-01,1.959566771984100342e-01,1.964515149593353271e-01,1.968921720981597900e-01,1.968588829040527344e-01,1.968432664871215820e-01,1.968380510807037354e-01,1.968330144882202148e-01,1.968280076980590820e-01,1.968227922916412354e-01,1.968176960945129395e-01,1.968125104904174805e-01,1.968073844909667969e-01,1.968022286891937256e-01,1.967971622943878174e-01,1.967919468879699707e-01,1.967868208885192871e-01,1.967818140983581543e-01,1.967765390872955322e-01,1.967714726924896240e-01,1.967663168907165527e-01,1.967611312866210938e-01,1.967561841011047363e-01,1.967509984970092773e-01,1.967458128929138184e-01,1.967406868934631348e-01,1.967355012893676758e-01,1.967305839061737061e-01,1.967253684997558594e-01,1.967203915119171143e-01,1.967151761054992676e-01,1.967101693153381348e-01,1.967051327228546143e-01,1.966999471187591553e-01,1.966950297355651855e-01,1.966896951198577881e-01,1.966845989227294922e-01,1.966793835163116455e-01,1.966745555400848389e-01,1.966693997383117676e-01,1.966641843318939209e-01,1.966590881347656250e-01,1.966540515422821045e-01,1.966489255428314209e-01,1.966437995433807373e-01,1.966387927532196045e-01,1.966336369514465332e-01,1.966286301612854004e-01,1.966232955455780029e-01,1.966181695461273193e-01,1.966132223606109619e-01,1.966080665588378906e-01,1.966030597686767578e-01,1.965979039669036865e-01,1.965928375720977783e-01,1.965876817703247070e-01,1.965825259685516357e-01,1.965775787830352783e-01,1.965723037719726562e-01,1.965674459934234619e-01,1.965622603893280029e-01,1.965570449829101562e-01,1.965519785881042480e-01,1.965468227863311768e-01,1.965419948101043701e-01,1.965360939502716064e-01,1.965066492557525635e-01,1.967172324657440186e-01,1.964207589626312256e-01,1.907120347023010254e-01,1.940362751483917236e-01,2.166065573692321777e-01,2.441323697566986084e-01,3.106369972229003906e-01,3.559414148330688477e-01
3.642297685146331787e-01,2.736138105392456055e-01,2.469275891780853271e-01,2.151890099048614502e-01,1.922102570533752441e-01,1.882888078689575195e-01,1.904685497283935547e-01,1.909105181694030762e-01,1.913208067417144775e-01,1.912905275821685791e-01,1.912765502929687500e-01,1.912720501422882080e-01,1.912674903869628906e-01,1.912632584571838379e-01,1.912587285041809082e-01,1.912542879581451416e-01,1.912500262260437012e-01,1.912454366683959961e-01,1.912412047386169434e-01,1.912366747856140137e-01,1.912322044372558594e-01,1.912277340888977051e-01,1.912234425544738770e-01,1.912187635898590088e-01,1.912144720554351807e-01,1.912100017070770264e-01,1.912057697772979736e-01,1.912012398242950439e-01,1.911968290805816650e-01,1.911924481391906738e-01,1.911879181861877441e-01,1.911835968494415283e-01,1.911789178848266602e-01,1.911745965480804443e-01,1.911702156066894531e-01,1.911658346652984619e-01,1.911614537239074707e-01,1.911568045616149902e-01,1.911526024341583252e-01,1.911481618881225586e-01,1.911437809467315674e-01,1.911393105983734131e-01,1.911349892616271973e-01,1.911305785179138184e-01,1.911261081695556641e-01,1.911217570304870605e-01,1.911173760890960693e-01,1.911128461360931396e-01,1.911084949970245361e-01,1.911041140556335449e-01,1.910997629165649414e-01,1.910952627658843994e-01,1.910908222198486328e-01,1.910865008831024170e-01,1.910821199417114258e-01,1.910775899887084961e-01,1.910731494426727295e-01,1.910687386989593506e-01,1.910642981529235840e-01,1.910599470138549805e-01,1.910555064678192139e-01,1.910511553287506104e-01,1.910467743873596191e-01,1.910423338413238525e-01,1.910378932952880859e-01,1.910336911678314209e-01,1.910291612148284912e-01,1.910247504711151123e-01,1.910203099250793457e-01,1.910158097743988037e-01,1.910108923912048340e-01,1.909845769405364990e-01,1.911749541759490967e-01,1.909350752830505371e-01,1.855059266090393066e-01,1.888258755207061768e-01,2.111620306968688965e-01,2.390384674072265625e-01,3.060089647769927979e-01,3.529712855815887451e-01
3.607229590415954590e-01,2.692649364471435547e-01,2.419615387916564941e-01,2.106682956218719482e-01,1.876763403415679932e-01,1.836453080177307129e-01,1.856978833675384521e-01,1.860927641391754150e-01,1.864763796329498291e-01,1.864489614963531494e-01,1.864361464977264404e-01,1.864323318004608154e-01,1.864283382892608643e-01,1.864245533943176270e-01,1.864205002784729004e-01,1.864170134067535400e-01,1.864129006862640381e-01,1.864090859889984131e-01,1.864052712917327881e-01,1.864014267921447754e-01,1.863976120948791504e-01,1.863935589790344238e-01,1.863898634910583496e-01,1.863859295845031738e-01,1.863820254802703857e-01,1.863782107830047607e-01,1.863743364810943604e-01,1.863704919815063477e-01,1.863666474819183350e-01,1.863626539707183838e-01,1.863588988780975342e-01,1.863547861576080322e-01,1.863511502742767334e-01,1.863472163677215576e-01,1.863436996936798096e-01,1.863396465778350830e-01,1.863358616828918457e-01,1.863318383693695068e-01,1.863282322883605957e-01,1.863242387771606445e-01,1.863203942775726318e-01,1.863164305686950684e-01,1.863125264644622803e-01,1.863087415695190430e-01,1.863048970699310303e-01,1.863010525703430176e-01,1.862970590591430664e-01,1.862933039665222168e-01,1.862895190715789795e-01,1.862859427928924561e-01,1.862819492816925049e-01,1.862780153751373291e-01,1.862741708755493164e-01,1.862702667713165283e-01,1.862664818763732910e-01,1.862625777721405029e-01,1.862587332725524902e-01,1.862547397613525391e-01,1.862509846687316895e-01,1.862472593784332275e-01,1.862434446811676025e-01,1.862395703792572021e-01,1.862357258796691895e-01,1.862317919731140137e-01,1.862280666828155518e-01,1.862240433692932129e-01,1.862203478813171387e-01,1.862166523933410645e-01,1.862126886844635010e-01,1.862088739871978760e-01,1.862041950225830078e-01,1.861808001995086670e-01,1.863545477390289307e-01,1.861625611782073975e-01,1.809774339199066162e-01,1.842918992042541504e-01,2.064209878444671631e-01,2.345718145370483398e-01,3.019205033779144287e-01,3.503386378288269043e-01
