5.859888792037963867e-01,6.085692048072814941e-01,6.532143354415893555e-01,6.542297601699829102e-01,6.774973869323730469e-01,7.013384103775024414e-01,7.378509044647216797e-01,7.591892480850219727e-01,7.801097035408020020e-01,7.990742325782775879e-01,8.174586892127990723e-01,8.348029255867004395e-01,8.496586084365844727e-01,8.628398180007934570e-01,8.746954202651977539e-01,8.841701745986938477e-01,8.913399577140808105e-01,8.960804343223571777e-01,8.991935253143310547e-01,9.009400010108947754e-01,9.020607471466064453e-01,9.028348326683044434e-01,9.030657410621643066e-01,9.031407833099365234e-01,9.031517505645751953e-01,9.031503200531005859e-01,9.031499028205871582e-01,9.031499028205871582e-01,9.031499028205871582e-01,9.031499028205871582e-01,9.031499028205871582e-01,9.031499028205871582e-01,9.031499028205871582e-01,9.031499028205871582e-01,9.031499028205871582e-01,9.031499028205871582e-01,9.031499028205871582e-01,9.031499028205871582e-01,9.031499028205871582e-01,9.031499028205871582e-01,9.031499028205871582e-01,9.031499028205871582e-01,9.031499028205871582e-01,9.031521081924438477e-01,9.031544923782348633e-01,9.034146666526794434e-01,9.034947156906127930e-01,9.033833742141723633e-01,8.986890316009521484e-01,8.908197283744812012e-01,8.804768919944763184e-01,8.627977371215820312e-01,8.385857343673706055e-01,7.863732576370239258e-01,6.982939243316650391e-01,6.212390661239624023e-01,5.616756677627563477e-01,5.118833780288696289e-01,4.790305197238922119e-01,4.420456886291503906e-01,4.268802106380462646e-01,4.286309778690338135e-01,4.462165832519531250e-01,4.768542051315307617e-01,5.515843629837036133e-01,6.012228131294250488e-01,6.391572952270507812e-01,7.154469490051269531e-01,7.820973396301269531e-01,8.189846277236938477e-01,8.428192138671875000e-01,8.518557548522949219e-01,8.523759841918945312e-01,8.481867313385009766e-01,8.240913152694702148e-01,8.062798976898193359e-01,7.980817556381225586e-01,7.737840414047241211e-01,7.201458811759948730e-01,6.137495040893554688e-01
5.889579057693481445e-01,6.137161850929260254e-01,6.569483280181884766e-01,6.574064493179321289e-01,6.812258958816528320e-01,7.053275108337402344e-01,7.418459653854370117e-01,7.632312774658203125e-01,7.838411331176757812e-01,8.024215102195739746e-01,8.205614089965820312e-01,8.372577428817749023e-01,8.524588346481323242e-01,8.655391931533813477e-01,8.768956065177917480e-01,8.865475654602050781e-01,8.936623334884643555e-01,8.983408212661743164e-01,9.015564918518066406e-01,9.035388827323913574e-01,9.046003818511962891e-01,9.052472710609436035e-01,9.055244922637939453e-01,9.055814743041992188e-01,9.055951833724975586e-01,9.055936336517333984e-01,9.055932760238647461e-01,9.055932760238647461e-01,9.055932760238647461e-01,9.055932760238647461e-01,9.055932760238647461e-01,9.055932760238647461e-01,9.055932760238647461e-01,9.055932760238647461e-01,9.055932760238647461e-01,9.055932760238647461e-01,9.055932760238647461e-01,9.055932760238647461e-01,9.055932760238647461e-01,9.055932760238647461e-01,9.055932760238647461e-01,9.055932760238647461e-01,9.055932760238647461e-01,9.055895805358886719e-01,9.056012034416198730e-01,9.057171344757080078e-01,9.059783220291137695e-01,9.056904315948486328e-01,9.016906023025512695e-01,8.967597484588623047e-01,8.826361894607543945e-01,8.663702011108398438e-01,8.414244055747985840e-01,8.024893999099731445e-01,7.047235369682312012e-01,6.235871911048889160e-01,5.646829009056091309e-01,5.111405253410339355e-01,4.780658781528472900e-01,4.463129043579101562e-01,4.401877224445343018e-01,4.322884976863861084e-01,4.525685608386993408e-01,4.785339236259460449e-01,5.572952628135681152e-01,5.853546857833862305e-01,6.489494442939758301e-01,7.062096595764160156e-01,7.703325748443603516e-01,8.131752014160156250e-01,8.426135778427124023e-01,8.502734899520874023e-01,8.524920940399169922e-01,8.480017781257629395e-01,8.250693678855895996e-01,8.083384633064270020e-01,8.008376359939575195e-01,7.756696343421936035e-01,7.220003604888916016e-01,6.158927679061889648e-01
5.884764790534973145e-01,6.139601469039916992e-01,6.563314199447631836e-01,6.571244001388549805e-01,6.807258725166320801e-01,7.049885392189025879e-01,7.413094043731689453e-01,7.627389430999755859e-01,7.834843993186950684e-01,8.020351529121398926e-01,8.197860717773437500e-01,8.366067409515380859e-01,8.516547083854675293e-01,8.648966550827026367e-01,8.764174580574035645e-01,8.860179781913757324e-01,8.930645585060119629e-01,8.978267312049865723e-01,9.010757207870483398e-01,9.031780958175659180e-01,9.043441414833068848e-01,9.049906730651855469e-01,9.052336215972900391e-01,9.052965044975280762e-01,9.053111076354980469e-01,9.053096771240234375e-01,9.053092002868652344e-01,9.053092002868652344e-01,9.053092002868652344e-01,9.053092002868652344e-01,9.053092002868652344e-01,9.053092002868652344e-01,9.053092002868652344e-01,9.053092002868652344e-01,9.053092002868652344e-01,9.053092002868652344e-01,9.053092002868652344e-01,9.053092002868652344e-01,9.053092002868652344e-01,9.053092002868652344e-01,9.053092002868652344e-01,9.053092002868652344e-01,9.053092002868652344e-01,9.053105115890502930e-01,9.052977561950683594e-01,9.053096771240234375e-01,9.059400558471679688e-01,9.058806896209716797e-01,9.033488035202026367e-01,8.967679738998413086e-01,8.869314789772033691e-01,8.694292306900024414e-01,8.450145721435546875e-01,7.966585755348205566e-01,7.170290946960449219e-01,6.239186525344848633e-01,5.584186315536499023e-01,5.070900917053222656e-01,4.825227856636047363e-01,4.493603706359863281e-01,4.376049041748046875e-01,4.302473068237304688e-01,4.584023654460906982e-01,4.939053952693939209e-01,5.469129085540771484e-01,5.848668217658996582e-01,6.388216018676757812e-01,7.020536065101623535e-01,7.481102347373962402e-01,8.091014623641967773e-01,8.357802629470825195e-01,8.478553295135498047e-01,8.434978723526000977e-01,8.453683853149414062e-01,8.236891031265258789e-01,8.070497512817382812e-01,8.002908229827880859e-01,7.749470472335815430e-01,7.222394943237304688e-01,6.163026690483093262e-01
5.885016918182373047e-01,6.139486432075500488e-01,6.565045118331909180e-01,6.572782993316650391e-01,6.807779073715209961e-01,7.049952149391174316e-01,7.413744926452636719e-01,7.627739906311035156e-01,7.835455536842346191e-01,8.021693229675292969e-01,8.199288845062255859e-01,8.364092111587524414e-01,8.515364527702331543e-01,8.648514151573181152e-01,8.763728737831115723e-01,8.859378695487976074e-01,8.930209875106811523e-01,8.977286815643310547e-01,9.010208845138549805e-01,9.031491279602050781e-01,9.043531417846679688e-01,9.050096869468688965e-01,9.052693843841552734e-01,9.053224921226501465e-01,9.053357839584350586e-01,9.053343534469604492e-01,9.053338766098022461e-01,9.053338766098022461e-01,9.053338766098022461e-01,9.053338766098022461e-01,9.053338766098022461e-01,9.053338766098022461e-01,9.053338766098022461e-01,9.053338766098022461e-01,9.053338766098022461e-01,9.053338766098022461e-01,9.053338766098022461e-01,9.053338766098022461e-01,9.053338766098022461e-01,9.053338766098022461e-01,9.053338766098022461e-01,9.053338766098022461e-01,9.053338766098022461e-01,9.053316712379455566e-01,9.053173661231994629e-01,9.052952527999877930e-01,9.058381915092468262e-01,9.064769148826599121e-01,9.034410715103149414e-01,8.981536030769348145e-01,8.888970613479614258e-01,8.690366744995117188e-01,8.460551500320434570e-01,8.067247271537780762e-01,7.339850664138793945e-01,6.389336585998535156e-01,5.679134726524353027e-01,5.162558555603027344e-01,4.825738370418548584e-01,4.606289863586425781e-01,4.429952204227447510e-01,4.328692257404327393e-01,4.675748944282531738e-01,4.915781319141387939e-01,5.460112094879150391e-01,5.949189662933349609e-01,6.364125013351440430e-01,6.909373402595520020e-01,7.382804751396179199e-01,7.963767051696777344e-01,8.232984542846679688e-01,8.379092216491699219e-01,8.440936803817749023e-01,8.404226303100585938e-01,8.184492588043212891e-01,8.048112392425537109e-01,8.008438348770141602e-01,7.746345400810241699e-01,7.221429347991943359e-01,6.163986921310424805e-01
5.884806513786315918e-01,6.139115691184997559e-01,6.564786434173583984e-01,6.572386622428894043e-01,6.807472705841064453e-01,7.049654722213745117e-01,7.413303256034851074e-01,7.627440094947814941e-01,7.835177183151245117e-01,8.021481037139892578e-01,8.199404478073120117e-01,8.364357948303222656e-01,8.513958454132080078e-01,8.647888898849487305e-01,8.763930797576904297e-01,8.858845233917236328e-01,8.929586410522460938e-01,8.977018594741821289e-01,9.009693861007690430e-01,9.031198024749755859e-01,9.043424129486083984e-01,9.050059318542480469e-01,9.052580595016479492e-01,9.053188562393188477e-01,9.053306579589843750e-01,9.053287506103515625e-01,9.053283333778381348e-01,9.053283333778381348e-01,9.053283333778381348e-01,9.053283333778381348e-01,9.053283333778381348e-01,9.053283333778381348e-01,9.053283333778381348e-01,9.053283333778381348e-01,9.053283333778381348e-01,9.053283333778381348e-01,9.053283333778381348e-01,9.053283333778381348e-01,9.053283333778381348e-01,9.053283333778381348e-01,9.053283333778381348e-01,9.053283333778381348e-01,9.053283333778381348e-01,9.053283929824829102e-01,9.053215980529785156e-01,9.053577780723571777e-01,9.057736396789550781e-01,9.065469503402709961e-01,9.036681056022644043e-01,9.003074169158935547e-01,8.918236494064331055e-01,8.724658489227294922e-01,8.514928817749023438e-01,8.119176030158996582e-01,7.503215670585632324e-01,6.472992897033691406e-01,5.821694135665893555e-01,5.217960476875305176e-01,4.861669242382049561e-01,4.675297439098358154e-01,4.472258090972900391e-01,4.503626823425292969e-01,4.690035581588745117e-01,4.905228018760681152e-01,5.546643137931823730e-01,5.883320569992065430e-01,6.304517984390258789e-01,6.649851202964782715e-01,7.321176528930664062e-01,7.759636640548706055e-01,8.135237693786621094e-01,8.310714364051818848e-01,8.399523496627807617e-01,8.362285494804382324e-01,8.165996074676513672e-01,8.022882342338562012e-01,7.985817193984985352e-01,7.740485668182373047e-01,7.220079898834228516e-01,6.164570450782775879e-01
5.884737968444824219e-01,6.139002442359924316e-01,6.564655303955078125e-01,6.572230458259582520e-01,6.807296872138977051e-01,7.049455046653747559e-01,7.413139343261718750e-01,7.627204656600952148e-01,7.834959030151367188e-01,8.021354675292968750e-01,8.199270963668823242e-01,8.364300131797790527e-01,8.513963818550109863e-01,8.647280931472778320e-01,8.763761520385742188e-01,8.859143257141113281e-01,8.929375410079956055e-01,8.976858854293823242e-01,9.009733200073242188e-01,9.031088352203369141e-01,9.043350219726562500e-01,9.050054550170898438e-01,9.052594304084777832e-01,9.053182601928710938e-01,9.053308367729187012e-01,9.053288698196411133e-01,9.053283333778381348e-01,9.053283333778381348e-01,9.053283333778381348e-01,9.053283333778381348e-01,9.053283333778381348e-01,9.053283333778381348e-01,9.053283333778381348e-01,9.053283333778381348e-01,9.053283333778381348e-01,9.053283333778381348e-01,9.053283333778381348e-01,9.053283333778381348e-01,9.053283333778381348e-01,9.053283333778381348e-01,9.053283333778381348e-01,9.053283333778381348e-01,9.053283333778381348e-01,9.053277373313903809e-01,9.053256511688232422e-01,9.052954912185668945e-01,9.057494401931762695e-01,9.059010744094848633e-01,9.040728807449340820e-01,9.001476764678955078e-01,8.916009068489074707e-01,8.746743202209472656e-01,8.578461408615112305e-01,8.231696486473083496e-01,7.576645612716674805e-01,6.585453748703002930e-01,5.850038528442382812e-01,5.294598340988159180e-01,4.952441155910491943e-01,4.742670357227325439e-01,4.507363438606262207e-01,4.652926921844482422e-01,4.736135900020599365e-01,5.004123449325561523e-01,5.500809550285339355e-01,6.015763878822326660e-01,6.305221915245056152e-01,6.703308820724487305e-01,7.103893756866455078e-01,7.689299583435058594e-01,8.042888045310974121e-01,8.218157291412353516e-01,8.372613191604614258e-01,8.312392830848693848e-01,8.133777379989624023e-01,7.986932992935180664e-01,7.976018190383911133e-01,7.744119167327880859e-01,7.215965986251831055e-01,6.159901618957519531e-01
5.884668231010437012e-01,6.138890981674194336e-01,6.564522981643676758e-01,6.572078466415405273e-01,6.807128190994262695e-01,7.049279212951660156e-01,7.412949204444885254e-01,7.627034783363342285e-01,7.834764719009399414e-01,8.021150231361389160e-01,8.199141025543212891e-01,8.364175558090209961e-01,8.513849973678588867e-01,8.647178411483764648e-01,8.763570785522460938e-01,8.859028220176696777e-01,8.929394483566284180e-01,8.976821899414062500e-01,9.009670019149780273e-01,9.031098484992980957e-01,9.043335914611816406e-01,9.050043821334838867e-01,9.052594304084777832e-01,9.053182601928710938e-01,9.053307175636291504e-01,9.053288698196411133e-01,9.053283333778381348e-01,9.053283333778381348e-01,9.053283333778381348e-01,9.053283333778381348e-01,9.053283333778381348e-01,9.053283333778381348e-01,9.053283333778381348e-01,9.053283333778381348e-01,9.053283333778381348e-01,9.053283333778381348e-01,9.053283333778381348e-01,9.053283333778381348e-01,9.053283333778381348e-01,9.053283333778381348e-01,9.053283333778381348e-01,9.053283333778381348e-01,9.053283333778381348e-01,9.053287506103515625e-01,9.053257703781127930e-01,9.053136110305786133e-01,9.055989980697631836e-01,9.057859778404235840e-01,9.050654172897338867e-01,9.015818834304809570e-01,8.924437761306762695e-01,8.773666620254516602e-01,8.591643571853637695e-01,8.247289061546325684e-01,7.699872255325317383e-01,6.653810739517211914e-01,5.925977826118469238e-01,5.400958657264709473e-01,5.004470944404602051e-01,4.746209979057312012e-01,4.631480276584625244e-01,4.849440455436706543e-01,4.741422832012176514e-01,5.013667345046997070e-01,5.588295459747314453e-01,6.238524317741394043e-01,6.401109695434570312e-01,6.798217296600341797e-01,7.173811197280883789e-01,7.428538799285888672e-01,7.831702232360839844e-01,8.210020661354064941e-01,8.258786201477050781e-01,8.278093934059143066e-01,8.065927624702453613e-01,7.970288991928100586e-01,7.936335802078247070e-01,7.732244133949279785e-01,7.209275364875793457e-01,6.162350773811340332e-01
5.884599089622497559e-01,6.138778924942016602e-01,6.564392447471618652e-01,6.571927070617675781e-01,6.806960105895996094e-01,7.049106359481811523e-01,7.412773370742797852e-01,7.626852989196777344e-01,7.834588289260864258e-01,8.020970821380615234e-01,8.198968172073364258e-01,8.364027142524719238e-01,8.513706922531127930e-01,8.647053241729736328e-01,8.763462305068969727e-01,8.858941197395324707e-01,8.929322361946105957e-01,8.976776599884033203e-01,9.009643793106079102e-01,9.031084775924682617e-01,9.043329954147338867e-01,9.050039052963256836e-01,9.052593111991882324e-01,9.053181409835815430e-01,9.053306579589843750e-01,9.053288698196411133e-01,9.053283333778381348e-01,9.053283333778381348e-01,9.053283333778381348e-01,9.053283333778381348e-01,9.053283333778381348e-01,9.053283333778381348e-01,9.053283333778381348e-01,9.053283333778381348e-01,9.053283333778381348e-01,9.053283333778381348e-01,9.053283333778381348e-01,9.053283333778381348e-01,9.053283333778381348e-01,9.053283333778381348e-01,9.053283333778381348e-01,9.053283333778381348e-01,9.053283333778381348e-01,9.053283929824829102e-01,9.053229093551635742e-01,9.053093194961547852e-01,9.053915739059448242e-01,9.059407711029052734e-01,9.052568078041076660e-01,9.019308090209960938e-01,8.930890560150146484e-01,8.787184953689575195e-01,8.612002134323120117e-01,8.275671005249023438e-01,7.814084291458129883e-01,6.725682616233825684e-01,5.993276238441467285e-01,5.396412611007690430e-01,4.990017116069793701e-01,4.722398519515991211e-01,4.631121158599853516e-01,4.800639748573303223e-01,4.845633208751678467e-01,5.125437378883361816e-01,5.748020410537719727e-01,6.240626573562622070e-01,6.717656850814819336e-01,6.916097402572631836e-01,7.313847541809082031e-01,7.484886646270751953e-01,7.789170742034912109e-01,8.116805553436279297e-01,8.281658887863159180e-01,8.229380846023559570e-01,8.075658679008483887e-01,7.921246290206909180e-01,7.927291393280029297e-01,7.703381180763244629e-01,7.209356427192687988e-01,6.149684786796569824e-01
5.884529948234558105e-01,6.138669252395629883e-01,6.564263701438903809e-01,6.571775674819946289e-01,6.806795597076416016e-01,7.048935294151306152e-01,7.412599921226501465e-01,7.626680135726928711e-01,7.834415435791015625e-01,8.020797967910766602e-01,8.198804855346679688e-01,8.363874554634094238e-01,8.513567447662353516e-01,8.646926879882812500e-01,8.763351440429687500e-01,8.858855962753295898e-01,8.929262161254882812e-01,8.976735472679138184e-01,9.009613990783691406e-01,9.031069278717041016e-01,9.043320417404174805e-01,9.050034284591674805e-01,9.052592515945434570e-01,9.053180217742919922e-01,9.053307175636291504e-01,9.053288698196411133e-01,9.053283333778381348e-01,9.053283333778381348e-01,9.053283333778381348e-01,9.053283333778381348e-01,9.053283333778381348e-01,9.053283333778381348e-01,9.053283333778381348e-01,9.053283333778381348e-01,9.053283333778381348e-01,9.053283333778381348e-01,9.053283333778381348e-01,9.053283333778381348e-01,9.053283333778381348e-01,9.053283333778381348e-01,9.053283333778381348e-01,9.053283333778381348e-01,9.053283333778381348e-01,9.053283929824829102e-01,9.053275585174560547e-01,9.053065776824951172e-01,9.052964448928833008e-01,9.060386419296264648e-01,9.057900905609130859e-01,9.019548892974853516e-01,8.931666612625122070e-01,8.826372623443603516e-01,8.645257949829101562e-01,8.329565525054931641e-01,7.786463499069213867e-01,6.781059503555297852e-01,5.989644527435302734e-01,5.486956238746643066e-01,5.027127861976623535e-01,4.711240231990814209e-01,4.691309630870819092e-01,4.828055500984191895e-01,4.933702349662780762e-01,5.286003947257995605e-01,5.713776350021362305e-01,6.565285921096801758e-01,6.957539319992065430e-01,7.253077626228332520e-01,7.411557435989379883e-01,7.742142677307128906e-01,7.871029376983642578e-01,8.018807768821716309e-01,8.269210457801818848e-01,8.238837718963623047e-01,7.987288236618041992e-01,7.896813154220581055e-01,7.901045680046081543e-01,7.686279416084289551e-01,7.193052172660827637e-01,6.152530908584594727e-01
5.884463787078857422e-01,6.138560175895690918e-01,6.564137339591979980e-01,6.571629643440246582e-01,6.806632876396179199e-01,7.048766613006591797e-01,7.412430644035339355e-01,7.626512050628662109e-01,7.834246158599853516e-01,8.020631074905395508e-01,8.198643922805786133e-01,8.363724946975708008e-01,8.513429164886474609e-01,8.646803498268127441e-01,8.763244152069091797e-01,8.858768939971923828e-01,8.929202556610107422e-01,8.976695537567138672e-01,9.009584188461303711e-01,9.031051397323608398e-01,9.043312072753906250e-01,9.050029516220092773e-01,9.052590131759643555e-01,9.053180217742919922e-01,9.053307175636291504e-01,9.053288698196411133e-01,9.053283333778381348e-01,9.053283333778381348e-01,9.053283333778381348e-01,9.053283333778381348e-01,9.053283333778381348e-01,9.053283333778381348e-01,9.053283333778381348e-01,9.053283333778381348e-01,9.053283333778381348e-01,9.053283333778381348e-01,9.053283333778381348e-01,9.053283333778381348e-01,9.053283333778381348e-01,9.053283333778381348e-01,9.053283333778381348e-01,9.053283333778381348e-01,9.053283333778381348e-01,9.053283333778381348e-01,9.053263664245605469e-01,9.053160548210144043e-01,9.053102731704711914e-01,9.058163166046142578e-01,9.059095978736877441e-01,9.016641378402709961e-01,8.933084607124328613e-01,8.856841325759887695e-01,8.674457669258117676e-01,8.380192518234252930e-01,7.903671264648437500e-01,6.863294243812561035e-01,6.174160838127136230e-01,5.624361634254455566e-01,5.103577971458435059e-01,4.753052890300750732e-01,4.711815118789672852e-01,4.861001670360565186e-01,5.072897076606750488e-01,5.381515026092529297e-01,5.881300568580627441e-01,6.803102493286132812e-01,7.321685552597045898e-01,7.476256489753723145e-01,7.681905031204223633e-01,7.864600419998168945e-01,8.077557086944580078e-01,8.080072402954101562e-01,8.210556507110595703e-01,8.277443647384643555e-01,8.028241395950317383e-01,7.856652736663818359e-01,7.895485162734985352e-01,7.687114477157592773e-01,7.178475856781005859e-01,6.142461299896240234e-01
5.884402990341186523e-01,6.138457059860229492e-01,6.564013361930847168e-01,6.571483016014099121e-01,6.806472539901733398e-01,7.048603296279907227e-01,7.412263751029968262e-01,7.626342177391052246e-01,7.834076881408691406e-01,8.020465373992919922e-01,8.198484182357788086e-01,8.363575935363769531e-01,8.513295650482177734e-01,8.646681308746337891e-01,8.763138651847839355e-01,8.858683705329895020e-01,8.929141759872436523e-01,8.976658582687377930e-01,9.009556770324707031e-01,9.031034708023071289e-01,9.043302536010742188e-01,9.050022363662719727e-01,9.052590131759643555e-01,9.053180217742919922e-01,9.053307175636291504e-01,9.053288698196411133e-01,9.053283333778381348e-01,9.053283333778381348e-01,9.053283333778381348e-01,9.053283333778381348e-01,9.053283333778381348e-01,9.053283333778381348e-01,9.053283333778381348e-01,9.053283333778381348e-01,9.053283333778381348e-01,9.053283333778381348e-01,9.053283333778381348e-01,9.053283333778381348e-01,9.053283333778381348e-01,9.053283333778381348e-01,9.053283333778381348e-01,9.053283333778381348e-01,9.053283333778381348e-01,9.053283333778381348e-01,9.053285121917724609e-01,9.053260087966918945e-01,9.053546190261840820e-01,9.057493805885314941e-01,9.059026241302490234e-01,9.015938639640808105e-01,8.953521251678466797e-01,8.880305290222167969e-01,8.721542358398437500e-01,8.494927883148193359e-01,7.970838546752929688e-01,6.927852630615234375e-01,6.424437165260314941e-01,5.776137113571166992e-01,5.187006592750549316e-01,4.860741496086120605e-01,4.875926077365875244e-01,4.976161718368530273e-01,5.203994512557983398e-01,5.490606427192687988e-01,6.001394987106323242e-01,6.865475177764892578e-01,7.617865800857543945e-01,7.843523621559143066e-01,7.936505079269409180e-01,8.023637533187866211e-01,8.156039118766784668e-01,8.296759724617004395e-01,8.217973113059997559e-01,8.233342170715332031e-01,8.031550645828247070e-01,7.906306982040405273e-01,7.855569124221801758e-01,7.679125070571899414e-01,7.185441255569458008e-01,6.150457262992858887e-01
5.884346961975097656e-01,6.138362884521484375e-01,6.563900709152221680e-01,6.571345329284667969e-01,6.806318163871765137e-01,7.048442363739013672e-01,7.412102222442626953e-01,7.626180648803710938e-01,7.833914756774902344e-01,8.020303249359130859e-01,8.198331594467163086e-01,8.363430500030517578e-01,8.513163924217224121e-01,8.646562695503234863e-01,8.763034343719482422e-01,8.858602643013000488e-01,8.929084539413452148e-01,8.976618051528930664e-01,9.009527564048767090e-01,9.031019210815429688e-01,9.043292999267578125e-01,9.050018787384033203e-01,9.052588939666748047e-01,9.053179025650024414e-01,9.053307175636291504e-01,9.053288698196411133e-01,9.053283333778381348e-01,9.053283333778381348e-01,9.053283333778381348e-01,9.053283333778381348e-01,9.053283333778381348e-01,9.053283333778381348e-01,9.053283333778381348e-01,9.053283333778381348e-01,9.053283333778381348e-01,9.053283333778381348e-01,9.053283333778381348e-01,9.053283333778381348e-01,9.053283333778381348e-01,9.053283333778381348e-01,9.053283333778381348e-01,9.053283333778381348e-01,9.053283333778381348e-01,9.053283333778381348e-01,9.053283929824829102e-01,9.053280353546142578e-01,9.053097963333129883e-01,9.056926369667053223e-01,9.058111906051635742e-01,9.020300507545471191e-01,8.972971439361572266e-01,8.906090259552001953e-01,8.776692152023315430e-01,8.549736738204956055e-01,8.023468255996704102e-01,7.147126197814941406e-01,6.665664911270141602e-01,6.085744500160217285e-01,5.466368198394775391e-01,5.148851275444030762e-01,4.931194484233856201e-01,5.060465931892395020e-01,5.363386273384094238e-01,5.802837610244750977e-01,6.265940070152282715e-01,7.098481655120849609e-01,7.633297443389892578e-01,8.069187402725219727e-01,8.222050070762634277e-01,8.231643438339233398e-01,8.350800871849060059e-01,8.353822231292724609e-01,8.364082574844360352e-01,8.303363323211669922e-01,8.108177781105041504e-01,7.923669815063476562e-01,7.931112051010131836e-01,7.676106691360473633e-01,7.190092802047729492e-01,6.143343448638916016e-01
5.884298682212829590e-01,6.138280630111694336e-01,6.563800573348999023e-01,6.571223735809326172e-01,6.806178092956542969e-01,7.048294544219970703e-01,7.411946654319763184e-01,7.626023888587951660e-01,7.833756208419799805e-01,8.020147085189819336e-01,8.198180794715881348e-01,8.363293409347534180e-01,8.513033986091613770e-01,8.646447658538818359e-01,8.762933015823364258e-01,8.858519792556762695e-01,8.929027318954467773e-01,8.976582288742065430e-01,9.009500741958618164e-01,9.031003713607788086e-01,9.043284058570861816e-01,9.050014019012451172e-01,9.052587747573852539e-01,9.053179025650024414e-01,9.053307771682739258e-01,9.053288698196411133e-01,9.053283333778381348e-01,9.053283333778381348e-01,9.053283333778381348e-01,9.053283333778381348e-01,9.053283333778381348e-01,9.053283333778381348e-01,9.053283333778381348e-01,9.053283333778381348e-01,9.053283333778381348e-01,9.053283333778381348e-01,9.053283333778381348e-01,9.053283333778381348e-01,9.053283333778381348e-01,9.053283333778381348e-01,9.053283333778381348e-01,9.053283333778381348e-01,9.053283333778381348e-01,9.053283333778381348e-01,9.053289890289306641e-01,9.053270816802978516e-01,9.053338766098022461e-01,9.056637287139892578e-01,9.060319662094116211e-01,9.026346206665039062e-01,8.985509872436523438e-01,8.936896920204162598e-01,8.857029080390930176e-01,8.644993305206298828e-01,8.167496919631958008e-01,7.477731704711914062e-01,6.901042461395263672e-01,6.488623023033142090e-01,5.875313878059387207e-01,5.371327400207519531e-01,5.150267481803894043e-01,5.237922072410583496e-01,5.534808635711669922e-01,6.036143898963928223e-01,6.610478162765502930e-01,7.188771963119506836e-01,7.779455184936523438e-01,8.177716732025146484e-01,8.502993583679199219e-01,8.442072868347167969e-01,8.365538120269775391e-01,8.494290113449096680e-01,8.468850851058959961e-01,8.408341407775878906e-01,8.140218853950500488e-01,7.989315986633300781e-01,7.929376959800720215e-01,7.690339088439941406e-01,7.199186086654663086e-01,6.160020232200622559e-01
5.884253978729248047e-01,6.138206124305725098e-01,6.563709974288940430e-01,6.571118831634521484e-01,6.806052923202514648e-01,7.048161625862121582e-01,7.411808967590332031e-01,7.625880241394042969e-01,7.833607792854309082e-01,8.019994497299194336e-01,8.198037743568420410e-01,8.363157510757446289e-01,8.512912392616271973e-01,8.646338582038879395e-01,8.762835264205932617e-01,8.858442306518554688e-01,8.928972482681274414e-01,8.976545333862304688e-01,9.009474515914916992e-01,9.030988812446594238e-01,9.043276309967041016e-01,9.050009250640869141e-01,9.052587747573852539e-01,9.053179025650024414e-01,9.053307175636291504e-01,9.053288698196411133e-01,9.053283333778381348e-01,9.053283333778381348e-01,9.053283333778381348e-01,9.053283333778381348e-01,9.053283333778381348e-01,9.053283333778381348e-01,9.053283333778381348e-01,9.053283333778381348e-01,9.053283333778381348e-01,9.053283333778381348e-01,9.053283333778381348e-01,9.053283333778381348e-01,9.053283333778381348e-01,9.053283333778381348e-01,9.053283333778381348e-01,9.053283333778381348e-01,9.053283333778381348e-01,9.053283333778381348e-01,9.053286314010620117e-01,9.053227901458740234e-01,9.053284525871276855e-01,9.056513905525207520e-01,9.059678316116333008e-01,9.031987190246582031e-01,8.989396095275878906e-01,8.968825936317443848e-01,8.879349231719970703e-01,8.688977360725402832e-01,8.317348361015319824e-01,7.817673087120056152e-01,7.338128685951232910e-01,6.816377639770507812e-01,6.196304559707641602e-01,5.712510943412780762e-01,5.337234735488891602e-01,5.444211959838867188e-01,5.868527889251708984e-01,6.215374469757080078e-01,6.829645037651062012e-01,7.462412118911743164e-01,7.914445996284484863e-01,8.256119489669799805e-01,8.510853052139282227e-01,8.665207624435424805e-01,8.638438582420349121e-01,8.559996485710144043e-01,8.532419204711914062e-01,8.427771329879760742e-01,8.238677978515625000e-01,8.004487752914428711e-01,7.977657318115234375e-01,7.758105993270874023e-01,7.201631069183349609e-01,6.156111955642700195e-01
5.884209871292114258e-01,6.138134598731994629e-01,6.563622355461120605e-01,6.571020483970642090e-01,6.805944442749023438e-01,7.048047780990600586e-01,7.411689758300781250e-01,7.625752091407775879e-01,7.833473682403564453e-01,8.019856810569763184e-01,8.197901248931884766e-01,8.363031148910522461e-01,8.512792587280273438e-01,8.646230697631835938e-01,8.762741088867187500e-01,8.858366012573242188e-01,8.928917050361633301e-01,8.976509571075439453e-01,9.009447097778320312e-01,9.030973911285400391e-01,9.043266773223876953e-01,9.050004482269287109e-01,9.052586555480957031e-01,9.053179025650024414e-01,9.053307771682739258e-01,9.053288698196411133e-01,9.053283333778381348e-01,9.053283333778381348e-01,9.053283333778381348e-01,9.053283333778381348e-01,9.053283333778381348e-01,9.053283333778381348e-01,9.053283333778381348e-01,9.053283333778381348e-01,9.053283333778381348e-01,9.053283333778381348e-01,9.053283333778381348e-01,9.053283333778381348e-01,9.053283333778381348e-01,9.053283333778381348e-01,9.053283333778381348e-01,9.053283333778381348e-01,9.053283333778381348e-01,9.053283333778381348e-01,9.053283929824829102e-01,9.053230285644531250e-01,9.053274393081665039e-01,9.057489633560180664e-01,9.063463211059570312e-01,9.033401012420654297e-01,9.017498493194580078e-01,9.015319347381591797e-01,8.924209475517272949e-01,8.786041140556335449e-01,8.462157249450683594e-01,8.007703423500061035e-01,7.650755643844604492e-01,7.202915549278259277e-01,6.563272476196289062e-01,6.130882501602172852e-01,5.780518054962158203e-01,5.686798095703125000e-01,6.053361892700195312e-01,6.424515247344970703e-01,7.080227136611938477e-01,7.726933360099792480e-01,8.127100467681884766e-01,8.320013284683227539e-01,8.622130155563354492e-01,8.701429367065429688e-01,8.750231266021728516e-01,8.615951538085937500e-01,8.595005273818969727e-01,8.504866361618041992e-01,8.224833011627197266e-01,8.084490299224853516e-01,7.985430359840393066e-01,7.751602530479431152e-01,7.218364477157592773e-01,6.155549287796020508e-01
5.884163379669189453e-01,6.138061881065368652e-01,6.563543677330017090e-01,6.570928096771240234e-01,6.805842518806457520e-01,7.047940492630004883e-01,7.411579489707946777e-01,7.625640630722045898e-01,7.833358645439147949e-01,8.019737005233764648e-01,8.197781443595886230e-01,8.362913131713867188e-01,8.512682914733886719e-01,8.646130561828613281e-01,8.762652873992919922e-01,8.858295679092407227e-01,8.928868174552917480e-01,8.976476192474365234e-01,9.009423255920410156e-01,9.030958414077758789e-01,9.043259024620056152e-01,9.050000905990600586e-01,9.052585959434509277e-01,9.053179025650024414e-01,9.053307175636291504e-01,9.053288698196411133e-01,9.053283333778381348e-01,9.053283333778381348e-01,9.053283333778381348e-01,9.053283333778381348e-01,9.053283333778381348e-01,9.053283333778381348e-01,9.053283333778381348e-01,9.053283333778381348e-01,9.053283333778381348e-01,9.053283333778381348e-01,9.053283333778381348e-01,9.053283333778381348e-01,9.053283333778381348e-01,9.053283333778381348e-01,9.053283333778381348e-01,9.053283333778381348e-01,9.053283333778381348e-01,9.053283333778381348e-01,9.053283333778381348e-01,9.053256511688232422e-01,9.053150415420532227e-01,9.057979583740234375e-01,9.060796499252319336e-01,9.030461311340332031e-01,9.040008783340454102e-01,9.046775698661804199e-01,8.960111141204833984e-01,8.844380378723144531e-01,8.579970598220825195e-01,8.214066028594970703e-01,8.050621747970581055e-01,7.623275518417358398e-01,6.974193453788757324e-01,6.368334293365478516e-01,6.094619631767272949e-01,5.835849642753601074e-01,6.250491142272949219e-01,6.773736476898193359e-01,7.225270271301269531e-01,7.863993644714355469e-01,8.265370130538940430e-01,8.486660718917846680e-01,8.635097742080688477e-01,8.791919946670532227e-01,8.777531385421752930e-01,8.767759799957275391e-01,8.629655838012695312e-01,8.512256741523742676e-01,8.238402605056762695e-01,8.070905208587646484e-01,8.014636039733886719e-01,7.740244865417480469e-01,7.238709926605224609e-01,6.159666776657104492e-01
5.884110927581787109e-01,6.137982010841369629e-01,6.563457846641540527e-01,6.570827960968017578e-01,6.805738806724548340e-01,7.047837376594543457e-01,7.411475777626037598e-01,7.625537514686584473e-01,7.833253741264343262e-01,8.019630312919616699e-01,8.197675943374633789e-01,8.362812399864196777e-01,8.512582182884216309e-01,8.646038770675659180e-01,8.762568235397338867e-01,8.858227729797363281e-01,8.928819298744201660e-01,8.976446390151977539e-01,9.009400010108947754e-01,9.030945301055908203e-01,9.043250679969787598e-01,9.049996733665466309e-01,9.052584171295166016e-01,9.053179025650024414e-01,9.053307771682739258e-01,9.053288698196411133e-01,9.053283333778381348e-01,9.053283333778381348e-01,9.053283333778381348e-01,9.053283333778381348e-01,9.053283333778381348e-01,9.053283333778381348e-01,9.053283333778381348e-01,9.053283333778381348e-01,9.053283333778381348e-01,9.053283333778381348e-01,9.053283333778381348e-01,9.053283333778381348e-01,9.053283333778381348e-01,9.053283333778381348e-01,9.053283333778381348e-01,9.053283333778381348e-01,9.053283333778381348e-01,9.053283333778381348e-01,9.053283333778381348e-01,9.053292274475097656e-01,9.053144454956054688e-01,9.057838916778564453e-01,9.056029319763183594e-01,9.035978913307189941e-01,9.049739241600036621e-01,9.064582586288452148e-01,8.984982967376708984e-01,8.926184773445129395e-01,8.744117617607116699e-01,8.392233252525329590e-01,8.228694796562194824e-01,7.915464639663696289e-01,7.353103756904602051e-01,6.657359600067138672e-01,6.345930695533752441e-01,6.112151145935058594e-01,6.422652006149291992e-01,6.975786685943603516e-01,7.458590865135192871e-01,7.973097562789916992e-01,8.369730114936828613e-01,8.603765964508056641e-01,8.711833953857421875e-01,8.822721242904663086e-01,8.842962384223937988e-01,8.751325011253356934e-01,8.671195507049560547e-01,8.549715280532836914e-01,8.260020017623901367e-01,8.052260875701904297e-01,8.010926246643066406e-01,7.747122049331665039e-01,7.217364311218261719e-01,6.164283752441406250e-01
5.884057283401489258e-01,6.137894988059997559e-01,6.563360691070556641e-01,6.570718288421630859e-01,6.805626749992370605e-01,7.047724127769470215e-01,7.411367893218994141e-01,7.625434994697570801e-01,7.833154201507568359e-01,8.019529581069946289e-01,8.197578191757202148e-01,8.362717628479003906e-01,8.512489795684814453e-01,8.645951747894287109e-01,8.762490749359130859e-01,8.858162164688110352e-01,8.928766250610351562e-01,8.976404070854187012e-01,9.009366035461425781e-01,9.030917882919311523e-01,9.043228030204772949e-01,9.049975872039794922e-01,9.052566289901733398e-01,9.053159356117248535e-01,9.053288698196411133e-01,9.053270220756530762e-01,9.053264856338500977e-01,9.053264856338500977e-01,9.053264856338500977e-01,9.053264856338500977e-01,9.053264856338500977e-01,9.053264856338500977e-01,9.053264856338500977e-01,9.053264260292053223e-01,9.053264260292053223e-01,9.053263664245605469e-01,9.053263664245605469e-01,9.053264260292053223e-01,9.053263664245605469e-01,9.053263664245605469e-01,9.053263664245605469e-01,9.053263664245605469e-01,9.053262472152709961e-01,9.053262472152709961e-01,9.053262472152709961e-01,9.053233861923217773e-01,9.053053855895996094e-01,9.056858420372009277e-01,9.052574634552001953e-01,9.043549299240112305e-01,9.059133529663085938e-01,9.064048528671264648e-01,8.997852802276611328e-01,8.972371816635131836e-01,8.798115849494934082e-01,8.552374839782714844e-01,8.380749225616455078e-01,8.156666755676269531e-01,7.658056020736694336e-01,6.997938156127929688e-01,6.550806760787963867e-01,6.344924569129943848e-01,6.590180397033691406e-01,7.054334282875061035e-01,7.729932069778442383e-01,8.103967308998107910e-01,8.410495519638061523e-01,8.661037683486938477e-01,8.781936168670654297e-01,8.864296674728393555e-01,8.859690427780151367e-01,8.790924549102783203e-01,8.702592849731445312e-01,8.565737009048461914e-01,8.267700672149658203e-01,8.066123127937316895e-01,7.998101711273193359e-01,7.755283117294311523e-01,7.230536937713623047e-01,6.162841916084289551e-01
5.884000062942504883e-01,6.137799024581909180e-01,6.563249230384826660e-01,6.570587754249572754e-01,6.805471777915954590e-01,7.047560214996337891e-01,7.411203384399414062e-01,7.625271081924438477e-01,7.832990884780883789e-01,8.019366860389709473e-01,8.197426199913024902e-01,8.362566232681274414e-01,8.512338399887084961e-01,8.645808696746826172e-01,8.762361407279968262e-01,8.858047127723693848e-01,8.928664326667785645e-01,8.976320028305053711e-01,9.009286165237426758e-01,9.030840992927551270e-01,9.043153524398803711e-01,9.049903154373168945e-01,9.052500128746032715e-01,9.053096175193786621e-01,9.053227305412292480e-01,9.053210020065307617e-01,9.053204655647277832e-01,9.053205251693725586e-01,9.053205847740173340e-01,9.053205847740173340e-01,9.053205847740173340e-01,9.053206443786621094e-01,9.053206443786621094e-01,9.053207635879516602e-01,9.053207635879516602e-01,9.053207635879516602e-01,9.053208827972412109e-01,9.053208827972412109e-01,9.053209424018859863e-01,9.053208827972412109e-01,9.053210616111755371e-01,9.053211212158203125e-01,9.053211212158203125e-01,9.053211212158203125e-01,9.053212404251098633e-01,9.053164720535278320e-01,9.053014516830444336e-01,9.054259061813354492e-01,9.054334163665771484e-01,9.047797918319702148e-01,9.062470197677612305e-01,9.069010019302368164e-01,9.015843868255615234e-01,8.990025520324707031e-01,8.816440105438232422e-01,8.696907758712768555e-01,8.468729257583618164e-01,8.205791711807250977e-01,7.894591093063354492e-01,7.221406698226928711e-01,6.655120849609375000e-01,6.586134433746337891e-01,6.717960834503173828e-01,7.257398366928100586e-01,7.854317426681518555e-01,8.223121166229248047e-01,8.453446626663208008e-01,8.698363304138183594e-01,8.801112174987792969e-01,8.891955614089965820e-01,8.874112367630004883e-01,8.800691366195678711e-01,8.702682852745056152e-01,8.571764826774597168e-01,8.291238546371459961e-01,8.087000846862792969e-01,8.011054396629333496e-01,7.748819589614868164e-01,7.221518158912658691e-01,6.166662573814392090e-01
5.883890986442565918e-01,6.137662529945373535e-01,6.563087701797485352e-01,6.570448875427246094e-01,6.805337071418762207e-01,7.047413587570190430e-01,7.411072254180908203e-01,7.625194787979125977e-01,7.832986116409301758e-01,8.019440174102783203e-01,8.197605013847351074e-01,8.362879753112792969e-01,8.512847423553466797e-01,8.646488785743713379e-01,8.763055801391601562e-01,8.858641386032104492e-01,8.929140567779541016e-01,8.976707458496093750e-01,9.009689688682556152e-01,9.031349420547485352e-01,9.043725728988647461e-01,9.050532579421997070e-01,9.053156375885009766e-01,9.053769111633300781e-01,9.053903818130493164e-01,9.053887128829956055e-01,9.053885936737060547e-01,9.053888320922851562e-01,9.053890705108642578e-01,9.053894281387329102e-01,9.053896665573120117e-01,9.053899049758911133e-01,9.053901433944702148e-01,9.053905010223388672e-01,9.053906202316284180e-01,9.053912162780761719e-01,9.053912758827209473e-01,9.053915143013000488e-01,9.053918123245239258e-01,9.053920507431030273e-01,9.053922891616821289e-01,9.053925871849060059e-01,9.053927659988403320e-01,9.053931236267089844e-01,9.053934812545776367e-01,9.053930640220642090e-01,9.053674936294555664e-01,9.053785800933837891e-01,9.056525826454162598e-01,9.054573774337768555e-01,9.063096046447753906e-01,9.056460857391357422e-01,9.046859741210937500e-01,8.986759185791015625e-01,8.850262165069580078e-01,8.769968748092651367e-01,8.527613878250122070e-01,8.257877230644226074e-01,7.985101342201232910e-01,7.250053882598876953e-01,6.659961342811584473e-01,6.769422292709350586e-01,6.955013275146484375e-01,7.364674806594848633e-01,7.983479499816894531e-01,8.302956223487854004e-01,8.533154726028442383e-01,8.717136383056640625e-01,8.853665590286254883e-01,8.909411430358886719e-01,8.884322643280029297e-01,8.805899024009704590e-01,8.708256483078002930e-01,8.585309982299804688e-01,8.301374912261962891e-01,8.083217144012451172e-01,8.010351657867431641e-01,7.754138112068176270e-01,7.226929068565368652e-01,6.163013577461242676e-01
5.883958339691162109e-01,6.137747764587402344e-01,6.563155651092529297e-01,6.570625305175781250e-01,6.805623769760131836e-01,7.048029899597167969e-01,7.412199378013610840e-01,7.626805305480957031e-01,7.834858894348144531e-01,8.021442890167236328e-01,8.199623227119445801e-01,8.364875912666320801e-01,8.514616489410400391e-01,8.647938966751098633e-01,8.764225244522094727e-01,8.859457373619079590e-01,8.929841518402099609e-01,8.977729082107543945e-01,9.010936021804809570e-01,9.032582044601440430e-01,9.044928550720214844e-01,9.051686525344848633e-01,9.054247140884399414e-01,9.054827690124511719e-01,9.054936170578002930e-01,9.054911136627197266e-01,9.054898023605346680e-01,9.054889678955078125e-01,9.054880738258361816e-01,9.054871797561645508e-01,9.054863452911376953e-01,9.054855108261108398e-01,9.054845571517944336e-01,9.054837822914123535e-01,9.054828286170959473e-01,9.054819941520690918e-01,9.054811000823974609e-01,9.054802656173706055e-01,9.054794311523437500e-01,9.054785966873168945e-01,9.054777026176452637e-01,9.054768085479736328e-01,9.054758548736572266e-01,9.054750800132751465e-01,9.054741859436035156e-01,9.054712057113647461e-01,9.054539203643798828e-01,9.054391384124755859e-01,9.055637717247009277e-01,9.057413339614868164e-01,9.057589769363403320e-01,9.050732851028442383e-01,9.058108329772949219e-01,8.972248435020446777e-01,8.870961666107177734e-01,8.805062770843505859e-01,8.544795513153076172e-01,8.315596580505371094e-01,8.062991499900817871e-01,7.297278642654418945e-01,6.756145954132080078e-01,6.861883997917175293e-01,7.051499485969543457e-01,7.462314367294311523e-01,8.026727437973022461e-01,8.346922993659973145e-01,8.595917820930480957e-01,8.773981928825378418e-01,8.880894184112548828e-01,8.916746377944946289e-01,8.883326053619384766e-01,8.802018165588378906e-01,8.718168735504150391e-01,8.586591482162475586e-01,8.299129009246826172e-01,8.092800974845886230e-01,8.015612363815307617e-01,7.754975557327270508e-01,7.228003144264221191e-01,6.168083548545837402e-01
5.885783433914184570e-01,6.139520406723022461e-01,6.565687060356140137e-01,6.573189496994018555e-01,6.808111071586608887e-01,7.049678564071655273e-01,7.413083910942077637e-01,7.626931071281433105e-01,7.833591699600219727e-01,8.018864989280700684e-01,8.195877075195312500e-01,8.359777927398681641e-01,8.508614897727966309e-01,8.641122579574584961e-01,8.756418228149414062e-01,8.851391077041625977e-01,8.922119140625000000e-01,8.969817161560058594e-01,9.002741575241088867e-01,9.024298191070556641e-01,9.036751985549926758e-01,9.043314456939697266e-01,9.045726656913757324e-01,9.046294689178466797e-01,9.046416282653808594e-01,9.046392440795898438e-01,9.046378731727600098e-01,9.046369791030883789e-01,9.046361446380615234e-01,9.046351909637451172e-01,9.046342372894287109e-01,9.046332240104675293e-01,9.046324491500854492e-01,9.046316146850585938e-01,9.046306610107421875e-01,9.046297073364257812e-01,9.046288132667541504e-01,9.046279191970825195e-01,9.046269655227661133e-01,9.046259522438049316e-01,9.046250581741333008e-01,9.046243429183959961e-01,9.046232700347900391e-01,9.046224355697631836e-01,9.046216011047363281e-01,9.046208858489990234e-01,9.046124219894409180e-01,9.046319723129272461e-01,9.047009944915771484e-01,9.048034548759460449e-01,9.049328565597534180e-01,9.049011468887329102e-01,9.048052430152893066e-01,8.965666890144348145e-01,8.870368003845214844e-01,8.770144581794738770e-01,8.554437160491943359e-01,8.324372172355651855e-01,7.975810170173645020e-01,7.301214933395385742e-01,6.837768554687500000e-01,6.856465339660644531e-01,6.949638724327087402e-01,7.651937603950500488e-01,8.028615713119506836e-01,8.336805105209350586e-01,8.617103099822998047e-01,8.772613406181335449e-01,8.879673480987548828e-01,8.911095857620239258e-01,8.875622153282165527e-01,8.797348737716674805e-01,8.706260919570922852e-01,8.577755689620971680e-01,8.292633295059204102e-01,8.083394765853881836e-01,8.009222745895385742e-01,7.746458053588867188e-01,7.219766974449157715e-01,6.162559986114501953e-01
5.889357328414916992e-01,6.138249635696411133e-01,6.562426090240478516e-01,6.566781997680664062e-01,6.799259185791015625e-01,7.037649154663085938e-01,7.398929595947265625e-01,7.610067129135131836e-01,7.815140485763549805e-01,7.999112606048583984e-01,8.175243735313415527e-01,8.339145183563232422e-01,8.489242792129516602e-01,8.623858690261840820e-01,8.741696476936340332e-01,8.838962316513061523e-01,8.910565376281738281e-01,8.958874344825744629e-01,8.992761373519897461e-01,9.014962911605834961e-01,9.027299880981445312e-01,9.033838510513305664e-01,9.036417007446289062e-01,9.037145376205444336e-01,9.037275314331054688e-01,9.037254452705383301e-01,9.037238359451293945e-01,9.037228822708129883e-01,9.037218093872070312e-01,9.037206172943115234e-01,9.037196636199951172e-01,9.037185907363891602e-01,9.037175178527832031e-01,9.037164449691772461e-01,9.037152528762817383e-01,9.037143588066101074e-01,9.037132859230041504e-01,9.037122726440429688e-01,9.037110805511474609e-01,9.037101268768310547e-01,9.037089943885803223e-01,9.037079811096191406e-01,9.037069082260131836e-01,9.037058353424072266e-01,9.037048220634460449e-01,9.037038683891296387e-01,9.036986827850341797e-01,9.036818146705627441e-01,9.037724733352661133e-01,9.036511182785034180e-01,9.036580324172973633e-01,9.039419889450073242e-01,9.027456045150756836e-01,8.959321379661560059e-01,8.856481313705444336e-01,8.756493330001831055e-01,8.565087318420410156e-01,8.328323364257812500e-01,7.911422252655029297e-01,7.246662974357604980e-01,6.941685676574707031e-01,6.817075610160827637e-01,6.973110437393188477e-01,7.618224620819091797e-01,8.032598495483398438e-01,8.313459753990173340e-01,8.597591519355773926e-01,8.760186433792114258e-01,8.872898817062377930e-01,8.911598920822143555e-01,8.864014148712158203e-01,8.793591260910034180e-01,8.701385259628295898e-01,8.571805953979492188e-01,8.286719322204589844e-01,8.075718879699707031e-01,8.001008033752441406e-01,7.738316059112548828e-01,7.208244204521179199e-01,6.147215366363525391e-01
5.881918072700500488e-01,6.121522784233093262e-01,6.544514894485473633e-01,6.547919511795043945e-01,6.775835752487182617e-01,7.009688615798950195e-01,7.370879650115966797e-01,7.582473754882812500e-01,7.788038849830627441e-01,7.972003221511840820e-01,8.147965669631958008e-01,8.312988877296447754e-01,8.464391231536865234e-01,8.599848747253417969e-01,8.718606233596801758e-01,8.816287517547607422e-01,8.889320492744445801e-01,8.940092921257019043e-01,8.974871635437011719e-01,8.997218608856201172e-01,9.009763002395629883e-01,9.016549587249755859e-01,9.019181728363037109e-01,9.019803404808044434e-01,9.019873142242431641e-01,9.019803404808044434e-01,9.019737243652343750e-01,9.019675850868225098e-01,9.019614458084106445e-01,9.019554853439331055e-01,9.019494652748107910e-01,9.019432067871093750e-01,9.019371867179870605e-01,9.019309878349304199e-01,9.019249677658081055e-01,9.019188880920410156e-01,9.019129276275634766e-01,9.019067883491516113e-01,9.019007682800292969e-01,9.018946290016174316e-01,9.018885493278503418e-01,9.018826484680175781e-01,9.018764495849609375e-01,9.018703699111938477e-01,9.018642306327819824e-01,9.018589258193969727e-01,9.018514156341552734e-01,9.018417596817016602e-01,9.018571972846984863e-01,9.018162488937377930e-01,9.016661643981933594e-01,9.014832973480224609e-01,9.007092714309692383e-01,8.935115933418273926e-01,8.833092451095581055e-01,8.744348287582397461e-01,8.546438217163085938e-01,8.272132873535156250e-01,7.750434875488281250e-01,7.102910280227661133e-01,6.818516850471496582e-01,6.773967742919921875e-01,6.987394094467163086e-01,7.572640776634216309e-01,8.008015155792236328e-01,8.268799781799316406e-01,8.572013974189758301e-01,8.748699426651000977e-01,8.843499422073364258e-01,8.890923261642456055e-01,8.853484392166137695e-01,8.777859210968017578e-01,8.685778379440307617e-01,8.557736873626708984e-01,8.273756504058837891e-01,8.065277338027954102e-01,7.989603281021118164e-01,7.723747491836547852e-01,7.195353507995605469e-01,6.129432320594787598e-01
5.862557888031005859e-01,6.094377040863037109e-01,6.514810919761657715e-01,6.515458226203918457e-01,6.740774512290954590e-01,6.969134807586669922e-01,7.324790954589843750e-01,7.531222105026245117e-01,7.730065584182739258e-01,7.909498214721679688e-01,8.082801103591918945e-01,8.245607614517211914e-01,8.395550847053527832e-01,8.531535267829895020e-01,8.651062250137329102e-01,8.749626874923706055e-01,8.823385238647460938e-01,8.874382972717285156e-01,8.910181522369384766e-01,8.932573199272155762e-01,8.945039510726928711e-01,8.952063918113708496e-01,8.954704999923706055e-01,8.955254554748535156e-01,8.955240249633789062e-01,8.955129384994506836e-01,8.955032825469970703e-01,8.954941630363464355e-01,8.954850435256958008e-01,8.954757452011108398e-01,8.954666852951049805e-01,8.954576253890991211e-01,8.954485058784484863e-01,8.954393863677978516e-01,8.954303264617919922e-01,8.954211473464965820e-01,8.954120874404907227e-01,8.954029083251953125e-01,8.953938484191894531e-01,8.953847885131835938e-01,8.953756690025329590e-01,8.953665494918823242e-01,8.953576087951660156e-01,8.953484892845153809e-01,8.953394293785095215e-01,8.953305482864379883e-01,8.953200578689575195e-01,8.953087329864501953e-01,8.953105211257934570e-01,8.953142166137695312e-01,8.951124548912048340e-01,8.951587677001953125e-01,8.943694233894348145e-01,8.866007924079895020e-01,8.752077221870422363e-01,8.679916262626647949e-01,8.422777652740478516e-01,8.168882131576538086e-01,7.571748495101928711e-01,6.970770359039306641e-01,6.691861748695373535e-01,6.665346622467041016e-01,6.894529461860656738e-01,7.404559850692749023e-01,7.879097461700439453e-01,8.205502629280090332e-01,8.516971468925476074e-01,8.697739839553833008e-01,8.785418272018432617e-01,8.822628259658813477e-01,8.794655799865722656e-01,8.721872568130493164e-01,8.629191517829895020e-01,8.500058650970458984e-01,8.217662572860717773e-01,8.014971017837524414e-01,7.943656444549560547e-01,7.679715156555175781e-01,7.155220508575439453e-01,6.079438924789428711e-01
5.823482275009155273e-01,6.035633683204650879e-01,6.450704336166381836e-01,6.443629264831542969e-01,6.657218337059020996e-01,6.876949667930603027e-01,7.224081158638000488e-01,7.425910234451293945e-01,7.618023157119750977e-01,7.788759469985961914e-01,7.956098914146423340e-01,8.115695714950561523e-01,8.266284465789794922e-01,8.405233621597290039e-01,8.527942895889282227e-01,8.630767464637756348e-01,8.709472417831420898e-01,8.763780593872070312e-01,8.801468610763549805e-01,8.825250267982482910e-01,8.838632106781005859e-01,8.845187425613403320e-01,8.847210407257080078e-01,8.847388029098510742e-01,8.847281932830810547e-01,8.847053050994873047e-01,8.846845626831054688e-01,8.846643567085266113e-01,8.846441507339477539e-01,8.846237659454345703e-01,8.846036195755004883e-01,8.845833539962768555e-01,8.845632076263427734e-01,8.845429420471191406e-01,8.845225572586059570e-01,8.845025300979614258e-01,8.844822645187377930e-01,8.844621181488037109e-01,8.844419717788696289e-01,8.844217061996459961e-01,8.844015598297119141e-01,8.843815326690673828e-01,8.843611478805541992e-01,8.843411207199096680e-01,8.843208551406860352e-01,8.843009471893310547e-01,8.842805624008178711e-01,8.842598199844360352e-01,8.842381834983825684e-01,8.842366933822631836e-01,8.840818405151367188e-01,8.844763040542602539e-01,8.825788497924804688e-01,8.757920861244201660e-01,8.651997447013854980e-01,8.572578430175781250e-01,8.295065164566040039e-01,7.921581268310546875e-01,7.388311028480529785e-01,6.782017350196838379e-01,6.567705273628234863e-01,6.484426856040954590e-01,6.700101494789123535e-01,7.158438563346862793e-01,7.697898745536804199e-01,8.049334883689880371e-01,8.384076356887817383e-01,8.572232723236083984e-01,8.674129247665405273e-01,8.715192079544067383e-01,8.688488006591796875e-01,8.618286848068237305e-01,8.529325723648071289e-01,8.399767875671386719e-01,8.112030029296875000e-01,7.921288013458251953e-01,7.858310937881469727e-01,7.610091567039489746e-01,7.075297236442565918e-01,6.019647121429443359e-01
5.752035975456237793e-01,5.937525629997253418e-01,6.341885924339294434e-01,6.314089298248291016e-01,6.507654786109924316e-01,6.714991927146911621e-01,7.052982449531555176e-01,7.246536016464233398e-01,7.431031465530395508e-01,7.594764232635498047e-01,7.753049731254577637e-01,7.904912233352661133e-01,8.051494359970092773e-01,8.185938000679016113e-01,8.304775357246398926e-01,8.404319286346435547e-01,8.479110598564147949e-01,8.532863855361938477e-01,8.570469617843627930e-01,8.593970537185668945e-01,8.606370091438293457e-01,8.611868023872375488e-01,8.613204956054687500e-01,8.613245487213134766e-01,8.612927794456481934e-01,8.612534999847412109e-01,8.612162470817565918e-01,8.611791729927062988e-01,8.611422181129455566e-01,8.611049652099609375e-01,8.610681891441345215e-01,8.610310554504394531e-01,8.609941601753234863e-01,8.609572649002075195e-01,8.609201908111572266e-01,8.608832359313964844e-01,8.608461618423461914e-01,8.608092665672302246e-01,8.607723712921142578e-01,8.607352972030639648e-01,8.606984615325927734e-01,8.606616258621215820e-01,8.606245517730712891e-01,8.605875968933105469e-01,8.605507612228393555e-01,8.605138063430786133e-01,8.604769706726074219e-01,8.604400157928466797e-01,8.604063987731933594e-01,8.603990674018859863e-01,8.604763746261596680e-01,8.612727522850036621e-01,8.581357002258300781e-01,8.506848812103271484e-01,8.432996273040771484e-01,8.314374685287475586e-01,8.009518384933471680e-01,7.593961954116821289e-01,6.994420289993286133e-01,6.514712572097778320e-01,6.308821439743041992e-01,6.260899305343627930e-01,6.466029286384582520e-01,6.855826973915100098e-01,7.393256425857543945e-01,7.768553495407104492e-01,8.120088577270507812e-01,8.330056071281433105e-01,8.432894349098205566e-01,8.480855822563171387e-01,8.456914424896240234e-01,8.389946222305297852e-01,8.302959203720092773e-01,8.173545598983764648e-01,7.881239652633666992e-01,7.704320549964904785e-01,7.674678564071655273e-01,7.442924976348876953e-01,6.928630471229553223e-01,5.924746394157409668e-01
5.642404556274414062e-01,5.783791542053222656e-01,6.170509457588195801e-01,6.110111474990844727e-01,6.274181604385375977e-01,6.464144587516784668e-01,6.783362030982971191e-01,6.956864595413208008e-01,7.117333412170410156e-01,7.257444262504577637e-01,7.394047975540161133e-01,7.528252601623535156e-01,7.661424875259399414e-01,7.786088585853576660e-01,7.895394563674926758e-01,7.988286018371582031e-01,8.062297701835632324e-01,8.115658760070800781e-01,8.152974843978881836e-01,8.176005482673645020e-01,8.186829090118408203e-01,8.189575076103210449e-01,8.189802169799804688e-01,8.189554214477539062e-01,8.189065456390380859e-01,8.188459873199462891e-01,8.187866210937500000e-01,8.187277913093566895e-01,8.186688423156738281e-01,8.186099529266357422e-01,8.185509443283081055e-01,8.184922933578491211e-01,8.184333443641662598e-01,8.183745145797729492e-01,8.183158040046691895e-01,8.182567358016967773e-01,8.181980252265930176e-01,8.181391954421997070e-01,8.180803060531616211e-01,8.180217146873474121e-01,8.179626464843750000e-01,8.179039955139160156e-01,8.178451657295227051e-01,8.177865743637084961e-01,8.177278041839599609e-01,8.176689743995666504e-01,8.176102042198181152e-01,8.175513744354248047e-01,8.174973726272583008e-01,8.174468278884887695e-01,8.180670738220214844e-01,8.179773092269897461e-01,8.137749433517456055e-01,8.061738014221191406e-01,8.028901815414428711e-01,7.895675301551818848e-01,7.591438293457031250e-01,7.181541919708251953e-01,6.505708694458007812e-01,6.128129959106445312e-01,5.990995168685913086e-01,5.875526070594787598e-01,6.131731867790222168e-01,6.474291086196899414e-01,6.934222579002380371e-01,7.302185893058776855e-01,7.657191157341003418e-01,7.874867916107177734e-01,7.999664545059204102e-01,8.051767349243164062e-01,8.029753565788269043e-01,7.971794605255126953e-01,7.896597385406494141e-01,7.776762247085571289e-01,7.482378482818603516e-01,7.333670258522033691e-01,7.347771525382995605e-01,7.137622237205505371e-01,6.687963008880615234e-01,5.797356367111206055e-01
5.497262477874755859e-01,5.539400577545166016e-01,5.888154506683349609e-01,5.787636637687683105e-01,5.919255018234252930e-01,6.082163453102111816e-01,6.378282308578491211e-01,6.524370908737182617e-01,6.663274168968200684e-01,6.780740022659301758e-01,6.894950866699218750e-01,7.006313204765319824e-01,7.116293311119079590e-01,7.215058207511901855e-01,7.303630113601684570e-01,7.380264997482299805e-01,7.437771558761596680e-01,7.477784752845764160e-01,7.504882812500000000e-01,7.519845366477966309e-01,7.524138689041137695e-01,7.524802684783935547e-01,7.524554729461669922e-01,7.523924708366394043e-01,7.523245811462402344e-01,7.522395849227905273e-01,7.521568536758422852e-01,7.520747184753417969e-01,7.519923448562622070e-01,7.519098520278930664e-01,7.518274784088134766e-01,7.517451643943786621e-01,7.516628503799438477e-01,7.515807151794433594e-01,7.514983415603637695e-01,7.514160275459289551e-01,7.513335943222045898e-01,7.512515783309936523e-01,7.511692047119140625e-01,7.510870695114135742e-01,7.510046958923339844e-01,7.509224414825439453e-01,7.508403658866882324e-01,7.507581114768981934e-01,7.506761550903320312e-01,7.505939006805419922e-01,7.505116462707519531e-01,7.504296302795410156e-01,7.503458261489868164e-01,7.503012418746948242e-01,7.513669729232788086e-01,7.499759197235107422e-01,7.440447807312011719e-01,7.377014160156250000e-01,7.364892959594726562e-01,7.109937071800231934e-01,6.852434873580932617e-01,6.509441137313842773e-01,6.015028357505798340e-01,5.683321356773376465e-01,5.578104257583618164e-01,5.510576367378234863e-01,5.639008283615112305e-01,6.029922366142272949e-01,6.397947072982788086e-01,6.748672723770141602e-01,7.010550498962402344e-01,7.208341360092163086e-01,7.328725457191467285e-01,7.368947863578796387e-01,7.347522377967834473e-01,7.295360565185546875e-01,7.240124344825744629e-01,7.130253314971923828e-01,6.837163567543029785e-01,6.730133891105651855e-01,6.819029450416564941e-01,6.631028056144714355e-01,6.337995529174804688e-01,5.564941167831420898e-01
5.325057506561279297e-01,5.236897468566894531e-01,5.544989109039306641e-01,5.385863184928894043e-01,5.464485287666320801e-01,5.593030452728271484e-01,5.835226774215698242e-01,5.946949124336242676e-01,6.051697134971618652e-01,6.133003830909729004e-01,6.213207244873046875e-01,6.292469501495361328e-01,6.369123458862304688e-01,6.437622904777526855e-01,6.499359011650085449e-01,6.547449827194213867e-01,6.579773426055908203e-01,6.604084968566894531e-01,6.619778275489807129e-01,6.628189086914062500e-01,6.630371809005737305e-01,6.629996299743652344e-01,6.628973484039306641e-01,6.628138422966003418e-01,6.627318859100341797e-01,6.626416444778442383e-01,6.625536680221557617e-01,6.624661684036254883e-01,6.623785495758056641e-01,6.622908711433410645e-01,6.622033119201660156e-01,6.621158123016357422e-01,6.620283722877502441e-01,6.619409322738647461e-01,6.618533730506896973e-01,6.617659330368041992e-01,6.616784930229187012e-01,6.615911722183227539e-01,6.615036129951477051e-01,6.614164710044860840e-01,6.613289117813110352e-01,6.612416505813598633e-01,6.611542701721191406e-01,6.610670089721679688e-01,6.609798669815063477e-01,6.608924269676208496e-01,6.608053445816040039e-01,6.607179641723632812e-01,6.606265902519226074e-01,6.605385541915893555e-01,6.618241071701049805e-01,6.598713994026184082e-01,6.548652052879333496e-01,6.517379879951477051e-01,6.535909175872802734e-01,6.236445307731628418e-01,6.005474328994750977e-01,5.795871019363403320e-01,5.278882384300231934e-01,5.067123174667358398e-01,5.036823153495788574e-01,5.050624608993530273e-01,5.082110166549682617e-01,5.478937625885009766e-01,5.768248438835144043e-01,5.965501666069030762e-01,6.164575815200805664e-01,6.361105442047119141e-01,6.451346278190612793e-01,6.474613547325134277e-01,6.463435292243957520e-01,6.433233022689819336e-01,6.400884985923767090e-01,6.307585835456848145e-01,6.033613681793212891e-01,5.960312485694885254e-01,6.116348505020141602e-01,5.968445539474487305e-01,5.880066156387329102e-01,5.268760919570922852e-01
5.115486383438110352e-01,4.893339276313781738e-01,5.141252875328063965e-01,4.908668100833892822e-01,4.924277961254119873e-01,5.010096430778503418e-01,5.196070075035095215e-01,5.275499820709228516e-01,5.347114801406860352e-01,5.395529866218566895e-01,5.444223284721374512e-01,5.495231747627258301e-01,5.544975399971008301e-01,5.588373541831970215e-01,5.624888539314270020e-01,5.651974081993103027e-01,5.674989819526672363e-01,5.691132545471191406e-01,5.702057480812072754e-01,5.707052946090698242e-01,5.708083510398864746e-01,5.707296729087829590e-01,5.705870985984802246e-01,5.705181360244750977e-01,5.704214572906494141e-01,5.703327655792236328e-01,5.702456235885620117e-01,5.701584815979003906e-01,5.700714588165283203e-01,5.699845552444458008e-01,5.698977708816528320e-01,5.698107481002807617e-01,5.697240233421325684e-01,5.696371197700500488e-01,5.695502161979675293e-01,5.694634318351745605e-01,5.693766474723815918e-01,5.692899227142333984e-01,5.692031383514404297e-01,5.691165328025817871e-01,5.690298676490783691e-01,5.689432621002197266e-01,5.688564181327819824e-01,5.687700510025024414e-01,5.686833858489990234e-01,5.685967803001403809e-01,5.685103535652160645e-01,5.684237480163574219e-01,5.683157444000244141e-01,5.681734681129455566e-01,5.690019130706787109e-01,5.669789314270019531e-01,5.628033280372619629e-01,5.624920129776000977e-01,5.603858232498168945e-01,5.363950729370117188e-01,5.197157263755798340e-01,5.067931413650512695e-01,4.718324244022369385e-01,4.493188858032226562e-01,4.632660448551177979e-01,4.547118544578552246e-01,4.591678977012634277e-01,4.815898239612579346e-01,5.083923935890197754e-01,5.191089510917663574e-01,5.344061255455017090e-01,5.487913489341735840e-01,5.561804771423339844e-01,5.575398802757263184e-01,5.564851164817810059e-01,5.542500019073486328e-01,5.531936883926391602e-01,5.455018877983093262e-01,5.215204954147338867e-01,5.174094438552856445e-01,5.384334325790405273e-01,5.280832648277282715e-01,5.396871566772460938e-01,4.965181648731231689e-01
4.905616343021392822e-01,4.556729793548583984e-01,4.712973237037658691e-01,4.408681094646453857e-01,4.361956119537353516e-01,4.405654072761535645e-01,4.539872109889984131e-01,4.580776989459991455e-01,4.623994827270507812e-01,4.647281765937805176e-01,4.672773480415344238e-01,4.700880050659179688e-01,4.728595912456512451e-01,4.754887521266937256e-01,4.777972996234893799e-01,4.795225262641906738e-01,4.808011054992675781e-01,4.817698597908020020e-01,4.823749661445617676e-01,4.826394319534301758e-01,4.826908111572265625e-01,4.826834499835968018e-01,4.826047420501708984e-01,4.825046360492706299e-01,4.824215173721313477e-01,4.823477268218994141e-01,4.822744429111480713e-01,4.822015762329101562e-01,4.821286201477050781e-01,4.820556342601776123e-01,4.819825887680053711e-01,4.819097816944122314e-01,4.818369448184967041e-01,4.817639887332916260e-01,4.816910922527313232e-01,4.816182255744934082e-01,4.815454185009002686e-01,4.814727306365966797e-01,4.814000129699707031e-01,4.813271760940551758e-01,4.812545180320739746e-01,4.811819195747375488e-01,4.811092913150787354e-01,4.810365438461303711e-01,4.809638857841491699e-01,4.808912277221679688e-01,4.808187484741210938e-01,4.807463586330413818e-01,4.806593656539916992e-01,4.805347323417663574e-01,4.809837639331817627e-01,4.798828959465026855e-01,4.786291122436523438e-01,4.810312688350677490e-01,4.780566990375518799e-01,4.607620239257812500e-01,4.534074068069458008e-01,4.442949295043945312e-01,4.222005605697631836e-01,4.047319591045379639e-01,4.074854254722595215e-01,4.087257087230682373e-01,4.077998101711273193e-01,4.228883683681488037e-01,4.405194818973541260e-01,4.455372095108032227e-01,4.576066434383392334e-01,4.654743075370788574e-01,4.718663394451141357e-01,4.720783531665802002e-01,4.744071066379547119e-01,4.741457700729370117e-01,4.750743210315704346e-01,4.693847298622131348e-01,4.495191276073455811e-01,4.482854902744293213e-01,4.718388319015502930e-01,4.688097834587097168e-01,4.950070381164550781e-01,4.690979719161987305e-01
4.694038927555084229e-01,4.224051535129547119e-01,4.285268783569335938e-01,3.950426578521728516e-01,3.840751647949218750e-01,3.856426477432250977e-01,3.960557579994201660e-01,3.989938497543334961e-01,4.020238816738128662e-01,4.032186269760131836e-01,4.044309854507446289e-01,4.056451618671417236e-01,4.066673815250396729e-01,4.076141119003295898e-01,4.084120392799377441e-01,4.090004563331604004e-01,4.096065163612365723e-01,4.101005196571350098e-01,4.103131592273712158e-01,4.103572070598602295e-01,4.103665351867675781e-01,4.102692604064941406e-01,4.101980030536651611e-01,4.101255238056182861e-01,4.100627601146697998e-01,4.100038707256317139e-01,4.099456667900085449e-01,4.098880290985107422e-01,4.098300933837890625e-01,4.097723066806793213e-01,4.097145497798919678e-01,4.096568822860717773e-01,4.095990359783172607e-01,4.095413684844970703e-01,4.094837605953216553e-01,4.094260931015014648e-01,4.093685150146484375e-01,4.093108773231506348e-01,4.092532396316528320e-01,4.091956317424774170e-01,4.091379344463348389e-01,4.090804457664489746e-01,4.090231359004974365e-01,4.089653193950653076e-01,4.089078903198242188e-01,4.088504910469055176e-01,4.087931513786315918e-01,4.087356328964233398e-01,4.086679816246032715e-01,4.085617065429687500e-01,4.086084961891174316e-01,4.080606400966644287e-01,4.078573584556579590e-01,4.089614152908325195e-01,4.060893654823303223e-01,3.967224359512329102e-01,3.900996446609497070e-01,3.863839805126190186e-01,3.730855584144592285e-01,3.647560477256774902e-01,3.683627843856811523e-01,3.690107464790344238e-01,3.704257309436798096e-01,3.750243782997131348e-01,3.840331137180328369e-01,3.867753744125366211e-01,3.939298391342163086e-01,4.001795649528503418e-01,4.029085934162139893e-01,4.042361378669738770e-01,4.045180976390838623e-01,4.037865400314331055e-01,4.049844145774841309e-01,4.014061689376831055e-01,3.856338560581207275e-01,3.876868486404418945e-01,4.135171771049499512e-01,4.177230000495910645e-01,4.560257792472839355e-01,4.460633397102355957e-01
4.513874351978302002e-01,3.938157260417938232e-01,3.929795026779174805e-01,3.572873473167419434e-01,3.413586616516113281e-01,3.406513333320617676e-01,3.480998873710632324e-01,3.498196005821228027e-01,3.515126705169677734e-01,3.519308865070343018e-01,3.524473607540130615e-01,3.529143035411834717e-01,3.533959984779357910e-01,3.538340926170349121e-01,3.541295826435089111e-01,3.542256057262420654e-01,3.543008267879486084e-01,3.541761636734008789e-01,3.540222048759460449e-01,3.539629280567169189e-01,3.539418280124664307e-01,3.539074063301086426e-01,3.538526296615600586e-01,3.537991940975189209e-01,3.537580370903015137e-01,3.537163734436035156e-01,3.536750972270965576e-01,3.536338806152343750e-01,3.535925745964050293e-01,3.535513281822204590e-01,3.535102903842926025e-01,3.534689247608184814e-01,3.534278273582458496e-01,3.533869087696075439e-01,3.533454835414886475e-01,3.533045649528503418e-01,3.532633185386657715e-01,3.532223701477050781e-01,3.531811535358428955e-01,3.531401753425598145e-01,3.530991077423095703e-01,3.530580103397369385e-01,3.530170619487762451e-01,3.529761433601379395e-01,3.529349565505981445e-01,3.528940677642822266e-01,3.528528809547424316e-01,3.528122603893280029e-01,3.527716398239135742e-01,3.527067303657531738e-01,3.527106642723083496e-01,3.526225984096527100e-01,3.529168963432312012e-01,3.532887697219848633e-01,3.519421815872192383e-01,3.487826585769653320e-01,3.463619947433471680e-01,3.411812186241149902e-01,3.362507224082946777e-01,3.278978466987609863e-01,3.296983838081359863e-01,3.305160105228424072e-01,3.340362906455993652e-01,3.337524533271789551e-01,3.385388851165771484e-01,3.439935147762298584e-01,3.459701538085937500e-01,3.496533036231994629e-01,3.505145609378814697e-01,3.513979315757751465e-01,3.510771393775939941e-01,3.510956168174743652e-01,3.518516421318054199e-01,3.495206236839294434e-01,3.362489342689514160e-01,3.391796350479125977e-01,3.653343319892883301e-01,3.756938874721527100e-01,4.224509298801422119e-01,4.258212149143218994e-01
4.349657893180847168e-01,3.689420223236083984e-01,3.612735867500305176e-01,3.251627087593078613e-01,3.061280250549316406e-01,3.047551512718200684e-01,3.108599185943603516e-01,3.122493028640747070e-01,3.134065270423889160e-01,3.134217262268066406e-01,3.134073615074157715e-01,3.133972883224487305e-01,3.134721517562866211e-01,3.135630488395690918e-01,3.135938644409179688e-01,3.136090636253356934e-01,3.135696053504943848e-01,3.135178685188293457e-01,3.135344386100769043e-01,3.135198354721069336e-01,3.134622573852539062e-01,3.134170770645141602e-01,3.133831024169921875e-01,3.133544921875000000e-01,3.133233189582824707e-01,3.132936954498291016e-01,3.132637739181518555e-01,3.132339417934417725e-01,3.132038712501525879e-01,3.131740689277648926e-01,3.131440877914428711e-01,3.131142258644104004e-01,3.130841851234436035e-01,3.130544424057006836e-01,3.130246698856353760e-01,3.129945993423461914e-01,3.129648268222808838e-01,3.129350543022155762e-01,3.129053413867950439e-01,3.128754496574401855e-01,3.128455281257629395e-01,3.128157258033752441e-01,3.127860426902770996e-01,3.127561807632446289e-01,3.127263188362121582e-01,3.126966357231140137e-01,3.126668334007263184e-01,3.126370310783386230e-01,3.126110434532165527e-01,3.125587105751037598e-01,3.125103116035461426e-01,3.125488162040710449e-01,3.126966655254364014e-01,3.123347163200378418e-01,3.118523359298706055e-01,3.111895620822906494e-01,3.100730776786804199e-01,3.074008822441101074e-01,3.053829073905944824e-01,3.023126423358917236e-01,2.994297742843627930e-01,3.019456863403320312e-01,3.031966686248779297e-01,3.032343387603759766e-01,3.056991994380950928e-01,3.072248995304107666e-01,3.087006807327270508e-01,3.098044395446777344e-01,3.108944594860076904e-01,3.115760684013366699e-01,3.114079535007476807e-01,3.116630911827087402e-01,3.121328353881835938e-01,3.104432225227355957e-01,2.992208600044250488e-01,3.025969862937927246e-01,3.288301229476928711e-01,3.441956043243408203e-01,3.968338370323181152e-01,4.101053476333618164e-01
4.212124049663543701e-01,3.491287827491760254e-01,3.364093303680419922e-01,2.999958693981170654e-01,2.791718244552612305e-01,2.769956290721893311e-01,2.819500863552093506e-01,2.831155359745025635e-01,2.839990854263305664e-01,2.838900089263916016e-01,2.838499844074249268e-01,2.838478088378906250e-01,2.838311791419982910e-01,2.838137149810791016e-01,2.837993204593658447e-01,2.837613224983215332e-01,2.837220430374145508e-01,2.836925983428955078e-01,2.836676537990570068e-01,2.836329340934753418e-01,2.836062312126159668e-01,2.835843563079833984e-01,2.835621833801269531e-01,2.835394740104675293e-01,2.835182249546051025e-01,2.834967076778411865e-01,2.834750413894653320e-01,2.834533452987670898e-01,2.834316492080688477e-01,2.834099531173706055e-01,2.833880782127380371e-01,2.833665013313293457e-01,2.833447456359863281e-01,2.833232581615447998e-01,2.833014726638793945e-01,2.832797467708587646e-01,2.832582592964172363e-01,2.832366824150085449e-01,2.832149863243103027e-01,2.831932306289672852e-01,2.831716537475585938e-01,2.831501960754394531e-01,2.831285595893859863e-01,2.831066250801086426e-01,2.830852866172790527e-01,2.830637097358703613e-01,2.830421328544616699e-01,2.830204963684082031e-01,2.830035686492919922e-01,2.829746007919311523e-01,2.829280793666839600e-01,2.829780578613281250e-01,2.829631268978118896e-01,2.826366424560546875e-01,2.828247547149658203e-01,2.831248641014099121e-01,2.820060849189758301e-01,2.810213565826416016e-01,2.812453210353851318e-01,2.798226773738861084e-01,2.786846756935119629e-01,2.788058519363403320e-01,2.786558866500854492e-01,2.787272334098815918e-01,2.791857123374938965e-01,2.799265384674072266e-01,2.810768485069274902e-01,2.814893722534179688e-01,2.819561064243316650e-01,2.824261784553527832e-01,2.825214266777038574e-01,2.822800874710083008e-01,2.831516861915588379e-01,2.818046212196350098e-01,2.718855440616607666e-01,2.751410305500030518e-01,3.007442653179168701e-01,3.195671439170837402e-01,3.763009011745452881e-01,3.975808024406433105e-01
4.091775119304656982e-01,3.324930369853973389e-01,3.159816265106201172e-01,2.799520492553710938e-01,2.584253549575805664e-01,2.558347582817077637e-01,2.600284814834594727e-01,2.610219120979309082e-01,2.617949247360229492e-01,2.617099583148956299e-01,2.616692781448364258e-01,2.616470158100128174e-01,2.616271972656250000e-01,2.616115510463714600e-01,2.615949809551239014e-01,2.615775763988494873e-01,2.615617811679840088e-01,2.615465819835662842e-01,2.615292668342590332e-01,2.615115642547607422e-01,2.614951133728027344e-01,2.614796757698059082e-01,2.614632844924926758e-01,2.614470124244689941e-01,2.614307105541229248e-01,2.614142000675201416e-01,2.613977193832397461e-01,2.613810896873474121e-01,2.613646984100341797e-01,2.613481879234313965e-01,2.613317370414733887e-01,2.613151073455810547e-01,2.612985968589782715e-01,2.612823843955993652e-01,2.612657546997070312e-01,2.612491250038146973e-01,2.612327337265014648e-01,2.612164020538330078e-01,2.611997127532958984e-01,2.611832916736602783e-01,2.611668705940246582e-01,2.611504495143890381e-01,2.611339688301086426e-01,2.611176371574401855e-01,2.611010670661926270e-01,2.610847353935241699e-01,2.610684037208557129e-01,2.610518336296081543e-01,2.610387206077575684e-01,2.610200643539428711e-01,2.610061168670654297e-01,2.610118985176086426e-01,2.609676718711853027e-01,2.607936859130859375e-01,2.610169053077697754e-01,2.611205577850341797e-01,2.606422007083892822e-01,2.600496411323547363e-01,2.602052688598632812e-01,2.593690752983093262e-01,2.584846615791320801e-01,2.590751051902770996e-01,2.593964934349060059e-01,2.601435482501983643e-01,2.605956196784973145e-01,2.601122856140136719e-01,2.602016031742095947e-01,2.600777447223663330e-01,2.603735327720642090e-01,2.604849338531494141e-01,2.608736157417297363e-01,2.605351209640502930e-01,2.611569166183471680e-01,2.600657939910888672e-01,2.511855661869049072e-01,2.544515132904052734e-01,2.794632017612457275e-01,3.009980916976928711e-01,3.605872392654418945e-01,3.876342773437500000e-01
3.991110920906066895e-01,3.188933134078979492e-01,2.997290492057800293e-01,2.643895745277404785e-01,2.423065900802612305e-01,2.394190132617950439e-01,2.430793344974517822e-01,2.439698278903961182e-01,2.446612417697906494e-01,2.445978224277496338e-01,2.445653676986694336e-01,2.445503473281860352e-01,2.445357739925384521e-01,2.445219159126281738e-01,2.445074319839477539e-01,2.444929778575897217e-01,2.444794774055480957e-01,2.444661259651184082e-01,2.444525063037872314e-01,2.444391250610351562e-01,2.444263100624084473e-01,2.444135844707489014e-01,2.444009482860565186e-01,2.443880438804626465e-01,2.443752288818359375e-01,2.443620860576629639e-01,2.443492412567138672e-01,2.443363964557647705e-01,2.443234324455261230e-01,2.443104684352874756e-01,2.442974448204040527e-01,2.442846000194549561e-01,2.442716658115386963e-01,2.442589998245239258e-01,2.442459166049957275e-01,2.442330420017242432e-01,2.442200183868408203e-01,2.442073523998260498e-01,2.441943585872650146e-01,2.441814839839935303e-01,2.441686093807220459e-01,2.441555857658386230e-01,2.441425621509552002e-01,2.441298365592956543e-01,2.441170215606689453e-01,2.441042363643646240e-01,2.440912723541259766e-01,2.440783977508544922e-01,2.440668046474456787e-01,2.440535128116607666e-01,2.440346181392669678e-01,2.440339624881744385e-01,2.439967393875122070e-01,2.439281940460205078e-01,2.440062463283538818e-01,2.440819740295410156e-01,2.438383698463439941e-01,2.439079284667968750e-01,2.440685927867889404e-01,2.438178062438964844e-01,2.433213591575622559e-01,2.432869374752044678e-01,2.430341839790344238e-01,2.431379556655883789e-01,2.437054812908172607e-01,2.434701621532440186e-01,2.439013719558715820e-01,2.440751492977142334e-01,2.439067959785461426e-01,2.437905371189117432e-01,2.437413036823272705e-01,2.436999082565307617e-01,2.441624104976654053e-01,2.433056831359863281e-01,2.352225482463836670e-01,2.385386526584625244e-01,2.629360556602478027e-01,2.863696813583374023e-01,3.479823470115661621e-01,3.796833157539367676e-01
3.908097147941589355e-01,3.077794313430786133e-01,2.866287827491760254e-01,2.519689798355102539e-01,2.295333743095397949e-01,2.264062166213989258e-01,2.296722829341888428e-01,2.304621040821075439e-01,2.310838997364044189e-01,2.310292422771453857e-01,2.310022413730621338e-01,2.309916615486145020e-01,2.309812009334564209e-01,2.309708297252655029e-01,2.309605181217193604e-01,2.309503257274627686e-01,2.309399247169494629e-01,2.309294342994689941e-01,2.309191226959228516e-01,2.309085130691528320e-01,2.308983802795410156e-01,2.308879494667053223e-01,2.308775186538696289e-01,2.308669090270996094e-01,2.308563888072967529e-01,2.308463156223297119e-01,2.308358550071716309e-01,2.308255434036254883e-01,2.308152914047241211e-01,2.308048903942108154e-01,2.307946085929870605e-01,2.307840585708618164e-01,2.307734489440917969e-01,2.307632863521575928e-01,2.307527661323547363e-01,2.307426333427429199e-01,2.307322621345520020e-01,2.307218611240386963e-01,2.307117283344268799e-01,2.307011485099792480e-01,2.306908071041107178e-01,2.306804955005645752e-01,2.306702435016632080e-01,2.306598126888275146e-01,2.306493818759918213e-01,2.306392788887023926e-01,2.306289076805114746e-01,2.306183576583862305e-01,2.306089699268341064e-01,2.305980920791625977e-01,2.305875420570373535e-01,2.305783331394195557e-01,2.305617630481719971e-01,2.305418550968170166e-01,2.305804491043090820e-01,2.305572926998138428e-01,2.304686903953552246e-01,2.304729819297790527e-01,2.304772436618804932e-01,2.302947342395782471e-01,2.303462326526641846e-01,2.302005589008331299e-01,2.301356196403503418e-01,2.304303646087646484e-01,2.303353250026702881e-01,2.302547097206115723e-01,2.304600477218627930e-01,2.303299307823181152e-01,2.303527891635894775e-01,2.304047346115112305e-01,2.303871810436248779e-01,2.303436398506164551e-01,2.306912541389465332e-01,2.300131916999816895e-01,2.225901484489440918e-01,2.259150147438049316e-01,2.498101890087127686e-01,2.745934724807739258e-01,3.377287387847900391e-01,3.731993436813354492e-01
3.838108181953430176e-01,2.985785305500030518e-01,2.758301496505737305e-01,2.418456375598907471e-01,2.191906571388244629e-01,2.158581018447875977e-01,2.188138067722320557e-01,2.195151746273040771e-01,2.200814485549926758e-01,2.200338542461395264e-01,2.200106382369995117e-01,2.200024127960205078e-01,2.199938297271728516e-01,2.199851274490356445e-01,2.199766933917999268e-01,2.199682295322418213e-01,2.199597358703613281e-01,2.199511229991912842e-01,2.199426591396331787e-01,2.199342250823974609e-01,2.199257016181945801e-01,2.199172079563140869e-01,2.199085950851440430e-01,2.199002206325531006e-01,2.198914587497711182e-01,2.198833525180816650e-01,2.198746204376220703e-01,2.198661267757415771e-01,2.198577523231506348e-01,2.198492288589477539e-01,2.198407053947448730e-01,2.198321521282196045e-01,2.198238074779510498e-01,2.198151648044586182e-01,2.198066115379333496e-01,2.197980284690856934e-01,2.197896242141723633e-01,2.197811305522918701e-01,2.197726070880889893e-01,2.197640538215637207e-01,2.197556197643280029e-01,2.197471857070922852e-01,2.197387218475341797e-01,2.197300791740417480e-01,2.197218835353851318e-01,2.197132706642150879e-01,2.197048068046569824e-01,2.196964323520660400e-01,2.196881473064422607e-01,2.196795344352722168e-01,2.196706831455230713e-01,2.196626961231231689e-01,2.196530103683471680e-01,2.196446955204010010e-01,2.196377515792846680e-01,2.196303009986877441e-01,2.196194231510162354e-01,2.196328938007354736e-01,2.196261584758758545e-01,2.196528911590576172e-01,2.195907235145568848e-01,2.195383906364440918e-01,2.195638716220855713e-01,2.194920480251312256e-01,2.195214331150054932e-01,2.195257544517517090e-01,2.195515930652618408e-01,2.195203006267547607e-01,2.195322513580322266e-01,2.195278108119964600e-01,2.195087671279907227e-01,2.194585204124450684e-01,2.197681069374084473e-01,2.192107737064361572e-01,2.123442292213439941e-01,2.156721353530883789e-01,2.391561269760131836e-01,2.649261653423309326e-01,3.292282819747924805e-01,3.678070902824401855e-01
3.778376281261444092e-01,2.908444404602050781e-01,2.668074965476989746e-01,2.334591448307037354e-01,2.106587290763854980e-01,2.071491181850433350e-01,2.098530232906341553e-01,2.104766368865966797e-01,2.109940350055694580e-01,2.109519839286804199e-01,2.109319269657135010e-01,2.109250128269195557e-01,2.109178900718688965e-01,2.109108865261077881e-01,2.109035551548004150e-01,2.108965814113616943e-01,2.108896076679229736e-01,2.108823359012603760e-01,2.108753621578216553e-01,2.108682692050933838e-01,2.108612358570098877e-01,2.108541429042816162e-01,2.108469605445861816e-01,2.108399271965026855e-01,2.108328044414520264e-01,2.108255624771118164e-01,2.108187079429626465e-01,2.108116149902343750e-01,2.108044326305389404e-01,2.107973694801330566e-01,2.107901871204376221e-01,2.107834517955780029e-01,2.107764184474945068e-01,2.107690274715423584e-01,2.107621133327484131e-01,2.107548415660858154e-01,2.107479274272918701e-01,2.107407450675964355e-01,2.107336223125457764e-01,2.107266783714294434e-01,2.107194662094116211e-01,2.107126414775848389e-01,2.107053399085998535e-01,2.106983959674835205e-01,2.106912732124328613e-01,2.106841504573822021e-01,2.106772065162658691e-01,2.106701433658599854e-01,2.106630206108093262e-01,2.106559872627258301e-01,2.106490135192871094e-01,2.106419205665588379e-01,2.106345891952514648e-01,2.106269299983978271e-01,2.106200456619262695e-01,2.106132805347442627e-01,2.106047868728637695e-01,2.106005847454071045e-01,2.105980813503265381e-01,2.105930745601654053e-01,2.105785608291625977e-01,2.105761170387268066e-01,2.105583846569061279e-01,2.105537354946136475e-01,2.105449438095092773e-01,2.105402946472167969e-01,2.105343341827392578e-01,2.105301916599273682e-01,2.105207741260528564e-01,2.105146944522857666e-01,2.105038166046142578e-01,2.104685306549072266e-01,2.107352912425994873e-01,2.102875411510467529e-01,2.038720548152923584e-01,2.072018384933471680e-01,2.303376197814941406e-01,2.568501532077789307e-01,3.220611810684204102e-01,3.632448315620422363e-01
3.726804554462432861e-01,2.842513322830200195e-01,2.591620683670043945e-01,2.263996303081512451e-01,2.035071849822998047e-01,1.998423337936401367e-01,2.023398280143737793e-01,2.028949558734893799e-01,2.033708691596984863e-01,2.033336460590362549e-01,2.033161818981170654e-01,2.033102810382843018e-01,2.033042609691619873e-01,2.032982409000396729e-01,2.032922506332397461e-01,2.032863795757293701e-01,2.032803595066070557e-01,2.032741010189056396e-01,2.032683491706848145e-01,2.032621502876281738e-01,2.032563984394073486e-01,2.032503187656402588e-01,2.032442390918731689e-01,2.032383084297180176e-01,2.032322287559509277e-01,2.032263576984405518e-01,2.032203674316406250e-01,2.032144069671630859e-01,2.032084465026855469e-01,2.032023668289184570e-01,2.031965255737304688e-01,2.031904160976409912e-01,2.031844556331634521e-01,2.031785547733306885e-01,2.031725943088531494e-01,2.031664550304412842e-01,2.031604051589965820e-01,2.031544744968414307e-01,2.031486034393310547e-01,2.031423747539520264e-01,2.031365633010864258e-01,2.031306922435760498e-01,2.031246423721313477e-01,2.031185925006866455e-01,2.031125724315643311e-01,2.031067013740539551e-01,2.031007409095764160e-01,2.030948400497436523e-01,2.030889093875885010e-01,2.030828297138214111e-01,2.030767798423767090e-01,2.030708789825439453e-01,2.030649185180664062e-01,2.030589282512664795e-01,2.030526101589202881e-01,2.030464708805084229e-01,2.030404210090637207e-01,2.030338644981384277e-01,2.030298113822937012e-01,2.030228078365325928e-01,2.030176520347595215e-01,2.030138671398162842e-01,2.030074298381805420e-01,2.030026316642761230e-01,2.029963135719299316e-01,2.029889225959777832e-01,2.029824256896972656e-01,2.029767036437988281e-01,2.029708027839660645e-01,2.029636502265930176e-01,2.029560506343841553e-01,2.029229700565338135e-01,2.031581997871398926e-01,2.027945220470428467e-01,1.967606544494628906e-01,2.000886499881744385e-01,2.229227721691131592e-01,2.500052750110626221e-01,3.159341812133789062e-01,3.593329787254333496e-01
3.681837916374206543e-01,2.785655856132507324e-01,2.526063323020935059e-01,2.203795611858367920e-01,1.974315643310546875e-01,1.936303675174713135e-01,1.959556341171264648e-01,1.964505016803741455e-01,1.968909800052642822e-01,1.968577802181243896e-01,1.968421638011932373e-01,1.968371868133544922e-01,1.968318521976470947e-01,1.968268752098083496e-01,1.968215703964233398e-01,1.968166232109069824e-01,1.968116462230682373e-01,1.968063712120056152e-01,1.968012154102325439e-01,1.967961490154266357e-01,1.967909932136535645e-01,1.967858076095581055e-01,1.967808008193969727e-01,1.967756152153015137e-01,1.967705488204956055e-01,1.967653930187225342e-01,1.967603266239166260e-01,1.967550516128540039e-01,1.967499852180480957e-01,1.967447102069854736e-01,1.967396438121795654e-01,1.967344880104064941e-01,1.967295706272125244e-01,1.967244446277618408e-01,1.967191994190216064e-01,1.967140734195709229e-01,1.967089176177978516e-01,1.967038214206695557e-01,1.966988444328308105e-01,1.966937780380249023e-01,1.966885328292846680e-01,1.966834366321563721e-01,1.966783404350280762e-01,1.966731846332550049e-01,1.966680884361267090e-01,1.966629326343536377e-01,1.966578960418701172e-01,1.966527700424194336e-01,1.966476440429687500e-01,1.966425776481628418e-01,1.966375112533569336e-01,1.966323256492614746e-01,1.966271996498107910e-01,1.966220736503601074e-01,1.966170370578765869e-01,1.966122686862945557e-01,1.966069638729095459e-01,1.966018080711364746e-01,1.965966522693634033e-01,1.965916752815246582e-01,1.965864896774291992e-01,1.965813636779785156e-01,1.965763270854949951e-01,1.965711414813995361e-01,1.965659856796264648e-01,1.965610384941101074e-01,1.965557932853698730e-01,1.965508162975311279e-01,1.965458095073699951e-01,1.965406835079193115e-01,1.965348124504089355e-01,1.965051889419555664e-01,1.967158615589141846e-01,1.964194178581237793e-01,1.907109916210174561e-01,1.940350234508514404e-01,2.166053652763366699e-01,2.441314160823822021e-01,3.106359243392944336e-01,3.559406697750091553e-01
3.642290532588958740e-01,2.736130952835083008e-01,2.469268739223480225e-01,2.151881456375122070e-01,1.922096312046051025e-01,1.882880032062530518e-01,1.904676258563995361e-01,1.909095346927642822e-01,1.913197636604309082e-01,1.912896037101745605e-01,1.912755370140075684e-01,1.912710070610046387e-01,1.912668049335479736e-01,1.912621855735778809e-01,1.912577152252197266e-01,1.912533044815063477e-01,1.912490129470825195e-01,1.912444233894348145e-01,1.912402510643005371e-01,1.912356913089752197e-01,1.912312805652618408e-01,1.912268400192260742e-01,1.912223696708679199e-01,1.912179589271545410e-01,1.912133395671844482e-01,1.912090480327606201e-01,1.912047266960144043e-01,1.912002563476562500e-01,1.911956071853637695e-01,1.911912262439727783e-01,1.911869943141937256e-01,1.911826133728027344e-01,1.911781132221221924e-01,1.911737024784088135e-01,1.911691129207611084e-01,1.911649107933044434e-01,1.911603808403015137e-01,1.911559700965881348e-01,1.911515891551971436e-01,1.911470890045166016e-01,1.911427974700927734e-01,1.911381781101226807e-01,1.911339461803436279e-01,1.911294460296630859e-01,1.911250948905944824e-01,1.911206245422363281e-01,1.911160647869110107e-01,1.911117136478424072e-01,1.911072731018066406e-01,1.911029517650604248e-01,1.910986006259918213e-01,1.910941600799560547e-01,1.910897493362426758e-01,1.910853385925292969e-01,1.910808682441711426e-01,1.910763978958129883e-01,1.910722255706787109e-01,1.910675466060638428e-01,1.910632848739624023e-01,1.910587847232818604e-01,1.910543441772460938e-01,1.910500824451446533e-01,1.910456418991088867e-01,1.910411417484283447e-01,1.910367906093597412e-01,1.910322606563568115e-01,1.910280287265777588e-01,1.910236775875091553e-01,1.910191774368286133e-01,1.910145878791809082e-01,1.910096108913421631e-01,1.909834444522857666e-01,1.911737322807312012e-01,1.909338235855102539e-01,1.855047643184661865e-01,1.888247728347778320e-01,2.111608982086181641e-01,2.390374541282653809e-01,3.060079216957092285e-01,3.529705405235290527e-01
3.607223927974700928e-01,2.692641019821166992e-01,2.419606745243072510e-01,2.106674909591674805e-01,1.876755058765411377e-01,1.836444437503814697e-01,1.856971681118011475e-01,1.860919296741485596e-01,1.864755153656005859e-01,1.864480376243591309e-01,1.864352822303771973e-01,1.864315569400787354e-01,1.864275932312011719e-01,1.864237189292907715e-01,1.864198744297027588e-01,1.864159405231475830e-01,1.864121854305267334e-01,1.864083707332611084e-01,1.864044368267059326e-01,1.864005327224731445e-01,1.863966286182403564e-01,1.863927841186523438e-01,1.863889396190643311e-01,1.863850057125091553e-01,1.863811612129211426e-01,1.863773465156555176e-01,1.863734722137451172e-01,1.863696277141571045e-01,1.863657236099243164e-01,1.863619387149810791e-01,1.863580346107482910e-01,1.863541305065155029e-01,1.863501965999603271e-01,1.863462030887603760e-01,1.863425672054290771e-01,1.863386332988739014e-01,1.863349080085754395e-01,1.863307952880859375e-01,1.863271892070770264e-01,1.863232553005218506e-01,1.863194704055786133e-01,1.863156557083129883e-01,1.863115131855010986e-01,1.863077282905578613e-01,1.863037943840026855e-01,1.863001286983489990e-01,1.862962543964385986e-01,1.862923204898834229e-01,1.862885653972625732e-01,1.862849295139312744e-01,1.862809956073760986e-01,1.862770617008209229e-01,1.862731873989105225e-01,1.862691938877105713e-01,1.862654685974121094e-01,1.862613856792449951e-01,1.862575411796569824e-01,1.862537860870361328e-01,1.862500011920928955e-01,1.862461566925048828e-01,1.862423717975616455e-01,1.862385869026184082e-01,1.862345635890960693e-01,1.862308382987976074e-01,1.862269043922424316e-01,1.862231791019439697e-01,1.862193048000335693e-01,1.862155497074127197e-01,1.862116456031799316e-01,1.862074136734008789e-01,1.862029135227203369e-01,1.861797273159027100e-01,1.863535940647125244e-01,1.861612796783447266e-01,1.809765696525573730e-01,1.842908561229705811e-01,2.064198553562164307e-01,2.345710098743438721e-01,3.019195795059204102e-01,3.503380417823791504e-01
3.576376438140869141e-01,2.654606699943542480e-01,2.376333773136138916e-01,2.067418396472930908e-01,1.837373971939086914e-01,1.796104907989501953e-01,1.815583407878875732e-01,1.819114685058593750e-01,1.822720468044281006e-01,1.822468042373657227e-01,1.822347640991210938e-01,1.822314560413360596e-01,1.822280287742614746e-01,1.822244822978973389e-01,1.822211444377899170e-01,1.822177767753601074e-01,1.822142302989959717e-01,1.822108924388885498e-01,1.822074949741363525e-01,1.822041869163513184e-01,1.822006106376647949e-01,1.821972131729125977e-01,1.821938753128051758e-01,1.821906268596649170e-01,1.821872293949127197e-01,1.821838915348052979e-01,1.821803152561187744e-01,1.821769773960113525e-01,1.821734607219696045e-01,1.821700930595397949e-01,1.821667850017547607e-01,1.821633875370025635e-01,1.821599006652832031e-01,1.821565330028533936e-01,1.821531653404235840e-01,1.821497976779937744e-01,1.821461915969848633e-01,1.821429729461669922e-01,1.821395456790924072e-01,1.821360588073730469e-01,1.821327209472656250e-01,1.821292936801910400e-01,1.821260154247283936e-01,1.821225881576538086e-01,1.821191310882568359e-01,1.821157634258270264e-01,1.821123063564300537e-01,1.821088492870330811e-01,1.821056902408599854e-01,1.821023225784301758e-01,1.820988953113555908e-01,1.820955276489257812e-01,1.820921003818511963e-01,1.820886135101318359e-01,1.820852756500244141e-01,1.820818781852722168e-01,1.820785403251647949e-01,1.820751130580902100e-01,1.820718348026275635e-01,1.820684075355529785e-01,1.820648610591888428e-01,1.820615231990814209e-01,1.820583045482635498e-01,1.820546686649322510e-01,1.820514798164367676e-01,1.820480823516845703e-01,1.820445954799652100e-01,1.820411682128906250e-01,1.820378601551055908e-01,1.820344924926757812e-01,1.820303201675415039e-01,1.820092797279357910e-01,1.821681261062622070e-01,1.820162832736968994e-01,1.770410239696502686e-01,1.803436875343322754e-01,2.022833228111267090e-01,2.306698858737945557e-01,2.983118295669555664e-01,3.479944467544555664e-01
3.552459478378295898e-01,2.622942328453063965e-01,2.341432571411132812e-01,2.035855948925018311e-01,1.805850267410278320e-01,1.763871312141418457e-01,1.782720386981964111e-01,1.786175072193145752e-01,1.789577305316925049e-01,1.789332032203674316e-01,1.789227426052093506e-01,1.789195537567138672e-01,1.789166033267974854e-01,1.789133548736572266e-01,1.789104044437408447e-01,1.789074540138244629e-01,1.789044141769409180e-01,1.789011955261230469e-01,1.788983643054962158e-01,1.788950860500335693e-01,1.788923740386962891e-01,1.788892745971679688e-01,1.788861751556396484e-01,1.788830459117889404e-01,1.788801550865173340e-01,1.788772046566009521e-01,1.788741052150726318e-01,1.788710653781890869e-01,1.788679659366607666e-01,1.788650155067443848e-01,1.788620352745056152e-01,1.788589060306549072e-01,1.788559556007385254e-01,1.788527667522430420e-01,1.788497865200042725e-01,1.788467764854431152e-01,1.788439154624938965e-01,1.788406968116760254e-01,1.788378655910491943e-01,1.788348257541656494e-01,1.788318157196044922e-01,1.788285970687866211e-01,1.788257956504821777e-01,1.788227856159210205e-01,1.788194477558135986e-01,1.788167059421539307e-01,1.788136065006256104e-01,1.788105368614196777e-01,1.788077056407928467e-01,1.788044273853302002e-01,1.788013875484466553e-01,1.787985265254974365e-01,1.787953674793243408e-01,1.787922680377960205e-01,1.787894070148468018e-01,1.787864267826080322e-01,1.787833273410797119e-01,1.787804961204528809e-01,1.787772774696350098e-01,1.787742972373962402e-01,1.787715554237365723e-01,1.787682473659515381e-01,1.787651479244232178e-01,1.787623167037963867e-01,1.787591278553009033e-01,1.787563562393188477e-01,1.787531971931457520e-01,1.787502169609069824e-01,1.787471771240234375e-01,1.787441372871398926e-01,1.787405014038085938e-01,1.787214875221252441e-01,1.788694560527801514e-01,1.787461042404174805e-01,1.739448606967926025e-01,1.772528588771820068e-01,1.989199817180633545e-01,2.273623049259185791e-01,2.952053546905517578e-01,3.462710976600646973e-01
