5.884595513343811035e-01,6.138772368431091309e-01,6.564384698867797852e-01,6.571917533874511719e-01,6.806951165199279785e-01,7.049094438552856445e-01,7.412762641906738281e-01,7.626844644546508789e-01,7.834577560424804688e-01,8.020962476730346680e-01,8.198959231376647949e-01,8.364020586013793945e-01,8.513697385787963867e-01,8.647046089172363281e-01,8.763457536697387695e-01,8.858937025070190430e-01,8.929319381713867188e-01,8.976775407791137695e-01,9.009641408920288086e-01,9.031084775924682617e-01,9.043330550193786621e-01,9.050039052963256836e-01,9.052593708038330078e-01,9.053181409835815430e-01,9.053306579589843750e-01,9.053288698196411133e-01,9.053283333778381348e-01,9.053283333778381348e-01,9.053283333778381348e-01,9.053283333778381348e-01,9.053283333778381348e-01,9.053283333778381348e-01,9.053283333778381348e-01,9.053283333778381348e-01,9.053283333778381348e-01,9.053283333778381348e-01,9.053283333778381348e-01,9.053283333778381348e-01,9.053283333778381348e-01,9.053283333778381348e-01,9.053283333778381348e-01,9.053283333778381348e-01,9.053283333778381348e-01,9.053283333778381348e-01,9.053283929824829102e-01,9.053249359130859375e-01,9.053562879562377930e-01,9.058256745338439941e-01,9.058522582054138184e-01,9.012935161590576172e-01,8.930882215499877930e-01,8.822144269943237305e-01,8.634792566299438477e-01,8.364000320434570312e-01,7.800492048263549805e-01,6.720722317695617676e-01,6.036802530288696289e-01,5.289868116378784180e-01,4.849612116813659668e-01,4.550205767154693604e-01,4.418694674968719482e-01,4.413831532001495361e-01,4.762465357780456543e-01,4.959029853343963623e-01,5.380378365516662598e-01,6.079394221305847168e-01,6.790416240692138672e-01,6.880668401718139648e-01,7.212936282157897949e-01,7.283924818038940430e-01,7.534750699996948242e-01,7.583746910095214844e-01,7.697029113769531250e-01,7.851002216339111328e-01,7.835996150970458984e-01,7.684867382049560547e-01,7.759565114974975586e-01,7.568295001983642578e-01,7.115484476089477539e-01,6.101656556129455566e-01
5.884525775909423828e-01,6.138661503791809082e-01,6.564255952835083008e-01,6.571767926216125488e-01,6.806786060333251953e-01,7.048926353454589844e-01,7.412589788436889648e-01,7.626669406890869141e-01,7.834404706954956055e-01,8.020789623260498047e-01,8.198794126510620117e-01,8.363866806030273438e-01,8.513559103012084961e-01,8.646919131278991699e-01,8.763346672058105469e-01,8.858851194381713867e-01,8.929258584976196289e-01,8.976734280586242676e-01,9.009612798690795898e-01,9.031068086624145508e-01,9.043320417404174805e-01,9.050033688545227051e-01,9.052591323852539062e-01,9.053180217742919922e-01,9.053307175636291504e-01,9.053288698196411133e-01,9.053283333778381348e-01,9.053283333778381348e-01,9.053283333778381348e-01,9.053283333778381348e-01,9.053283333778381348e-01,9.053283333778381348e-01,9.053283333778381348e-01,9.053283333778381348e-01,9.053283333778381348e-01,9.053283333778381348e-01,9.053283333778381348e-01,9.053283333778381348e-01,9.053283333778381348e-01,9.053283333778381348e-01,9.053283333778381348e-01,9.053283333778381348e-01,9.053283333778381348e-01,9.053283333778381348e-01,9.053283929824829102e-01,9.053286314010620117e-01,9.053188562393188477e-01,9.058101177215576172e-01,9.054476022720336914e-01,9.010164141654968262e-01,8.933674693107604980e-01,8.823369741439819336e-01,8.667244911193847656e-01,8.385047912597656250e-01,7.826272249221801758e-01,6.777994632720947266e-01,6.013185381889343262e-01,5.376533269882202148e-01,4.889716804027557373e-01,4.596641957759857178e-01,4.417336881160736084e-01,4.532088041305541992e-01,4.970456659793853760e-01,5.018452405929565430e-01,5.392943024635314941e-01,6.226845383644104004e-01,6.995150446891784668e-01,7.347013354301452637e-01,7.424460053443908691e-01,7.630661725997924805e-01,7.437110543251037598e-01,7.791062593460083008e-01,7.802464962005615234e-01,7.823243141174316406e-01,7.726966142654418945e-01,7.743961811065673828e-01,7.714290618896484375e-01,7.511945962905883789e-01,7.093973755836486816e-01,6.098809242248535156e-01
5.884460210800170898e-01,6.138555407524108887e-01,6.564129590988159180e-01,6.571620702743530273e-01,6.806623339653015137e-01,7.048757076263427734e-01,7.412420511245727539e-01,7.626500129699707031e-01,7.834234833717346191e-01,8.020619750022888184e-01,8.198633193969726562e-01,8.363713622093200684e-01,8.513420820236206055e-01,8.646799325942993164e-01,8.763236999511718750e-01,8.858765363693237305e-01,8.929200172424316406e-01,8.976693749427795410e-01,9.009582400321960449e-01,9.031051397323608398e-01,9.043312072753906250e-01,9.050028920173645020e-01,9.052590131759643555e-01,9.053180217742919922e-01,9.053307175636291504e-01,9.053288698196411133e-01,9.053283333778381348e-01,9.053283333778381348e-01,9.053283333778381348e-01,9.053283333778381348e-01,9.053283333778381348e-01,9.053283333778381348e-01,9.053283333778381348e-01,9.053283333778381348e-01,9.053283333778381348e-01,9.053283333778381348e-01,9.053283333778381348e-01,9.053283333778381348e-01,9.053283333778381348e-01,9.053283333778381348e-01,9.053283333778381348e-01,9.053283333778381348e-01,9.053283333778381348e-01,9.053283333778381348e-01,9.053289890289306641e-01,9.053323268890380859e-01,9.053502082824707031e-01,9.057596921920776367e-01,9.056220650672912598e-01,9.019025564193725586e-01,8.935299515724182129e-01,8.852964043617248535e-01,8.694040179252624512e-01,8.395244479179382324e-01,7.886152267456054688e-01,6.823446154594421387e-01,6.117453575134277344e-01,5.630625486373901367e-01,5.108485221862792969e-01,4.594520032405853271e-01,4.347410500049591064e-01,4.672716259956359863e-01,5.022243261337280273e-01,5.164213180541992188e-01,5.605480670928955078e-01,6.360834836959838867e-01,7.026697993278503418e-01,7.548120021820068359e-01,7.806338071823120117e-01,7.817946672439575195e-01,7.779288291931152344e-01,7.799776792526245117e-01,7.966510057449340820e-01,7.880340218544006348e-01,7.678872346878051758e-01,7.615490555763244629e-01,7.722095251083374023e-01,7.516353130340576172e-01,7.022876739501953125e-01,6.081253886222839355e-01
5.884399414062500000e-01,6.138451695442199707e-01,6.564006805419921875e-01,6.571475267410278320e-01,6.806464195251464844e-01,7.048592567443847656e-01,7.412254810333251953e-01,7.626333236694335938e-01,7.834066748619079590e-01,8.020454645156860352e-01,8.198473453521728516e-01,8.363566398620605469e-01,8.513287305831909180e-01,8.646675348281860352e-01,8.763132095336914062e-01,8.858679533004760742e-01,8.929137587547302246e-01,8.976656198501586914e-01,9.009553790092468262e-01,9.031034708023071289e-01,9.043301939964294434e-01,9.050021171569824219e-01,9.052590727806091309e-01,9.053180217742919922e-01,9.053307175636291504e-01,9.053288698196411133e-01,9.053283333778381348e-01,9.053283333778381348e-01,9.053283333778381348e-01,9.053283333778381348e-01,9.053283333778381348e-01,9.053283333778381348e-01,9.053283333778381348e-01,9.053283333778381348e-01,9.053283333778381348e-01,9.053283333778381348e-01,9.053283333778381348e-01,9.053283333778381348e-01,9.053283333778381348e-01,9.053283333778381348e-01,9.053283333778381348e-01,9.053283333778381348e-01,9.053283333778381348e-01,9.053283333778381348e-01,9.053286314010620117e-01,9.053338766098022461e-01,9.053500890731811523e-01,9.057480096817016602e-01,9.056458473205566406e-01,9.011849761009216309e-01,8.931981325149536133e-01,8.874510526657104492e-01,8.731040954589843750e-01,8.516638278961181641e-01,7.981220483779907227e-01,6.953369379043579102e-01,6.331505179405212402e-01,5.706051588058471680e-01,5.191690921783447266e-01,4.710153937339782715e-01,4.557301402091979980e-01,4.719371795654296875e-01,5.019938945770263672e-01,5.358656644821166992e-01,5.915834307670593262e-01,6.400149464607238770e-01,7.314608097076416016e-01,7.711381316184997559e-01,8.073455095291137695e-01,8.138102889060974121e-01,8.042194247245788574e-01,7.973172068595886230e-01,8.028857707977294922e-01,8.034523129463195801e-01,7.799309492111206055e-01,7.719631195068359375e-01,7.738068699836730957e-01,7.539439201354980469e-01,7.072488665580749512e-01,6.070064306259155273e-01
5.884344577789306641e-01,6.138357520103454590e-01,6.563894748687744141e-01,6.571338176727294922e-01,6.806309819221496582e-01,7.048432826995849609e-01,7.412093877792358398e-01,7.626169919967651367e-01,7.833905220031738281e-01,8.020292520523071289e-01,8.198322057723999023e-01,8.363424539566040039e-01,8.513156175613403320e-01,8.646556138992309570e-01,8.763027787208557129e-01,8.858597278594970703e-01,8.929080963134765625e-01,8.976616263389587402e-01,9.009526371955871582e-01,9.031018018722534180e-01,9.043292999267578125e-01,9.050018787384033203e-01,9.052589535713195801e-01,9.053180217742919922e-01,9.053307771682739258e-01,9.053288698196411133e-01,9.053283333778381348e-01,9.053283333778381348e-01,9.053283333778381348e-01,9.053283333778381348e-01,9.053283333778381348e-01,9.053283333778381348e-01,9.053283333778381348e-01,9.053283333778381348e-01,9.053283333778381348e-01,9.053283333778381348e-01,9.053283333778381348e-01,9.053283333778381348e-01,9.053283333778381348e-01,9.053283333778381348e-01,9.053283333778381348e-01,9.053283333778381348e-01,9.053283333778381348e-01,9.053283333778381348e-01,9.053283929824829102e-01,9.053333997726440430e-01,9.053511619567871094e-01,9.056678414344787598e-01,9.057451486587524414e-01,9.009908437728881836e-01,8.966060876846313477e-01,8.879830241203308105e-01,8.760586380958557129e-01,8.555190563201904297e-01,8.037812709808349609e-01,7.227954268455505371e-01,6.542447805404663086e-01,5.978927612304687500e-01,5.362564325332641602e-01,4.940102696418762207e-01,4.767144322395324707e-01,4.844599664211273193e-01,5.040404200553894043e-01,5.556131005287170410e-01,6.116454601287841797e-01,6.804176568984985352e-01,7.405428886413574219e-01,7.906988859176635742e-01,8.124157786369323730e-01,8.437616229057312012e-01,8.369958400726318359e-01,8.236669301986694336e-01,8.108850717544555664e-01,8.169718980789184570e-01,7.996634840965270996e-01,7.811091542243957520e-01,7.805647850036621094e-01,7.585059404373168945e-01,7.088100910186767578e-01,6.082468628883361816e-01
5.884295105934143066e-01,6.138274073600769043e-01,6.563793420791625977e-01,6.571215987205505371e-01,6.806167960166931152e-01,7.048283815383911133e-01,7.411938905715942383e-01,7.626014947891235352e-01,7.833747267723083496e-01,8.020135164260864258e-01,8.198170065879821777e-01,8.363285660743713379e-01,8.513026237487792969e-01,8.646439909934997559e-01,8.762927055358886719e-01,8.858514428138732910e-01,8.929023742675781250e-01,8.976578712463378906e-01,9.009498357772827148e-01,9.031001329421997070e-01,9.043283462524414062e-01,9.050014019012451172e-01,9.052588939666748047e-01,9.053179025650024414e-01,9.053307771682739258e-01,9.053288698196411133e-01,9.053283333778381348e-01,9.053283333778381348e-01,9.053283333778381348e-01,9.053283333778381348e-01,9.053283333778381348e-01,9.053283333778381348e-01,9.053283333778381348e-01,9.053283333778381348e-01,9.053283333778381348e-01,9.053283333778381348e-01,9.053283333778381348e-01,9.053283333778381348e-01,9.053283333778381348e-01,9.053283333778381348e-01,9.053283333778381348e-01,9.053283333778381348e-01,9.053283333778381348e-01,9.053283333778381348e-01,9.053283333778381348e-01,9.053318500518798828e-01,9.053325057029724121e-01,9.056419134140014648e-01,9.059166908264160156e-01,9.021680951118469238e-01,8.983235359191894531e-01,8.927711844444274902e-01,8.822312355041503906e-01,8.629533052444458008e-01,8.152803182601928711e-01,7.308644056320190430e-01,6.814614534378051758e-01,6.441112160682678223e-01,5.774694681167602539e-01,5.278643965721130371e-01,4.960180819034576416e-01,5.050464272499084473e-01,5.135453343391418457e-01,5.799742937088012695e-01,6.443563103675842285e-01,6.918577551841735840e-01,7.680404186248779297e-01,8.045691251754760742e-01,8.328200578689575195e-01,8.452588915824890137e-01,8.619965314865112305e-01,8.479251265525817871e-01,8.360484242439270020e-01,8.242512345314025879e-01,8.048985004425048828e-01,7.937109470367431641e-01,7.896798849105834961e-01,7.665438652038574219e-01,7.173197269439697266e-01,6.142745614051818848e-01
5.884249210357666016e-01,6.138200163841247559e-01,6.563702821731567383e-01,6.571110486984252930e-01,6.806044578552246094e-01,7.048152685165405273e-01,7.411798238754272461e-01,7.625870704650878906e-01,7.833597660064697266e-01,8.019984960556030273e-01,8.198027610778808594e-01,8.363150358200073242e-01,8.512904644012451172e-01,8.646329641342163086e-01,8.762826919555664062e-01,8.858436346054077148e-01,8.928967714309692383e-01,8.976542949676513672e-01,9.009472131729125977e-01,9.030987620353698730e-01,9.043276309967041016e-01,9.050009250640869141e-01,9.052587747573852539e-01,9.053179025650024414e-01,9.053307771682739258e-01,9.053288698196411133e-01,9.053283333778381348e-01,9.053283333778381348e-01,9.053283333778381348e-01,9.053283333778381348e-01,9.053283333778381348e-01,9.053283333778381348e-01,9.053283333778381348e-01,9.053283333778381348e-01,9.053283333778381348e-01,9.053283333778381348e-01,9.053283333778381348e-01,9.053283333778381348e-01,9.053283333778381348e-01,9.053283333778381348e-01,9.053283333778381348e-01,9.053283333778381348e-01,9.053283333778381348e-01,9.053283333778381348e-01,9.053283333778381348e-01,9.053279161453247070e-01,9.053345918655395508e-01,9.056881666183471680e-01,9.058833122253417969e-01,9.028512835502624512e-01,8.984980583190917969e-01,8.957823514938354492e-01,8.888236880302429199e-01,8.674896955490112305e-01,8.287054896354675293e-01,7.605203390121459961e-01,7.321298122406005859e-01,6.815854907035827637e-01,6.226653456687927246e-01,5.594541430473327637e-01,5.374038219451904297e-01,5.200014710426330566e-01,5.312678813934326172e-01,5.976935625076293945e-01,6.662778854370117188e-01,7.211115360260009766e-01,7.835166454315185547e-01,8.237380981445312500e-01,8.436048030853271484e-01,8.588323593139648438e-01,8.665845394134521484e-01,8.652337193489074707e-01,8.495086431503295898e-01,8.319047093391418457e-01,8.133617043495178223e-01,7.970490455627441406e-01,7.965337038040161133e-01,7.741166353225708008e-01,7.220427393913269043e-01,6.158708333969116211e-01
5.884206295013427734e-01,6.138128638267517090e-01,6.563616991043090820e-01,6.571011543273925781e-01,6.805933713912963867e-01,7.048036456108093262e-01,7.411679029464721680e-01,7.625741958618164062e-01,7.833464145660400391e-01,8.019847273826599121e-01,8.197889328002929688e-01,8.363022804260253906e-01,8.512784242630004883e-01,8.646224737167358398e-01,8.762733936309814453e-01,8.858360648155212402e-01,8.928912878036499023e-01,8.976507782936096191e-01,9.009445905685424805e-01,9.030970931053161621e-01,9.043266773223876953e-01,9.050004482269287109e-01,9.052586555480957031e-01,9.053179025650024414e-01,9.053307175636291504e-01,9.053288698196411133e-01,9.053283333778381348e-01,9.053283333778381348e-01,9.053283333778381348e-01,9.053283333778381348e-01,9.053283333778381348e-01,9.053283333778381348e-01,9.053283333778381348e-01,9.053283333778381348e-01,9.053283333778381348e-01,9.053283333778381348e-01,9.053283333778381348e-01,9.053283333778381348e-01,9.053283333778381348e-01,9.053283333778381348e-01,9.053283333778381348e-01,9.053283333778381348e-01,9.053283333778381348e-01,9.053283333778381348e-01,9.053283333778381348e-01,9.053237438201904297e-01,9.053355455398559570e-01,9.057015180587768555e-01,9.059976339340209961e-01,9.033065438270568848e-01,9.000682830810546875e-01,8.981791138648986816e-01,8.914458751678466797e-01,8.800178766250610352e-01,8.476985692977905273e-01,8.003330230712890625e-01,7.532540559768676758e-01,7.143929004669189453e-01,6.720914840698242188e-01,6.173322200775146484e-01,5.696656107902526855e-01,5.594689846038818359e-01,5.623838305473327637e-01,6.200301647186279297e-01,6.808554530143737793e-01,7.541959285736083984e-01,7.980095744132995605e-01,8.316544890403747559e-01,8.558148741722106934e-01,8.649141788482666016e-01,8.711007833480834961e-01,8.677372932434082031e-01,8.615865707397460938e-01,8.483197689056396484e-01,8.163270950317382812e-01,7.989838123321533203e-01,7.955089807510375977e-01,7.747458219528198242e-01,7.222393751144409180e-01,6.161116361618041992e-01
5.884158611297607422e-01,6.138054132461547852e-01,6.563535332679748535e-01,6.570919156074523926e-01,6.805832386016845703e-01,7.047928571701049805e-01,7.411568164825439453e-01,7.625629901885986328e-01,7.833348512649536133e-01,8.019725680351257324e-01,8.197770118713378906e-01,8.362905979156494141e-01,8.512673377990722656e-01,8.646123409271240234e-01,8.762645721435546875e-01,8.858289718627929688e-01,8.928864002227783203e-01,8.976474404335021973e-01,9.009420275688171387e-01,9.030957221984863281e-01,9.043259024620056152e-01,9.050000905990600586e-01,9.052585363388061523e-01,9.053180217742919922e-01,9.053307175636291504e-01,9.053288698196411133e-01,9.053283333778381348e-01,9.053283333778381348e-01,9.053283333778381348e-01,9.053283333778381348e-01,9.053283333778381348e-01,9.053283333778381348e-01,9.053283333778381348e-01,9.053283333778381348e-01,9.053283333778381348e-01,9.053283333778381348e-01,9.053283333778381348e-01,9.053283333778381348e-01,9.053283333778381348e-01,9.053283333778381348e-01,9.053283333778381348e-01,9.053283333778381348e-01,9.053283333778381348e-01,9.053283333778381348e-01,9.053283333778381348e-01,9.053231477737426758e-01,9.053260087966918945e-01,9.058420658111572266e-01,9.065018892288208008e-01,9.026692509651184082e-01,9.024764299392700195e-01,9.013052582740783691e-01,8.941578865051269531e-01,8.831817507743835449e-01,8.546228408813476562e-01,8.199232816696166992e-01,8.033201098442077637e-01,7.708975076675415039e-01,7.104052305221557617e-01,6.623104214668273926e-01,6.160439252853393555e-01,5.809849500656127930e-01,6.029882431030273438e-01,6.534792184829711914e-01,7.001707553863525391e-01,7.693073749542236328e-01,8.164232969284057617e-01,8.442717194557189941e-01,8.643915653228759766e-01,8.715871572494506836e-01,8.770468831062316895e-01,8.750576972961425781e-01,8.645572662353515625e-01,8.502027988433837891e-01,8.224573135375976562e-01,8.012510538101196289e-01,7.946391105651855469e-01,7.722759246826171875e-01,7.238513231277465820e-01,6.155198812484741211e-01
5.884106755256652832e-01,6.137974262237548828e-01,6.563448905944824219e-01,6.570818424224853516e-01,6.805728077888488770e-01,7.047826051712036133e-01,7.411465644836425781e-01,7.625526189804077148e-01,7.833242416381835938e-01,8.019618988037109375e-01,8.197666406631469727e-01,8.362802863121032715e-01,8.512573242187500000e-01,8.646032810211181641e-01,8.762561082839965820e-01,8.858222961425781250e-01,8.928815722465515137e-01,8.976442813873291016e-01,9.009398221969604492e-01,9.030944108963012695e-01,9.043251276016235352e-01,9.049996733665466309e-01,9.052584171295166016e-01,9.053179025650024414e-01,9.053307175636291504e-01,9.053288698196411133e-01,9.053283333778381348e-01,9.053283333778381348e-01,9.053283333778381348e-01,9.053283333778381348e-01,9.053283333778381348e-01,9.053283333778381348e-01,9.053283333778381348e-01,9.053283333778381348e-01,9.053283333778381348e-01,9.053283333778381348e-01,9.053283333778381348e-01,9.053283333778381348e-01,9.053283333778381348e-01,9.053283333778381348e-01,9.053283333778381348e-01,9.053283333778381348e-01,9.053283333778381348e-01,9.053283333778381348e-01,9.053283333778381348e-01,9.053255319595336914e-01,9.053172469139099121e-01,9.058310985565185547e-01,9.060155749320983887e-01,9.029179811477661133e-01,9.036355018615722656e-01,9.060111641883850098e-01,9.002933502197265625e-01,8.906651735305786133e-01,8.700184226036071777e-01,8.419946432113647461e-01,8.228469491004943848e-01,7.913066744804382324e-01,7.460199594497680664e-01,6.893494129180908203e-01,6.497115492820739746e-01,6.107350587844848633e-01,6.399313211441040039e-01,6.825408339500427246e-01,7.204707264900207520e-01,7.858752608299255371e-01,8.279501199722290039e-01,8.536949157714843750e-01,8.680064678192138672e-01,8.780857324600219727e-01,8.817681074142456055e-01,8.760496377944946289e-01,8.693155646324157715e-01,8.568339347839355469e-01,8.268790245056152344e-01,8.048382997512817383e-01,7.971757650375366211e-01,7.718951106071472168e-01,7.209283709526062012e-01,6.171748638153076172e-01
5.884052515029907227e-01,6.137888431549072266e-01,6.563350558280944824e-01,6.570707559585571289e-01,6.805615425109863281e-01,7.047712206840515137e-01,7.411355972290039062e-01,7.625424265861511230e-01,7.833141684532165527e-01,8.019518256187438965e-01,8.197566270828247070e-01,8.362707495689392090e-01,8.512480258941650391e-01,8.645945191383361816e-01,8.762483596801757812e-01,8.858157396316528320e-01,8.928762674331665039e-01,8.976400494575500488e-01,9.009364843368530273e-01,9.030916690826416016e-01,9.043227434158325195e-01,9.049974679946899414e-01,9.052566289901733398e-01,9.053159356117248535e-01,9.053288698196411133e-01,9.053269624710083008e-01,9.053264856338500977e-01,9.053264856338500977e-01,9.053264856338500977e-01,9.053264856338500977e-01,9.053264856338500977e-01,9.053264856338500977e-01,9.053264856338500977e-01,9.053264260292053223e-01,9.053263664245605469e-01,9.053264260292053223e-01,9.053263664245605469e-01,9.053264260292053223e-01,9.053263664245605469e-01,9.053264260292053223e-01,9.053263664245605469e-01,9.053262472152709961e-01,9.053262472152709961e-01,9.053262472152709961e-01,9.053262472152709961e-01,9.053270816802978516e-01,9.053118228912353516e-01,9.057398438453674316e-01,9.053598642349243164e-01,9.039797186851501465e-01,9.042910933494567871e-01,9.062244892120361328e-01,8.994226455688476562e-01,8.967980146408081055e-01,8.828749656677246094e-01,8.575022220611572266e-01,8.335636854171752930e-01,8.197067975997924805e-01,7.795208692550659180e-01,7.210057973861694336e-01,6.640200018882751465e-01,6.446115970611572266e-01,6.555603742599487305e-01,6.883578896522521973e-01,7.482852935791015625e-01,8.032885193824768066e-01,8.341940641403198242e-01,8.582634925842285156e-01,8.767616748809814453e-01,8.846392631530761719e-01,8.858140707015991211e-01,8.781948089599609375e-01,8.696164488792419434e-01,8.575273752212524414e-01,8.274446725845336914e-01,8.067882061004638672e-01,8.007509708404541016e-01,7.750879526138305664e-01,7.222141027450561523e-01,6.158818006515502930e-01
5.883994102478027344e-01,6.137791872024536133e-01,6.563240289688110352e-01,6.570577621459960938e-01,6.805460453033447266e-01,7.047548890113830566e-01,7.411192655563354492e-01,7.625259160995483398e-01,7.832977175712585449e-01,8.019355535507202148e-01,8.197413086891174316e-01,8.362554311752319336e-01,8.512328267097473145e-01,8.645802736282348633e-01,8.762353658676147461e-01,8.858041167259216309e-01,8.928660154342651367e-01,8.976317644119262695e-01,9.009284377098083496e-01,9.030840396881103516e-01,9.043152332305908203e-01,9.049903154373168945e-01,9.052499532699584961e-01,9.053096771240234375e-01,9.053227305412292480e-01,9.053210020065307617e-01,9.053205251693725586e-01,9.053205251693725586e-01,9.053205847740173340e-01,9.053205847740173340e-01,9.053206443786621094e-01,9.053206443786621094e-01,9.053206443786621094e-01,9.053207635879516602e-01,9.053207635879516602e-01,9.053208231925964355e-01,9.053208827972412109e-01,9.053209424018859863e-01,9.053209424018859863e-01,9.053209424018859863e-01,9.053210616111755371e-01,9.053211212158203125e-01,9.053211212158203125e-01,9.053211212158203125e-01,9.053212404251098633e-01,9.053183794021606445e-01,9.053004980087280273e-01,9.056181907653808594e-01,9.053029417991638184e-01,9.045128822326660156e-01,9.063065052032470703e-01,9.062613844871520996e-01,9.012522697448730469e-01,8.990851640701293945e-01,8.834334611892700195e-01,8.690761923789978027e-01,8.492919206619262695e-01,8.313952684402465820e-01,7.973361015319824219e-01,7.384014725685119629e-01,6.686824560165405273e-01,6.495701074600219727e-01,6.716095805168151855e-01,6.971371173858642578e-01,7.729949951171875000e-01,8.195933103561401367e-01,8.386929035186767578e-01,8.618794679641723633e-01,8.793935179710388184e-01,8.877881169319152832e-01,8.868520259857177734e-01,8.793832063674926758e-01,8.714817762374877930e-01,8.581844568252563477e-01,8.294187784194946289e-01,8.091306686401367188e-01,8.008210659027099609e-01,7.743227481842041016e-01,7.223630547523498535e-01,6.165606379508972168e-01
5.883885025978088379e-01,6.137652397155761719e-01,6.563079357147216797e-01,6.570438146591186523e-01,6.805325150489807129e-01,7.047402262687683105e-01,7.411059737205505371e-01,7.625181674957275391e-01,7.832973003387451172e-01,8.019427657127380371e-01,8.197593688964843750e-01,8.362869024276733398e-01,8.512836098670959473e-01,8.646479845046997070e-01,8.763049840927124023e-01,8.858634233474731445e-01,8.929136991500854492e-01,8.976706266403198242e-01,9.009688496589660645e-01,9.031348228454589844e-01,9.043724536895751953e-01,9.050532579421997070e-01,9.053156375885009766e-01,9.053769111633300781e-01,9.053903222084045410e-01,9.053888320922851562e-01,9.053887128829956055e-01,9.053888320922851562e-01,9.053891897201538086e-01,9.053894281387329102e-01,9.053897261619567871e-01,9.053899645805358887e-01,9.053902029991149902e-01,9.053905010223388672e-01,9.053907394409179688e-01,9.053910970687866211e-01,9.053912758827209473e-01,9.053915143013000488e-01,9.053918123245239258e-01,9.053921699523925781e-01,9.053922891616821289e-01,9.053925275802612305e-01,9.053929448127746582e-01,9.053932428359985352e-01,9.053934216499328613e-01,9.053888320922851562e-01,9.053733348846435547e-01,9.054322242736816406e-01,9.056103825569152832e-01,9.050384759902954102e-01,9.065709114074707031e-01,9.056825637817382812e-01,9.018594026565551758e-01,8.990348577499389648e-01,8.836445808410644531e-01,8.770865201950073242e-01,8.543379306793212891e-01,8.285598754882812500e-01,8.084610700607299805e-01,7.351053953170776367e-01,6.759703159332275391e-01,6.710402369499206543e-01,6.842400431632995605e-01,7.082331776618957520e-01,7.759568691253662109e-01,8.207514286041259766e-01,8.438733816146850586e-01,8.649230003356933594e-01,8.811472654342651367e-01,8.887157440185546875e-01,8.876814842224121094e-01,8.798013329505920410e-01,8.711096048355102539e-01,8.586945533752441406e-01,8.303067684173583984e-01,8.088163137435913086e-01,8.012056946754455566e-01,7.754070758819580078e-01,7.224911451339721680e-01,6.163324713706970215e-01
5.883952379226684570e-01,6.137739419937133789e-01,6.563144922256469727e-01,6.570615172386169434e-01,6.805612444877624512e-01,7.048016786575317383e-01,7.412189245223999023e-01,7.626793384552001953e-01,7.834845781326293945e-01,8.021427392959594727e-01,8.199610710144042969e-01,8.364864587783813477e-01,8.514605164527893066e-01,8.647931814193725586e-01,8.764218688011169434e-01,8.859452009201049805e-01,8.929836153984069824e-01,8.977726697921752930e-01,9.010932445526123047e-01,9.032580852508544922e-01,9.044927358627319336e-01,9.051686525344848633e-01,9.054245948791503906e-01,9.054826498031616211e-01,9.054936170578002930e-01,9.054910540580749512e-01,9.054898023605346680e-01,9.054888486862182617e-01,9.054880142211914062e-01,9.054870605468750000e-01,9.054862856864929199e-01,9.054853916168212891e-01,9.054844379425048828e-01,9.054836630821228027e-01,9.054827690124511719e-01,9.054820537567138672e-01,9.054811000823974609e-01,9.054802656173706055e-01,9.054793715476989746e-01,9.054784774780273438e-01,9.054775238037109375e-01,9.054766893386840820e-01,9.054758548736572266e-01,9.054749011993408203e-01,9.054740667343139648e-01,9.054724574089050293e-01,9.054453372955322266e-01,9.054185748100280762e-01,9.057692885398864746e-01,9.058380722999572754e-01,9.061976671218872070e-01,9.047357439994812012e-01,9.051582217216491699e-01,8.983623981475830078e-01,8.878806233406066895e-01,8.781459927558898926e-01,8.575732707977294922e-01,8.286751508712768555e-01,7.863555550575256348e-01,7.403836250305175781e-01,6.699391007423400879e-01,6.725430488586425781e-01,6.743943691253662109e-01,7.136996984481811523e-01,7.720108628273010254e-01,8.184538483619689941e-01,8.469479084014892578e-01,8.690851926803588867e-01,8.824632763862609863e-01,8.862805366516113281e-01,8.875895738601684570e-01,8.800877332687377930e-01,8.715595006942749023e-01,8.585594296455383301e-01,8.300612568855285645e-01,8.091362118721008301e-01,8.015907406806945801e-01,7.755548954010009766e-01,7.228103280067443848e-01,6.167700886726379395e-01
5.885777473449707031e-01,6.139511466026306152e-01,6.565677523612976074e-01,6.573178768157958984e-01,6.808097362518310547e-01,7.049665451049804688e-01,7.413069605827331543e-01,7.626917362213134766e-01,7.833577394485473633e-01,8.018851280212402344e-01,8.195862770080566406e-01,8.359766602516174316e-01,8.508602976799011230e-01,8.641112446784973145e-01,8.756408691406250000e-01,8.851383924484252930e-01,8.922113180160522461e-01,8.969810009002685547e-01,9.002737998962402344e-01,9.024296998977661133e-01,9.036749601364135742e-01,9.043313264846801758e-01,9.045724868774414062e-01,9.046294093132019043e-01,9.046415090560913086e-01,9.046391248703002930e-01,9.046377539634704590e-01,9.046367406845092773e-01,9.046360254287719727e-01,9.046349525451660156e-01,9.046340584754943848e-01,9.046332836151123047e-01,9.046323299407958984e-01,9.046314954757690430e-01,9.046304225921630859e-01,9.046295881271362305e-01,9.046286344528198242e-01,9.046277403831481934e-01,9.046268463134765625e-01,9.046257734298706055e-01,9.046249389648437500e-01,9.046241044998168945e-01,9.046230912208557129e-01,9.046222567558288574e-01,9.046212434768676758e-01,9.046182632446289062e-01,9.046004414558410645e-01,9.045833349227905273e-01,9.046982526779174805e-01,9.049521684646606445e-01,9.048364162445068359e-01,9.041092991828918457e-01,9.039685726165771484e-01,8.966319561004638672e-01,8.851090669631958008e-01,8.775717616081237793e-01,8.599568009376525879e-01,8.258864879608154297e-01,7.822396159172058105e-01,7.228354215621948242e-01,6.774593591690063477e-01,6.608766317367553711e-01,6.489689350128173828e-01,7.135555744171142578e-01,7.656184434890747070e-01,8.115596771240234375e-01,8.429809808731079102e-01,8.680927157402038574e-01,8.794937729835510254e-01,8.845646381378173828e-01,8.863085508346557617e-01,8.793623447418212891e-01,8.706907033920288086e-01,8.578394651412963867e-01,8.292584419250488281e-01,8.082976341247558594e-01,8.009208440780639648e-01,7.746665477752685547e-01,7.219818830490112305e-01,6.162528991699218750e-01
5.889351367950439453e-01,6.138240098953247070e-01,6.562414169311523438e-01,6.566769480705261230e-01,6.799244880676269531e-01,7.037636041641235352e-01,7.398915290832519531e-01,7.610051631927490234e-01,7.815126180648803711e-01,7.999098300933837891e-01,8.175228238105773926e-01,8.339129686355590820e-01,8.489229679107666016e-01,8.623847961425781250e-01,8.741686344146728516e-01,8.838955163955688477e-01,8.910558223724365234e-01,8.958868980407714844e-01,8.992757797241210938e-01,9.014959335327148438e-01,9.027296304702758789e-01,9.033837318420410156e-01,9.036414623260498047e-01,9.037144184112548828e-01,9.037274122238159180e-01,9.037251472473144531e-01,9.037237167358398438e-01,9.037225246429443359e-01,9.037214517593383789e-01,9.037203788757324219e-01,9.037195444107055664e-01,9.037184715270996094e-01,9.037173390388488770e-01,9.037162065505981445e-01,9.037152528762817383e-01,9.037141799926757812e-01,9.037131071090698242e-01,9.037119746208190918e-01,9.037109017372131348e-01,9.037097692489624023e-01,9.037086963653564453e-01,9.037077426910400391e-01,9.037066102027893066e-01,9.037056565284729004e-01,9.037045240402221680e-01,9.037036895751953125e-01,9.036949872970581055e-01,9.037059545516967773e-01,9.037767052650451660e-01,9.038682579994201660e-01,9.037994146347045898e-01,9.034513831138610840e-01,9.026629924774169922e-01,8.950476050376892090e-01,8.837559223175048828e-01,8.775702714920043945e-01,8.602920174598693848e-01,8.229616880416870117e-01,7.720729708671569824e-01,6.935453414916992188e-01,6.778685450553894043e-01,6.471596360206604004e-01,6.529008150100708008e-01,6.949644088745117188e-01,7.569043040275573730e-01,8.019162416458129883e-01,8.383523821830749512e-01,8.629408478736877441e-01,8.775217533111572266e-01,8.842543959617614746e-01,8.845601677894592285e-01,8.789285421371459961e-01,8.701015710830688477e-01,8.572276830673217773e-01,8.286776542663574219e-01,8.075647950172424316e-01,8.000970482826232910e-01,7.738287448883056641e-01,7.208211421966552734e-01,6.147250533103942871e-01
5.881912112236022949e-01,6.121513247489929199e-01,6.544503569602966309e-01,6.547908186912536621e-01,6.775821447372436523e-01,7.009674310684204102e-01,7.370863556861877441e-01,7.582459449768066406e-01,7.788020968437194824e-01,7.971987128257751465e-01,8.147948980331420898e-01,8.312972784042358398e-01,8.464376330375671387e-01,8.599834442138671875e-01,8.718594312667846680e-01,8.816274404525756836e-01,8.889310359954833984e-01,8.940086960792541504e-01,8.974864482879638672e-01,8.997211456298828125e-01,9.009755849838256836e-01,9.016541242599487305e-01,9.019176363945007324e-01,9.019798040390014648e-01,9.019867181777954102e-01,9.019795656204223633e-01,9.019730687141418457e-01,9.019668698310852051e-01,9.019608497619628906e-01,9.019545316696166992e-01,9.019485712051391602e-01,9.019424915313720703e-01,9.019362926483154297e-01,9.019301533699035645e-01,9.019240140914916992e-01,9.019179344177246094e-01,9.019118547439575195e-01,9.019058942794799805e-01,9.018996953964233398e-01,9.018936157226562500e-01,9.018875360488891602e-01,9.018814563751220703e-01,9.018752574920654297e-01,9.018691778182983398e-01,9.018631577491760254e-01,9.018571972846984863e-01,9.018470048904418945e-01,9.018165469169616699e-01,9.018921852111816406e-01,9.017770290374755859e-01,9.015423059463500977e-01,9.015802145004272461e-01,9.005054831504821777e-01,8.918384313583374023e-01,8.814281225204467773e-01,8.748522996902465820e-01,8.533171415328979492e-01,8.213801383972167969e-01,7.501144409179687500e-01,6.859076023101806641e-01,6.673874855041503906e-01,6.396510601043701172e-01,6.429378986358642578e-01,6.817384958267211914e-01,7.514460682868957520e-01,7.919523119926452637e-01,8.304412364959716797e-01,8.608226180076599121e-01,8.737502098083496094e-01,8.821142911911010742e-01,8.828089833259582520e-01,8.769679069519042969e-01,8.683509230613708496e-01,8.557698726654052734e-01,8.273572921752929688e-01,8.065303564071655273e-01,7.989600896835327148e-01,7.723730802536010742e-01,7.195335030555725098e-01,6.129416227340698242e-01
5.862549543380737305e-01,6.094365715980529785e-01,6.514797806739807129e-01,6.515443325042724609e-01,6.740758419036865234e-01,6.969118118286132812e-01,7.324776053428649902e-01,7.531206607818603516e-01,7.730047702789306641e-01,7.909480929374694824e-01,8.082783222198486328e-01,8.245588541030883789e-01,8.395532369613647461e-01,8.531516194343566895e-01,8.651044368743896484e-01,8.749611973762512207e-01,8.823370337486267090e-01,8.874368667602539062e-01,8.910170793533325195e-01,8.932563066482543945e-01,8.945028781890869141e-01,8.952052593231201172e-01,8.954696655273437500e-01,8.955242633819580078e-01,8.955230712890625000e-01,8.955118656158447266e-01,8.955022096633911133e-01,8.954930305480957031e-01,8.954839110374450684e-01,8.954746127128601074e-01,8.954654932022094727e-01,8.954563140869140625e-01,8.954471349716186523e-01,8.954381346702575684e-01,8.954290151596069336e-01,8.954197764396667480e-01,8.954106569290161133e-01,8.954014778137207031e-01,8.953922986984252930e-01,8.953832387924194336e-01,8.953741192817687988e-01,8.953649997711181641e-01,8.953558802604675293e-01,8.953467607498168945e-01,8.953377008438110352e-01,8.953292965888977051e-01,8.953186273574829102e-01,8.953076601028442383e-01,8.952944278717041016e-01,8.953033685684204102e-01,8.951801657676696777e-01,8.954875469207763672e-01,8.936109542846679688e-01,8.868790864944458008e-01,8.769810199737548828e-01,8.714523315429687500e-01,8.459155559539794922e-01,7.974120378494262695e-01,7.396350502967834473e-01,6.690753102302551270e-01,6.469222307205200195e-01,6.328492164611816406e-01,6.355031728744506836e-01,6.539759039878845215e-01,7.307043075561523438e-01,7.869077920913696289e-01,8.241661787033081055e-01,8.539593815803527832e-01,8.675237298011779785e-01,8.743363022804260254e-01,8.770776987075805664e-01,8.710660934448242188e-01,8.626192212104797363e-01,8.500016927719116211e-01,8.217610120773315430e-01,8.014999628067016602e-01,7.943639755249023438e-01,7.679690122604370117e-01,7.155197858810424805e-01,6.079421043395996094e-01
5.823475122451782227e-01,6.035622954368591309e-01,6.450689435005187988e-01,6.443613171577453613e-01,6.657202839851379395e-01,6.876932382583618164e-01,7.224062085151672363e-01,7.425892353057861328e-01,7.618002891540527344e-01,7.788738012313842773e-01,7.956075668334960938e-01,8.115674853324890137e-01,8.266263008117675781e-01,8.405209779739379883e-01,8.527920246124267578e-01,8.630745410919189453e-01,8.709452152252197266e-01,8.763760328292846680e-01,8.801448941230773926e-01,8.825232386589050293e-01,8.838612437248229980e-01,8.845166563987731934e-01,8.847188353538513184e-01,8.847366571426391602e-01,8.847258090972900391e-01,8.847030401229858398e-01,8.846821784973144531e-01,8.846616744995117188e-01,8.846415877342224121e-01,8.846213817596435547e-01,8.846009969711303711e-01,8.845805525779724121e-01,8.845603466033935547e-01,8.845400810241699219e-01,8.845196962356567383e-01,8.844993710517883301e-01,8.844792246818542480e-01,8.844587802886962891e-01,8.844385147094726562e-01,8.844182491302490234e-01,8.843981027603149414e-01,8.843778371810913086e-01,8.843576312065124512e-01,8.843371868133544922e-01,8.843171596527099609e-01,8.842971920967102051e-01,8.842751979827880859e-01,8.842536807060241699e-01,8.842419385910034180e-01,8.842282295227050781e-01,8.841156959533691406e-01,8.844718933105468750e-01,8.813428878784179688e-01,8.742619752883911133e-01,8.643968105316162109e-01,8.599109649658203125e-01,8.339634537696838379e-01,7.836711406707763672e-01,7.282769680023193359e-01,6.595452427864074707e-01,6.457591652870178223e-01,6.107575893402099609e-01,6.218845844268798828e-01,6.340556144714355469e-01,7.069861292839050293e-01,7.685089707374572754e-01,8.076319694519042969e-01,8.373322486877441406e-01,8.554542064666748047e-01,8.630577325820922852e-01,8.658900260925292969e-01,8.608081340789794922e-01,8.529053926467895508e-01,8.401697278022766113e-01,8.112001419067382812e-01,7.921302914619445801e-01,7.858273386955261230e-01,7.610062360763549805e-01,7.075263261795043945e-01,6.019626855850219727e-01
5.752028226852416992e-01,5.937513709068298340e-01,6.341872215270996094e-01,6.314072012901306152e-01,6.507637500762939453e-01,6.714972853660583496e-01,7.052961587905883789e-01,7.246516346931457520e-01,7.431009411811828613e-01,7.594739794731140137e-01,7.753025293350219727e-01,7.904884219169616699e-01,8.051466941833496094e-01,8.185906410217285156e-01,8.304742574691772461e-01,8.404287099838256836e-01,8.479076623916625977e-01,8.532829880714416504e-01,8.570434451103210449e-01,8.593936562538146973e-01,8.606335520744323730e-01,8.611831665039062500e-01,8.613169193267822266e-01,8.613208532333374023e-01,8.612887859344482422e-01,8.612494468688964844e-01,8.612120747566223145e-01,8.611748218536376953e-01,8.611378073692321777e-01,8.611006736755371094e-01,8.610634207725524902e-01,8.610263466835021973e-01,8.609892129898071289e-01,8.609521389007568359e-01,8.609150648117065430e-01,8.608778715133666992e-01,8.608406782150268555e-01,8.608039021492004395e-01,8.607664704322814941e-01,8.607294559478759766e-01,8.606925010681152344e-01,8.606554865837097168e-01,8.606185317039489746e-01,8.605812788009643555e-01,8.605444431304931641e-01,8.605072498321533203e-01,8.604701757431030273e-01,8.604338169097900391e-01,8.603991866111755371e-01,8.603720664978027344e-01,8.607348799705505371e-01,8.607769012451171875e-01,8.577243089675903320e-01,8.495165109634399414e-01,8.457028865814208984e-01,8.346039056777954102e-01,8.036860227584838867e-01,7.558981180191040039e-01,6.858769655227661133e-01,6.560583114624023438e-01,6.207844614982604980e-01,5.906440615653991699e-01,6.007966995239257812e-01,6.148313283920288086e-01,6.783373355865478516e-01,7.447276115417480469e-01,7.765021324157714844e-01,8.079043626785278320e-01,8.298755884170532227e-01,8.385635614395141602e-01,8.420952558517456055e-01,8.376099467277526855e-01,8.301029205322265625e-01,8.173302412033081055e-01,7.880952358245849609e-01,7.704337835311889648e-01,7.674626111984252930e-01,7.442864179611206055e-01,6.928580403327941895e-01,5.924718379974365234e-01
5.642397403717041016e-01,5.783779621124267578e-01,6.170495748519897461e-01,6.110094189643859863e-01,6.274163126945495605e-01,6.464123725891113281e-01,6.783338785171508789e-01,6.956839561462402344e-01,7.117308974266052246e-01,7.257415056228637695e-01,7.394018173217773438e-01,7.528221011161804199e-01,7.661390304565429688e-01,7.786054611206054688e-01,7.895353436470031738e-01,7.988245487213134766e-01,8.062255382537841797e-01,8.115615844726562500e-01,8.152928352355957031e-01,8.175959587097167969e-01,8.186780810356140137e-01,8.189523220062255859e-01,8.189749121665954590e-01,8.189498186111450195e-01,8.189009428024291992e-01,8.188399076461791992e-01,8.187804818153381348e-01,8.187211751937866211e-01,8.186624050140380859e-01,8.186031579971313477e-01,8.185441493988037109e-01,8.184851408004760742e-01,8.184260129928588867e-01,8.183668851852416992e-01,8.183079361915588379e-01,8.182489871978759766e-01,8.181897401809692383e-01,8.181308507919311523e-01,8.180719614028930664e-01,8.180128335952758789e-01,8.179538249969482422e-01,8.178948163986206055e-01,8.178358078002929688e-01,8.177770376205444336e-01,8.177179098129272461e-01,8.176591396331787109e-01,8.176001906394958496e-01,8.175420761108398438e-01,8.174780607223510742e-01,8.174121975898742676e-01,8.180442452430725098e-01,8.173888921737670898e-01,8.113925457000732422e-01,8.041833043098449707e-01,8.078613281250000000e-01,7.897925376892089844e-01,7.581905722618103027e-01,7.131240963935852051e-01,6.536304950714111328e-01,6.229934096336364746e-01,5.815278887748718262e-01,5.654961466789245605e-01,5.654536485671997070e-01,5.923262834548950195e-01,6.386353373527526855e-01,6.964865326881408691e-01,7.294196486473083496e-01,7.626770734786987305e-01,7.845863103866577148e-01,7.949137687683105469e-01,7.993351817131042480e-01,7.964095473289489746e-01,7.894361019134521484e-01,7.775185108184814453e-01,7.481304407119750977e-01,7.333334684371948242e-01,7.347626686096191406e-01,7.137529850006103516e-01,6.687893867492675781e-01,5.797315835952758789e-01
5.497254729270935059e-01,5.539388060569763184e-01,5.888143777847290039e-01,5.787619948387145996e-01,5.919236540794372559e-01,6.082142591476440430e-01,6.378259062767028809e-01,6.524345874786376953e-01,6.663245558738708496e-01,6.780707240104675293e-01,6.894915103912353516e-01,7.006275653839111328e-01,7.116250991821289062e-01,7.215012907981872559e-01,7.303584218025207520e-01,7.380215525627136230e-01,7.437716126441955566e-01,7.477729320526123047e-01,7.504822611808776855e-01,7.519781589508056641e-01,7.524073719978332520e-01,7.524734139442443848e-01,7.524483799934387207e-01,7.523850202560424805e-01,7.523169517517089844e-01,7.522318363189697266e-01,7.521488070487976074e-01,7.520660161972045898e-01,7.519834637641906738e-01,7.519009113311767578e-01,7.518182992935180664e-01,7.517357468605041504e-01,7.516530752182006836e-01,7.515706419944763184e-01,7.514880299568176270e-01,7.514054775238037109e-01,7.513229846954345703e-01,7.512404322624206543e-01,7.511578798294067383e-01,7.510753870010375977e-01,7.509927749633789062e-01,7.509104013442993164e-01,7.508279085159301758e-01,7.507454752922058105e-01,7.506631612777709961e-01,7.505806684494018555e-01,7.504981756210327148e-01,7.504160404205322266e-01,7.503407001495361328e-01,7.502898573875427246e-01,7.515935897827148438e-01,7.499663829803466797e-01,7.426442503929138184e-01,7.391331791877746582e-01,7.397877573966979980e-01,7.133229970932006836e-01,6.846339702606201172e-01,6.576951146125793457e-01,5.960205793380737305e-01,5.606470704078674316e-01,5.577226877212524414e-01,5.280845165252685547e-01,5.217533111572265625e-01,5.512294769287109375e-01,5.937122106552124023e-01,6.362743973731994629e-01,6.615882515907287598e-01,6.919809579849243164e-01,7.166999578475952148e-01,7.273685336112976074e-01,7.305996417999267578e-01,7.264422178268432617e-01,7.230427265167236328e-01,7.127165794372558594e-01,6.837252378463745117e-01,6.729827523231506348e-01,6.818909645080566406e-01,6.630899310111999512e-01,6.337904334068298340e-01,5.564885735511779785e-01
5.325050354003906250e-01,5.236886739730834961e-01,5.544977188110351562e-01,5.385847687721252441e-01,5.464468002319335938e-01,5.593008399009704590e-01,5.835202336311340332e-01,5.946923494338989258e-01,6.051669716835021973e-01,6.132971048355102539e-01,6.213171482086181641e-01,6.292430758476257324e-01,6.369081139564514160e-01,6.437577009201049805e-01,6.499311923980712891e-01,6.547396183013916016e-01,6.579716205596923828e-01,6.604025959968566895e-01,6.619717478752136230e-01,6.628124713897705078e-01,6.630305051803588867e-01,6.629925966262817383e-01,6.628900170326232910e-01,6.628061532974243164e-01,6.627241373062133789e-01,6.626337766647338867e-01,6.625452041625976562e-01,6.624574661254882812e-01,6.623695492744445801e-01,6.622817516326904297e-01,6.621940135955810547e-01,6.621062159538269043e-01,6.620182394981384277e-01,6.619306802749633789e-01,6.618428230285644531e-01,6.617550253868103027e-01,6.616674065589904785e-01,6.615796685218811035e-01,6.614919304847717285e-01,6.614043712615966797e-01,6.613168120384216309e-01,6.612291336059570312e-01,6.611413955688476562e-01,6.610538959503173828e-01,6.609663367271423340e-01,6.608788371086120605e-01,6.607913374900817871e-01,6.607024669647216797e-01,6.605962514877319336e-01,6.605316400527954102e-01,6.617151498794555664e-01,6.590228676795959473e-01,6.533269286155700684e-01,6.548937559127807617e-01,6.542401909828186035e-01,6.261914968490600586e-01,6.005171537399291992e-01,5.881492495536804199e-01,5.316863059997558594e-01,5.147503018379211426e-01,5.003983974456787109e-01,4.834136962890625000e-01,4.742681086063385010e-01,5.030097961425781250e-01,5.325772166252136230e-01,5.636241436004638672e-01,5.858376622200012207e-01,6.077411770820617676e-01,6.280100345611572266e-01,6.393957734107971191e-01,6.419515013694763184e-01,6.392464637756347656e-01,6.381543874740600586e-01,6.304237246513366699e-01,6.033285856246948242e-01,5.960283279418945312e-01,6.116334199905395508e-01,5.968295931816101074e-01,5.879960060119628906e-01,5.268692970275878906e-01
5.115481615066528320e-01,4.893331825733184814e-01,5.141242146492004395e-01,4.908654987812042236e-01,4.924262464046478271e-01,5.010076165199279785e-01,5.196048617362976074e-01,5.275476574897766113e-01,5.347087383270263672e-01,5.395497679710388184e-01,5.444191694259643555e-01,5.495194196701049805e-01,5.544933080673217773e-01,5.588327646255493164e-01,5.624838471412658691e-01,5.651922821998596191e-01,5.674934387207031250e-01,5.691073536872863770e-01,5.701997876167297363e-01,5.706989765167236328e-01,5.708016753196716309e-01,5.707228779792785645e-01,5.705801844596862793e-01,5.705110430717468262e-01,5.704140663146972656e-01,5.703251361846923828e-01,5.702373981475830078e-01,5.701502561569213867e-01,5.700628757476806641e-01,5.699757337570190430e-01,5.698885917663574219e-01,5.698013901710510254e-01,5.697143673896789551e-01,5.696271657943725586e-01,5.695400238037109375e-01,5.694531202316284180e-01,5.693660378456115723e-01,5.692791342735290527e-01,5.691921114921569824e-01,5.691051483154296875e-01,5.690181255340576172e-01,5.689312815666198730e-01,5.688443183898925781e-01,5.687574744224548340e-01,5.686705112457275391e-01,5.685838460922241211e-01,5.684969425201416016e-01,5.684133768081665039e-01,5.683205127716064453e-01,5.682522654533386230e-01,5.689976215362548828e-01,5.662497282028198242e-01,5.621829032897949219e-01,5.638579726219177246e-01,5.619384050369262695e-01,5.377390980720520020e-01,5.224765539169311523e-01,5.096136331558227539e-01,4.753592610359191895e-01,4.691187143325805664e-01,4.507552087306976318e-01,4.510892629623413086e-01,4.368557929992675781e-01,4.468470811843872070e-01,4.737631380558013916e-01,4.893658459186553955e-01,5.101023316383361816e-01,5.253416895866394043e-01,5.428072810173034668e-01,5.470991134643554688e-01,5.495652556419372559e-01,5.484383106231689453e-01,5.510833859443664551e-01,5.451042652130126953e-01,5.214366316795349121e-01,5.174224972724914551e-01,5.384244918823242188e-01,5.280700325965881348e-01,5.396770238876342773e-01,4.965125918388366699e-01
4.905611872673034668e-01,4.556722939014434814e-01,4.712965786457061768e-01,4.408670961856842041e-01,4.361945092678070068e-01,4.405639767646789551e-01,4.539855420589447021e-01,4.580756723880767822e-01,4.623970985412597656e-01,4.647256731986999512e-01,4.672745466232299805e-01,4.700852632522583008e-01,4.728565216064453125e-01,4.754855930805206299e-01,4.777939617633819580e-01,4.795187711715698242e-01,4.807968139648437500e-01,4.817654490470886230e-01,4.823701977729797363e-01,4.826345443725585938e-01,4.826856255531311035e-01,4.826781153678894043e-01,4.825992286205291748e-01,4.824987947940826416e-01,4.824154675006866455e-01,4.823412895202636719e-01,4.822680652141571045e-01,4.821947216987609863e-01,4.821215867996215820e-01,4.820484519004821777e-01,4.819752573966979980e-01,4.819020330905914307e-01,4.818289279937744141e-01,4.817558228969573975e-01,4.816829264163970947e-01,4.816098213195800781e-01,4.815367162227630615e-01,4.814638793468475342e-01,4.813909828662872314e-01,4.813179969787597656e-01,4.812451004981994629e-01,4.811721146106719971e-01,4.810992181301116943e-01,4.810263812541961670e-01,4.809535145759582520e-01,4.808807671070098877e-01,4.808078408241271973e-01,4.807335436344146729e-01,4.806438684463500977e-01,4.807093739509582520e-01,4.806720316410064697e-01,4.795599579811096191e-01,4.787559509277343750e-01,4.806130826473236084e-01,4.764521420001983643e-01,4.617148041725158691e-01,4.585099220275878906e-01,4.469724595546722412e-01,4.316252470016479492e-01,4.032863676548004150e-01,4.030333161354064941e-01,4.047249257564544678e-01,3.962965607643127441e-01,4.004286527633666992e-01,4.142227470874786377e-01,4.278413057327270508e-01,4.351603984832763672e-01,4.478788673877716064e-01,4.598392248153686523e-01,4.638142287731170654e-01,4.679221212863922119e-01,4.697863757610321045e-01,4.736915230751037598e-01,4.686760902404785156e-01,4.494719207286834717e-01,4.482754170894622803e-01,4.718242883682250977e-01,4.687991738319396973e-01,4.949996769428253174e-01,4.690936803817749023e-01
4.694035053253173828e-01,4.224048256874084473e-01,4.285262227058410645e-01,3.950418531894683838e-01,3.840742409229278564e-01,3.856416344642639160e-01,3.960546255111694336e-01,3.989924192428588867e-01,4.020221829414367676e-01,4.032167196273803711e-01,4.044290482997894287e-01,4.056429266929626465e-01,4.066650271415710449e-01,4.076113700866699219e-01,4.084089398384094238e-01,4.089974462985992432e-01,4.096033275127410889e-01,4.100969433784484863e-01,4.103093743324279785e-01,4.103534519672393799e-01,4.103624820709228516e-01,4.102650582790374756e-01,4.101936221122741699e-01,4.101210832595825195e-01,4.100578725337982178e-01,4.099988341331481934e-01,4.099406599998474121e-01,4.098826646804809570e-01,4.098245501518249512e-01,4.097667038440704346e-01,4.097087681293487549e-01,4.096506834030151367e-01,4.095928668975830078e-01,4.095350205898284912e-01,4.094771444797515869e-01,4.094193577766418457e-01,4.093616008758544922e-01,4.093039631843566895e-01,4.092460274696350098e-01,4.091881215572357178e-01,4.091305434703826904e-01,4.090728759765625000e-01,4.090149998664855957e-01,4.089573919773101807e-01,4.088997840881347656e-01,4.088422060012817383e-01,4.087845087051391602e-01,4.087263345718383789e-01,4.086586833000183105e-01,4.086239337921142578e-01,4.084437191486358643e-01,4.076359272003173828e-01,4.076853096485137939e-01,4.084372520446777344e-01,4.032702147960662842e-01,3.964841067790985107e-01,3.934261500835418701e-01,3.893148899078369141e-01,3.831861019134521484e-01,3.716463446617126465e-01,3.617652654647827148e-01,3.650075197219848633e-01,3.605915307998657227e-01,3.635285496711730957e-01,3.631967902183532715e-01,3.761801123619079590e-01,3.759510517120361328e-01,3.920919597148895264e-01,3.966107964515686035e-01,4.001759290695190430e-01,4.016911983489990234e-01,4.028362631797790527e-01,4.044975638389587402e-01,4.010161161422729492e-01,3.854767680168151855e-01,3.876801133155822754e-01,4.135073721408843994e-01,4.177140295505523682e-01,4.560191929340362549e-01,4.460601806640625000e-01
4.513872563838958740e-01,3.938153684139251709e-01,3.929790854454040527e-01,3.572867512702941895e-01,3.413579463958740234e-01,3.406506776809692383e-01,3.480989336967468262e-01,3.498186469078063965e-01,3.515115380287170410e-01,3.519296050071716309e-01,3.524459600448608398e-01,3.529126644134521484e-01,3.533944189548492432e-01,3.538322746753692627e-01,3.541276752948760986e-01,3.542234897613525391e-01,3.542984127998352051e-01,3.541736900806427002e-01,3.540196418762207031e-01,3.539602160453796387e-01,3.539389371871948242e-01,3.539046049118041992e-01,3.538497686386108398e-01,3.537960648536682129e-01,3.537548184394836426e-01,3.537130951881408691e-01,3.536715209484100342e-01,3.536301851272583008e-01,3.535888791084289551e-01,3.535475730895996094e-01,3.535062074661254883e-01,3.534649610519409180e-01,3.534234762191772461e-01,3.533824682235717773e-01,3.533411622047424316e-01,3.532998561859130859e-01,3.532587885856628418e-01,3.532176017761230469e-01,3.531764745712280273e-01,3.531351089477539062e-01,3.530939817428588867e-01,3.530527353286743164e-01,3.530117273330688477e-01,3.529706597328186035e-01,3.529295921325683594e-01,3.528883159160614014e-01,3.528471589088439941e-01,3.528044223785400391e-01,3.527562618255615234e-01,3.527254760265350342e-01,3.527441024780273438e-01,3.527776598930358887e-01,3.531939387321472168e-01,3.528929352760314941e-01,3.513213992118835449e-01,3.501918017864227295e-01,3.468561768531799316e-01,3.423223495483398438e-01,3.405180871486663818e-01,3.293451964855194092e-01,3.231453001499176025e-01,3.284748494625091553e-01,3.253341615200042725e-01,3.237847983837127686e-01,3.306809961795806885e-01,3.344656229019165039e-01,3.370807170867919922e-01,3.437241911888122559e-01,3.477283716201782227e-01,3.494053184986114502e-01,3.502028882503509521e-01,3.515736162662506104e-01,3.518655598163604736e-01,3.496653437614440918e-01,3.360683321952819824e-01,3.391696810722351074e-01,3.653258681297302246e-01,3.756870329380035400e-01,4.224461615085601807e-01,4.258186817169189453e-01
4.349656105041503906e-01,3.689418435096740723e-01,3.612732887268066406e-01,3.251625299453735352e-01,3.061276078224182129e-01,3.047549724578857422e-01,3.108593821525573730e-01,3.122488260269165039e-01,3.134058117866516113e-01,3.134208023548126221e-01,3.134061694145202637e-01,3.133964538574218750e-01,3.134710192680358887e-01,3.135616779327392578e-01,3.135923147201538086e-01,3.136076927185058594e-01,3.135681748390197754e-01,3.135162591934204102e-01,3.135328292846679688e-01,3.135181665420532227e-01,3.134602904319763184e-01,3.134150207042694092e-01,3.133809864521026611e-01,3.133522272109985352e-01,3.133213520050048828e-01,3.132914006710052490e-01,3.132615089416503906e-01,3.132314085960388184e-01,3.132014870643615723e-01,3.131713271141052246e-01,3.131413757801055908e-01,3.131113052368164062e-01,3.130813241004943848e-01,3.130514919757843018e-01,3.130215406417846680e-01,3.129914999008178711e-01,3.129614591598510742e-01,3.129317760467529297e-01,3.129017949104309082e-01,3.128717541694641113e-01,3.128420710563659668e-01,3.128120601177215576e-01,3.127821683883666992e-01,3.127522170543670654e-01,3.127224743366241455e-01,3.126926422119140625e-01,3.126627206802368164e-01,3.126295804977416992e-01,3.125982284545898438e-01,3.125165104866027832e-01,3.124703764915466309e-01,3.126099705696105957e-01,3.128383755683898926e-01,3.116156756877899170e-01,3.114666938781738281e-01,3.112673461437225342e-01,3.088923692703247070e-01,3.087329268455505371e-01,3.102675676345825195e-01,3.034761548042297363e-01,3.006408810615539551e-01,3.006485104560852051e-01,2.977415323257446289e-01,2.982730269432067871e-01,2.998649477958679199e-01,3.013023436069488525e-01,3.030222058296203613e-01,3.052588105201721191e-01,3.084745705127716064e-01,3.102333247661590576e-01,3.112106919288635254e-01,3.120569586753845215e-01,3.122692108154296875e-01,3.103730678558349609e-01,2.991192638874053955e-01,3.025883138179779053e-01,3.288261294364929199e-01,3.441906571388244629e-01,3.968300819396972656e-01,4.101034402847290039e-01
4.212123453617095947e-01,3.491287231445312500e-01,3.364091217517852783e-01,2.999958992004394531e-01,2.791717350482940674e-01,2.769954204559326172e-01,2.819496989250183105e-01,2.831152677536010742e-01,2.839986383914947510e-01,2.838895916938781738e-01,2.838494181632995605e-01,2.838471531867980957e-01,2.838302850723266602e-01,2.838127911090850830e-01,2.837983369827270508e-01,2.837604880332946777e-01,2.837209105491638184e-01,2.836914360523223877e-01,2.836664915084838867e-01,2.836319208145141602e-01,2.836050391197204590e-01,2.835832834243774414e-01,2.835605740547180176e-01,2.835379838943481445e-01,2.835167050361633301e-01,2.834950685501098633e-01,2.834734618663787842e-01,2.834515571594238281e-01,2.834300398826599121e-01,2.834081053733825684e-01,2.833864986896514893e-01,2.833645343780517578e-01,2.833429574966430664e-01,2.833212316036224365e-01,2.832993268966674805e-01,2.832777500152587891e-01,2.832559943199157715e-01,2.832342982292175293e-01,2.832125425338745117e-01,2.831909954547882080e-01,2.831692993640899658e-01,2.831476330757141113e-01,2.831259369850158691e-01,2.831041812896728516e-01,2.830826342105865479e-01,2.830608487129211426e-01,2.830392718315124512e-01,2.830197513103485107e-01,2.829987406730651855e-01,2.829865813255310059e-01,2.829312980175018311e-01,2.830924391746520996e-01,2.829406261444091797e-01,2.826976478099822998e-01,2.831885814666748047e-01,2.826790213584899902e-01,2.809500694274902344e-01,2.820042371749877930e-01,2.811890840530395508e-01,2.807528078556060791e-01,2.791703343391418457e-01,2.767605781555175781e-01,2.759779691696166992e-01,2.780735790729522705e-01,2.761726379394531250e-01,2.776259481906890869e-01,2.780749797821044922e-01,2.787130773067474365e-01,2.801800370216369629e-01,2.807279229164123535e-01,2.820789515972137451e-01,2.820490896701812744e-01,2.832852900028228760e-01,2.817366719245910645e-01,2.719070315361022949e-01,2.751218676567077637e-01,3.007392287254333496e-01,3.195630311965942383e-01,3.762981593608856201e-01,3.975793719291687012e-01
4.091774523258209229e-01,3.324929475784301758e-01,3.159815669059753418e-01,2.799520492553710938e-01,2.584253549575805664e-01,2.558345198631286621e-01,2.600283622741699219e-01,2.610216736793518066e-01,2.617946267127990723e-01,2.617095112800598145e-01,2.616690099239349365e-01,2.616463899612426758e-01,2.616267502307891846e-01,2.616108655929565430e-01,2.615944147109985352e-01,2.615771293640136719e-01,2.615611553192138672e-01,2.615458369255065918e-01,2.615285515785217285e-01,2.615108788013458252e-01,2.614944279193878174e-01,2.614786326885223389e-01,2.614623606204986572e-01,2.614457905292510986e-01,2.614296078681945801e-01,2.614130675792694092e-01,2.613965272903442383e-01,2.613800764083862305e-01,2.613633871078491211e-01,2.613468170166015625e-01,2.613303661346435547e-01,2.613137364387512207e-01,2.612971067428588867e-01,2.612806260585784912e-01,2.612643241882324219e-01,2.612475454807281494e-01,2.612311840057373047e-01,2.612147331237792969e-01,2.611982226371765137e-01,2.611815929412841797e-01,2.611650228500366211e-01,2.611486911773681641e-01,2.611320018768310547e-01,2.611157000064849854e-01,2.610991001129150391e-01,2.610825598239898682e-01,2.610661983489990234e-01,2.610497772693634033e-01,2.610361576080322266e-01,2.610059976577758789e-01,2.610178887844085693e-01,2.609733939170837402e-01,2.608655691146850586e-01,2.609136700630187988e-01,2.610328793525695801e-01,2.607003450393676758e-01,2.608515024185180664e-01,2.599533200263977051e-01,2.604145109653472900e-01,2.609162330627441406e-01,2.592477798461914062e-01,2.580859065055847168e-01,2.587313652038574219e-01,2.580254077911376953e-01,2.588346600532531738e-01,2.590147256851196289e-01,2.594072520732879639e-01,2.592199146747589111e-01,2.601459622383117676e-01,2.605095505714416504e-01,2.607057988643646240e-01,2.602300047874450684e-01,2.612008154392242432e-01,2.600870430469512939e-01,2.512197494506835938e-01,2.544537782669067383e-01,2.794600725173950195e-01,3.009952306747436523e-01,3.605848848819732666e-01,3.876330256462097168e-01
3.991110324859619141e-01,3.188933134078979492e-01,2.997289896011352539e-01,2.643894553184509277e-01,2.423064708709716797e-01,2.394190132617950439e-01,2.430792748928070068e-01,2.439697384834289551e-01,2.446609139442443848e-01,2.445977330207824707e-01,2.445650696754455566e-01,2.445501089096069336e-01,2.445354759693145752e-01,2.445216178894042969e-01,2.445070743560791016e-01,2.444925904273986816e-01,2.444788515567779541e-01,2.444656789302825928e-01,2.444519102573394775e-01,2.444387078285217285e-01,2.444257438182830811e-01,2.444129884243011475e-01,2.444001734256744385e-01,2.443871200084686279e-01,2.443743050098419189e-01,2.443612813949584961e-01,2.443483471870422363e-01,2.443355321884155273e-01,2.443224191665649414e-01,2.443094849586486816e-01,2.442965507507324219e-01,2.442835867404937744e-01,2.442706823348999023e-01,2.442576587200164795e-01,2.442447543144226074e-01,2.442317903041839600e-01,2.442189157009124756e-01,2.442059516906738281e-01,2.441929578781127930e-01,2.441800534725189209e-01,2.441672384738922119e-01,2.441543042659759521e-01,2.441412806510925293e-01,2.441284358501434326e-01,2.441155314445495605e-01,2.441025972366333008e-01,2.440897524356842041e-01,2.440771460533142090e-01,2.440649569034576416e-01,2.440529465675354004e-01,2.440326809883117676e-01,2.440305054187774658e-01,2.440085113048553467e-01,2.439503669738769531e-01,2.439801990985870361e-01,2.441320419311523438e-01,2.438230514526367188e-01,2.436958253383636475e-01,2.439985573291778564e-01,2.439382970333099365e-01,2.436083853244781494e-01,2.430512309074401855e-01,2.427726984024047852e-01,2.427676022052764893e-01,2.428135275840759277e-01,2.431714236736297607e-01,2.434841096401214600e-01,2.436858713626861572e-01,2.438922822475433350e-01,2.437753081321716309e-01,2.436818778514862061e-01,2.437499165534973145e-01,2.440414130687713623e-01,2.433395981788635254e-01,2.352374196052551270e-01,2.385478615760803223e-01,2.629359960556030273e-01,2.863675951957702637e-01,3.479805588722229004e-01,3.796823620796203613e-01
3.908098042011260986e-01,3.077794909477233887e-01,2.866288721561431885e-01,2.519690990447998047e-01,2.295334637165069580e-01,2.264060974121093750e-01,2.296722829341888428e-01,2.304621636867523193e-01,2.310837507247924805e-01,2.310290932655334473e-01,2.310021221637725830e-01,2.309913039207458496e-01,2.309810519218444824e-01,2.309706509113311768e-01,2.309603095054626465e-01,2.309501469135284424e-01,2.309396266937255859e-01,2.309290170669555664e-01,2.309186458587646484e-01,2.309080958366394043e-01,2.308977842330932617e-01,2.308874428272247314e-01,2.308768332004547119e-01,2.308664619922637939e-01,2.308558523654937744e-01,2.308456897735595703e-01,2.308353781700134277e-01,2.308248579502105713e-01,2.308145165443420410e-01,2.308040857315063477e-01,2.307935655117034912e-01,2.307832539081573486e-01,2.307728528976440430e-01,2.307623624801635742e-01,2.307519912719726562e-01,2.307418882846832275e-01,2.307312786579132080e-01,2.307208180427551270e-01,2.307106554508209229e-01,2.307002842426300049e-01,2.306898236274719238e-01,2.306794524192810059e-01,2.306689918041229248e-01,2.306586802005767822e-01,2.306482791900634766e-01,2.306378781795501709e-01,2.306275665760040283e-01,2.306175529956817627e-01,2.306073904037475586e-01,2.305956780910491943e-01,2.305880486965179443e-01,2.305749058723449707e-01,2.305596470832824707e-01,2.305544912815093994e-01,2.305706143379211426e-01,2.305663228034973145e-01,2.305100858211517334e-01,2.304230034351348877e-01,2.304646968841552734e-01,2.304961085319519043e-01,2.303764522075653076e-01,2.302219569683074951e-01,2.301394045352935791e-01,2.300163209438323975e-01,2.300812602043151855e-01,2.302048206329345703e-01,2.302970886230468750e-01,2.304348051548004150e-01,2.304492294788360596e-01,2.302630245685577393e-01,2.303940355777740479e-01,2.304345071315765381e-01,2.306873798370361328e-01,2.300101220607757568e-01,2.225814759731292725e-01,2.259140908718109131e-01,2.498090863227844238e-01,2.745917439460754395e-01,3.377273380756378174e-01,3.731986284255981445e-01
3.838108181953430176e-01,2.985785007476806641e-01,2.758301794528961182e-01,2.418457567691802979e-01,2.191907763481140137e-01,2.158581614494323730e-01,2.188137471675872803e-01,2.195151746273040771e-01,2.200813591480255127e-01,2.200336456298828125e-01,2.200106382369995117e-01,2.200022637844085693e-01,2.199937403202056885e-01,2.199850380420684814e-01,2.199765145778656006e-01,2.199679911136627197e-01,2.199594080448150635e-01,2.199508547782897949e-01,2.199422121047973633e-01,2.199337780475616455e-01,2.199253141880035400e-01,2.199167311191558838e-01,2.199081480503082275e-01,2.198996245861053467e-01,2.198910415172576904e-01,2.198827862739562988e-01,2.198740243911743164e-01,2.198656201362609863e-01,2.198571264743804932e-01,2.198486328125000000e-01,2.198400199413299561e-01,2.198314368724822998e-01,2.198229730129241943e-01,2.198143601417541504e-01,2.198058664798736572e-01,2.197973132133483887e-01,2.197889983654022217e-01,2.197802662849426270e-01,2.197717130184173584e-01,2.197632789611816406e-01,2.197546958923339844e-01,2.197464406490325928e-01,2.197376489639282227e-01,2.197293043136596680e-01,2.197209894657135010e-01,2.197123169898986816e-01,2.197039127349853516e-01,2.196952104568481445e-01,2.196871042251586914e-01,2.196784019470214844e-01,2.196685969829559326e-01,2.196605503559112549e-01,2.196522653102874756e-01,2.196417450904846191e-01,2.196395695209503174e-01,2.196311354637145996e-01,2.196228206157684326e-01,2.196038365364074707e-01,2.196006178855895996e-01,2.196356356143951416e-01,2.196469306945800781e-01,2.195202112197875977e-01,2.195446193218231201e-01,2.194714248180389404e-01,2.194347381591796875e-01,2.194660902023315430e-01,2.195124924182891846e-01,2.194914519786834717e-01,2.195358872413635254e-01,2.195111811161041260e-01,2.195072472095489502e-01,2.194593846797943115e-01,2.197602987289428711e-01,2.192192077636718750e-01,2.123495042324066162e-01,2.156660258769989014e-01,2.391541302204132080e-01,2.649247646331787109e-01,3.292271494865417480e-01,3.678064644336700439e-01
3.778375983238220215e-01,2.908444702625274658e-01,2.668073773384094238e-01,2.334592044353485107e-01,2.106588780879974365e-01,2.071492075920104980e-01,2.098531424999237061e-01,2.104764580726623535e-01,2.109939754009246826e-01,2.109521031379699707e-01,2.109318673610687256e-01,2.109249532222747803e-01,2.109176814556121826e-01,2.109107673168182373e-01,2.109034955501556396e-01,2.108964622020721436e-01,2.108893990516662598e-01,2.108824253082275391e-01,2.108750939369201660e-01,2.108678817749023438e-01,2.108609974384307861e-01,2.108537256717681885e-01,2.108466327190399170e-01,2.108395099639892578e-01,2.108325064182281494e-01,2.108251750469207764e-01,2.108183205127716064e-01,2.108111381530761719e-01,2.108038961887359619e-01,2.107968330383300781e-01,2.107897698879241943e-01,2.107827961444854736e-01,2.107757925987243652e-01,2.107686698436737061e-01,2.107614874839782715e-01,2.107542753219604492e-01,2.107472717761993408e-01,2.107402980327606201e-01,2.107329070568084717e-01,2.107261717319488525e-01,2.107186913490295410e-01,2.107119262218475342e-01,2.107047140598297119e-01,2.106976509094238281e-01,2.106907069683074951e-01,2.106833755970001221e-01,2.106764316558837891e-01,2.106694281101226807e-01,2.106623649597167969e-01,2.106549143791198730e-01,2.106479108333587646e-01,2.106406092643737793e-01,2.106339037418365479e-01,2.106266915798187256e-01,2.106190323829650879e-01,2.106143236160278320e-01,2.106046974658966064e-01,2.105928361415863037e-01,2.105908095836639404e-01,2.106045186519622803e-01,2.105718255043029785e-01,2.105919122695922852e-01,2.105515301227569580e-01,2.105609774589538574e-01,2.105288505554199219e-01,2.105360031127929688e-01,2.105107903480529785e-01,2.105271518230438232e-01,2.105177938938140869e-01,2.105164229869842529e-01,2.105100452899932861e-01,2.104712426662445068e-01,2.107296288013458252e-01,2.102875411510467529e-01,2.038697004318237305e-01,2.072016894817352295e-01,2.303360998630523682e-01,2.568489015102386475e-01,3.220599889755249023e-01,3.632443547248840332e-01
3.726804852485656738e-01,2.842514514923095703e-01,2.591620981693267822e-01,2.263996601104736328e-01,2.035073637962341309e-01,1.998423635959625244e-01,2.023397088050842285e-01,2.028948664665222168e-01,2.033708095550537109e-01,2.033335864543914795e-01,2.033162713050842285e-01,2.033102214336395264e-01,2.033042311668395996e-01,2.032980620861053467e-01,2.032922506332397461e-01,2.032860517501831055e-01,2.032801508903503418e-01,2.032740414142608643e-01,2.032678425312042236e-01,2.032621204853057861e-01,2.032560706138610840e-01,2.032499313354492188e-01,2.032438516616821289e-01,2.032379806041717529e-01,2.032319009304046631e-01,2.032260298728942871e-01,2.032200694084167480e-01,2.032140791416168213e-01,2.032080590724945068e-01,2.032021880149841309e-01,2.031960785388946533e-01,2.031898796558380127e-01,2.031837701797485352e-01,2.031779587268829346e-01,2.031719386577606201e-01,2.031660079956054688e-01,2.031599581241607666e-01,2.031540870666503906e-01,2.031480967998504639e-01,2.031420171260833740e-01,2.031359672546386719e-01,2.031301259994506836e-01,2.031238675117492676e-01,2.031179964542388916e-01,2.031120657920837402e-01,2.031061351299285889e-01,2.031000852584838867e-01,2.030941247940063477e-01,2.030880749225616455e-01,2.030822634696960449e-01,2.030760347843170166e-01,2.030701339244842529e-01,2.030642330646514893e-01,2.030582726001739502e-01,2.030522227287292480e-01,2.030457854270935059e-01,2.030399739742279053e-01,2.030331492424011230e-01,2.030264139175415039e-01,2.030231952667236328e-01,2.030165493488311768e-01,2.030093967914581299e-01,2.030059397220611572e-01,2.030033767223358154e-01,2.029951512813568115e-01,2.029895782470703125e-01,2.029842436313629150e-01,2.029775381088256836e-01,2.029694616794586182e-01,2.029640078544616699e-01,2.029565572738647461e-01,2.029224634170532227e-01,2.031567096710205078e-01,2.027930319309234619e-01,1.967586278915405273e-01,2.000878453254699707e-01,2.229217290878295898e-01,2.500039637088775635e-01,3.159333765506744385e-01,3.593326210975646973e-01
3.681839108467102051e-01,2.785657346248626709e-01,2.526063919067382812e-01,2.203797101974487305e-01,1.974315643310546875e-01,1.936303973197937012e-01,1.959553360939025879e-01,1.964504718780517578e-01,1.968910396099090576e-01,1.968577206134796143e-01,1.968422234058380127e-01,1.968371272087097168e-01,1.968316733837127686e-01,1.968266963958740234e-01,1.968215405941009521e-01,1.968164741992950439e-01,1.968116164207458496e-01,1.968061327934265137e-01,1.968010962009429932e-01,1.967959403991699219e-01,1.967907249927520752e-01,1.967855691909790039e-01,1.967804729938507080e-01,1.967753171920776367e-01,1.967702805995941162e-01,1.967651844024658203e-01,1.967600286006927490e-01,1.967549622058868408e-01,1.967497169971466064e-01,1.967444419860839844e-01,1.967393159866333008e-01,1.967342197895050049e-01,1.967290341854095459e-01,1.967239677906036377e-01,1.967186629772186279e-01,1.967137455940246582e-01,1.967085301876068115e-01,1.967034339904785156e-01,1.966981887817382812e-01,1.966931521892547607e-01,1.966880857944488525e-01,1.966829597949981689e-01,1.966778039932250977e-01,1.966725885868072510e-01,1.966677010059356689e-01,1.966625154018402100e-01,1.966572105884552002e-01,1.966523528099060059e-01,1.966471076011657715e-01,1.966420412063598633e-01,1.966367661952972412e-01,1.966317892074584961e-01,1.966266334056854248e-01,1.966214776039123535e-01,1.966164112091064453e-01,1.966113448143005371e-01,1.966059505939483643e-01,1.966009736061096191e-01,1.965959668159484863e-01,1.965906918048858643e-01,1.965864002704620361e-01,1.965803205966949463e-01,1.965757310390472412e-01,1.965707838535308838e-01,1.965658068656921387e-01,1.965601146221160889e-01,1.965549886226654053e-01,1.965501904487609863e-01,1.965451836585998535e-01,1.965396106243133545e-01,1.965340375900268555e-01,1.965038180351257324e-01,1.967150270938873291e-01,1.964184045791625977e-01,1.907098591327667236e-01,1.940343677997589111e-01,2.166043221950531006e-01,2.441303431987762451e-01,3.106350898742675781e-01,3.559402823448181152e-01
3.642291128635406494e-01,2.736131548881530762e-01,2.469268143177032471e-01,2.151883244514465332e-01,1.922095715999603271e-01,1.882880032062530518e-01,1.904677450656890869e-01,1.909096837043762207e-01,1.913197636604309082e-01,1.912896037101745605e-01,1.912754476070404053e-01,1.912709474563598633e-01,1.912666559219360352e-01,1.912621855735778809e-01,1.912576556205749512e-01,1.912533044815063477e-01,1.912488937377929688e-01,1.912443935871124268e-01,1.912400126457214355e-01,1.912356317043304443e-01,1.912312805652618408e-01,1.912265419960021973e-01,1.912221610546112061e-01,1.912176907062530518e-01,1.912133395671844482e-01,1.912089288234710693e-01,1.912043392658233643e-01,1.912001073360443115e-01,1.911953985691070557e-01,1.911910772323608398e-01,1.911865770816802979e-01,1.911823451519012451e-01,1.911778151988983154e-01,1.911733150482177734e-01,1.911688745021820068e-01,1.911644339561462402e-01,1.911599934101104736e-01,1.911554634571075439e-01,1.911510527133941650e-01,1.911467015743255615e-01,1.911424100399017334e-01,1.911378204822540283e-01,1.911334693431854248e-01,1.911289095878601074e-01,1.911247074604034424e-01,1.911202669143676758e-01,1.911157965660095215e-01,1.911113262176513672e-01,1.911068856716156006e-01,1.911024749279022217e-01,1.910980641841888428e-01,1.910935640335083008e-01,1.910892128944396973e-01,1.910846233367919922e-01,1.910803914070129395e-01,1.910760104656219482e-01,1.910714209079742432e-01,1.910670399665832520e-01,1.910626292228698730e-01,1.910582482814788818e-01,1.910538971424102783e-01,1.910494863986968994e-01,1.910449862480163574e-01,1.910404860973358154e-01,1.910361647605895996e-01,1.910315155982971191e-01,1.910271942615509033e-01,1.910228133201599121e-01,1.910182833671569824e-01,1.910138428211212158e-01,1.910088658332824707e-01,1.909827291965484619e-01,1.911729574203491211e-01,1.909330785274505615e-01,1.855041384696960449e-01,1.888239681720733643e-01,2.111600041389465332e-01,2.390365302562713623e-01,3.060072064399719238e-01,3.529701828956604004e-01
3.607224524021148682e-01,2.692642211914062500e-01,2.419608235359191895e-01,2.106675505638122559e-01,1.876755356788635254e-01,1.836445629596710205e-01,1.856970787048339844e-01,1.860919594764709473e-01,1.864754855632781982e-01,1.864480972290039062e-01,1.864353418350219727e-01,1.864314079284667969e-01,1.864275932312011719e-01,1.864235103130340576e-01,1.864197850227355957e-01,1.864158213138580322e-01,1.864120364189147949e-01,1.864082217216491699e-01,1.864043474197387695e-01,1.864005327224731445e-01,1.863965690135955811e-01,1.863927841186523438e-01,1.863887906074523926e-01,1.863848268985748291e-01,1.863809227943420410e-01,1.863771080970764160e-01,1.863732933998107910e-01,1.863693892955780029e-01,1.863654553890228271e-01,1.863618195056915283e-01,1.863578259944915771e-01,1.863538622856140137e-01,1.863500773906707764e-01,1.863462626934051514e-01,1.863422095775604248e-01,1.863383352756500244e-01,1.863345503807067871e-01,1.863306164741516113e-01,1.863268017768859863e-01,1.863228380680084229e-01,1.863192021846771240e-01,1.863152682781219482e-01,1.863110661506652832e-01,1.863073706626892090e-01,1.863036155700683594e-01,1.862997412681579590e-01,1.862958967685699463e-01,1.862919628620147705e-01,1.862881481647491455e-01,1.862842738628387451e-01,1.862804889678955078e-01,1.862764358520507812e-01,1.862727701663970947e-01,1.862687766551971436e-01,1.862647533416748047e-01,1.862610578536987305e-01,1.862570643424987793e-01,1.862533390522003174e-01,1.862494945526123047e-01,1.862456202507019043e-01,1.862418353557586670e-01,1.862377822399139404e-01,1.862339973449707031e-01,1.862301826477050781e-01,1.862262785434722900e-01,1.862225234508514404e-01,1.862186789512634277e-01,1.862148046493530273e-01,1.862109303474426270e-01,1.862069964408874512e-01,1.862022578716278076e-01,1.861792802810668945e-01,1.863529086112976074e-01,1.861605644226074219e-01,1.809757053852081299e-01,1.842902302742004395e-01,2.064190804958343506e-01,2.345702052116394043e-01,3.019189834594726562e-01,3.503376841545104980e-01
3.576376736164093018e-01,2.654605507850646973e-01,2.376333773136138916e-01,2.067420184612274170e-01,1.837375164031982422e-01,1.796104907989501953e-01,1.815583109855651855e-01,1.819115877151489258e-01,1.822720468044281006e-01,1.822467446327209473e-01,1.822347939014434814e-01,1.822313964366912842e-01,1.822281479835510254e-01,1.822245419025421143e-01,1.822211444377899170e-01,1.822176277637481689e-01,1.822143495082855225e-01,1.822108328342437744e-01,1.822074353694915771e-01,1.822040677070617676e-01,1.822005808353424072e-01,1.821972429752349854e-01,1.821938157081604004e-01,1.821904480457305908e-01,1.821870207786560059e-01,1.821837425231933594e-01,1.821802258491516113e-01,1.821768581867218018e-01,1.821733713150024414e-01,1.821699440479278564e-01,1.821666061878204346e-01,1.821631491184234619e-01,1.821598410606384277e-01,1.821563541889190674e-01,1.821529865264892578e-01,1.821494996547698975e-01,1.821461021900177002e-01,1.821427345275878906e-01,1.821392476558685303e-01,1.821357905864715576e-01,1.821326017379760742e-01,1.821292340755462646e-01,1.821257174015045166e-01,1.821222603321075439e-01,1.821188032627105713e-01,1.821154654026031494e-01,1.821119487285614014e-01,1.821085810661315918e-01,1.821053028106689453e-01,1.821018457412719727e-01,1.820985078811645508e-01,1.820951402187347412e-01,1.820916831493377686e-01,1.820882558822631836e-01,1.820848882198333740e-01,1.820814013481140137e-01,1.820781826972961426e-01,1.820746958255767822e-01,1.820714473724365234e-01,1.820678710937500000e-01,1.820645332336425781e-01,1.820611655712127686e-01,1.820574700832366943e-01,1.820543110370635986e-01,1.820509135723114014e-01,1.820474565029144287e-01,1.820441484451293945e-01,1.820405423641204834e-01,1.820373237133026123e-01,1.820339262485504150e-01,1.820299029350280762e-01,1.820086240768432617e-01,1.821674704551696777e-01,1.820157468318939209e-01,1.770403087139129639e-01,1.803433597087860107e-01,2.022826969623565674e-01,2.306690812110900879e-01,2.983114719390869141e-01,3.479942679405212402e-01
3.552460074424743652e-01,2.622943818569183350e-01,2.341433763504028320e-01,2.035855948925018311e-01,1.805850863456726074e-01,1.763871610164642334e-01,1.782720088958740234e-01,1.786174774169921875e-01,1.789577603340148926e-01,1.789334118366241455e-01,1.789226830005645752e-01,1.789194643497467041e-01,1.789166033267974854e-01,1.789133548736572266e-01,1.789103448390960693e-01,1.789075136184692383e-01,1.789042949676513672e-01,1.789012551307678223e-01,1.788983345031738281e-01,1.788952350616455078e-01,1.788922846317291260e-01,1.788891553878784180e-01,1.788860857486724854e-01,1.788830459117889404e-01,1.788800060749053955e-01,1.788770556449890137e-01,1.788739860057830811e-01,1.788710653781890869e-01,1.788678169250488281e-01,1.788648664951324463e-01,1.788619160652160645e-01,1.788587868213653564e-01,1.788557469844818115e-01,1.788527369499206543e-01,1.788497269153594971e-01,1.788466870784759521e-01,1.788437664508819580e-01,1.788405179977416992e-01,1.788376271724700928e-01,1.788346469402313232e-01,1.788317263126373291e-01,1.788282394409179688e-01,1.788255572319030762e-01,1.788224279880523682e-01,1.788192987442016602e-01,1.788162589073181152e-01,1.788134276866912842e-01,1.788101792335510254e-01,1.788073778152465820e-01,1.788040697574615479e-01,1.788011491298675537e-01,1.787981092929840088e-01,1.787951588630676270e-01,1.787920892238616943e-01,1.787891089916229248e-01,1.787861585617065430e-01,1.787830889225006104e-01,1.787799894809722900e-01,1.787770092487335205e-01,1.787738204002380371e-01,1.787708699703216553e-01,1.787675917148590088e-01,1.787648200988769531e-01,1.787618100643157959e-01,1.787589192390441895e-01,1.787557005882263184e-01,1.787527501583099365e-01,1.787495613098144531e-01,1.787467300891876221e-01,1.787437498569488525e-01,1.787400245666503906e-01,1.787210404872894287e-01,1.788689494132995605e-01,1.787454783916473389e-01,1.739442944526672363e-01,1.772524714469909668e-01,1.989192068576812744e-01,2.273618876934051514e-01,2.952049374580383301e-01,3.462710380554199219e-01
3.522583842277526855e-01,2.585263252258300781e-01,2.300036549568176270e-01,1.997267007827758789e-01,1.766580939292907715e-01,1.722872853279113770e-01,1.739268898963928223e-01,1.741954982280731201e-01,1.744953095912933350e-01,1.744749248027801514e-01,1.744653582572937012e-01,1.744627356529235840e-01,1.744600534439086914e-01,1.744575500488281250e-01,1.744548678398132324e-01,1.744520962238311768e-01,1.744495630264282227e-01,1.744468808174133301e-01,1.744439899921417236e-01,1.744414269924163818e-01,1.744388043880462646e-01,1.744362115859985352e-01,1.744335293769836426e-01,1.744307875633239746e-01,1.744281351566314697e-01,1.744254827499389648e-01,1.744229495525360107e-01,1.744202077388763428e-01,1.744174361228942871e-01,1.744148135185241699e-01,1.744122207164764404e-01,1.744095683097839355e-01,1.744067966938018799e-01,1.744041144847869873e-01,1.744013428688049316e-01,1.743989884853363037e-01,1.743962466716766357e-01,1.743937730789184570e-01,1.743910014629364014e-01,1.743884086608886719e-01,1.743858158588409424e-01,1.743830144405364990e-01,1.743801832199096680e-01,1.743777692317962646e-01,1.743748784065246582e-01,1.743723452091217041e-01,1.743696630001068115e-01,1.743671596050262451e-01,1.743643581867218018e-01,1.743618249893188477e-01,1.743590235710144043e-01,1.743564903736114502e-01,1.743536889553070068e-01,1.743510067462921143e-01,1.743485331535339355e-01,1.743457317352294922e-01,1.743431687355041504e-01,1.743406653404235840e-01,1.743379235267639160e-01,1.743350923061370850e-01,1.743324697017669678e-01,1.743297874927520752e-01,1.743271052837371826e-01,1.743246912956237793e-01,1.743219792842864990e-01,1.743192672729492188e-01,1.743167638778686523e-01,1.743141412734985352e-01,1.743113100528717041e-01,1.743087768554687500e-01,1.743056774139404297e-01,1.742877960205078125e-01,1.744304001331329346e-01,1.743089854717254639e-01,1.696803867816925049e-01,1.730754077434539795e-01,1.948010027408599854e-01,2.234541475772857666e-01,2.916895151138305664e-01,3.432704508304595947e-01
3.534523248672485352e-01,2.556054592132568359e-01,2.290335595607757568e-01,1.991982460021972656e-01,1.747834682464599609e-01,1.703473031520843506e-01,1.715839505195617676e-01,1.718492209911346436e-01,1.721448302268981934e-01,1.721246242523193359e-01,1.721163690090179443e-01,1.721139848232269287e-01,1.721117198467254639e-01,1.721093952655792236e-01,1.721069514751434326e-01,1.721046566963195801e-01,1.721022129058837891e-01,1.720999777317047119e-01,1.720974743366241455e-01,1.720951497554779053e-01,1.720927357673645020e-01,1.720902919769287109e-01,1.720878779888153076e-01,1.720854938030242920e-01,1.720831990242004395e-01,1.720809340476989746e-01,1.720785200595855713e-01,1.720760166645050049e-01,1.720737814903259277e-01,1.720712780952453613e-01,1.720689833164215088e-01,1.720664501190185547e-01,1.720640659332275391e-01,1.720618903636932373e-01,1.720594763755798340e-01,1.720571815967559814e-01,1.720546483993530273e-01,1.720522642135620117e-01,1.720500886440277100e-01,1.720477044582366943e-01,1.720452606678009033e-01,1.720428466796875000e-01,1.720405817031860352e-01,1.720382869243621826e-01,1.720357537269592285e-01,1.720333993434906006e-01,1.720308959484100342e-01,1.720286905765533447e-01,1.720262169837951660e-01,1.720237433910369873e-01,1.720215380191802979e-01,1.720191240310668945e-01,1.720167398452758789e-01,1.720143556594848633e-01,1.720121502876281738e-01,1.720097661018371582e-01,1.720072627067565918e-01,1.720049083232879639e-01,1.720026135444641113e-01,1.720000207424163818e-01,1.719977557659149170e-01,1.719956696033477783e-01,1.719931662082672119e-01,1.719907820224761963e-01,1.719884872436523438e-01,1.719861626625061035e-01,1.719837784767150879e-01,1.719814538955688477e-01,1.719789803028106689e-01,1.719767153263092041e-01,1.719743311405181885e-01,1.719541251659393311e-01,1.720591485500335693e-01,1.720520555973052979e-01,1.679020822048187256e-01,1.713130176067352295e-01,1.922457516193389893e-01,2.205626964569091797e-01,2.916402816772460938e-01,3.415901362895965576e-01
3.557899594306945801e-01,2.536365985870361328e-01,2.169761955738067627e-01,1.914372444152832031e-01,1.698949337005615234e-01,1.649758815765380859e-01,1.661608219146728516e-01,1.664639711380004883e-01,1.667151153087615967e-01,1.666952371597290039e-01,1.666879653930664062e-01,1.666860878467559814e-01,1.666839122772216797e-01,1.666818559169769287e-01,1.666796803474426270e-01,1.666778624057769775e-01,1.666758656501770020e-01,1.666738092899322510e-01,1.666716635227203369e-01,1.666696667671203613e-01,1.666675508022308350e-01,1.666652560234069824e-01,1.666633784770965576e-01,1.666613221168518066e-01,1.666594743728637695e-01,1.666572988033294678e-01,1.666553318500518799e-01,1.666533648967742920e-01,1.666514277458190918e-01,1.666490733623504639e-01,1.666473150253295898e-01,1.666449904441833496e-01,1.666429638862609863e-01,1.666411161422729492e-01,1.666390001773834229e-01,1.666368246078491211e-01,1.666348576545715332e-01,1.666327416896820068e-01,1.666306257247924805e-01,1.666288077831268311e-01,1.666266322135925293e-01,1.666246354579925537e-01,1.666225790977478027e-01,1.666205525398254395e-01,1.666185259819030762e-01,1.666164994239807129e-01,1.666144728660583496e-01,1.666123569011688232e-01,1.666103899478912354e-01,1.666083335876464844e-01,1.666062474250793457e-01,1.666042804718017578e-01,1.666021943092346191e-01,1.666001677513122559e-01,1.665981411933898926e-01,1.665961146354675293e-01,1.665938794612884521e-01,1.665921509265899658e-01,1.665900051593780518e-01,1.665880680084228516e-01,1.665857732295989990e-01,1.665838658809661865e-01,1.665818095207214355e-01,1.665796935558319092e-01,1.665779352188110352e-01,1.665756106376647949e-01,1.665736436843872070e-01,1.665718257427215576e-01,1.665696203708648682e-01,1.665675044059753418e-01,1.665672659873962402e-01,1.665431857109069824e-01,1.666106879711151123e-01,1.667930483818054199e-01,1.623810827732086182e-01,1.654350161552429199e-01,1.886167228221893311e-01,2.108099460601806641e-01,2.860370576381683350e-01,3.337820172309875488e-01
3.380686640739440918e-01,2.402383089065551758e-01,2.027127444744110107e-01,1.804870069026947021e-01,1.658504307270050049e-01,1.592122614383697510e-01,1.592746376991271973e-01,1.594829261302947998e-01,1.597140431404113770e-01,1.596970260143280029e-01,1.596919596195220947e-01,1.596902310848236084e-01,1.596885621547698975e-01,1.596869826316833496e-01,1.596853435039520264e-01,1.596835851669311523e-01,1.596820354461669922e-01,1.596802473068237305e-01,1.596786975860595703e-01,1.596769988536834717e-01,1.596753895282745361e-01,1.596736013889312744e-01,1.596720814704895020e-01,1.596703529357910156e-01,1.596687138080596924e-01,1.596669852733612061e-01,1.596654653549194336e-01,1.596637964248657227e-01,1.596623063087463379e-01,1.596606969833374023e-01,1.596590280532836914e-01,1.596573889255523682e-01,1.596556305885314941e-01,1.596540212631225586e-01,1.596521437168121338e-01,1.596505939960479736e-01,1.596488058567047119e-01,1.596471965312957764e-01,1.596457064151763916e-01,1.596439778804779053e-01,1.596421897411346436e-01,1.596406102180480957e-01,1.596390604972839355e-01,1.596373617649078369e-01,1.596356928348541260e-01,1.596339941024780273e-01,1.596325039863586426e-01,1.596308052539825439e-01,1.596291363239288330e-01,1.596275269985198975e-01,1.596259176731109619e-01,1.596242785453796387e-01,1.596226394176483154e-01,1.596210002899169922e-01,1.596194505691528320e-01,1.596175432205200195e-01,1.596160531044006348e-01,1.596142947673797607e-01,1.596126854419708252e-01,1.596111059188842773e-01,1.596094071865081787e-01,1.596079170703887939e-01,1.596061289310455322e-01,1.596045196056365967e-01,1.596027910709381104e-01,1.596013009548187256e-01,1.595996320247650146e-01,1.595980226993560791e-01,1.595965027809143066e-01,1.595948636531829834e-01,1.595931053161621094e-01,1.595651805400848389e-01,1.596043407917022705e-01,1.598357558250427246e-01,1.557655632495880127e-01,1.533355414867401123e-01,1.688705980777740479e-01,2.049827277660369873e-01,2.839691638946533203e-01,3.553456962108612061e-01
3.297489583492279053e-01,2.279991507530212402e-01,1.979699432849884033e-01,1.790182292461395264e-01,1.636393070220947266e-01,1.572909951210021973e-01,1.598441302776336670e-01,1.601185202598571777e-01,1.602991223335266113e-01,1.602833271026611328e-01,1.602793335914611816e-01,1.602779328823089600e-01,1.602765619754791260e-01,1.602751016616821289e-01,1.602738797664642334e-01,1.602723598480224609e-01,1.602709293365478516e-01,1.602694094181060791e-01,1.602680683135986328e-01,1.602664887905120850e-01,1.602652668952941895e-01,1.602638065814971924e-01,1.602622866630554199e-01,1.602607965469360352e-01,1.602592170238494873e-01,1.602579057216644287e-01,1.602564454078674316e-01,1.602549850940704346e-01,1.602537035942077637e-01,1.602522134780883789e-01,1.602506339550018311e-01,1.602493822574615479e-01,1.602479815483093262e-01,1.602464616298675537e-01,1.602451503276824951e-01,1.602436304092407227e-01,1.602420806884765625e-01,1.602407693862915039e-01,1.602392494678497314e-01,1.602380275726318359e-01,1.602365970611572266e-01,1.602351367473602295e-01,1.602338254451751709e-01,1.602322757244110107e-01,1.602307856082916260e-01,1.602293550968170166e-01,1.602278351783752441e-01,1.602265536785125732e-01,1.602251529693603516e-01,1.602237820625305176e-01,1.602222323417663574e-01,1.602207720279693604e-01,1.602194011211395264e-01,1.602178514003753662e-01,1.602163612842559814e-01,1.602150201797485352e-01,1.602135896682739258e-01,1.602121889591217041e-01,1.602107882499694824e-01,1.602093875408172607e-01,1.602078974246978760e-01,1.602064371109008789e-01,1.602048873901367188e-01,1.602034866809844971e-01,1.602021753787994385e-01,1.602007746696472168e-01,1.601993739604949951e-01,1.601978838443756104e-01,1.601965427398681641e-01,1.601949930191040039e-01,1.601961553096771240e-01,1.601745486259460449e-01,1.602484285831451416e-01,1.604151725769042969e-01,1.554423570632934570e-01,1.561044156551361084e-01,1.747395694255828857e-01,1.962417662143707275e-01,3.100825846195220947e-01,3.704558312892913818e-01
3.673302829265594482e-01,2.730020880699157715e-01,2.366622686386108398e-01,1.968864798545837402e-01,1.776400208473205566e-01,1.728612482547760010e-01,1.740677356719970703e-01,1.743156909942626953e-01,1.744402348995208740e-01,1.744307279586791992e-01,1.744284033775329590e-01,1.744274199008941650e-01,1.744264960289001465e-01,1.744254529476165771e-01,1.744244992733001709e-01,1.744234263896942139e-01,1.744224727153778076e-01,1.744214296340942383e-01,1.744205355644226074e-01,1.744196712970733643e-01,1.744184792041778564e-01,1.744175553321838379e-01,1.744166314601898193e-01,1.744154691696166992e-01,1.744146049022674561e-01,1.744135320186614990e-01,1.744125485420227051e-01,1.744116246700286865e-01,1.744107007980346680e-01,1.744095087051391602e-01,1.744085848331451416e-01,1.744076013565063477e-01,1.744064986705780029e-01,1.744055449962615967e-01,1.744046211242675781e-01,1.744035482406616211e-01,1.744027137756347656e-01,1.744017004966735840e-01,1.744006276130676270e-01,1.743997037410736084e-01,1.743987500667572021e-01,1.743976175785064697e-01,1.743966639041900635e-01,1.743955612182617188e-01,1.743946373462677002e-01,1.743936836719512939e-01,1.743928194046020508e-01,1.743917763233184814e-01,1.743907928466796875e-01,1.743897497653961182e-01,1.743885278701782227e-01,1.743877530097961426e-01,1.743867397308349609e-01,1.743857562541961670e-01,1.743847429752349854e-01,1.743839085102081299e-01,1.743828058242797852e-01,1.743818819522857666e-01,1.743808090686798096e-01,1.743798851966857910e-01,1.743787825107574463e-01,1.743778884410858154e-01,1.743767559528350830e-01,1.743758320808410645e-01,1.743749082088470459e-01,1.743738949298858643e-01,1.743729412555694580e-01,1.743719279766082764e-01,1.743707656860351562e-01,1.743698716163635254e-01,1.743689179420471191e-01,1.743550896644592285e-01,1.744393408298492432e-01,1.744462847709655762e-01,1.704317331314086914e-01,1.741123497486114502e-01,1.803808212280273438e-01,1.959730088710784912e-01,2.897706627845764160e-01,3.657966256141662598e-01
3.785716295242309570e-01,3.069041073322296143e-01,2.609407007694244385e-01,2.302913069725036621e-01,2.096594274044036865e-01,2.076262831687927246e-01,2.071304321289062500e-01,2.072289586067199707e-01,2.073740661144256592e-01,2.073740065097808838e-01,2.073749899864196777e-01,2.073742151260375977e-01,2.073736786842346191e-01,2.073730230331420898e-01,2.073725759983062744e-01,2.073718607425689697e-01,2.073710858821868896e-01,2.073703408241271973e-01,2.073698043823242188e-01,2.073692381381988525e-01,2.073687314987182617e-01,2.073679566383361816e-01,2.073672711849212646e-01,2.073666751384735107e-01,2.073659598827362061e-01,2.073653340339660645e-01,2.073647379875183105e-01,2.073640227317810059e-01,2.073635160923004150e-01,2.073628008365631104e-01,2.073622047901153564e-01,2.073616087436676025e-01,2.073609828948974609e-01,2.073602676391601562e-01,2.073596119880676270e-01,2.073589563369750977e-01,2.073583900928497314e-01,2.073576748371124268e-01,2.073570787906646729e-01,2.073564231395721436e-01,2.073557376861572266e-01,2.073551714420318604e-01,2.073546051979064941e-01,2.073540985584259033e-01,2.073533833026885986e-01,2.073526680469512939e-01,2.073519825935363770e-01,2.073514461517333984e-01,2.073508203029632568e-01,2.073501646518707275e-01,2.073496282100677490e-01,2.073488831520080566e-01,2.073483169078826904e-01,2.073476314544677734e-01,2.073469161987304688e-01,2.073462605476379395e-01,2.073457539081573486e-01,2.073450088500976562e-01,2.073443531990051270e-01,2.073438167572021484e-01,2.073430716991424561e-01,2.073425948619842529e-01,2.073418200016021729e-01,2.073413431644439697e-01,2.073407173156738281e-01,2.073400020599365234e-01,2.073394954204559326e-01,2.073388397693634033e-01,2.073382139205932617e-01,2.073375582695007324e-01,2.073363363742828369e-01,2.073111832141876221e-01,2.072976231575012207e-01,2.073976099491119385e-01,2.048481106758117676e-01,2.087793052196502686e-01,2.079811096191406250e-01,2.248889207839965820e-01,2.848504781723022461e-01,3.590071201324462891e-01
