5.884758830070495605e-01,6.139594316482543945e-01,6.563304066658020020e-01,6.571232080459594727e-01,6.807246804237365723e-01,7.049873471260070801e-01,7.413080334663391113e-01,7.627378702163696289e-01,7.834832668304443359e-01,8.020343780517578125e-01,8.197851181030273438e-01,8.366060256958007812e-01,8.516541719436645508e-01,8.648961782455444336e-01,8.764169216156005859e-01,8.860175609588623047e-01,8.930644392967224121e-01,8.978265523910522461e-01,9.010756015777587891e-01,9.031780958175659180e-01,9.043441414833068848e-01,9.049906730651855469e-01,9.052336215972900391e-01,9.052965044975280762e-01,9.053111076354980469e-01,9.053096771240234375e-01,9.053092002868652344e-01,9.053092002868652344e-01,9.053092002868652344e-01,9.053092002868652344e-01,9.053092002868652344e-01,9.053092002868652344e-01,9.053092002868652344e-01,9.053092002868652344e-01,9.053092002868652344e-01,9.053092002868652344e-01,9.053092002868652344e-01,9.053092002868652344e-01,9.053092002868652344e-01,9.053092002868652344e-01,9.053092002868652344e-01,9.053092002868652344e-01,9.053092002868652344e-01,9.053092002868652344e-01,9.053083658218383789e-01,9.052882194519042969e-01,9.053127169609069824e-01,9.060508012771606445e-01,9.059974551200866699e-01,9.019156694412231445e-01,8.914471864700317383e-01,8.788377046585083008e-01,8.582648038864135742e-01,8.250513076782226562e-01,7.702938914299011230e-01,6.582583189010620117e-01,5.709521174430847168e-01,5.116295218467712402e-01,4.666674435138702393e-01,4.325950741767883301e-01,4.078702330589294434e-01,3.914288282394409180e-01,4.031385481357574463e-01,4.127625823020935059e-01,4.446020126342773438e-01,4.601093828678131104e-01,5.224932432174682617e-01,5.608400702476501465e-01,5.961106419563293457e-01,6.609420776367187500e-01,7.302222251892089844e-01,7.629024982452392578e-01,8.019211292266845703e-01,8.138604760169982910e-01,7.937039732933044434e-01,7.852557897567749023e-01,7.922506332397460938e-01,7.703506946563720703e-01,7.207187414169311523e-01,6.155027747154235840e-01
5.885011553764343262e-01,6.139478087425231934e-01,6.565036177635192871e-01,6.572773456573486328e-01,6.807766556739807129e-01,7.049939036369323730e-01,7.413731813430786133e-01,7.627727985382080078e-01,7.835445404052734375e-01,8.021684288978576660e-01,8.199283480644226074e-01,8.364084959030151367e-01,8.515359163284301758e-01,8.648509979248046875e-01,8.763723373413085938e-01,8.859374523162841797e-01,8.930207490921020508e-01,8.977286219596862793e-01,9.010207653045654297e-01,9.031490087509155273e-01,9.043530821800231934e-01,9.050096273422241211e-01,9.052693843841552734e-01,9.053225517272949219e-01,9.053358435630798340e-01,9.053343534469604492e-01,9.053338766098022461e-01,9.053338766098022461e-01,9.053338766098022461e-01,9.053338766098022461e-01,9.053338766098022461e-01,9.053338766098022461e-01,9.053338766098022461e-01,9.053338766098022461e-01,9.053338766098022461e-01,9.053338766098022461e-01,9.053338766098022461e-01,9.053338766098022461e-01,9.053338766098022461e-01,9.053338766098022461e-01,9.053338766098022461e-01,9.053338766098022461e-01,9.053338766098022461e-01,9.053338766098022461e-01,9.053308963775634766e-01,9.053181409835815430e-01,9.053219556808471680e-01,9.058849811553955078e-01,9.059896469116210938e-01,9.009342789649963379e-01,8.911283016204833984e-01,8.799415826797485352e-01,8.578155040740966797e-01,8.266841173171997070e-01,7.780014872550964355e-01,6.597359776496887207e-01,5.759850144386291504e-01,5.155426859855651855e-01,4.689507484436035156e-01,4.306041896343231201e-01,4.133749008178710938e-01,4.073452055454254150e-01,4.216412603855133057e-01,4.180998206138610840e-01,4.468203783035278320e-01,4.786850810050964355e-01,5.478987693786621094e-01,5.713881254196166992e-01,6.079248189926147461e-01,6.563569307327270508e-01,7.007710933685302734e-01,7.514457702636718750e-01,7.901856899261474609e-01,8.047982454299926758e-01,7.877007722854614258e-01,7.800464630126953125e-01,7.871316671371459961e-01,7.694787383079528809e-01,7.183996438980102539e-01,6.140861511230468750e-01
5.884802341461181641e-01,6.139108538627624512e-01,6.564776897430419922e-01,6.572374701499938965e-01,6.807459592819213867e-01,7.049643397331237793e-01,7.413289546966552734e-01,7.627429962158203125e-01,7.835165858268737793e-01,8.021471500396728516e-01,8.199396133422851562e-01,8.364350795745849609e-01,8.513951301574707031e-01,8.647884130477905273e-01,8.763928413391113281e-01,8.858841657638549805e-01,8.929584026336669922e-01,8.977017998695373535e-01,9.009692668914794922e-01,9.031196832656860352e-01,9.043424129486083984e-01,9.050059318542480469e-01,9.052580595016479492e-01,9.053188562393188477e-01,9.053306579589843750e-01,9.053287506103515625e-01,9.053283333778381348e-01,9.053283333778381348e-01,9.053283333778381348e-01,9.053283333778381348e-01,9.053283333778381348e-01,9.053283333778381348e-01,9.053283333778381348e-01,9.053283333778381348e-01,9.053283333778381348e-01,9.053283333778381348e-01,9.053283333778381348e-01,9.053283333778381348e-01,9.053283333778381348e-01,9.053283333778381348e-01,9.053283333778381348e-01,9.053283333778381348e-01,9.053283333778381348e-01,9.053283333778381348e-01,9.053282737731933594e-01,9.053254127502441406e-01,9.053696393966674805e-01,9.058607816696166992e-01,9.058085680007934570e-01,9.011152386665344238e-01,8.923294544219970703e-01,8.803101181983947754e-01,8.594599962234497070e-01,8.301891088485717773e-01,7.767914533615112305e-01,6.609374284744262695e-01,5.783814787864685059e-01,5.193485617637634277e-01,4.704551100730895996e-01,4.302036166191101074e-01,4.143900275230407715e-01,4.119124412536621094e-01,4.264744520187377930e-01,4.323720932006835938e-01,4.546376466751098633e-01,5.269228219985961914e-01,5.635882019996643066e-01,6.008895635604858398e-01,6.318188309669494629e-01,6.412099599838256836e-01,6.938784718513488770e-01,7.327778339385986328e-01,7.769389152526855469e-01,7.994391918182373047e-01,7.808934450149536133e-01,7.710487842559814453e-01,7.793591618537902832e-01,7.657215595245361328e-01,7.188236713409423828e-01,6.146343946456909180e-01
5.884732604026794434e-01,6.138995885848999023e-01,6.564644575119018555e-01,6.572221517562866211e-01,6.807285547256469727e-01,7.049444317817687988e-01,7.413125634193420410e-01,7.627193927764892578e-01,7.834948301315307617e-01,8.021343946456909180e-01,8.199263215065002441e-01,8.364294767379760742e-01,8.513957262039184570e-01,8.647276163101196289e-01,8.763756752014160156e-01,8.859139680862426758e-01,8.929373025894165039e-01,8.976856470108032227e-01,9.009732604026794434e-01,9.031087756156921387e-01,9.043349623680114746e-01,9.050054550170898438e-01,9.052593708038330078e-01,9.053182601928710938e-01,9.053307771682739258e-01,9.053288698196411133e-01,9.053283333778381348e-01,9.053283333778381348e-01,9.053283333778381348e-01,9.053283333778381348e-01,9.053283333778381348e-01,9.053283333778381348e-01,9.053283333778381348e-01,9.053283333778381348e-01,9.053283333778381348e-01,9.053283333778381348e-01,9.053283333778381348e-01,9.053283333778381348e-01,9.053283333778381348e-01,9.053283333778381348e-01,9.053283333778381348e-01,9.053283333778381348e-01,9.053283333778381348e-01,9.053283333778381348e-01,9.053282737731933594e-01,9.053282737731933594e-01,9.053208827972412109e-01,9.058401584625244141e-01,9.055137634277343750e-01,9.006481170654296875e-01,8.921681642532348633e-01,8.800499439239501953e-01,8.619467020034790039e-01,8.333746194839477539e-01,7.750864028930664062e-01,6.641636490821838379e-01,5.801118612289428711e-01,5.134240984916687012e-01,4.718648195266723633e-01,4.320808649063110352e-01,4.165494740009307861e-01,4.179263710975646973e-01,4.390317201614379883e-01,4.499336779117584229e-01,4.826978743076324463e-01,5.238892436027526855e-01,5.895345211029052734e-01,6.331836581230163574e-01,6.568259000778198242e-01,6.830518245697021484e-01,7.081035971641540527e-01,7.387934923171997070e-01,7.543175220489501953e-01,7.873439788818359375e-01,7.891880273818969727e-01,7.647370100021362305e-01,7.746858596801757812e-01,7.607780098915100098e-01,7.143350839614868164e-01,6.109683513641357422e-01
5.884663462638854980e-01,6.138883233070373535e-01,6.564513444900512695e-01,6.572068929672241211e-01,6.807117462158203125e-01,7.049267292022705078e-01,7.412940263748168945e-01,7.627024650573730469e-01,7.834752798080444336e-01,8.021141290664672852e-01,8.199132680892944336e-01,8.364168405532836914e-01,8.513844609260559082e-01,8.647171854972839355e-01,8.763566017150878906e-01,8.859025835990905762e-01,8.929392695426940918e-01,8.976820707321166992e-01,9.009668827056884766e-01,9.031097888946533203e-01,9.043335914611816406e-01,9.050044417381286621e-01,9.052594304084777832e-01,9.053182601928710938e-01,9.053307175636291504e-01,9.053288698196411133e-01,9.053283333778381348e-01,9.053283333778381348e-01,9.053283333778381348e-01,9.053283333778381348e-01,9.053283333778381348e-01,9.053283333778381348e-01,9.053283333778381348e-01,9.053283333778381348e-01,9.053283333778381348e-01,9.053283333778381348e-01,9.053283333778381348e-01,9.053283333778381348e-01,9.053283333778381348e-01,9.053283333778381348e-01,9.053283333778381348e-01,9.053283333778381348e-01,9.053283333778381348e-01,9.053283333778381348e-01,9.053291082382202148e-01,9.053316712379455566e-01,9.053488969802856445e-01,9.057741761207580566e-01,9.055866003036499023e-01,9.008721709251403809e-01,8.921188116073608398e-01,8.803472518920898438e-01,8.625048398971557617e-01,8.334246873855590820e-01,7.763850092887878418e-01,6.636934876441955566e-01,5.775090456008911133e-01,5.186143517494201660e-01,4.748606681823730469e-01,4.339830279350280762e-01,4.069518744945526123e-01,4.221256971359252930e-01,4.390346109867095947e-01,4.577893018722534180e-01,4.980182945728302002e-01,5.575675368309020996e-01,6.460029482841491699e-01,6.735246181488037109e-01,6.871116161346435547e-01,7.182223796844482422e-01,7.137737274169921875e-01,7.508590221405029297e-01,7.643193006515502930e-01,7.630858421325683594e-01,7.697550058364868164e-01,7.820082902908325195e-01,7.665046453475952148e-01,7.479057908058166504e-01,7.090833187103271484e-01,6.108376979827880859e-01
5.884594917297363281e-01,6.138770580291748047e-01,6.564383506774902344e-01,6.571917533874511719e-01,6.806949973106384277e-01,7.049094438552856445e-01,7.412762641906738281e-01,7.626843452453613281e-01,7.834579348564147949e-01,8.020963668823242188e-01,8.198961019515991211e-01,8.364021778106689453e-01,8.513699769973754883e-01,8.647047281265258789e-01,8.763457536697387695e-01,8.858938217163085938e-01,8.929320573806762695e-01,8.976775407791137695e-01,9.009641408920288086e-01,9.031084775924682617e-01,9.043331146240234375e-01,9.050039052963256836e-01,9.052593708038330078e-01,9.053181409835815430e-01,9.053306579589843750e-01,9.053288698196411133e-01,9.053283333778381348e-01,9.053283333778381348e-01,9.053283333778381348e-01,9.053283333778381348e-01,9.053283333778381348e-01,9.053283333778381348e-01,9.053283333778381348e-01,9.053283333778381348e-01,9.053283333778381348e-01,9.053283333778381348e-01,9.053283333778381348e-01,9.053283333778381348e-01,9.053283333778381348e-01,9.053283333778381348e-01,9.053283333778381348e-01,9.053283333778381348e-01,9.053283333778381348e-01,9.053283333778381348e-01,9.053285717964172363e-01,9.053314924240112305e-01,9.053483605384826660e-01,9.057850837707519531e-01,9.056429862976074219e-01,9.010097980499267578e-01,8.919538855552673340e-01,8.805230259895324707e-01,8.633567094802856445e-01,8.360325098037719727e-01,7.821824550628662109e-01,6.633930802345275879e-01,5.873255729675292969e-01,5.343567728996276855e-01,4.669686555862426758e-01,4.366281628608703613e-01,4.157439470291137695e-01,4.324056506156921387e-01,4.494201540946960449e-01,4.768726825714111328e-01,5.085069537162780762e-01,5.632301568984985352e-01,6.606284976005554199e-01,7.120273709297180176e-01,7.350137233734130859e-01,7.413744926452636719e-01,7.577705979347229004e-01,7.675483226776123047e-01,7.804794311523437500e-01,7.687698006629943848e-01,7.569554448127746582e-01,7.659522294998168945e-01,7.776019573211669922e-01,7.510938644409179688e-01,7.004535198211669922e-01,6.077288985252380371e-01
5.884525775909423828e-01,6.138660907745361328e-01,6.564255952835083008e-01,6.571767330169677734e-01,6.806784868240356445e-01,7.048924565315246582e-01,7.412589788436889648e-01,7.626671791076660156e-01,7.834407091140747070e-01,8.020790219306945801e-01,8.198797106742858887e-01,8.363868594169616699e-01,8.513560891151428223e-01,8.646920919418334961e-01,8.763347864151000977e-01,8.858852386474609375e-01,8.929259181022644043e-01,8.976734280586242676e-01,9.009613394737243652e-01,9.031068086624145508e-01,9.043320417404174805e-01,9.050033092498779297e-01,9.052591919898986816e-01,9.053180217742919922e-01,9.053307175636291504e-01,9.053288698196411133e-01,9.053283333778381348e-01,9.053283333778381348e-01,9.053283333778381348e-01,9.053283333778381348e-01,9.053283333778381348e-01,9.053283333778381348e-01,9.053283333778381348e-01,9.053283333778381348e-01,9.053283333778381348e-01,9.053283333778381348e-01,9.053283333778381348e-01,9.053283333778381348e-01,9.053283333778381348e-01,9.053283333778381348e-01,9.053283333778381348e-01,9.053283333778381348e-01,9.053283333778381348e-01,9.053283333778381348e-01,9.053283929824829102e-01,9.053331613540649414e-01,9.053554534912109375e-01,9.057881832122802734e-01,9.055855274200439453e-01,9.011655449867248535e-01,8.918541669845581055e-01,8.822427988052368164e-01,8.630170822143554688e-01,8.400908112525939941e-01,7.812101244926452637e-01,6.694610118865966797e-01,5.855842232704162598e-01,5.337260365486145020e-01,4.794206023216247559e-01,4.373991489410400391e-01,4.254245162010192871e-01,4.269693791866302490e-01,4.545254111289978027e-01,4.946689307689666748e-01,5.361144542694091797e-01,5.853825211524963379e-01,6.824802160263061523e-01,7.440444231033325195e-01,7.668671607971191406e-01,7.854046225547790527e-01,7.746298313140869141e-01,7.751263380050659180e-01,7.985001802444458008e-01,7.889955043792724609e-01,7.589804530143737793e-01,7.526286840438842773e-01,7.672867178916931152e-01,7.501466274261474609e-01,7.034857869148254395e-01,6.002960205078125000e-01
5.884459018707275391e-01,6.138553619384765625e-01,6.564129590988159180e-01,6.571619510650634766e-01,6.806622743606567383e-01,7.048756480216979980e-01,7.412421107292175293e-01,7.626500129699707031e-01,7.834234833717346191e-01,8.020621538162231445e-01,8.198636770248413086e-01,8.363717794418334961e-01,8.513423800468444824e-01,8.646798729896545410e-01,8.763239383697509766e-01,8.858766555786132812e-01,8.929201364517211914e-01,8.976693153381347656e-01,9.009582996368408203e-01,9.031051397323608398e-01,9.043312072753906250e-01,9.050028920173645020e-01,9.052590131759643555e-01,9.053180217742919922e-01,9.053307175636291504e-01,9.053288698196411133e-01,9.053283333778381348e-01,9.053283333778381348e-01,9.053283333778381348e-01,9.053283333778381348e-01,9.053283333778381348e-01,9.053283333778381348e-01,9.053283333778381348e-01,9.053283333778381348e-01,9.053283333778381348e-01,9.053283333778381348e-01,9.053283333778381348e-01,9.053283333778381348e-01,9.053283333778381348e-01,9.053283333778381348e-01,9.053283333778381348e-01,9.053283333778381348e-01,9.053283333778381348e-01,9.053283333778381348e-01,9.053283333778381348e-01,9.053350687026977539e-01,9.053550362586975098e-01,9.057979583740234375e-01,9.055463075637817383e-01,9.013476371765136719e-01,8.930129408836364746e-01,8.827176690101623535e-01,8.682374358177185059e-01,8.422365784645080566e-01,7.807667851448059082e-01,6.883986592292785645e-01,5.868298411369323730e-01,5.538904070854187012e-01,5.092971324920654297e-01,4.550091326236724854e-01,4.304189980030059814e-01,4.254132211208343506e-01,4.671894907951354980e-01,5.066339373588562012e-01,5.546910762786865234e-01,6.071742177009582520e-01,6.980327367782592773e-01,7.513118982315063477e-01,7.860169410705566406e-01,8.183696269989013672e-01,8.148841857910156250e-01,7.921851873397827148e-01,7.965968847274780273e-01,8.023791313171386719e-01,7.708148956298828125e-01,7.617653608322143555e-01,7.671356201171875000e-01,7.521185874938964844e-01,7.035409212112426758e-01,6.012369990348815918e-01
5.884398221969604492e-01,6.138451695442199707e-01,6.564006805419921875e-01,6.571473479270935059e-01,6.806463003158569336e-01,7.048592567443847656e-01,7.412255406379699707e-01,7.626332640647888184e-01,7.834067940711975098e-01,8.020457625389099121e-01,8.198478221893310547e-01,8.363568782806396484e-01,8.513291478157043457e-01,8.646678328514099121e-01,8.763133883476257324e-01,8.858681917190551758e-01,8.929139375686645508e-01,8.976656198501586914e-01,9.009554386138916016e-01,9.031034708023071289e-01,9.043303132057189941e-01,9.050022363662719727e-01,9.052590131759643555e-01,9.053180217742919922e-01,9.053307175636291504e-01,9.053288698196411133e-01,9.053283333778381348e-01,9.053283333778381348e-01,9.053283333778381348e-01,9.053283333778381348e-01,9.053283333778381348e-01,9.053283333778381348e-01,9.053283333778381348e-01,9.053283333778381348e-01,9.053283333778381348e-01,9.053283333778381348e-01,9.053283333778381348e-01,9.053283333778381348e-01,9.053283333778381348e-01,9.053283333778381348e-01,9.053283333778381348e-01,9.053283333778381348e-01,9.053283333778381348e-01,9.053283333778381348e-01,9.053283333778381348e-01,9.053335189819335938e-01,9.053522944450378418e-01,9.057207107543945312e-01,9.058071374893188477e-01,9.011421203613281250e-01,8.935159444808959961e-01,8.847349286079406738e-01,8.705231547355651855e-01,8.487758040428161621e-01,7.912604808807373047e-01,6.969467401504516602e-01,6.165047883987426758e-01,5.655340552330017090e-01,5.234764814376831055e-01,4.625666141510009766e-01,4.312529265880584717e-01,4.455941021442413330e-01,4.827385246753692627e-01,5.118815898895263672e-01,5.663686990737915039e-01,6.413545012474060059e-01,7.161507606506347656e-01,7.734667062759399414e-01,7.998836636543273926e-01,8.294054269790649414e-01,8.458431959152221680e-01,8.303789496421813965e-01,8.032559156417846680e-01,8.004621267318725586e-01,7.938168048858642578e-01,7.778072953224182129e-01,7.741443514823913574e-01,7.515311837196350098e-01,7.032970190048217773e-01,6.007825732231140137e-01
5.884343385696411133e-01,6.138356328010559082e-01,6.563893556594848633e-01,6.571338176727294922e-01,6.806308627128601074e-01,7.048434615135192871e-01,7.412093877792358398e-01,7.626172304153442383e-01,7.833906412124633789e-01,8.020296096801757812e-01,8.198325634002685547e-01,8.363425731658935547e-01,8.513157367706298828e-01,8.646558523178100586e-01,8.763029575347900391e-01,8.858599066734313965e-01,8.929082155227661133e-01,8.976618051528930664e-01,9.009527564048767090e-01,9.031019210815429688e-01,9.043291807174682617e-01,9.050018787384033203e-01,9.052589535713195801e-01,9.053179025650024414e-01,9.053307771682739258e-01,9.053288698196411133e-01,9.053283333778381348e-01,9.053283333778381348e-01,9.053283333778381348e-01,9.053283333778381348e-01,9.053283333778381348e-01,9.053283333778381348e-01,9.053283333778381348e-01,9.053283333778381348e-01,9.053283333778381348e-01,9.053283333778381348e-01,9.053283333778381348e-01,9.053283333778381348e-01,9.053283333778381348e-01,9.053283333778381348e-01,9.053283333778381348e-01,9.053283333778381348e-01,9.053283333778381348e-01,9.053283333778381348e-01,9.053283333778381348e-01,9.053319096565246582e-01,9.053370952606201172e-01,9.056564569473266602e-01,9.058350324630737305e-01,9.014362096786499023e-01,8.952976465225219727e-01,8.886305093765258789e-01,8.756347298622131348e-01,8.503547906875610352e-01,8.036913871765136719e-01,7.030620574951171875e-01,6.629570722579956055e-01,5.837315917015075684e-01,5.311218500137329102e-01,4.894595146179199219e-01,4.694373309612274170e-01,4.634734690189361572e-01,4.828220605850219727e-01,5.267056822776794434e-01,5.874516367912292480e-01,6.595607995986938477e-01,7.305755615234375000e-01,7.830402851104736328e-01,8.089364767074584961e-01,8.402045965194702148e-01,8.464472293853759766e-01,8.533039093017578125e-01,8.399391174316406250e-01,8.137145042419433594e-01,7.938675880432128906e-01,7.860187888145446777e-01,7.855571508407592773e-01,7.577738165855407715e-01,7.094293236732482910e-01,6.096943616867065430e-01
5.884295105934143066e-01,6.138274073600769043e-01,6.563793420791625977e-01,6.571215987205505371e-01,6.806168556213378906e-01,7.048285007476806641e-01,7.411941289901733398e-01,7.626016139984130859e-01,7.833747863769531250e-01,8.020138740539550781e-01,8.198175430297851562e-01,8.363287448883056641e-01,8.513029813766479492e-01,8.646442890167236328e-01,8.762928247451782227e-01,8.858517408370971680e-01,8.929025530815124512e-01,8.976579904556274414e-01,9.009499549865722656e-01,9.031002521514892578e-01,9.043284654617309570e-01,9.050013422966003418e-01,9.052588939666748047e-01,9.053179025650024414e-01,9.053307175636291504e-01,9.053288698196411133e-01,9.053283333778381348e-01,9.053283333778381348e-01,9.053283333778381348e-01,9.053283333778381348e-01,9.053283333778381348e-01,9.053283333778381348e-01,9.053283333778381348e-01,9.053283333778381348e-01,9.053283333778381348e-01,9.053283333778381348e-01,9.053283333778381348e-01,9.053283333778381348e-01,9.053283333778381348e-01,9.053283333778381348e-01,9.053283333778381348e-01,9.053283333778381348e-01,9.053283333778381348e-01,9.053283333778381348e-01,9.053283333778381348e-01,9.053279161453247070e-01,9.053339958190917969e-01,9.057011604309082031e-01,9.061269164085388184e-01,9.024227857589721680e-01,8.982667922973632812e-01,8.931201696395874023e-01,8.824130296707153320e-01,8.587832450866699219e-01,8.225410580635070801e-01,7.280167341232299805e-01,6.749152541160583496e-01,6.313754320144653320e-01,5.899675488471984863e-01,5.280448198318481445e-01,4.948014616966247559e-01,4.922114908695220947e-01,4.916976690292358398e-01,5.406385064125061035e-01,6.032950878143310547e-01,6.785745620727539062e-01,7.527343034744262695e-01,7.992330789566040039e-01,8.269959688186645508e-01,8.476976156234741211e-01,8.592308759689331055e-01,8.596662282943725586e-01,8.572278022766113281e-01,8.329039216041564941e-01,7.965946793556213379e-01,7.932263016700744629e-01,7.920879125595092773e-01,7.719501256942749023e-01,7.197861075401306152e-01,6.145716309547424316e-01
5.884249806404113770e-01,6.138199567794799805e-01,6.563702821731567383e-01,6.571111083030700684e-01,6.806045174598693848e-01,7.048152685165405273e-01,7.411800026893615723e-01,7.625870704650878906e-01,7.833600044250488281e-01,8.019986748695373535e-01,8.198030591011047363e-01,8.363153934478759766e-01,8.512909412384033203e-01,8.646334409713745117e-01,8.762830495834350586e-01,8.858439922332763672e-01,8.928970098495483398e-01,8.976542949676513672e-01,9.009473323822021484e-01,9.030988216400146484e-01,9.043276309967041016e-01,9.050009250640869141e-01,9.052587747573852539e-01,9.053179025650024414e-01,9.053307771682739258e-01,9.053288698196411133e-01,9.053283333778381348e-01,9.053283333778381348e-01,9.053283333778381348e-01,9.053283333778381348e-01,9.053283333778381348e-01,9.053283333778381348e-01,9.053283333778381348e-01,9.053283333778381348e-01,9.053283333778381348e-01,9.053283333778381348e-01,9.053283333778381348e-01,9.053283333778381348e-01,9.053283333778381348e-01,9.053283333778381348e-01,9.053283333778381348e-01,9.053283333778381348e-01,9.053283333778381348e-01,9.053283333778381348e-01,9.053283333778381348e-01,9.053237438201904297e-01,9.053277969360351562e-01,9.056560397148132324e-01,9.060971736907958984e-01,9.032686948776245117e-01,8.990131616592407227e-01,8.956826925277709961e-01,8.892326354980468750e-01,8.691250085830688477e-01,8.350020051002502441e-01,7.637715339660644531e-01,7.221935987472534180e-01,6.940127015113830566e-01,6.411455273628234863e-01,5.738993287086486816e-01,5.227479934692382812e-01,5.165072083473205566e-01,5.076926350593566895e-01,5.732076764106750488e-01,6.242750883102416992e-01,6.973690390586853027e-01,7.708472013473510742e-01,8.143986463546752930e-01,8.380783796310424805e-01,8.563012480735778809e-01,8.632328510284423828e-01,8.665195703506469727e-01,8.582321405410766602e-01,8.467556238174438477e-01,8.183382749557495117e-01,7.935639619827270508e-01,7.905433177947998047e-01,7.694295644760131836e-01,7.247397899627685547e-01,6.157736182212829590e-01
5.884206295013427734e-01,6.138129234313964844e-01,6.563618183135986328e-01,6.571012139320373535e-01,6.805936694145202637e-01,7.048038840293884277e-01,7.411681413650512695e-01,7.625744938850402832e-01,7.833466529846191406e-01,8.019850254058837891e-01,8.197894096374511719e-01,8.363026976585388184e-01,8.512788414955139160e-01,8.646228313446044922e-01,8.762738108634948730e-01,8.858363628387451172e-01,8.928915262222290039e-01,8.976508975028991699e-01,9.009447097778320312e-01,9.030971527099609375e-01,9.043266773223876953e-01,9.050004482269287109e-01,9.052586555480957031e-01,9.053179025650024414e-01,9.053307771682739258e-01,9.053288698196411133e-01,9.053283333778381348e-01,9.053283333778381348e-01,9.053283333778381348e-01,9.053283333778381348e-01,9.053283333778381348e-01,9.053283333778381348e-01,9.053283333778381348e-01,9.053283333778381348e-01,9.053283333778381348e-01,9.053283333778381348e-01,9.053283333778381348e-01,9.053283333778381348e-01,9.053283333778381348e-01,9.053283333778381348e-01,9.053283333778381348e-01,9.053283333778381348e-01,9.053283333778381348e-01,9.053283333778381348e-01,9.053283333778381348e-01,9.053229093551635742e-01,9.053314328193664551e-01,9.058351516723632812e-01,9.066025018692016602e-01,9.034394025802612305e-01,9.014874696731567383e-01,8.977056741714477539e-01,8.926570415496826172e-01,8.807751536369323730e-01,8.577834367752075195e-01,8.064883947372436523e-01,7.692507505416870117e-01,7.233116626739501953e-01,6.922662854194641113e-01,6.306382417678833008e-01,5.754603743553161621e-01,5.634590983390808105e-01,5.362214446067810059e-01,6.067295074462890625e-01,6.595727205276489258e-01,7.113449573516845703e-01,7.785029411315917969e-01,8.274745941162109375e-01,8.513956665992736816e-01,8.637157678604125977e-01,8.725488185882568359e-01,8.711816072463989258e-01,8.667001724243164062e-01,8.513191342353820801e-01,8.201323747634887695e-01,8.008214831352233887e-01,7.927228212356567383e-01,7.669489383697509766e-01,7.186713218688964844e-01,6.188002824783325195e-01
5.884159803390502930e-01,6.138055920600891113e-01,6.563537120819091797e-01,6.570920944213867188e-01,6.805834174156188965e-01,7.047930955886840820e-01,7.411571741104125977e-01,7.625632286071777344e-01,7.833350896835327148e-01,8.019728660583496094e-01,8.197774887084960938e-01,8.362908363342285156e-01,8.512678146362304688e-01,8.646126985549926758e-01,8.762648701667785645e-01,8.858292698860168457e-01,8.928865790367126465e-01,8.976476192474365234e-01,9.009423255920410156e-01,9.030957221984863281e-01,9.043259024620056152e-01,9.050000309944152832e-01,9.052586555480957031e-01,9.053179025650024414e-01,9.053307175636291504e-01,9.053288698196411133e-01,9.053283333778381348e-01,9.053283333778381348e-01,9.053283333778381348e-01,9.053283333778381348e-01,9.053283333778381348e-01,9.053283333778381348e-01,9.053283333778381348e-01,9.053283333778381348e-01,9.053283333778381348e-01,9.053283333778381348e-01,9.053283333778381348e-01,9.053283333778381348e-01,9.053283333778381348e-01,9.053283333778381348e-01,9.053283333778381348e-01,9.053283333778381348e-01,9.053283333778381348e-01,9.053283333778381348e-01,9.053283333778381348e-01,9.053255319595336914e-01,9.053162932395935059e-01,9.058402180671691895e-01,9.063905477523803711e-01,9.029782414436340332e-01,9.030085802078247070e-01,9.036730527877807617e-01,8.961868882179260254e-01,8.882043957710266113e-01,8.629993200302124023e-01,8.364075422286987305e-01,8.126222491264343262e-01,7.772233486175537109e-01,7.380151748657226562e-01,6.869100928306579590e-01,6.214697957038879395e-01,5.947718024253845215e-01,5.777834057807922363e-01,6.236274838447570801e-01,6.793785095214843750e-01,7.389505505561828613e-01,7.948697805404663086e-01,8.343538045883178711e-01,8.598373532295227051e-01,8.715892434120178223e-01,8.776015043258666992e-01,8.743608593940734863e-01,8.665007352828979492e-01,8.558535575866699219e-01,8.286064863204956055e-01,8.059129714965820312e-01,7.973014116287231445e-01,7.707089185714721680e-01,7.188484668731689453e-01,6.132671833038330078e-01
5.884107351303100586e-01,6.137976050376892090e-01,6.563451886177062988e-01,6.570820808410644531e-01,6.805731058120727539e-01,7.047829627990722656e-01,7.411468625068664551e-01,7.625529766082763672e-01,7.833244800567626953e-01,8.019622564315795898e-01,8.197671175003051758e-01,8.362808227539062500e-01,8.512578010559082031e-01,8.646035194396972656e-01,8.762565851211547852e-01,8.858225345611572266e-01,8.928817510604858398e-01,8.976444005966186523e-01,9.009398818016052246e-01,9.030944705009460449e-01,9.043250679969787598e-01,9.049996733665466309e-01,9.052584171295166016e-01,9.053179025650024414e-01,9.053307771682739258e-01,9.053288698196411133e-01,9.053283333778381348e-01,9.053283333778381348e-01,9.053283333778381348e-01,9.053283333778381348e-01,9.053283333778381348e-01,9.053283333778381348e-01,9.053283333778381348e-01,9.053283333778381348e-01,9.053283333778381348e-01,9.053283333778381348e-01,9.053283333778381348e-01,9.053283333778381348e-01,9.053283333778381348e-01,9.053283333778381348e-01,9.053283333778381348e-01,9.053283333778381348e-01,9.053283333778381348e-01,9.053283333778381348e-01,9.053283333778381348e-01,9.053292274475097656e-01,9.053094387054443359e-01,9.057941436767578125e-01,9.055731296539306641e-01,9.038967490196228027e-01,9.031444787979125977e-01,9.053479433059692383e-01,9.004620313644409180e-01,8.965102434158325195e-01,8.766438364982604980e-01,8.537766337394714355e-01,8.325997591018676758e-01,8.043590784072875977e-01,7.708031535148620605e-01,7.143820524215698242e-01,6.650551557540893555e-01,6.114982366561889648e-01,6.188483238220214844e-01,6.382594704627990723e-01,7.015521526336669922e-01,7.691917419433593750e-01,8.084802031517028809e-01,8.375818729400634766e-01,8.644499182701110840e-01,8.761888742446899414e-01,8.835799694061279297e-01,8.775832653045654297e-01,8.688598275184631348e-01,8.569347858428955078e-01,8.278347849845886230e-01,8.057883381843566895e-01,7.991423606872558594e-01,7.747552394866943359e-01,7.219012975692749023e-01,6.165638566017150879e-01
5.884053707122802734e-01,6.137889027595520020e-01,6.563354134559631348e-01,6.570709943771362305e-01,6.805618405342102051e-01,7.047713994979858398e-01,7.411358952522277832e-01,7.625427842140197754e-01,7.833146452903747559e-01,8.019523620605468750e-01,8.197572231292724609e-01,8.362712860107421875e-01,8.512486219406127930e-01,8.645949363708496094e-01,8.762487769126892090e-01,8.858159780502319336e-01,8.928763866424560547e-01,8.976402878761291504e-01,9.009364843368530273e-01,9.030917882919311523e-01,9.043228030204772949e-01,9.049975275993347168e-01,9.052566885948181152e-01,9.053159952163696289e-01,9.053288698196411133e-01,9.053270220756530762e-01,9.053264856338500977e-01,9.053264856338500977e-01,9.053264856338500977e-01,9.053264856338500977e-01,9.053264856338500977e-01,9.053264856338500977e-01,9.053264856338500977e-01,9.053264856338500977e-01,9.053264260292053223e-01,9.053264260292053223e-01,9.053264260292053223e-01,9.053264260292053223e-01,9.053263664245605469e-01,9.053263664245605469e-01,9.053263664245605469e-01,9.053263664245605469e-01,9.053262472152709961e-01,9.053262472152709961e-01,9.053262472152709961e-01,9.053233861923217773e-01,9.053058624267578125e-01,9.056460857391357422e-01,9.052218794822692871e-01,9.047701358795166016e-01,9.061198830604553223e-01,9.064437747001647949e-01,9.017242193222045898e-01,8.991698026657104492e-01,8.809151649475097656e-01,8.674484491348266602e-01,8.405712246894836426e-01,8.289877176284790039e-01,7.938473224639892578e-01,7.384979128837585449e-01,6.753394007682800293e-01,6.262843012809753418e-01,6.484695672988891602e-01,6.576529741287231445e-01,7.221018671989440918e-01,7.828289270401000977e-01,8.204988241195678711e-01,8.442559242248535156e-01,8.657748103141784668e-01,8.783150911331176758e-01,8.855570554733276367e-01,8.795856237411499023e-01,8.696642518043518066e-01,8.589955568313598633e-01,8.298835754394531250e-01,8.080380558967590332e-01,8.016757965087890625e-01,7.748602032661437988e-01,7.213431596755981445e-01,6.159389615058898926e-01
5.883996486663818359e-01,6.137793064117431641e-01,6.563243269920349121e-01,6.570580005645751953e-01,6.805463433265686035e-01,7.047553062438964844e-01,7.411196827888488770e-01,7.625265121459960938e-01,7.832983732223510742e-01,8.019362092018127441e-01,8.197420835494995117e-01,8.362561464309692383e-01,8.512333631515502930e-01,8.645806312561035156e-01,8.762356638908386230e-01,8.858045339584350586e-01,8.928662538528442383e-01,8.976318240165710449e-01,9.009284973144531250e-01,9.030840396881103516e-01,9.043152332305908203e-01,9.049903154373168945e-01,9.052499532699584961e-01,9.053096771240234375e-01,9.053227305412292480e-01,9.053210020065307617e-01,9.053205251693725586e-01,9.053204655647277832e-01,9.053205847740173340e-01,9.053205847740173340e-01,9.053205847740173340e-01,9.053206443786621094e-01,9.053206443786621094e-01,9.053207635879516602e-01,9.053207635879516602e-01,9.053207635879516602e-01,9.053208827972412109e-01,9.053209424018859863e-01,9.053209424018859863e-01,9.053209424018859863e-01,9.053210616111755371e-01,9.053210616111755371e-01,9.053212404251098633e-01,9.053211212158203125e-01,9.053212404251098633e-01,9.053163528442382812e-01,9.052982330322265625e-01,9.053815603256225586e-01,9.054029583930969238e-01,9.048039913177490234e-01,9.068425893783569336e-01,9.061069488525390625e-01,9.017344713211059570e-01,8.993387222290039062e-01,8.848243355751037598e-01,8.775890469551086426e-01,8.545709848403930664e-01,8.319424986839294434e-01,7.981771826744079590e-01,7.473577260971069336e-01,6.706038117408752441e-01,6.292576789855957031e-01,6.544595956802368164e-01,6.725608110427856445e-01,7.280766367912292480e-01,7.970097064971923828e-01,8.273985385894775391e-01,8.519613742828369141e-01,8.730142712593078613e-01,8.817704916000366211e-01,8.846748471260070801e-01,8.807299733161926270e-01,8.707860708236694336e-01,8.581429719924926758e-01,8.302104473114013672e-01,8.095134496688842773e-01,8.011336922645568848e-01,7.751696705818176270e-01,7.227521538734436035e-01,6.163082122802734375e-01
5.883888006210327148e-01,6.137658953666687012e-01,6.563082933425903320e-01,6.570442914962768555e-01,6.805330514907836914e-01,7.047408223152160645e-01,7.411066293716430664e-01,7.625187635421752930e-01,7.832978367805480957e-01,8.019436001777648926e-01,8.197600841522216797e-01,8.362876176834106445e-01,8.512843847274780273e-01,8.646485805511474609e-01,8.763052821159362793e-01,8.858639001846313477e-01,8.929139375686645508e-01,8.976707458496093750e-01,9.009689092636108398e-01,9.031349420547485352e-01,9.043724536895751953e-01,9.050532579421997070e-01,9.053155779838562012e-01,9.053769111633300781e-01,9.053902626037597656e-01,9.053887128829956055e-01,9.053885936737060547e-01,9.053889513015747070e-01,9.053890705108642578e-01,9.053893089294433594e-01,9.053896665573120117e-01,9.053899049758911133e-01,9.053901433944702148e-01,9.053905010223388672e-01,9.053906202316284180e-01,9.053911566734313965e-01,9.053912758827209473e-01,9.053915143013000488e-01,9.053918123245239258e-01,9.053920507431030273e-01,9.053922891616821289e-01,9.053926467895507812e-01,9.053928256034851074e-01,9.053931236267089844e-01,9.053933620452880859e-01,9.053930044174194336e-01,9.053664803504943848e-01,9.053357839584350586e-01,9.057390093803405762e-01,9.056894183158874512e-01,9.066523313522338867e-01,9.053820967674255371e-01,9.049642086029052734e-01,9.002149105072021484e-01,8.870027065277099609e-01,8.737440705299377441e-01,8.622440099716186523e-01,8.334859609603881836e-01,8.027772903442382812e-01,7.387272715568542480e-01,6.749064922332763672e-01,6.388747692108154297e-01,6.464049816131591797e-01,6.757398843765258789e-01,7.433051466941833496e-01,7.974277734756469727e-01,8.268227577209472656e-01,8.582273125648498535e-01,8.752405643463134766e-01,8.844778537750244141e-01,8.853141069412231445e-01,8.806825280189514160e-01,8.710002899169921875e-01,8.585546612739562988e-01,8.298888206481933594e-01,8.088630437850952148e-01,8.012799024581909180e-01,7.753126621246337891e-01,7.225546240806579590e-01,6.164072155952453613e-01
5.883955955505371094e-01,6.137745976448059082e-01,6.563150882720947266e-01,6.570621132850646973e-01,6.805617809295654297e-01,7.048023343086242676e-01,7.412194609642028809e-01,7.626800537109375000e-01,7.834855318069458008e-01,8.021436929702758789e-01,8.199619054794311523e-01,8.364870548248291016e-01,8.514612317085266113e-01,8.647936582565307617e-01,8.764222860336303711e-01,8.859454989433288574e-01,8.929840326309204102e-01,8.977728486061096191e-01,9.010936021804809570e-01,9.032584428787231445e-01,9.044928550720214844e-01,9.051687717437744141e-01,9.054247140884399414e-01,9.054827690124511719e-01,9.054937958717346191e-01,9.054912924766540527e-01,9.054898023605346680e-01,9.054890871047973633e-01,9.054881334304809570e-01,9.054871797561645508e-01,9.054864645004272461e-01,9.054855108261108398e-01,9.054847359657287598e-01,9.054837822914123535e-01,9.054829478263854980e-01,9.054821133613586426e-01,9.054811000823974609e-01,9.054803848266601562e-01,9.054794311523437500e-01,9.054785966873168945e-01,9.054777622222900391e-01,9.054768681526184082e-01,9.054758548736572266e-01,9.054751396179199219e-01,9.054743051528930664e-01,9.054713249206542969e-01,9.054527878761291504e-01,9.054296016693115234e-01,9.055194258689880371e-01,9.058851599693298340e-01,9.056117534637451172e-01,9.045475721359252930e-01,9.054537415504455566e-01,8.992230892181396484e-01,8.886417746543884277e-01,8.792425990104675293e-01,8.645131587982177734e-01,8.289312720298767090e-01,7.839572429656982422e-01,7.417982816696166992e-01,6.606507897377014160e-01,6.450335383415222168e-01,6.433950662612915039e-01,6.801809668540954590e-01,7.314593791961669922e-01,7.960895895957946777e-01,8.293555378913879395e-01,8.599776029586791992e-01,8.731682300567626953e-01,8.843477964401245117e-01,8.857559561729431152e-01,8.801563978195190430e-01,8.714101314544677734e-01,8.586200475692749023e-01,8.301428556442260742e-01,8.091543316841125488e-01,8.015410900115966797e-01,7.755303382873535156e-01,7.228090763092041016e-01,6.167896986007690430e-01
5.885781645774841309e-01,6.139517426490783691e-01,6.565683484077453613e-01,6.573186516761779785e-01,6.808106303215026855e-01,7.049673199653625488e-01,7.413079738616943359e-01,7.626926898956298828e-01,7.833588123321533203e-01,8.018860816955566406e-01,8.195872306823730469e-01,8.359776735305786133e-01,8.508612513542175293e-01,8.641120791435241699e-01,8.756417632102966309e-01,8.851391077041625977e-01,8.922117352485656738e-01,8.969815373420715332e-01,9.002742767333984375e-01,9.024298191070556641e-01,9.036751985549926758e-01,9.043315649032592773e-01,9.045727252960205078e-01,9.046295881271362305e-01,9.046417474746704102e-01,9.046393632888793945e-01,9.046378731727600098e-01,9.046370387077331543e-01,9.046361446380615234e-01,9.046351909637451172e-01,9.046342372894287109e-01,9.046334028244018555e-01,9.046324491500854492e-01,9.046316146850585938e-01,9.046307206153869629e-01,9.046297073364257812e-01,9.046288728713989258e-01,9.046279191970825195e-01,9.046270847320556641e-01,9.046260118484497070e-01,9.046252965927124023e-01,9.046243429183959961e-01,9.046233892440795898e-01,9.046225547790527344e-01,9.046215415000915527e-01,9.046208858489990234e-01,9.046128392219543457e-01,9.046332836151123047e-01,9.046944975852966309e-01,9.047841429710388184e-01,9.050378799438476562e-01,9.046984910964965820e-01,9.040105342864990234e-01,8.976515531539916992e-01,8.861131668090820312e-01,8.771823644638061523e-01,8.609220981597900391e-01,8.243363499641418457e-01,7.791196703910827637e-01,7.173137664794921875e-01,6.513594985008239746e-01,6.431778073310852051e-01,6.338838338851928711e-01,6.675043106079101562e-01,7.354308366775512695e-01,7.932879924774169922e-01,8.337693810462951660e-01,8.581593036651611328e-01,8.717001676559448242e-01,8.834231495857238770e-01,8.851118087768554688e-01,8.792104721069335938e-01,8.704314231872558594e-01,8.578275442123413086e-01,8.292562961578369141e-01,8.083072304725646973e-01,8.009105920791625977e-01,7.746572494506835938e-01,7.219789028167724609e-01,6.162481904029846191e-01
5.889356136322021484e-01,6.138247847557067871e-01,6.562423706054687500e-01,6.566779613494873047e-01,6.799255013465881348e-01,7.037646770477294922e-01,7.398926019668579102e-01,7.610063552856445312e-01,7.815138697624206543e-01,7.999110221862792969e-01,8.175240755081176758e-01,8.339142799377441406e-01,8.489240407943725586e-01,8.623857498168945312e-01,8.741696476936340332e-01,8.838961124420166016e-01,8.910564780235290527e-01,8.958874344825744629e-01,8.992762565612792969e-01,9.014962911605834961e-01,9.027301073074340820e-01,9.033838510513305664e-01,9.036418199539184570e-01,9.037147760391235352e-01,9.037275314331054688e-01,9.037255048751831055e-01,9.037240743637084961e-01,9.037228822708129883e-01,9.037218093872070312e-01,9.037206768989562988e-01,9.037197828292846680e-01,9.037187099456787109e-01,9.037175178527832031e-01,9.037166237831115723e-01,9.037154316902160645e-01,9.037144184112548828e-01,9.037133455276489258e-01,9.037123918533325195e-01,9.037110805511474609e-01,9.037101864814758301e-01,9.037090539932250977e-01,9.037081003189086914e-01,9.037070274353027344e-01,9.037059545516967773e-01,9.037048816680908203e-01,9.037039279937744141e-01,9.036988615989685059e-01,9.036712050437927246e-01,9.037673473358154297e-01,9.036355614662170410e-01,9.034063220024108887e-01,9.031872749328613281e-01,9.022937417030334473e-01,8.952096700668334961e-01,8.851006031036376953e-01,8.785452842712402344e-01,8.618897795677185059e-01,8.231246471405029297e-01,7.709159851074218750e-01,6.754662394523620605e-01,6.486393809318542480e-01,6.337214112281799316e-01,6.302578449249267578e-01,6.530113220214843750e-01,7.250870466232299805e-01,7.778239250183105469e-01,8.265902400016784668e-01,8.564177155494689941e-01,8.720479607582092285e-01,8.811044692993164062e-01,8.822264671325683594e-01,8.776084184646606445e-01,8.699718117713928223e-01,8.571979999542236328e-01,8.286767005920410156e-01,8.075634241104125977e-01,8.000969886779785156e-01,7.738291025161743164e-01,7.208216786384582520e-01,6.147255301475524902e-01
5.881916880607604980e-01,6.121522188186645508e-01,6.544511914253234863e-01,6.547918319702148438e-01,6.775833964347839355e-01,7.009686231613159180e-01,7.370877861976623535e-01,7.582472562789916992e-01,7.788037061691284180e-01,7.972002029418945312e-01,8.147964477539062500e-01,8.312987089157104492e-01,8.464390039443969727e-01,8.599848747253417969e-01,8.718606829643249512e-01,8.816288709640502930e-01,8.889321684837341309e-01,8.940094709396362305e-01,8.974875211715698242e-01,8.997220993041992188e-01,9.009764790534973145e-01,9.016551971435546875e-01,9.019185304641723633e-01,9.019809365272521973e-01,9.019876718521118164e-01,9.019806385040283203e-01,9.019740819931030273e-01,9.019681215286254883e-01,9.019619226455688477e-01,9.019558429718017578e-01,9.019498825073242188e-01,9.019436240196228027e-01,9.019376635551452637e-01,9.019315242767333984e-01,9.019254446029663086e-01,9.019193649291992188e-01,9.019132852554321289e-01,9.019072651863098145e-01,9.019012451171875000e-01,9.018951654434204102e-01,9.018890857696533203e-01,9.018830060958862305e-01,9.018769264221191406e-01,9.018708467483520508e-01,9.018648862838745117e-01,9.018594026565551758e-01,9.018521308898925781e-01,9.018446803092956543e-01,9.018419981002807617e-01,9.018508195877075195e-01,9.017198085784912109e-01,9.014624357223510742e-01,9.002960324287414551e-01,8.919945955276489258e-01,8.816998600959777832e-01,8.753913640975952148e-01,8.545796871185302734e-01,8.213914632797241211e-01,7.471367120742797852e-01,6.726572513580322266e-01,6.365127563476562500e-01,6.252017021179199219e-01,6.072597503662109375e-01,6.488101482391357422e-01,7.054104804992675781e-01,7.653673291206359863e-01,8.160873055458068848e-01,8.500590324401855469e-01,8.679867982864379883e-01,8.776496648788452148e-01,8.787345886230468750e-01,8.755695223808288574e-01,8.681121468544006348e-01,8.557766675949096680e-01,8.274123072624206543e-01,8.065286874771118164e-01,7.989590764045715332e-01,7.723737359046936035e-01,7.195347547531127930e-01,6.129431724548339844e-01
5.862557291984558105e-01,6.094377040863037109e-01,6.514809131622314453e-01,6.515458226203918457e-01,6.740773916244506836e-01,6.969135999679565430e-01,7.324793934822082520e-01,7.531223297119140625e-01,7.730067968368530273e-01,7.909500598907470703e-01,8.082801103591918945e-01,8.245609998703002930e-01,8.395554423332214355e-01,8.531538248062133789e-01,8.651067018508911133e-01,8.749632835388183594e-01,8.823390007019042969e-01,8.874385952949523926e-01,8.910186290740966797e-01,8.932578563690185547e-01,8.945043087005615234e-01,8.952068090438842773e-01,8.954710960388183594e-01,8.955260515213012695e-01,8.955246210098266602e-01,8.955135345458984375e-01,8.955038785934448242e-01,8.954946994781494141e-01,8.954855799674987793e-01,8.954765796661376953e-01,8.954674005508422852e-01,8.954583406448364258e-01,8.954492807388305664e-01,8.954401016235351562e-01,8.954310417175292969e-01,8.954218029975891113e-01,8.954128026962280273e-01,8.954036831855773926e-01,8.953946828842163086e-01,8.953855633735656738e-01,8.953763246536254883e-01,8.953673839569091797e-01,8.953584432601928711e-01,8.953492641448974609e-01,8.953403234481811523e-01,8.953315019607543945e-01,8.953207731246948242e-01,8.953118324279785156e-01,8.953078389167785645e-01,8.952932953834533691e-01,8.950986862182617188e-01,8.954029083251953125e-01,8.931890726089477539e-01,8.866887092590332031e-01,8.767940998077392578e-01,8.723620176315307617e-01,8.461452126502990723e-01,7.970350980758666992e-01,7.404912710189819336e-01,6.554553508758544922e-01,6.312339901924133301e-01,6.220902800559997559e-01,5.985646247863769531e-01,6.076220273971557617e-01,6.806147098541259766e-01,7.529960870742797852e-01,8.014621734619140625e-01,8.332306146621704102e-01,8.599276542663574219e-01,8.668712377548217773e-01,8.706002235412597656e-01,8.695505857467651367e-01,8.625649213790893555e-01,8.499870300292968750e-01,8.217951059341430664e-01,8.015002608299255371e-01,7.943655252456665039e-01,7.679718732833862305e-01,7.155221700668334961e-01,6.079440116882324219e-01
5.823484063148498535e-01,6.035634875297546387e-01,6.450706720352172852e-01,6.443630456924438477e-01,6.657221317291259766e-01,6.876952648162841797e-01,7.224083542823791504e-01,7.425915002822875977e-01,7.618027925491333008e-01,7.788765430450439453e-01,7.956104278564453125e-01,8.115701675415039062e-01,8.266291022300720215e-01,8.405238389968872070e-01,8.527950644493103027e-01,8.630774021148681641e-01,8.709481954574584961e-01,8.763788938522338867e-01,8.801477551460266113e-01,8.825262188911437988e-01,8.838642835617065430e-01,8.845199346542358398e-01,8.847222328186035156e-01,8.847400546073913574e-01,8.847295045852661133e-01,8.847065567970275879e-01,8.846857547760009766e-01,8.846654891967773438e-01,8.846454024314880371e-01,8.846251964569091797e-01,8.846051692962646484e-01,8.845848441123962402e-01,8.845646977424621582e-01,8.845444321632385254e-01,8.845243453979492188e-01,8.845040798187255859e-01,8.844838738441467285e-01,8.844636678695678711e-01,8.844437003135681152e-01,8.844233751296997070e-01,8.844032883644104004e-01,8.843832015991210938e-01,8.843630552291870117e-01,8.843428492546081543e-01,8.843227624893188477e-01,8.843027353286743164e-01,8.842823505401611328e-01,8.842641115188598633e-01,8.842469453811645508e-01,8.842667341232299805e-01,8.841992616653442383e-01,8.842784762382507324e-01,8.815745115280151367e-01,8.737009763717651367e-01,8.649194240570068359e-01,8.603459596633911133e-01,8.327367305755615234e-01,7.872648835182189941e-01,7.204226255416870117e-01,6.468458175659179688e-01,6.367353796958923340e-01,6.006152033805847168e-01,5.830467939376831055e-01,5.898064970970153809e-01,6.517909765243530273e-01,7.277438640594482422e-01,7.785848975181579590e-01,8.132547140121459961e-01,8.428583741188049316e-01,8.535317182540893555e-01,8.592557907104492188e-01,8.587623834609985352e-01,8.525534272193908691e-01,8.398923873901367188e-01,8.111956119537353516e-01,7.921160459518432617e-01,7.858332395553588867e-01,7.610096931457519531e-01,7.075303196907043457e-01,6.019649505615234375e-01
5.752038359642028809e-01,5.937530398368835449e-01,6.341890096664428711e-01,6.314095258712768555e-01,6.507663130760192871e-01,6.714997291564941406e-01,7.052988409996032715e-01,7.246545553207397461e-01,7.431038618087768555e-01,7.594772577285766602e-01,7.753059864044189453e-01,7.904924154281616211e-01,8.051506280899047852e-01,8.185952901840209961e-01,8.304786682128906250e-01,8.404335975646972656e-01,8.479127883911132812e-01,8.532881736755371094e-01,8.570487499237060547e-01,8.593990206718444824e-01,8.606390953063964844e-01,8.611888885498046875e-01,8.613227009773254395e-01,8.613269329071044922e-01,8.612951636314392090e-01,8.612559437751770020e-01,8.612185716629028320e-01,8.611817359924316406e-01,8.611448407173156738e-01,8.611079454421997070e-01,8.610709309577941895e-01,8.610340356826782227e-01,8.609970211982727051e-01,8.609602451324462891e-01,8.609232902526855469e-01,8.608863353729248047e-01,8.608494400978088379e-01,8.608125448226928711e-01,8.607756495475769043e-01,8.607387542724609375e-01,8.607019186019897461e-01,8.606649041175842285e-01,8.606281280517578125e-01,8.605912923812866211e-01,8.605543375015258789e-01,8.605177402496337891e-01,8.604809045791625977e-01,8.604449033737182617e-01,8.604090213775634766e-01,8.603397011756896973e-01,8.604450225830078125e-01,8.607802391052246094e-01,8.569892644882202148e-01,8.490118980407714844e-01,8.469605445861816406e-01,8.358230590820312500e-01,8.046719431877136230e-01,7.592324614524841309e-01,6.745820045471191406e-01,6.446220278739929199e-01,6.157559156417846680e-01,5.817446708679199219e-01,5.617440342903137207e-01,5.828095078468322754e-01,6.105861067771911621e-01,7.058381438255310059e-01,7.493329048156738281e-01,7.831604480743408203e-01,8.172026276588439941e-01,8.276809453964233398e-01,8.356444835662841797e-01,8.362523317337036133e-01,8.299015760421752930e-01,8.173403739929199219e-01,7.881802320480346680e-01,7.704406976699829102e-01,7.674707770347595215e-01,7.442947030067443848e-01,6.928648948669433594e-01,5.924760103225708008e-01
5.642409324645996094e-01,5.783798098564147949e-01,6.170517206192016602e-01,6.110121607780456543e-01,6.274193525314331055e-01,6.464155316352844238e-01,6.783375144004821777e-01,6.956877708435058594e-01,7.117350101470947266e-01,7.257462739944458008e-01,7.394065856933593750e-01,7.528270483016967773e-01,7.661442160606384277e-01,7.786109447479248047e-01,7.895416617393493652e-01,7.988309860229492188e-01,8.062325716018676758e-01,8.115686178207397461e-01,8.153005838394165039e-01,8.176037073135375977e-01,8.186866044998168945e-01,8.189611434936523438e-01,8.189840912818908691e-01,8.189592361450195312e-01,8.189104795455932617e-01,8.188500404357910156e-01,8.187907934188842773e-01,8.187319636344909668e-01,8.186731338500976562e-01,8.186143636703491211e-01,8.185554742813110352e-01,8.184968829154968262e-01,8.184380531311035156e-01,8.183794021606445312e-01,8.183205723762512207e-01,8.182618618011474609e-01,8.182032108306884766e-01,8.181444406509399414e-01,8.180856704711914062e-01,8.180271387100219727e-01,8.179684877395629883e-01,8.179097175598144531e-01,8.178511261940002441e-01,8.177925348281860352e-01,8.177336454391479492e-01,8.176750540733337402e-01,8.176165819168090820e-01,8.175582885742187500e-01,8.175112009048461914e-01,8.174866437911987305e-01,8.184397220611572266e-01,8.174453973770141602e-01,8.107935786247253418e-01,8.033701181411743164e-01,8.061920404434204102e-01,7.874451279640197754e-01,7.604359984397888184e-01,7.161459326744079590e-01,6.479903459548950195e-01,6.193385720252990723e-01,5.820624232292175293e-01,5.435807704925537109e-01,5.351631045341491699e-01,5.539800524711608887e-01,5.882986187934875488e-01,6.655625700950622559e-01,7.114203572273254395e-01,7.360095381736755371e-01,7.677091956138610840e-01,7.866041064262390137e-01,7.944777607917785645e-01,7.955771088600158691e-01,7.886181473731994629e-01,7.778320312500000000e-01,7.484034299850463867e-01,7.333734035491943359e-01,7.347852587699890137e-01,7.137669324874877930e-01,6.687997579574584961e-01,5.797376632690429688e-01
5.497268438339233398e-01,5.539410114288330078e-01,5.888168811798095703e-01,5.787649154663085938e-01,5.919269323348999023e-01,6.082179546356201172e-01,6.378298401832580566e-01,6.524391770362854004e-01,6.663295626640319824e-01,6.780764460563659668e-01,6.894978284835815430e-01,7.006341814994812012e-01,7.116323113441467285e-01,7.215088605880737305e-01,7.303665876388549805e-01,7.380303740501403809e-01,7.437811493873596191e-01,7.477829456329345703e-01,7.504930496215820312e-01,7.519895434379577637e-01,7.524189949035644531e-01,7.524856328964233398e-01,7.524608969688415527e-01,7.523980736732482910e-01,7.523305416107177734e-01,7.522457838058471680e-01,7.521630525588989258e-01,7.520807981491088867e-01,7.519986629486083984e-01,7.519162893295288086e-01,7.518341541290283203e-01,7.517520189285278320e-01,7.516698837280273438e-01,7.515876293182373047e-01,7.515056729316711426e-01,7.514234781265258789e-01,7.513414025306701660e-01,7.512592077255249023e-01,7.511772513389587402e-01,7.510950565338134766e-01,7.510129213333129883e-01,7.509309053421020508e-01,7.508488893508911133e-01,7.507667541503906250e-01,7.506848573684692383e-01,7.506027221679687500e-01,7.505205869674682617e-01,7.504357695579528809e-01,7.503534555435180664e-01,7.503659129142761230e-01,7.516707777976989746e-01,7.494490742683410645e-01,7.430961132049560547e-01,7.410283088684082031e-01,7.410687208175659180e-01,7.133554816246032715e-01,6.824244260787963867e-01,6.576052308082580566e-01,5.880183577537536621e-01,5.663211941719055176e-01,5.647112131118774414e-01,5.034922361373901367e-01,5.025044083595275879e-01,5.215532183647155762e-01,5.502158403396606445e-01,6.081934571266174316e-01,6.539038419723510742e-01,6.763014793395996094e-01,7.010329961776733398e-01,7.211159467697143555e-01,7.285497188568115234e-01,7.279713153839111328e-01,7.234272360801696777e-01,7.130861878395080566e-01,6.836768388748168945e-01,6.730003356933593750e-01,6.819120645523071289e-01,6.631116867065429688e-01,6.338049173355102539e-01,5.564978718757629395e-01
5.325064659118652344e-01,5.236909389495849609e-01,5.545004010200500488e-01,5.385880470275878906e-01,5.464506745338439941e-01,5.593053102493286133e-01,5.835252404212951660e-01,5.946975350379943848e-01,6.051727533340454102e-01,6.133036613464355469e-01,6.213240027427673340e-01,6.292504668235778809e-01,6.369162797927856445e-01,6.437662243843078613e-01,6.499400138854980469e-01,6.547495126724243164e-01,6.579822897911071777e-01,6.604137420654296875e-01,6.619834899902343750e-01,6.628245115280151367e-01,6.630430817604064941e-01,6.630055904388427734e-01,6.629037261009216309e-01,6.628202199935913086e-01,6.627385616302490234e-01,6.626482605934143066e-01,6.625606417655944824e-01,6.624732017517089844e-01,6.623857021331787109e-01,6.622983217239379883e-01,6.622108817100524902e-01,6.621234416961669922e-01,6.620361804962158203e-01,6.619487404823303223e-01,6.618616580963134766e-01,6.617742776870727539e-01,6.616871953010559082e-01,6.615998744964599609e-01,6.615126729011535645e-01,6.614252924919128418e-01,6.613382101058959961e-01,6.612510681152343750e-01,6.611637473106384277e-01,6.610766649246215820e-01,6.609894037246704102e-01,6.609023809432983398e-01,6.608152389526367188e-01,6.607347726821899414e-01,6.606501340866088867e-01,6.605361700057983398e-01,6.617417931556701660e-01,6.583427786827087402e-01,6.521785855293273926e-01,6.538957357406616211e-01,6.519790887832641602e-01,6.269891262054443359e-01,6.076112985610961914e-01,5.849684476852416992e-01,5.288873314857482910e-01,5.160018801689147949e-01,4.984700679779052734e-01,4.606297612190246582e-01,4.668860733509063721e-01,4.885264635086059570e-01,5.038288235664367676e-01,5.489633083343505859e-01,5.824949145317077637e-01,5.969901680946350098e-01,6.196615099906921387e-01,6.388342380523681641e-01,6.429031491279602051e-01,6.423220038414001465e-01,6.390372514724731445e-01,6.309858560562133789e-01,6.033655405044555664e-01,5.959869623184204102e-01,6.116346716880798340e-01,5.968533158302307129e-01,5.880144238471984863e-01,5.268812179565429688e-01
5.115495324134826660e-01,4.893352687358856201e-01,5.141270756721496582e-01,4.908687472343444824e-01,4.924302995204925537e-01,5.010121464729309082e-01,5.196097493171691895e-01,5.275530815124511719e-01,5.347150564193725586e-01,5.395566821098327637e-01,5.444262027740478516e-01,5.495270490646362305e-01,5.545018315315246582e-01,5.588418841361999512e-01,5.624937415122985840e-01,5.652024745941162109e-01,5.675044655799865723e-01,5.691187977790832520e-01,5.702117681503295898e-01,5.707113742828369141e-01,5.708146095275878906e-01,5.707361698150634766e-01,5.705936551094055176e-01,5.705249905586242676e-01,5.704284310340881348e-01,5.703399777412414551e-01,5.702526569366455078e-01,5.701659321784973145e-01,5.700790286064147949e-01,5.699922442436218262e-01,5.699056386947631836e-01,5.698188543319702148e-01,5.697321295738220215e-01,5.696454644203186035e-01,5.695587992668151855e-01,5.694721937179565430e-01,5.693856477737426758e-01,5.692989826202392578e-01,5.692125558853149414e-01,5.691260695457458496e-01,5.690394043922424316e-01,5.689529776573181152e-01,5.688664913177490234e-01,5.687800645828247070e-01,5.686937570571899414e-01,5.686071515083312988e-01,5.685209035873413086e-01,5.684318542480468750e-01,5.683273673057556152e-01,5.685201883316040039e-01,5.687522888183593750e-01,5.668342709541320801e-01,5.632751584053039551e-01,5.635900497436523438e-01,5.625696182250976562e-01,5.374802947044372559e-01,5.264168977737426758e-01,5.048602223396301270e-01,4.797105789184570312e-01,4.699185192584991455e-01,4.492004215717315674e-01,4.411351978778839111e-01,4.276489615440368652e-01,4.336012601852416992e-01,4.619232416152954102e-01,4.809369146823883057e-01,5.056619048118591309e-01,5.191156268119812012e-01,5.411645770072937012e-01,5.499125123023986816e-01,5.530953407287597656e-01,5.537269711494445801e-01,5.518091917037963867e-01,5.450328588485717773e-01,5.214126706123352051e-01,5.174552202224731445e-01,5.384461879730224609e-01,5.280961394309997559e-01,5.396957397460937500e-01,4.965231120586395264e-01
4.905624687671661377e-01,4.556744992733001709e-01,4.712992012500762939e-01,4.408702850341796875e-01,4.361982345581054688e-01,4.405682682991027832e-01,4.539902210235595703e-01,4.580810070037841797e-01,4.624028503894805908e-01,4.647316634654998779e-01,4.672809243202209473e-01,4.700917005538940430e-01,4.728635549545288086e-01,4.754928946495056152e-01,4.778015315532684326e-01,4.795270860195159912e-01,4.808058738708496094e-01,4.817749559879302979e-01,4.823802709579467773e-01,4.826450347900390625e-01,4.826963543891906738e-01,4.826892316341400146e-01,4.826105833053588867e-01,4.825107157230377197e-01,4.824277162551879883e-01,4.823538362979888916e-01,4.822808802127838135e-01,4.822080433368682861e-01,4.821352660655975342e-01,4.820625185966491699e-01,4.819896519184112549e-01,4.819167852401733398e-01,4.818440675735473633e-01,4.817714095115661621e-01,4.816986620426177979e-01,4.816260039806365967e-01,4.815531373023986816e-01,4.814806580543518066e-01,4.814080595970153809e-01,4.813353419303894043e-01,4.812629222869873047e-01,4.811903834342956543e-01,4.811179637908935547e-01,4.810453057289123535e-01,4.809728264808654785e-01,4.809004068374633789e-01,4.808280169963836670e-01,4.807540476322174072e-01,4.806652665138244629e-01,4.806261956691741943e-01,4.805262386798858643e-01,4.786532223224639893e-01,4.786667227745056152e-01,4.799844026565551758e-01,4.743163883686065674e-01,4.618043303489685059e-01,4.571269452571868896e-01,4.525868892669677734e-01,4.347419738769531250e-01,4.066280126571655273e-01,4.062574207782745361e-01,3.968428373336791992e-01,3.900143206119537354e-01,3.886764049530029297e-01,4.129998087882995605e-01,4.216797351837158203e-01,4.335769712924957275e-01,4.458965659141540527e-01,4.584551155567169189e-01,4.678133130073547363e-01,4.709776043891906738e-01,4.721228182315826416e-01,4.737212955951690674e-01,4.690913558006286621e-01,4.494667053222656250e-01,4.482602477073669434e-01,4.718579351902008057e-01,4.688231348991394043e-01,4.950143396854400635e-01,4.691029787063598633e-01
4.694048166275024414e-01,4.224067926406860352e-01,4.285286962985992432e-01,3.950446248054504395e-01,3.840773105621337891e-01,3.856449127197265625e-01,3.960584104061126709e-01,3.989964127540588379e-01,4.020268023014068604e-01,4.032216370105743408e-01,4.044341742992401123e-01,4.056484699249267578e-01,4.066710770130157471e-01,4.076177477836608887e-01,4.084159433841705322e-01,4.090044796466827393e-01,4.096107184886932373e-01,4.101046621799468994e-01,4.103175103664398193e-01,4.103616476058959961e-01,4.103714227676391602e-01,4.102740883827209473e-01,4.102029204368591309e-01,4.101305007934570312e-01,4.100676178932189941e-01,4.100091159343719482e-01,4.099509716033935547e-01,4.098933041095733643e-01,4.098355770111083984e-01,4.097779989242553711e-01,4.097202718257904053e-01,4.096625745296478271e-01,4.096051156520843506e-01,4.095475375652313232e-01,4.094899296760559082e-01,4.094322621822357178e-01,4.093748331069946289e-01,4.093171954154968262e-01,4.092598259449005127e-01,4.092022478580474854e-01,4.091446101665496826e-01,4.090874493122100830e-01,4.090299606323242188e-01,4.089725613594055176e-01,4.089153409004211426e-01,4.088579416275024414e-01,4.088006019592285156e-01,4.087399840354919434e-01,4.086525142192840576e-01,4.086273014545440674e-01,4.088394641876220703e-01,4.082691967487335205e-01,4.085910022258758545e-01,4.094043970108032227e-01,4.044955968856811523e-01,3.972613215446472168e-01,3.939858376979827881e-01,3.861224353313446045e-01,3.839177489280700684e-01,3.715621829032897949e-01,3.633668422698974609e-01,3.668646216392517090e-01,3.608717024326324463e-01,3.619324564933776855e-01,3.589127063751220703e-01,3.738628625869750977e-01,3.775382339954376221e-01,3.889024555683135986e-01,3.948472142219543457e-01,3.983391523361206055e-01,4.022110402584075928e-01,4.014806449413299561e-01,4.031755626201629639e-01,4.009498953819274902e-01,3.856149017810821533e-01,3.877142071723937988e-01,4.135351181030273438e-01,4.177308082580566406e-01,4.560326933860778809e-01,4.460675120353698730e-01
4.513882696628570557e-01,3.938170075416564941e-01,3.929812014102935791e-01,3.572891056537628174e-01,3.413607478141784668e-01,3.406535983085632324e-01,3.481020927429199219e-01,3.498218059539794922e-01,3.515152335166931152e-01,3.519333600997924805e-01,3.524499833583831787e-01,3.529170751571655273e-01,3.533988893032073975e-01,3.538370132446289062e-01,3.541328012943267822e-01,3.542287349700927734e-01,3.543041944503784180e-01,3.541796803474426270e-01,3.540257215499877930e-01,3.539664149284362793e-01,3.539451956748962402e-01,3.539111614227294922e-01,3.538563847541809082e-01,3.538030385971069336e-01,3.537618517875671387e-01,3.537203967571258545e-01,3.536792397499084473e-01,3.536380529403686523e-01,3.535967469215393066e-01,3.535556495189666748e-01,3.535145521163940430e-01,3.534736633300781250e-01,3.534322381019592285e-01,3.533913493156433105e-01,3.533502817153930664e-01,3.533092141151428223e-01,3.532683551311492920e-01,3.532273173332214355e-01,3.531861901283264160e-01,3.531452417373657227e-01,3.531043529510498047e-01,3.530632853507995605e-01,3.530224561691284180e-01,3.529815375804901123e-01,3.529404401779174805e-01,3.528996109962463379e-01,3.528587222099304199e-01,3.528105020523071289e-01,3.527582883834838867e-01,3.526086211204528809e-01,3.526785969734191895e-01,3.527619838714599609e-01,3.529094457626342773e-01,3.518784940242767334e-01,3.510465919971466064e-01,3.489018380641937256e-01,3.466095924377441406e-01,3.449791073799133301e-01,3.436236679553985596e-01,3.307610452175140381e-01,3.227775096893310547e-01,3.277169167995452881e-01,3.244813084602355957e-01,3.233844637870788574e-01,3.335856199264526367e-01,3.307023048400878906e-01,3.399012088775634766e-01,3.405107855796813965e-01,3.470174670219421387e-01,3.474130034446716309e-01,3.489572703838348389e-01,3.500204086303710938e-01,3.512721955776214600e-01,3.491071164608001709e-01,3.360692858695983887e-01,3.391669988632202148e-01,3.653434216976165771e-01,3.756993412971496582e-01,4.224563241004943848e-01,4.258248507976531982e-01
4.349663853645324707e-01,3.689433336257934570e-01,3.612751364707946777e-01,3.251642584800720215e-01,3.061296045780181885e-01,3.047571182250976562e-01,3.108616471290588379e-01,3.122512698173522949e-01,3.134086728096008301e-01,3.134238123893737793e-01,3.134093880653381348e-01,3.133993148803710938e-01,3.134745657444000244e-01,3.135653734207153320e-01,3.135962486267089844e-01,3.136115670204162598e-01,3.135720789432525635e-01,3.135202527046203613e-01,3.135371208190917969e-01,3.135228157043457031e-01,3.134651780128479004e-01,3.134200572967529297e-01,3.133860230445861816e-01,3.133573830127716064e-01,3.133265674114227295e-01,3.132967948913574219e-01,3.132671117782592773e-01,3.132371008396148682e-01,3.132072389125823975e-01,3.131773173809051514e-01,3.131474256515502930e-01,3.131178021430969238e-01,3.130879402160644531e-01,3.130581378936767578e-01,3.130282759666442871e-01,3.129982948303222656e-01,3.129686713218688965e-01,3.129387199878692627e-01,3.129091262817382812e-01,3.128793835639953613e-01,3.128495514392852783e-01,3.128196895122528076e-01,3.127899765968322754e-01,3.127604722976684570e-01,3.127304613590240479e-01,3.127009868621826172e-01,3.126712441444396973e-01,3.126462101936340332e-01,3.126119971275329590e-01,3.125931620597839355e-01,3.125011920928955078e-01,3.127796053886413574e-01,3.130126595497131348e-01,3.121046423912048340e-01,3.120975494384765625e-01,3.117671012878417969e-01,3.078328967094421387e-01,3.086151480674743652e-01,3.100103139877319336e-01,3.034269213676452637e-01,3.026565313339233398e-01,2.997227013111114502e-01,2.967088520526885986e-01,2.968350946903228760e-01,2.975663542747497559e-01,3.005449771881103516e-01,3.047760725021362305e-01,3.064371943473815918e-01,3.090623021125793457e-01,3.116159439086914062e-01,3.117213547229766846e-01,3.111135363578796387e-01,3.124788999557495117e-01,3.103376030921936035e-01,2.992176413536071777e-01,3.025549948215484619e-01,3.288328647613525391e-01,3.442018032073974609e-01,3.968380987644195557e-01,4.101082682609558105e-01
4.212131798267364502e-01,3.491298556327819824e-01,3.364105224609375000e-01,2.999972105026245117e-01,2.791736125946044922e-01,2.769971191883087158e-01,2.819517850875854492e-01,2.831174135208129883e-01,2.840009331703186035e-01,2.838917374610900879e-01,2.838517427444458008e-01,2.838495969772338867e-01,2.838331460952758789e-01,2.838155627250671387e-01,2.838013768196105957e-01,2.837636172771453857e-01,2.837240695953369141e-01,2.836945652961730957e-01,2.836697101593017578e-01,2.836351990699768066e-01,2.836084961891174316e-01,2.835867702960968018e-01,2.835642993450164795e-01,2.835418581962585449e-01,2.835207879543304443e-01,2.834991216659545898e-01,2.834774553775787354e-01,2.834557890892028809e-01,2.834342122077941895e-01,2.834125757217407227e-01,2.833908498287200928e-01,2.833693027496337891e-01,2.833476364612579346e-01,2.833260297775268555e-01,2.833043634891510010e-01,2.832827866077423096e-01,2.832611501216888428e-01,2.832396626472473145e-01,2.832178771495819092e-01,2.831964492797851562e-01,2.831748425960540771e-01,2.831534147262573242e-01,2.831317186355590820e-01,2.831102013587951660e-01,2.830886244773864746e-01,2.830669879913330078e-01,2.830455899238586426e-01,2.830240130424499512e-01,2.830055356025695801e-01,2.829493880271911621e-01,2.829961776733398438e-01,2.829298079013824463e-01,2.826274037361145020e-01,2.828355431556701660e-01,2.832946181297302246e-01,2.819839715957641602e-01,2.818317413330078125e-01,2.816454172134399414e-01,2.804389595985412598e-01,2.812856435775756836e-01,2.782178521156311035e-01,2.752313017845153809e-01,2.755267322063446045e-01,2.775207161903381348e-01,2.755014598369598389e-01,2.762126922607421875e-01,2.789865136146545410e-01,2.786716818809509277e-01,2.803461253643035889e-01,2.810755074024200439e-01,2.824190258979797363e-01,2.824838459491729736e-01,2.831213474273681641e-01,2.818105816841125488e-01,2.719533443450927734e-01,2.751066684722900391e-01,3.007516264915466309e-01,3.195700645446777344e-01,3.763043880462646484e-01,3.975832760334014893e-01
4.091781973838806152e-01,3.324940502643585205e-01,3.159826695919036865e-01,2.799531221389770508e-01,2.584265470504760742e-01,2.558359205722808838e-01,2.600298523902893066e-01,2.610234022140502930e-01,2.617962360382080078e-01,2.617113292217254639e-01,2.616707682609558105e-01,2.616486549377441406e-01,2.616286873817443848e-01,2.616130411624908447e-01,2.615966498851776123e-01,2.615794837474822998e-01,2.615635991096496582e-01,2.615483701229095459e-01,2.615309357643127441e-01,2.615136802196502686e-01,2.614969015121459961e-01,2.614816427230834961e-01,2.614652514457702637e-01,2.614489495754241943e-01,2.614327669143676758e-01,2.614161968231201172e-01,2.613998353481292725e-01,2.613831758499145508e-01,2.613668143749237061e-01,2.613502442836761475e-01,2.613338232040405273e-01,2.613172829151153564e-01,2.613008916378021240e-01,2.612844705581665039e-01,2.612681984901428223e-01,2.612513899803161621e-01,2.612351775169372559e-01,2.612186670303344727e-01,2.612023949623107910e-01,2.611857950687408447e-01,2.611691951751708984e-01,2.611530423164367676e-01,2.611365318298339844e-01,2.611201405525207520e-01,2.611038088798522949e-01,2.610874176025390625e-01,2.610709667205810547e-01,2.610549926757812500e-01,2.610406577587127686e-01,2.610267996788024902e-01,2.609970569610595703e-01,2.609897255897521973e-01,2.610428929328918457e-01,2.609519958496093750e-01,2.609406411647796631e-01,2.611265480518341064e-01,2.606728672981262207e-01,2.598472833633422852e-01,2.609001398086547852e-01,2.609249055385589600e-01,2.596727311611175537e-01,2.580186426639556885e-01,2.587955594062805176e-01,2.570614814758300781e-01,2.587686181068420410e-01,2.584941387176513672e-01,2.577502727508544922e-01,2.583436071872711182e-01,2.592962980270385742e-01,2.599936425685882568e-01,2.599557638168334961e-01,2.605187296867370605e-01,2.613361477851867676e-01,2.600719332695007324e-01,2.511365413665771484e-01,2.544406056404113770e-01,2.794681489467620850e-01,3.010020852088928223e-01,3.605900108814239502e-01,3.876359462738037109e-01
3.991116285324096680e-01,3.188940882682800293e-01,2.997300326824188232e-01,2.643905580043792725e-01,2.423076331615447998e-01,2.394199073314666748e-01,2.430805861949920654e-01,2.439710497856140137e-01,2.446622848510742188e-01,2.445991039276123047e-01,2.445667386054992676e-01,2.445518374443054199e-01,2.445373535156250000e-01,2.445233762264251709e-01,2.445085346698760986e-01,2.444943785667419434e-01,2.444807589054107666e-01,2.444675862789154053e-01,2.444541454315185547e-01,2.444406747817993164e-01,2.444280087947845459e-01,2.444150447845458984e-01,2.444023489952087402e-01,2.443894445896148682e-01,2.443767189979553223e-01,2.443636655807495117e-01,2.443509995937347412e-01,2.443379461765289307e-01,2.443250417709350586e-01,2.443121373653411865e-01,2.442992627620697021e-01,2.442864477634429932e-01,2.442733645439147949e-01,2.442607581615447998e-01,2.442478835582733154e-01,2.442350387573242188e-01,2.442220449447631836e-01,2.442090213298797607e-01,2.441962063312530518e-01,2.441833913326263428e-01,2.441706955432891846e-01,2.441577017307281494e-01,2.441449165344238281e-01,2.441318035125732422e-01,2.441191673278808594e-01,2.441065907478332520e-01,2.440934777259826660e-01,2.440813481807708740e-01,2.440688014030456543e-01,2.440525889396667480e-01,2.440419793128967285e-01,2.440383732318878174e-01,2.439991831779479980e-01,2.439148724079132080e-01,2.440054714679718018e-01,2.440713346004486084e-01,2.438163757324218750e-01,2.436021566390991211e-01,2.438507676124572754e-01,2.437620162963867188e-01,2.434759140014648438e-01,2.429955601692199707e-01,2.420512139797210693e-01,2.426432967185974121e-01,2.427191138267517090e-01,2.432198822498321533e-01,2.432950735092163086e-01,2.434235215187072754e-01,2.434329688549041748e-01,2.435613572597503662e-01,2.434557676315307617e-01,2.435903847217559814e-01,2.439731359481811523e-01,2.434277236461639404e-01,2.352594137191772461e-01,2.385574877262115479e-01,2.629377245903015137e-01,2.863715291023254395e-01,3.479847311973571777e-01,3.796848952770233154e-01
3.908102810382843018e-01,3.077802360057830811e-01,2.866295278072357178e-01,2.519698739051818848e-01,2.295342385768890381e-01,2.264072299003601074e-01,2.296733260154724121e-01,2.304632961750030518e-01,2.310851514339447021e-01,2.310302555561065674e-01,2.310031950473785400e-01,2.309927046298980713e-01,2.309823632240295410e-01,2.309718430042266846e-01,2.309616208076477051e-01,2.309515774250030518e-01,2.309411168098449707e-01,2.309307456016540527e-01,2.309204638004302979e-01,2.309099435806274414e-01,2.308994531631469727e-01,2.308892011642456055e-01,2.308788597583770752e-01,2.308684885501861572e-01,2.308581471443176270e-01,2.308477461338043213e-01,2.308374047279357910e-01,2.308267951011657715e-01,2.308167219161987305e-01,2.308062314987182617e-01,2.307960987091064453e-01,2.307856082916259766e-01,2.307753264904022217e-01,2.307649254798889160e-01,2.307545244693756104e-01,2.307444214820861816e-01,2.307337820529937744e-01,2.307236492633819580e-01,2.307132482528686523e-01,2.307029366493225098e-01,2.306925356388092041e-01,2.306822836399078369e-01,2.306720912456512451e-01,2.306616306304931641e-01,2.306513190269470215e-01,2.306408286094665527e-01,2.306306362152099609e-01,2.306203544139862061e-01,2.306106090545654297e-01,2.305997908115386963e-01,2.305881977081298828e-01,2.305784225463867188e-01,2.305631637573242188e-01,2.305515110492706299e-01,2.305915355682373047e-01,2.305614352226257324e-01,2.305476665496826172e-01,2.305108606815338135e-01,2.304985225200653076e-01,2.305273413658142090e-01,2.306118309497833252e-01,2.303082644939422607e-01,2.300395071506500244e-01,2.298206388950347900e-01,2.300776243209838867e-01,2.299977242946624756e-01,2.300985455513000488e-01,2.304286956787109375e-01,2.302994728088378906e-01,2.304064333438873291e-01,2.305535078048706055e-01,2.304046452045440674e-01,2.306499779224395752e-01,2.299625873565673828e-01,2.225897908210754395e-01,2.259313464164733887e-01,2.498138248920440674e-01,2.745962738990783691e-01,3.377306759357452393e-01,3.732006549835205078e-01
3.838113546371459961e-01,2.985791265964508057e-01,2.758311033248901367e-01,2.418465912342071533e-01,2.191914916038513184e-01,2.158590555191040039e-01,2.188147008419036865e-01,2.195161581039428711e-01,2.200825810432434082e-01,2.200346291065216064e-01,2.200117707252502441e-01,2.200034260749816895e-01,2.199947237968444824e-01,2.199862301349639893e-01,2.199778258800506592e-01,2.199691832065582275e-01,2.199606597423553467e-01,2.199522256851196289e-01,2.199437320232391357e-01,2.199351489543914795e-01,2.199268341064453125e-01,2.199182212352752686e-01,2.199099361896514893e-01,2.199012935161590576e-01,2.198927998542785645e-01,2.198842763900756836e-01,2.198756635189056396e-01,2.198672890663146973e-01,2.198589146137237549e-01,2.198504209518432617e-01,2.198418676853179932e-01,2.198335528373718262e-01,2.198248505592346191e-01,2.198165357112884521e-01,2.198079526424407959e-01,2.197995781898498535e-01,2.197908759117126465e-01,2.197825610637664795e-01,2.197741568088531494e-01,2.197656631469726562e-01,2.197572886943817139e-01,2.197485566139221191e-01,2.197404801845550537e-01,2.197316288948059082e-01,2.197233438491821289e-01,2.197147905826568604e-01,2.197063565254211426e-01,2.196978926658630371e-01,2.196896970272064209e-01,2.196811139583587646e-01,2.196717560291290283e-01,2.196637988090515137e-01,2.196552753448486328e-01,2.196453809738159180e-01,2.196384370326995850e-01,2.196348309516906738e-01,2.196250259876251221e-01,2.195907533168792725e-01,2.195526659488677979e-01,2.196030616760253906e-01,2.195849418640136719e-01,2.194629013538360596e-01,2.193678915500640869e-01,2.194311618804931641e-01,2.192567288875579834e-01,2.193986475467681885e-01,2.194848954677581787e-01,2.194754779338836670e-01,2.194793820381164551e-01,2.195485234260559082e-01,2.194525003433227539e-01,2.194321453571319580e-01,2.197975814342498779e-01,2.192238569259643555e-01,2.123459577560424805e-01,2.156689465045928955e-01,2.391594052314758301e-01,2.649287581443786621e-01,3.292300403118133545e-01,3.678082227706909180e-01
3.778379261493682861e-01,2.908449470996856689e-01,2.668078839778900146e-01,2.334596514701843262e-01,2.106596231460571289e-01,2.071498930454254150e-01,2.098538279533386230e-01,2.104774117469787598e-01,2.109948992729187012e-01,2.109528481960296631e-01,2.109329104423522949e-01,2.109258770942687988e-01,2.109187841415405273e-01,2.109117507934570312e-01,2.109046280384063721e-01,2.108973860740661621e-01,2.108904719352722168e-01,2.108834087848663330e-01,2.108762264251708984e-01,2.108691036701202393e-01,2.108622491359710693e-01,2.108550071716308594e-01,2.108479142189025879e-01,2.108408510684967041e-01,2.108338177204132080e-01,2.108268439769744873e-01,2.108196318149566650e-01,2.108127176761627197e-01,2.108055055141448975e-01,2.107985615730285645e-01,2.107913196086883545e-01,2.107842266559600830e-01,2.107773423194885254e-01,2.107702493667602539e-01,2.107633352279663086e-01,2.107561826705932617e-01,2.107491195201873779e-01,2.107419371604919434e-01,2.107349634170532227e-01,2.107279300689697266e-01,2.107206583023071289e-01,2.107136249542236328e-01,2.107067704200744629e-01,2.106997370719909668e-01,2.106928229331970215e-01,2.106854915618896484e-01,2.106786370277404785e-01,2.106716632843017578e-01,2.106645405292510986e-01,2.106573581695556641e-01,2.106504142284393311e-01,2.106429636478424072e-01,2.106357812881469727e-01,2.106292843818664551e-01,2.106218934059143066e-01,2.106159329414367676e-01,2.106077075004577637e-01,2.105966210365295410e-01,2.105971574783325195e-01,2.106103301048278809e-01,2.105945944786071777e-01,2.106067240238189697e-01,2.105593383312225342e-01,2.105472385883331299e-01,2.105099856853485107e-01,2.105103135108947754e-01,2.104893624782562256e-01,2.105252444744110107e-01,2.105314731597900391e-01,2.105364203453063965e-01,2.104991376399993896e-01,2.104797661304473877e-01,2.107470631599426270e-01,2.102921605110168457e-01,2.038770914077758789e-01,2.072049975395202637e-01,2.303381264209747314e-01,2.568518519401550293e-01,3.220626711845397949e-01,3.632459044456481934e-01
3.726809322834014893e-01,2.842519283294677734e-01,2.591626644134521484e-01,2.264001965522766113e-01,2.035078108310699463e-01,1.998431980609893799e-01,2.023403942584991455e-01,2.028955519199371338e-01,2.033718228340148926e-01,2.033343017101287842e-01,2.033168673515319824e-01,2.033107578754425049e-01,2.033050060272216797e-01,2.032989263534545898e-01,2.032930552959442139e-01,2.032870054244995117e-01,2.032810449600219727e-01,2.032751142978668213e-01,2.032690048217773438e-01,2.032628357410430908e-01,2.032572627067565918e-01,2.032511830329895020e-01,2.032451629638671875e-01,2.032390534877777100e-01,2.032331526279449463e-01,2.032271921634674072e-01,2.032212018966674805e-01,2.032153308391571045e-01,2.032094895839691162e-01,2.032034397125244141e-01,2.031973600387573242e-01,2.031912803649902344e-01,2.031853497028350830e-01,2.031795680522918701e-01,2.031735777854919434e-01,2.031673789024353027e-01,2.031614780426025391e-01,2.031556963920593262e-01,2.031496465206146240e-01,2.031435966491699219e-01,2.031379044055938721e-01,2.031317353248596191e-01,2.031257748603820801e-01,2.031198143959045410e-01,2.031138539314270020e-01,2.031077146530151367e-01,2.031019032001495361e-01,2.030959725379943848e-01,2.030899822711944580e-01,2.030840814113616943e-01,2.030780017375946045e-01,2.030721604824066162e-01,2.030662000179290771e-01,2.030605971813201904e-01,2.030544877052307129e-01,2.030481696128845215e-01,2.030424773693084717e-01,2.030358612537384033e-01,2.030284106731414795e-01,2.030236423015594482e-01,2.030239999294281006e-01,2.030139863491058350e-01,2.030113041400909424e-01,2.030029892921447754e-01,2.029931247234344482e-01,2.029835283756256104e-01,2.029725313186645508e-01,2.029720246791839600e-01,2.029704153537750244e-01,2.029620409011840820e-01,2.029596567153930664e-01,2.029251456260681152e-01,2.031593918800354004e-01,2.027944922447204590e-01,1.967620551586151123e-01,2.000908553600311279e-01,2.229240536689758301e-01,2.500063776969909668e-01,3.159356117248535156e-01,3.593338131904602051e-01
3.681842684745788574e-01,2.785662114620208740e-01,2.526069879531860352e-01,2.203802466392517090e-01,1.974320411682128906e-01,1.936309635639190674e-01,1.959564089775085449e-01,1.964511573314666748e-01,1.968917548656463623e-01,1.968584954738616943e-01,1.968428194522857666e-01,1.968378126621246338e-01,1.968325078487396240e-01,1.968276500701904297e-01,1.968223452568054199e-01,1.968172192573547363e-01,1.968122422695159912e-01,1.968071758747100830e-01,1.968018710613250732e-01,1.967967450618743896e-01,1.967916786670684814e-01,1.967865526676177979e-01,1.967813968658447266e-01,1.967762410640716553e-01,1.967712342739105225e-01,1.967661082744598389e-01,1.967609822750091553e-01,1.967559456825256348e-01,1.967507898807525635e-01,1.967456340789794922e-01,1.967405676841735840e-01,1.967353820800781250e-01,1.967304944992065430e-01,1.967253088951110840e-01,1.967201530933380127e-01,1.967150866985321045e-01,1.967099905014038086e-01,1.967049241065979004e-01,1.966998875141143799e-01,1.966948211193084717e-01,1.966895163059234619e-01,1.966844499111175537e-01,1.966793537139892578e-01,1.966743171215057373e-01,1.966692209243774414e-01,1.966640651226043701e-01,1.966589987277984619e-01,1.966537237167358398e-01,1.966487169265747070e-01,1.966437101364135742e-01,1.966384947299957275e-01,1.966334879398345947e-01,1.966281831264495850e-01,1.966231167316436768e-01,1.966181099414825439e-01,1.966132223606109619e-01,1.966078877449035645e-01,1.966026127338409424e-01,1.965971589088439941e-01,1.965917944908142090e-01,1.965875923633575439e-01,1.965822875499725342e-01,1.965776979923248291e-01,1.965736448764801025e-01,1.965702176094055176e-01,1.965635418891906738e-01,1.965596675872802734e-01,1.965544819831848145e-01,1.965484917163848877e-01,1.965422034263610840e-01,1.965369880199432373e-01,1.965069472789764404e-01,1.967172324657440186e-01,1.964201629161834717e-01,1.907118856906890869e-01,1.940357685089111328e-01,2.166069149971008301e-01,2.441326379776000977e-01,3.106371164321899414e-01,3.559415340423583984e-01
3.642295002937316895e-01,2.736134529113769531e-01,2.469272017478942871e-01,2.151887714862823486e-01,1.922100186347961426e-01,1.882885098457336426e-01,1.904682517051696777e-01,1.909101605415344238e-01,1.913204491138458252e-01,1.912901699542999268e-01,1.912761032581329346e-01,1.912717521190643311e-01,1.912671625614166260e-01,1.912628114223480225e-01,1.912583708763122559e-01,1.912539899349212646e-01,1.912497282028198242e-01,1.912452578544616699e-01,1.912408471107482910e-01,1.912365257740020752e-01,1.912318468093872070e-01,1.912275850772857666e-01,1.912230551242828369e-01,1.912184953689575195e-01,1.912140846252441406e-01,1.912097632884979248e-01,1.912053823471069336e-01,1.912010312080383301e-01,1.911965012550354004e-01,1.911922693252563477e-01,1.911877691745758057e-01,1.911832094192504883e-01,1.911789178848266602e-01,1.911745071411132812e-01,1.911700069904327393e-01,1.911657154560089111e-01,1.911612451076507568e-01,1.911567449569702148e-01,1.911523640155792236e-01,1.911478936672210693e-01,1.911433041095733643e-01,1.911391019821166992e-01,1.911347508430480957e-01,1.911303997039794922e-01,1.911259889602661133e-01,1.911216378211975098e-01,1.911171972751617432e-01,1.911127865314483643e-01,1.911082863807678223e-01,1.911039650440216064e-01,1.910995244979858398e-01,1.910951435565948486e-01,1.910907030105590820e-01,1.910863518714904785e-01,1.910820603370666504e-01,1.910775601863861084e-01,1.910730600357055664e-01,1.910687386989593506e-01,1.910642087459564209e-01,1.910599172115325928e-01,1.910553872585296631e-01,1.910511255264282227e-01,1.910467743873596191e-01,1.910422146320343018e-01,1.910380125045776367e-01,1.910336017608642578e-01,1.910290718078613281e-01,1.910248100757598877e-01,1.910202205181121826e-01,1.910158097743988037e-01,1.910107135772705078e-01,1.909845173358917236e-01,1.911749541759490967e-01,1.909349560737609863e-01,1.855057775974273682e-01,1.888259053230285645e-01,2.111621499061584473e-01,2.390384376049041748e-01,3.060090541839599609e-01,3.529712557792663574e-01
3.607227802276611328e-01,2.692646384239196777e-01,2.419612109661102295e-01,2.106679379940032959e-01,1.876759827136993408e-01,1.836449801921844482e-01,1.856975555419921875e-01,1.860924959182739258e-01,1.864759922027587891e-01,1.864485442638397217e-01,1.864358484745025635e-01,1.864321231842041016e-01,1.864280998706817627e-01,1.864243149757385254e-01,1.864203810691833496e-01,1.864166557788848877e-01,1.864125430583953857e-01,1.864087581634521484e-01,1.864050626754760742e-01,1.864011883735656738e-01,1.863974034786224365e-01,1.863934397697448730e-01,1.863895654678344727e-01,1.863856613636016846e-01,1.863818168640136719e-01,1.863778531551361084e-01,1.863741278648376465e-01,1.863703131675720215e-01,1.863663196563720703e-01,1.863624751567840576e-01,1.863587498664855957e-01,1.863548159599304199e-01,1.863510310649871826e-01,1.863470673561096191e-01,1.863432824611663818e-01,1.863393783569335938e-01,1.863355636596679688e-01,1.863317191600799561e-01,1.863280236721038818e-01,1.863239705562591553e-01,1.863201856613159180e-01,1.863164305686950684e-01,1.863122582435607910e-01,1.863085329532623291e-01,1.863046884536743164e-01,1.863008737564086914e-01,1.862970292568206787e-01,1.862931847572326660e-01,1.862893700599670410e-01,1.862856447696685791e-01,1.862816512584686279e-01,1.862779557704925537e-01,1.862740218639373779e-01,1.862701475620269775e-01,1.862662732601165771e-01,1.862624287605285645e-01,1.862585842609405518e-01,1.862546205520629883e-01,1.862510144710540771e-01,1.862471401691436768e-01,1.862433850765228271e-01,1.862394809722900391e-01,1.862356960773468018e-01,1.862317919731140137e-01,1.862280964851379395e-01,1.862240135669708252e-01,1.862201690673828125e-01,1.862165927886962891e-01,1.862126588821411133e-01,1.862087547779083252e-01,1.862040758132934570e-01,1.861808001995086670e-01,1.863546073436737061e-01,1.861625015735626221e-01,1.809774935245513916e-01,1.842919290065765381e-01,2.064210474491119385e-01,2.345719039440155029e-01,3.019205331802368164e-01,3.503386378288269043e-01
3.576379120349884033e-01,2.654609084129333496e-01,2.376336455345153809e-01,2.067425251007080078e-01,1.837379634380340576e-01,1.796109378337860107e-01,1.815587282180786133e-01,1.819120347499847412e-01,1.822724640369415283e-01,1.822473406791687012e-01,1.822353005409240723e-01,1.822318434715270996e-01,1.822286248207092285e-01,1.822251081466674805e-01,1.822218000888824463e-01,1.822183728218078613e-01,1.822148859500885010e-01,1.822113096714019775e-01,1.822080314159393311e-01,1.822046637535095215e-01,1.822013854980468750e-01,1.821978986263275146e-01,1.821945011615753174e-01,1.821911931037902832e-01,1.821877956390380859e-01,1.821844875812530518e-01,1.821809411048889160e-01,1.821776926517486572e-01,1.821741163730621338e-01,1.821708679199218750e-01,1.821675598621368408e-01,1.821639239788055420e-01,1.821606755256652832e-01,1.821570396423339844e-01,1.821537613868713379e-01,1.821506023406982422e-01,1.821469068527221680e-01,1.821434497833251953e-01,1.821403801441192627e-01,1.821368634700775146e-01,1.821334064006805420e-01,1.821301579475402832e-01,1.821265816688537598e-01,1.821232736110687256e-01,1.821200251579284668e-01,1.821165084838867188e-01,1.821131706237792969e-01,1.821097731590270996e-01,1.821064054965972900e-01,1.821029186248779297e-01,1.820996999740600586e-01,1.820964515209197998e-01,1.820928156375885010e-01,1.820895969867706299e-01,1.820860803127288818e-01,1.820827722549438477e-01,1.820794045925140381e-01,1.820759475231170654e-01,1.820724308490753174e-01,1.820692420005798340e-01,1.820657551288604736e-01,1.820623278617858887e-01,1.820588707923889160e-01,1.820556521415710449e-01,1.820524334907531738e-01,1.820489764213562012e-01,1.820455491542816162e-01,1.820420622825622559e-01,1.820385456085205078e-01,1.820353865623474121e-01,1.820312738418579102e-01,1.820101141929626465e-01,1.821691393852233887e-01,1.820172071456909180e-01,1.770419776439666748e-01,1.803446710109710693e-01,2.022842466831207275e-01,2.306707203388214111e-01,2.983127534389495850e-01,3.479950129985809326e-01
3.552462458610534668e-01,2.622948288917541504e-01,2.341435551643371582e-01,2.035861015319824219e-01,1.805853247642517090e-01,1.763876378536224365e-01,1.782725155353546143e-01,1.786177456378936768e-01,1.789582967758178711e-01,1.789337992668151855e-01,1.789232194423675537e-01,1.789198517799377441e-01,1.789170801639556885e-01,1.789138317108154297e-01,1.789107024669647217e-01,1.789080798625946045e-01,1.789048612117767334e-01,1.789017319679260254e-01,1.788987815380096436e-01,1.788957118988037109e-01,1.788927912712097168e-01,1.788897812366485596e-01,1.788867712020874023e-01,1.788837611675262451e-01,1.788806319236755371e-01,1.788777410984039307e-01,1.788745820522308350e-01,1.788716614246368408e-01,1.788687109947204590e-01,1.788656115531921387e-01,1.788624525070190430e-01,1.788597404956817627e-01,1.788564622402191162e-01,1.788534522056579590e-01,1.788504123687744141e-01,1.788476109504699707e-01,1.788445711135864258e-01,1.788414120674133301e-01,1.788383424282073975e-01,1.788354814052581787e-01,1.788325011730194092e-01,1.788293719291687012e-01,1.788264513015747070e-01,1.788234114646911621e-01,1.788203120231628418e-01,1.788173317909240723e-01,1.788143217563629150e-01,1.788114607334136963e-01,1.788083016872406006e-01,1.788052320480346680e-01,1.788021922111511230e-01,1.787993609905242920e-01,1.787962615489959717e-01,1.787930428981781006e-01,1.787902712821960449e-01,1.787872910499572754e-01,1.787841022014617920e-01,1.787812411785125732e-01,1.787779927253723145e-01,1.787751019001007080e-01,1.787720620632171631e-01,1.787690818309783936e-01,1.787661314010620117e-01,1.787630319595336914e-01,1.787601113319396973e-01,1.787572801113128662e-01,1.787540912628173828e-01,1.787510216236114502e-01,1.787479221820831299e-01,1.787450909614562988e-01,1.787413358688354492e-01,1.787223517894744873e-01,1.788702905178070068e-01,1.787469387054443359e-01,1.739455163478851318e-01,1.772534847259521484e-01,1.989206075668334961e-01,2.273631393909454346e-01,2.952060699462890625e-01,3.462717533111572266e-01
3.522585630416870117e-01,2.585265934467315674e-01,2.300041019916534424e-01,1.997269690036773682e-01,1.766585409641265869e-01,1.722875535488128662e-01,1.739272475242614746e-01,1.741957068443298340e-01,1.744956374168395996e-01,1.744754314422607422e-01,1.744657158851623535e-01,1.744630932807922363e-01,1.744605600833892822e-01,1.744577884674072266e-01,1.744553446769714355e-01,1.744525730609893799e-01,1.744500100612640381e-01,1.744473278522491455e-01,1.744445264339447021e-01,1.744417846202850342e-01,1.744392812252044678e-01,1.744367182254791260e-01,1.744340658187866211e-01,1.744315028190612793e-01,1.744288504123687744e-01,1.744260787963867188e-01,1.744235754013061523e-01,1.744206845760345459e-01,1.744180917739868164e-01,1.744155287742614746e-01,1.744130253791809082e-01,1.744102835655212402e-01,1.744075715541839600e-01,1.744049489498138428e-01,1.744022369384765625e-01,1.743996143341064453e-01,1.743970215320587158e-01,1.743944883346557617e-01,1.743916571140289307e-01,1.743892133235931396e-01,1.743864417076110840e-01,1.743839979171752930e-01,1.743811070919036865e-01,1.743784844875335693e-01,1.743759512901306152e-01,1.743732988834381104e-01,1.743705868721008301e-01,1.743679642677307129e-01,1.743652820587158203e-01,1.743626296520233154e-01,1.743598282337188721e-01,1.743575036525726318e-01,1.743547022342681885e-01,1.743520200252532959e-01,1.743495166301727295e-01,1.743469238281250000e-01,1.743443012237548828e-01,1.743416786193847656e-01,1.743390262126922607e-01,1.743362247943878174e-01,1.743336021900177002e-01,1.743308305740356445e-01,1.743282079696655273e-01,1.743257343769073486e-01,1.743230223655700684e-01,1.743203401565551758e-01,1.743179261684417725e-01,1.743152439594268799e-01,1.743124425411224365e-01,1.743098497390747070e-01,1.743066906929016113e-01,1.742889285087585449e-01,1.744316816329956055e-01,1.743101775646209717e-01,1.696811914443969727e-01,1.730764806270599365e-01,1.948022246360778809e-01,2.234553396701812744e-01,2.916904687881469727e-01,3.432710766792297363e-01
3.534525334835052490e-01,2.556059360504150391e-01,2.290338575839996338e-01,1.991986632347106934e-01,1.747836172580718994e-01,1.703475713729858398e-01,1.715840697288513184e-01,1.718495488166809082e-01,1.721450388431549072e-01,1.721251010894775391e-01,1.721167564392089844e-01,1.721145808696746826e-01,1.721119880676269531e-01,1.721097528934478760e-01,1.721072793006896973e-01,1.721051037311553955e-01,1.721028089523315430e-01,1.721003353595733643e-01,1.720979213714599609e-01,1.720953881740570068e-01,1.720931231975555420e-01,1.720908880233764648e-01,1.720885634422302246e-01,1.720861494541168213e-01,1.720837056636810303e-01,1.720813810825347900e-01,1.720790565013885498e-01,1.720766425132751465e-01,1.720742583274841309e-01,1.720718741416931152e-01,1.720697283744812012e-01,1.720669567584991455e-01,1.720648109912872314e-01,1.720626354217529297e-01,1.720601320266723633e-01,1.720578968524932861e-01,1.720554530620574951e-01,1.720530688762664795e-01,1.720506846904754639e-01,1.720481514930725098e-01,1.720459759235382080e-01,1.720436215400695801e-01,1.720413863658905029e-01,1.720387935638427734e-01,1.720364689826965332e-01,1.720341444015502930e-01,1.720316708087921143e-01,1.720294058322906494e-01,1.720271110534667969e-01,1.720247566699981689e-01,1.720222532749176025e-01,1.720200479030609131e-01,1.720176935195922852e-01,1.720153391361236572e-01,1.720129549503326416e-01,1.720107495784759521e-01,1.720081567764282227e-01,1.720057427883148193e-01,1.720034778118133545e-01,1.720012128353118896e-01,1.719987392425537109e-01,1.719963848590850830e-01,1.719943284988403320e-01,1.719917058944702148e-01,1.719893217086791992e-01,1.719871163368225098e-01,1.719846725463867188e-01,1.719824373722076416e-01,1.719800531864166260e-01,1.719775199890136719e-01,1.719753742218017578e-01,1.719553172588348389e-01,1.720602214336395264e-01,1.720530688762664795e-01,1.679032146930694580e-01,1.713140606880187988e-01,1.922469139099121094e-01,2.205638587474822998e-01,2.916413545608520508e-01,3.415906429290771484e-01
