5.884657502174377441e-01,6.138873100280761719e-01,6.564502120018005371e-01,6.572055220603942871e-01,6.807103157043457031e-01,7.049251198768615723e-01,7.412924766540527344e-01,7.627009153366088867e-01,7.834739685058593750e-01,8.021128177642822266e-01,8.199120759963989258e-01,8.364156484603881836e-01,8.513834476470947266e-01,8.647164702415466309e-01,8.763559460639953613e-01,8.859019279479980469e-01,8.929388523101806641e-01,8.976818919181823730e-01,9.009667038917541504e-01,9.031096696853637695e-01,9.043335914611816406e-01,9.050044417381286621e-01,9.052593708038330078e-01,9.053182601928710938e-01,9.053307175636291504e-01,9.053288698196411133e-01,9.053283333778381348e-01,9.053283333778381348e-01,9.053283333778381348e-01,9.053283333778381348e-01,9.053283333778381348e-01,9.053283333778381348e-01,9.053283333778381348e-01,9.053283333778381348e-01,9.053283333778381348e-01,9.053283333778381348e-01,9.053283333778381348e-01,9.053283333778381348e-01,9.053283333778381348e-01,9.053283333778381348e-01,9.053283333778381348e-01,9.053283333778381348e-01,9.053283333778381348e-01,9.053283333778381348e-01,9.053289890289306641e-01,9.053317308425903320e-01,9.053490161895751953e-01,9.057831764221191406e-01,9.056112766265869141e-01,9.010008573532104492e-01,8.923782706260681152e-01,8.805992603302001953e-01,8.635554909706115723e-01,8.339235782623291016e-01,7.786512374877929688e-01,6.601493954658508301e-01,5.714584589004516602e-01,5.235951542854309082e-01,4.630517959594726562e-01,4.272246062755584717e-01,3.967635035514831543e-01,4.101741313934326172e-01,4.320195019245147705e-01,4.557828009128570557e-01,4.816055297851562500e-01,5.382204651832580566e-01,6.273627281188964844e-01,6.726337075233459473e-01,6.816759705543518066e-01,7.023164033889770508e-01,7.145493626594543457e-01,7.327218055725097656e-01,7.415741086006164551e-01,7.424610853195190430e-01,7.411143183708190918e-01,7.614315152168273926e-01,7.588868141174316406e-01,7.432256937026977539e-01,6.986956000328063965e-01,6.063923835754394531e-01
5.884587764739990234e-01,6.138759255409240723e-01,6.564370393753051758e-01,6.571903824806213379e-01,6.806933879852294922e-01,7.049080133438110352e-01,7.412747144699096680e-01,7.626827955245971680e-01,7.834563255310058594e-01,8.020949363708496094e-01,8.198946714401245117e-01,8.364011049270629883e-01,8.513689041137695312e-01,8.647038936614990234e-01,8.763450384140014648e-01,8.858932256698608398e-01,8.929314613342285156e-01,8.976774215698242188e-01,9.009640216827392578e-01,9.031083583831787109e-01,9.043329954147338867e-01,9.050038456916809082e-01,9.052593111991882324e-01,9.053181409835815430e-01,9.053306579589843750e-01,9.053288102149963379e-01,9.053283333778381348e-01,9.053283333778381348e-01,9.053283333778381348e-01,9.053283333778381348e-01,9.053283333778381348e-01,9.053283333778381348e-01,9.053283333778381348e-01,9.053283333778381348e-01,9.053283333778381348e-01,9.053283333778381348e-01,9.053283333778381348e-01,9.053283333778381348e-01,9.053283333778381348e-01,9.053283333778381348e-01,9.053283333778381348e-01,9.053283333778381348e-01,9.053283333778381348e-01,9.053283333778381348e-01,9.053286314010620117e-01,9.053315520286560059e-01,9.053486585617065430e-01,9.057876467704772949e-01,9.056372046470642090e-01,9.010250568389892578e-01,8.918231129646301270e-01,8.814839124679565430e-01,8.629870414733886719e-01,8.395152091979980469e-01,7.820301055908203125e-01,6.618311405181884766e-01,5.858365297317504883e-01,5.342600941658020020e-01,4.680578410625457764e-01,4.229272007942199707e-01,4.108647108078002930e-01,4.187477529048919678e-01,4.387206733226776123e-01,4.687365889549255371e-01,5.054739713668823242e-01,5.609369874000549316e-01,6.434749960899353027e-01,7.104023694992065430e-01,7.375653982162475586e-01,7.412755489349365234e-01,7.405003309249877930e-01,7.367591857910156250e-01,7.644630670547485352e-01,7.533320188522338867e-01,7.380402088165283203e-01,7.456792593002319336e-01,7.685045003890991211e-01,7.405921220779418945e-01,6.932268738746643066e-01,6.006928086280822754e-01
5.884519219398498535e-01,6.138651371002197266e-01,6.564243435859680176e-01,6.571753025054931641e-01,6.806769371032714844e-01,7.048908472061157227e-01,7.412574291229248047e-01,7.626655101776123047e-01,7.834392189979553223e-01,8.020776510238647461e-01,8.198782801628112793e-01,8.363857269287109375e-01,8.513550758361816406e-01,8.646911382675170898e-01,8.763340711593627930e-01,8.858848214149475098e-01,8.929256200790405273e-01,8.976732492446899414e-01,9.009611606597900391e-01,9.031067490577697754e-01,9.043320417404174805e-01,9.050033688545227051e-01,9.052591323852539062e-01,9.053180217742919922e-01,9.053307175636291504e-01,9.053288698196411133e-01,9.053283333778381348e-01,9.053283333778381348e-01,9.053283333778381348e-01,9.053283333778381348e-01,9.053283333778381348e-01,9.053283333778381348e-01,9.053283333778381348e-01,9.053283333778381348e-01,9.053283333778381348e-01,9.053283333778381348e-01,9.053283333778381348e-01,9.053283333778381348e-01,9.053283333778381348e-01,9.053283333778381348e-01,9.053283333778381348e-01,9.053283333778381348e-01,9.053283333778381348e-01,9.053283333778381348e-01,9.053283929824829102e-01,9.053332209587097168e-01,9.053559303283691406e-01,9.058460593223571777e-01,9.056940674781799316e-01,9.012814164161682129e-01,8.928868770599365234e-01,8.825253844261169434e-01,8.652931451797485352e-01,8.420406579971313477e-01,7.800824046134948730e-01,6.764760613441467285e-01,5.898215174674987793e-01,5.454974174499511719e-01,4.871140718460083008e-01,4.412915110588073730e-01,4.189328551292419434e-01,4.098237156867980957e-01,4.484100937843322754e-01,4.862833321094512939e-01,5.314472317695617676e-01,5.772558450698852539e-01,6.598101258277893066e-01,7.222362756729125977e-01,7.676746845245361328e-01,7.806026935577392578e-01,7.727412581443786621e-01,7.685952186584472656e-01,7.700643539428710938e-01,7.745032310485839844e-01,7.446222305297851562e-01,7.371336817741394043e-01,7.546476721763610840e-01,7.428197264671325684e-01,6.969624757766723633e-01,5.954397320747375488e-01
5.884453058242797852e-01,6.138542890548706055e-01,6.564115285873413086e-01,6.571604609489440918e-01,6.806606650352478027e-01,7.048739194869995117e-01,7.412405014038085938e-01,7.626485824584960938e-01,7.834221124649047852e-01,8.020607233047485352e-01,8.198622465133666992e-01,8.363704681396484375e-01,8.513411879539489746e-01,8.646788597106933594e-01,8.763232231140136719e-01,8.858760595321655273e-01,8.929196596145629883e-01,8.976691961288452148e-01,9.009581804275512695e-01,9.031050801277160645e-01,9.043311476707458496e-01,9.050028324127197266e-01,9.052590131759643555e-01,9.053180217742919922e-01,9.053307175636291504e-01,9.053288698196411133e-01,9.053283333778381348e-01,9.053283333778381348e-01,9.053283333778381348e-01,9.053283333778381348e-01,9.053283333778381348e-01,9.053283333778381348e-01,9.053283333778381348e-01,9.053283333778381348e-01,9.053283333778381348e-01,9.053283333778381348e-01,9.053283333778381348e-01,9.053283333778381348e-01,9.053283333778381348e-01,9.053283333778381348e-01,9.053283333778381348e-01,9.053283333778381348e-01,9.053283333778381348e-01,9.053283333778381348e-01,9.053283333778381348e-01,9.053351879119873047e-01,9.053554534912109375e-01,9.058247208595275879e-01,9.055784940719604492e-01,9.010152220726013184e-01,8.927690386772155762e-01,8.829872012138366699e-01,8.705476522445678711e-01,8.470499515533447266e-01,7.837674617767333984e-01,6.996169090270996094e-01,5.926743745803833008e-01,5.709688663482666016e-01,5.124307870864868164e-01,4.573999047279357910e-01,4.191585779190063477e-01,4.203257560729980469e-01,4.577218592166900635e-01,4.886381030082702637e-01,5.421769618988037109e-01,6.037988662719726562e-01,6.813197135925292969e-01,7.470381259918212891e-01,7.772285938262939453e-01,8.117153644561767578e-01,8.113451004028320312e-01,7.911800146102905273e-01,7.759569883346557617e-01,7.846792936325073242e-01,7.663775682449340820e-01,7.525674104690551758e-01,7.600771784782409668e-01,7.460694909095764160e-01,6.984318494796752930e-01,5.999976992607116699e-01
5.884391665458679199e-01,6.138440370559692383e-01,6.563994884490966797e-01,6.571459770202636719e-01,6.806446909904479980e-01,7.048576474189758301e-01,7.412238121032714844e-01,7.626317739486694336e-01,7.834053635597229004e-01,8.020442724227905273e-01,8.198463916778564453e-01,8.363558053970336914e-01,8.513278961181640625e-01,8.646665811538696289e-01,8.763123750686645508e-01,8.858674168586730957e-01,8.929135203361511230e-01,8.976653218269348145e-01,9.009552597999572754e-01,9.031033515930175781e-01,9.043302536010742188e-01,9.050022363662719727e-01,9.052590727806091309e-01,9.053180217742919922e-01,9.053307175636291504e-01,9.053288698196411133e-01,9.053283333778381348e-01,9.053283333778381348e-01,9.053283333778381348e-01,9.053283333778381348e-01,9.053283333778381348e-01,9.053283333778381348e-01,9.053283333778381348e-01,9.053283333778381348e-01,9.053283333778381348e-01,9.053283333778381348e-01,9.053283333778381348e-01,9.053283333778381348e-01,9.053283333778381348e-01,9.053283333778381348e-01,9.053283333778381348e-01,9.053283333778381348e-01,9.053283333778381348e-01,9.053283333778381348e-01,9.053283333778381348e-01,9.053335189819335938e-01,9.053524732589721680e-01,9.057087898254394531e-01,9.056484103202819824e-01,9.012416601181030273e-01,8.927642107009887695e-01,8.859272003173828125e-01,8.716573715209960938e-01,8.499008417129516602e-01,7.995644807815551758e-01,7.054986953735351562e-01,6.386392712593078613e-01,5.790914893150329590e-01,5.203834176063537598e-01,4.639515578746795654e-01,4.358223676681518555e-01,4.386155009269714355e-01,4.741375446319580078e-01,5.002177953720092773e-01,5.521445274353027344e-01,6.292202472686767578e-01,6.987099647521972656e-01,7.559638619422912598e-01,7.911117672920227051e-01,8.197931051254272461e-01,8.398615121841430664e-01,8.304560184478759766e-01,8.094320297241210938e-01,7.848967313766479492e-01,7.838710546493530273e-01,7.750506401062011719e-01,7.699675559997558594e-01,7.495799064636230469e-01,7.027522921562194824e-01,6.007569432258605957e-01
5.884336829185485840e-01,6.138346791267395020e-01,6.563881635665893555e-01,6.571322679519653320e-01,6.806292533874511719e-01,7.048416733741760254e-01,7.412075996398925781e-01,7.626155614852905273e-01,7.833890914916992188e-01,8.020278215408325195e-01,8.198310732841491699e-01,8.363412618637084961e-01,8.513145446777343750e-01,8.646547794342041016e-01,8.763021230697631836e-01,8.858591318130493164e-01,8.929077386856079102e-01,8.976614475250244141e-01,9.009524583816528320e-01,9.031016230583190918e-01,9.043291807174682617e-01,9.050017595291137695e-01,9.052589535713195801e-01,9.053180217742919922e-01,9.053307175636291504e-01,9.053288698196411133e-01,9.053283333778381348e-01,9.053283333778381348e-01,9.053283333778381348e-01,9.053283333778381348e-01,9.053283333778381348e-01,9.053283333778381348e-01,9.053283333778381348e-01,9.053283333778381348e-01,9.053283333778381348e-01,9.053283333778381348e-01,9.053283333778381348e-01,9.053283333778381348e-01,9.053283333778381348e-01,9.053283333778381348e-01,9.053283333778381348e-01,9.053283333778381348e-01,9.053283333778381348e-01,9.053283333778381348e-01,9.053283333778381348e-01,9.053319692611694336e-01,9.053372144699096680e-01,9.056099653244018555e-01,9.057979583740234375e-01,9.014654159545898438e-01,8.954472541809082031e-01,8.904088735580444336e-01,8.777389526367187500e-01,8.542726039886474609e-01,8.092159032821655273e-01,7.113075256347656250e-01,6.700178980827331543e-01,5.978354215621948242e-01,5.478267073631286621e-01,4.955613315105438232e-01,4.691994190216064453e-01,4.644747972488403320e-01,4.740356206893920898e-01,5.086030960083007812e-01,5.719312429428100586e-01,6.453516483306884766e-01,7.165963053703308105e-01,7.731683254241943359e-01,8.041335940361022949e-01,8.327318429946899414e-01,8.397215604782104492e-01,8.504507541656494141e-01,8.367311358451843262e-01,8.155638575553894043e-01,7.856369018554687500e-01,7.844048738479614258e-01,7.826167345046997070e-01,7.581043839454650879e-01,7.113434076309204102e-01,6.080915927886962891e-01
5.884287953376770020e-01,6.138262152671813965e-01,6.563781499862670898e-01,6.571199893951416016e-01,6.806153059005737305e-01,7.048268914222717285e-01,7.411923408508300781e-01,7.625998258590698242e-01,7.833733558654785156e-01,8.020122051239013672e-01,8.198158740997314453e-01,8.363275527954101562e-01,8.513017892837524414e-01,8.646433353424072266e-01,8.762920498847961426e-01,8.858511447906494141e-01,8.929021358489990234e-01,8.976576924324035645e-01,9.009497165679931641e-01,9.031000733375549316e-01,9.043283462524414062e-01,9.050014019012451172e-01,9.052587747573852539e-01,9.053179025650024414e-01,9.053307771682739258e-01,9.053288698196411133e-01,9.053283333778381348e-01,9.053283333778381348e-01,9.053283333778381348e-01,9.053283333778381348e-01,9.053283333778381348e-01,9.053283333778381348e-01,9.053283333778381348e-01,9.053283333778381348e-01,9.053283333778381348e-01,9.053283333778381348e-01,9.053283333778381348e-01,9.053283333778381348e-01,9.053283333778381348e-01,9.053283333778381348e-01,9.053283333778381348e-01,9.053283333778381348e-01,9.053283333778381348e-01,9.053283333778381348e-01,9.053283333778381348e-01,9.053277969360351562e-01,9.053339958190917969e-01,9.056646227836608887e-01,9.061181545257568359e-01,9.021879434585571289e-01,8.989931941032409668e-01,8.923900723457336426e-01,8.839608430862426758e-01,8.622169494628906250e-01,8.254337310791015625e-01,7.428097724914550781e-01,6.803267002105712891e-01,6.606248617172241211e-01,6.074788570404052734e-01,5.424841046333312988e-01,4.911116659641265869e-01,4.809217751026153564e-01,4.910069704055786133e-01,5.296152830123901367e-01,5.867866277694702148e-01,6.591418981552124023e-01,7.380322813987731934e-01,7.927722930908203125e-01,8.196886777877807617e-01,8.407417535781860352e-01,8.542678952217102051e-01,8.571766018867492676e-01,8.549197912216186523e-01,8.332265615463256836e-01,7.962727546691894531e-01,7.879153490066528320e-01,7.888521552085876465e-01,7.672103643417358398e-01,7.212896347045898438e-01,6.152887344360351562e-01
5.884242057800292969e-01,6.138188838958740234e-01,6.563689708709716797e-01,6.571095585823059082e-01,6.806029677391052246e-01,7.048136591911315918e-01,7.411783933639526367e-01,7.625855207443237305e-01,7.833583354949951172e-01,8.019972443580627441e-01,8.198015093803405762e-01,8.363140821456909180e-01,8.512893915176391602e-01,8.646323680877685547e-01,8.762819766998291016e-01,8.858431577682495117e-01,8.928964138031005859e-01,8.976540565490722656e-01,9.009469747543334961e-01,9.030987024307250977e-01,9.043275713920593262e-01,9.050009250640869141e-01,9.052587747573852539e-01,9.053179025650024414e-01,9.053307771682739258e-01,9.053288698196411133e-01,9.053283333778381348e-01,9.053283333778381348e-01,9.053283333778381348e-01,9.053283333778381348e-01,9.053283333778381348e-01,9.053283333778381348e-01,9.053283333778381348e-01,9.053283333778381348e-01,9.053283333778381348e-01,9.053283333778381348e-01,9.053283333778381348e-01,9.053283333778381348e-01,9.053283333778381348e-01,9.053283333778381348e-01,9.053283333778381348e-01,9.053283333778381348e-01,9.053283333778381348e-01,9.053283333778381348e-01,9.053283333778381348e-01,9.053236842155456543e-01,9.053277969360351562e-01,9.056290388107299805e-01,9.061203002929687500e-01,9.033392667770385742e-01,8.990545272827148438e-01,8.956772089004516602e-01,8.915907740592956543e-01,8.734980821609497070e-01,8.454246520996093750e-01,7.752487659454345703e-01,7.307422161102294922e-01,7.080665230751037598e-01,6.584563851356506348e-01,5.953151583671569824e-01,5.342985987663269043e-01,5.217888951301574707e-01,5.055435895919799805e-01,5.545125603675842285e-01,6.009359359741210938e-01,6.867431402206420898e-01,7.515110969543457031e-01,8.054643869400024414e-01,8.313465118408203125e-01,8.512589931488037109e-01,8.591593503952026367e-01,8.612896203994750977e-01,8.576764464378356934e-01,8.467522859573364258e-01,8.177585601806640625e-01,7.932328581809997559e-01,7.891373634338378906e-01,7.674545049667358398e-01,7.215600609779357910e-01,6.170697212219238281e-01
5.884199738502502441e-01,6.138117909431457520e-01,6.563603281974792480e-01,6.570996046066284180e-01,6.805919408798217773e-01,7.048022747039794922e-01,7.411664724349975586e-01,7.625727653503417969e-01,7.833449840545654297e-01,8.019833564758300781e-01,8.197878599166870117e-01,8.363012075424194336e-01,8.512777090072631836e-01,8.646217584609985352e-01,8.762727975845336914e-01,8.858354091644287109e-01,8.928911685943603516e-01,8.976504802703857422e-01,9.009443521499633789e-01,9.030970931053161621e-01,9.043265581130981445e-01,9.050004482269287109e-01,9.052586555480957031e-01,9.053179025650024414e-01,9.053307771682739258e-01,9.053288698196411133e-01,9.053283333778381348e-01,9.053283333778381348e-01,9.053283333778381348e-01,9.053283333778381348e-01,9.053283333778381348e-01,9.053283333778381348e-01,9.053283333778381348e-01,9.053283333778381348e-01,9.053283333778381348e-01,9.053283333778381348e-01,9.053283333778381348e-01,9.053283333778381348e-01,9.053283333778381348e-01,9.053283333778381348e-01,9.053283333778381348e-01,9.053283333778381348e-01,9.053283333778381348e-01,9.053283333778381348e-01,9.053283333778381348e-01,9.053229093551635742e-01,9.053314924240112305e-01,9.058407545089721680e-01,9.066342115402221680e-01,9.036288857460021973e-01,9.004788994789123535e-01,8.988690376281738281e-01,8.913151025772094727e-01,8.801332712173461914e-01,8.601758480072021484e-01,8.141939640045166016e-01,7.897063493728637695e-01,7.482018470764160156e-01,7.077146172523498535e-01,6.501289606094360352e-01,5.816812515258789062e-01,5.702304244041442871e-01,5.404009819030761719e-01,5.878466367721557617e-01,6.438414454460144043e-01,6.947259902954101562e-01,7.644240260124206543e-01,8.162963986396789551e-01,8.450511097908020020e-01,8.609417676925659180e-01,8.694095611572265625e-01,8.691126704216003418e-01,8.644428253173828125e-01,8.514456748962402344e-01,8.195812702178955078e-01,8.006493449211120605e-01,7.929096817970275879e-01,7.670062780380249023e-01,7.179802656173706055e-01,6.178549528121948242e-01
5.884152650833129883e-01,6.138043403625488281e-01,6.563522815704345703e-01,6.570906043052673340e-01,6.805817484855651855e-01,7.047914266586303711e-01,7.411554455757141113e-01,7.625616192817687988e-01,7.833334207534790039e-01,8.019711971282958984e-01,8.197759389877319336e-01,8.362894058227539062e-01,8.512663841247558594e-01,8.646115064620971680e-01,8.762638568878173828e-01,8.858284950256347656e-01,8.928860425949096680e-01,8.976471424102783203e-01,9.009419679641723633e-01,9.030955433845520020e-01,9.043257236480712891e-01,9.050000905990600586e-01,9.052585363388061523e-01,9.053179025650024414e-01,9.053307175636291504e-01,9.053288698196411133e-01,9.053283333778381348e-01,9.053283333778381348e-01,9.053283333778381348e-01,9.053283333778381348e-01,9.053283333778381348e-01,9.053283333778381348e-01,9.053283333778381348e-01,9.053283333778381348e-01,9.053283333778381348e-01,9.053283333778381348e-01,9.053283333778381348e-01,9.053283333778381348e-01,9.053283333778381348e-01,9.053283333778381348e-01,9.053283333778381348e-01,9.053283333778381348e-01,9.053283333778381348e-01,9.053283333778381348e-01,9.053283333778381348e-01,9.053254723548889160e-01,9.053161144256591797e-01,9.058482646942138672e-01,9.064471721649169922e-01,9.029578566551208496e-01,9.025424718856811523e-01,9.042062759399414062e-01,8.981729745864868164e-01,8.914753794670104980e-01,8.668969869613647461e-01,8.408161997795104980e-01,8.141856193542480469e-01,7.888648509979248047e-01,7.580875158309936523e-01,6.985378265380859375e-01,6.288660764694213867e-01,6.045992970466613770e-01,5.802977085113525391e-01,6.050788164138793945e-01,6.692972183227539062e-01,7.153402566909790039e-01,7.761342525482177734e-01,8.233513236045837402e-01,8.531899452209472656e-01,8.669041395187377930e-01,8.735915422439575195e-01,8.719781637191772461e-01,8.661293387413024902e-01,8.560512065887451172e-01,8.284080028533935547e-01,8.060125708580017090e-01,7.976024150848388672e-01,7.706335186958312988e-01,7.188391089439392090e-01,6.133960485458374023e-01
5.884100198745727539e-01,6.137965321540832520e-01,6.563437581062316895e-01,6.570805311203002930e-01,6.805713772773742676e-01,7.047811746597290039e-01,7.411450743675231934e-01,7.625513076782226562e-01,7.833228111267089844e-01,8.019605875015258789e-01,8.197655677795410156e-01,8.362792134284973145e-01,8.512564897537231445e-01,8.646023869514465332e-01,8.762555718421936035e-01,8.858218193054199219e-01,8.928811550140380859e-01,8.976440429687500000e-01,9.009395837783813477e-01,9.030944108963012695e-01,9.043250083923339844e-01,9.049996137619018555e-01,9.052584171295166016e-01,9.053179025650024414e-01,9.053307771682739258e-01,9.053288698196411133e-01,9.053283333778381348e-01,9.053283333778381348e-01,9.053283333778381348e-01,9.053283333778381348e-01,9.053283333778381348e-01,9.053283333778381348e-01,9.053283333778381348e-01,9.053283333778381348e-01,9.053283333778381348e-01,9.053283333778381348e-01,9.053283333778381348e-01,9.053283333778381348e-01,9.053283333778381348e-01,9.053283333778381348e-01,9.053283333778381348e-01,9.053283333778381348e-01,9.053283333778381348e-01,9.053283333778381348e-01,9.053283333778381348e-01,9.053292274475097656e-01,9.053092002868652344e-01,9.057878255844116211e-01,9.056061506271362305e-01,9.035044312477111816e-01,9.032007455825805664e-01,9.049947261810302734e-01,9.009019136428833008e-01,8.972719907760620117e-01,8.807348012924194336e-01,8.571642637252807617e-01,8.377065658569335938e-01,8.165199160575866699e-01,7.808554172515869141e-01,7.236935496330261230e-01,6.655249595642089844e-01,6.199694871902465820e-01,6.059411168098449707e-01,6.256684064865112305e-01,6.792071461677551270e-01,7.456642389297485352e-01,7.946337461471557617e-01,8.276438713073730469e-01,8.560591936111450195e-01,8.720451593399047852e-01,8.787480592727661133e-01,8.765552043914794922e-01,8.684226870536804199e-01,8.567743301391601562e-01,8.287837505340576172e-01,8.058651685714721680e-01,7.992129325866699219e-01,7.750111818313598633e-01,7.217505574226379395e-01,6.164091825485229492e-01
5.884046554565429688e-01,6.137878894805908203e-01,6.563340425491333008e-01,6.570695638656616211e-01,6.805602908134460449e-01,7.047699093818664551e-01,7.411342859268188477e-01,7.625409364700317383e-01,7.833129167556762695e-01,8.019505143165588379e-01,8.197556734085083008e-01,8.362696170806884766e-01,8.512472510337829590e-01,8.645935058593750000e-01,8.762475848197937012e-01,8.858152031898498535e-01,8.928759098052978516e-01,8.976398706436157227e-01,9.009362459182739258e-01,9.030915498733520508e-01,9.043227434158325195e-01,9.049974679946899414e-01,9.052566885948181152e-01,9.053159356117248535e-01,9.053288698196411133e-01,9.053270220756530762e-01,9.053264856338500977e-01,9.053264856338500977e-01,9.053264856338500977e-01,9.053264856338500977e-01,9.053264856338500977e-01,9.053264260292053223e-01,9.053264856338500977e-01,9.053264260292053223e-01,9.053264260292053223e-01,9.053264260292053223e-01,9.053263664245605469e-01,9.053264260292053223e-01,9.053264260292053223e-01,9.053263664245605469e-01,9.053263664245605469e-01,9.053263664245605469e-01,9.053263664245605469e-01,9.053262472152709961e-01,9.053262472152709961e-01,9.053233861923217773e-01,9.053057432174682617e-01,9.056569337844848633e-01,9.052368402481079102e-01,9.046553373336791992e-01,9.060684442520141602e-01,9.069660902023315430e-01,9.025920629501342773e-01,8.990278840065002441e-01,8.857266902923583984e-01,8.692060708999633789e-01,8.481087684631347656e-01,8.280909061431884766e-01,8.004846572875976562e-01,7.529759407043457031e-01,6.853352189064025879e-01,6.363215446472167969e-01,6.259486079216003418e-01,6.339321732521057129e-01,7.004833221435546875e-01,7.596667408943176270e-01,8.083717226982116699e-01,8.329113125801086426e-01,8.594911694526672363e-01,8.723926544189453125e-01,8.808822631835937500e-01,8.787587881088256836e-01,8.695518374443054199e-01,8.588148355484008789e-01,8.300169110298156738e-01,8.081666231155395508e-01,8.016069531440734863e-01,7.749617099761962891e-01,7.215495705604553223e-01,6.159405112266540527e-01
5.883989334106445312e-01,6.137783527374267578e-01,6.563231348991394043e-01,6.570565104484558105e-01,6.805449724197387695e-01,7.047536373138427734e-01,7.411179542541503906e-01,7.625246644020080566e-01,7.832965850830078125e-01,8.019343614578247070e-01,8.197402954101562500e-01,8.362545967102050781e-01,8.512319326400756836e-01,8.645793795585632324e-01,8.762345910072326660e-01,8.858036994934082031e-01,8.928657770156860352e-01,8.976314067840576172e-01,9.009282588958740234e-01,9.030839204788208008e-01,9.043152332305908203e-01,9.049903154373168945e-01,9.052499532699584961e-01,9.053096175193786621e-01,9.053227901458740234e-01,9.053210020065307617e-01,9.053205251693725586e-01,9.053205251693725586e-01,9.053205251693725586e-01,9.053205847740173340e-01,9.053205847740173340e-01,9.053206443786621094e-01,9.053206443786621094e-01,9.053207635879516602e-01,9.053207635879516602e-01,9.053207635879516602e-01,9.053208827972412109e-01,9.053208827972412109e-01,9.053208827972412109e-01,9.053208827972412109e-01,9.053210020065307617e-01,9.053211212158203125e-01,9.053211212158203125e-01,9.053211212158203125e-01,9.053212404251098633e-01,9.053162336349487305e-01,9.052979350090026855e-01,9.053803682327270508e-01,9.054160118103027344e-01,9.048513770103454590e-01,9.065624475479125977e-01,9.062530398368835449e-01,9.010276794433593750e-01,8.997282981872558594e-01,8.862370252609252930e-01,8.788093328475952148e-01,8.616137504577636719e-01,8.410966992378234863e-01,8.030042648315429688e-01,7.505807876586914062e-01,6.861282587051391602e-01,6.300011873245239258e-01,6.419368982315063477e-01,6.615820527076721191e-01,7.036501169204711914e-01,7.697915434837341309e-01,8.149571418762207031e-01,8.434393405914306641e-01,8.639750480651855469e-01,8.786189556121826172e-01,8.828747272491455078e-01,8.801072835922241211e-01,8.706547021865844727e-01,8.580823540687561035e-01,8.301213979721069336e-01,8.094977140426635742e-01,8.012057542800903320e-01,7.751258611679077148e-01,7.227656245231628418e-01,6.163252592086791992e-01
5.883880853652954102e-01,6.137647032737731934e-01,6.563071012496948242e-01,6.570428609848022461e-01,6.805315017700195312e-01,7.047392129898071289e-01,7.411048412322998047e-01,7.625170350074768066e-01,7.832959890365600586e-01,8.019417524337768555e-01,8.197584152221679688e-01,8.362860083580017090e-01,8.512828350067138672e-01,8.646472096443176270e-01,8.763042688369750977e-01,8.858630061149597168e-01,8.929133415222167969e-01,8.976703882217407227e-01,9.009685516357421875e-01,9.031347036361694336e-01,9.043724536895751953e-01,9.050531387329101562e-01,9.053155779838562012e-01,9.053769111633300781e-01,9.053904414176940918e-01,9.053887128829956055e-01,9.053885936737060547e-01,9.053888320922851562e-01,9.053890705108642578e-01,9.053894281387329102e-01,9.053896665573120117e-01,9.053899049758911133e-01,9.053901433944702148e-01,9.053905010223388672e-01,9.053906202316284180e-01,9.053910970687866211e-01,9.053912758827209473e-01,9.053915143013000488e-01,9.053918123245239258e-01,9.053920507431030273e-01,9.053922295570373535e-01,9.053925871849060059e-01,9.053927659988403320e-01,9.053931236267089844e-01,9.053934216499328613e-01,9.053930044174194336e-01,9.053661227226257324e-01,9.053374528884887695e-01,9.057532548904418945e-01,9.057589173316955566e-01,9.066523313522338867e-01,9.053043127059936523e-01,9.046837091445922852e-01,9.011265635490417480e-01,8.876328468322753906e-01,8.764187097549438477e-01,8.659492731094360352e-01,8.355250358581542969e-01,8.027595281600952148e-01,7.510418891906738281e-01,6.904497146606445312e-01,6.339389085769653320e-01,6.406786441802978516e-01,6.699792742729187012e-01,7.043269872665405273e-01,7.807264328002929688e-01,8.181899189949035645e-01,8.485798835754394531e-01,8.695632219314575195e-01,8.807890415191650391e-01,8.830939531326293945e-01,8.799907565116882324e-01,8.706561326980590820e-01,8.585782051086425781e-01,8.298846483230590820e-01,8.088626265525817871e-01,8.012798428535461426e-01,7.753131389617919922e-01,7.225552201271057129e-01,6.164074540138244629e-01
5.883948802947998047e-01,6.137732863426208496e-01,6.563138961791992188e-01,6.570608615875244141e-01,6.805602908134460449e-01,7.048007249832153320e-01,7.412179708480834961e-01,7.626783847808837891e-01,7.834836244583129883e-01,8.021419048309326172e-01,8.199602365493774414e-01,8.364855647087097168e-01,8.514598011970520020e-01,8.647924661636352539e-01,8.764213323593139648e-01,8.859447240829467773e-01,8.929834365844726562e-01,8.977723717689514160e-01,9.010931253433227539e-01,9.032581448554992676e-01,9.044928550720214844e-01,9.051687121391296387e-01,9.054247140884399414e-01,9.054827690124511719e-01,9.054937362670898438e-01,9.054912328720092773e-01,9.054898619651794434e-01,9.054889678955078125e-01,9.054880738258361816e-01,9.054872989654541016e-01,9.054865241050720215e-01,9.054855704307556152e-01,9.054847359657287598e-01,9.054837822914123535e-01,9.054828882217407227e-01,9.054820537567138672e-01,9.054811000823974609e-01,9.054803848266601562e-01,9.054794311523437500e-01,9.054787158966064453e-01,9.054777622222900391e-01,9.054768681526184082e-01,9.054758548736572266e-01,9.054751396179199219e-01,9.054743051528930664e-01,9.054712057113647461e-01,9.054523706436157227e-01,9.054292440414428711e-01,9.055372476577758789e-01,9.058614373207092285e-01,9.056635499000549316e-01,9.045232534408569336e-01,9.051392078399658203e-01,8.992031812667846680e-01,8.891096115112304688e-01,8.829348087310791016e-01,8.680407404899597168e-01,8.338427543640136719e-01,7.912244796752929688e-01,7.441398501396179199e-01,6.695921421051025391e-01,6.365553140640258789e-01,6.420921087265014648e-01,6.611690521240234375e-01,7.153912782669067383e-01,7.752376794815063477e-01,8.258675336837768555e-01,8.513129949569702148e-01,8.686476945877075195e-01,8.825750946998596191e-01,8.838764429092407227e-01,8.802251815795898438e-01,8.708401322364807129e-01,8.586267232894897461e-01,8.301355838775634766e-01,8.091541528701782227e-01,8.015410900115966797e-01,7.755305171012878418e-01,7.228093147277832031e-01,6.167897582054138184e-01
5.885775089263916016e-01,6.139507293701171875e-01,6.565673947334289551e-01,6.573172211647033691e-01,6.808092594146728516e-01,7.049656510353088379e-01,7.413064241409301758e-01,7.626909017562866211e-01,7.833567857742309570e-01,8.018844127655029297e-01,8.195855617523193359e-01,8.359760642051696777e-01,8.508597016334533691e-01,8.641107082366943359e-01,8.756405115127563477e-01,8.851380348205566406e-01,8.922110795974731445e-01,8.969810009002685547e-01,9.002737998962402344e-01,9.024296402931213379e-01,9.036751389503479004e-01,9.043314456939697266e-01,9.045726656913757324e-01,9.046296477317810059e-01,9.046417474746704102e-01,9.046393036842346191e-01,9.046378731727600098e-01,9.046370983123779297e-01,9.046360254287719727e-01,9.046351909637451172e-01,9.046342372894287109e-01,9.046334028244018555e-01,9.046324491500854492e-01,9.046316146850585938e-01,9.046306610107421875e-01,9.046298265457153320e-01,9.046287536621093750e-01,9.046279788017272949e-01,9.046270251274108887e-01,9.046259522438049316e-01,9.046252369880676270e-01,9.046243429183959961e-01,9.046233892440795898e-01,9.046225547790527344e-01,9.046215415000915527e-01,9.046208858489990234e-01,9.046126008033752441e-01,9.046350121498107910e-01,9.046970605850219727e-01,9.048365354537963867e-01,9.049969911575317383e-01,9.046443700790405273e-01,9.041228294372558594e-01,8.981256484985351562e-01,8.875001668930053711e-01,8.795806169509887695e-01,8.622492551803588867e-01,8.306349515914916992e-01,7.869669198989868164e-01,7.224336266517639160e-01,6.619998216629028320e-01,6.405964493751525879e-01,6.258506774902343750e-01,6.492373347282409668e-01,7.085136771202087402e-01,7.706101536750793457e-01,8.192530870437622070e-01,8.483924865722656250e-01,8.671731948852539062e-01,8.796607255935668945e-01,8.819009065628051758e-01,8.779443502426147461e-01,8.704094290733337402e-01,8.578333854675292969e-01,8.292719125747680664e-01,8.083073496818542480e-01,8.009107708930969238e-01,7.746572494506835938e-01,7.219787836074829102e-01,6.162481307983398438e-01
5.889349579811096191e-01,6.138235926628112793e-01,6.562410593032836914e-01,6.566765904426574707e-01,6.799240112304687500e-01,7.037630081176757812e-01,7.398910522460937500e-01,7.610046267509460449e-01,7.815121412277221680e-01,7.999091744422912598e-01,8.175224661827087402e-01,8.339126110076904297e-01,8.489228487014770508e-01,8.623846769332885742e-01,8.741683959960937500e-01,8.838952779769897461e-01,8.910558223724365234e-01,8.958870172500610352e-01,8.992758989334106445e-01,9.014961123466491699e-01,9.027299880981445312e-01,9.033838510513305664e-01,9.036418199539184570e-01,9.037146568298339844e-01,9.037276506423950195e-01,9.037255048751831055e-01,9.037239551544189453e-01,9.037228822708129883e-01,9.037218093872070312e-01,9.037206768989562988e-01,9.037197828292846680e-01,9.037187099456787109e-01,9.037176370620727539e-01,9.037165641784667969e-01,9.037153720855712891e-01,9.037143588066101074e-01,9.037133455276489258e-01,9.037123322486877441e-01,9.037112593650817871e-01,9.037101864814758301e-01,9.037090539932250977e-01,9.037079811096191406e-01,9.037070274353027344e-01,9.037060737609863281e-01,9.037048220634460449e-01,9.037039279937744141e-01,9.036988019943237305e-01,9.036697745323181152e-01,9.037682414054870605e-01,9.036080241203308105e-01,9.035265445709228516e-01,9.031988382339477539e-01,9.025498628616333008e-01,8.966114521026611328e-01,8.867765665054321289e-01,8.789023160934448242e-01,8.627929091453552246e-01,8.280551433563232422e-01,7.757269144058227539e-01,6.859270334243774414e-01,6.474316120147705078e-01,6.295487880706787109e-01,6.117386221885681152e-01,6.427181363105773926e-01,7.011832594871520996e-01,7.626731395721435547e-01,8.113174438476562500e-01,8.458299636840820312e-01,8.672733902931213379e-01,8.780360221862792969e-01,8.798526525497436523e-01,8.773555755615234375e-01,8.697125315666198730e-01,8.572046756744384766e-01,8.286914825439453125e-01,8.075636625289916992e-01,8.000967502593994141e-01,7.738289833068847656e-01,7.208216190338134766e-01,6.147254705429077148e-01
5.881911516189575195e-01,6.121512055397033691e-01,6.544502973556518555e-01,6.547905802726745605e-01,6.775819063186645508e-01,7.009670138359069824e-01,7.370861172676086426e-01,7.582455873489379883e-01,7.788017988204956055e-01,7.971986532211303711e-01,8.147947788238525391e-01,8.312970995903015137e-01,8.464375138282775879e-01,8.599835038185119629e-01,8.718594312667846680e-01,8.816278576850891113e-01,8.889312744140625000e-01,8.940091133117675781e-01,8.974870443344116211e-01,8.997218012809753418e-01,9.009763002395629883e-01,9.016550183296203613e-01,9.019184112548828125e-01,9.019806981086730957e-01,9.019875526428222656e-01,9.019805192947387695e-01,9.019738435745239258e-01,9.019678831100463867e-01,9.019618034362792969e-01,9.019556045532226562e-01,9.019496440887451172e-01,9.019434452056884766e-01,9.019374847412109375e-01,9.019312858581542969e-01,9.019252657890319824e-01,9.019192457199096680e-01,9.019131660461425781e-01,9.019071459770202637e-01,9.019011259078979492e-01,9.018950462341308594e-01,9.018890857696533203e-01,9.018830060958862305e-01,9.018768072128295898e-01,9.018707275390625000e-01,9.018647670745849609e-01,9.018592834472656250e-01,9.018520116806030273e-01,9.018437266349792480e-01,9.018381834030151367e-01,9.018278121948242188e-01,9.018020033836364746e-01,9.016697406768798828e-01,9.006638526916503906e-01,8.936136364936828613e-01,8.840190768241882324e-01,8.754006624221801758e-01,8.585265874862670898e-01,8.218138217926025391e-01,7.528208494186401367e-01,6.920469999313354492e-01,6.408987045288085938e-01,6.196039319038391113e-01,5.940634012222290039e-01,6.221786737442016602e-01,6.863512396812438965e-01,7.468484044075012207e-01,8.034995794296264648e-01,8.377245664596557617e-01,8.639276623725891113e-01,8.724492788314819336e-01,8.757749795913696289e-01,8.753533363342285156e-01,8.681657314300537109e-01,8.558024168014526367e-01,8.274097442626953125e-01,8.065274953842163086e-01,7.989592552185058594e-01,7.723739743232727051e-01,7.195348143577575684e-01,6.129431724548339844e-01
5.862550735473632812e-01,6.094366312026977539e-01,6.514798402786254883e-01,6.515443325042724609e-01,6.740759015083312988e-01,6.969119310379028320e-01,7.324777245521545410e-01,7.531206607818603516e-01,7.730048894882202148e-01,7.909481525421142578e-01,8.082785010337829590e-01,8.245592117309570312e-01,8.395535945892333984e-01,8.531521558761596680e-01,8.651052713394165039e-01,8.749619722366333008e-01,8.823381066322326660e-01,8.874380588531494141e-01,8.910181522369384766e-01,8.932575583457946777e-01,8.945040702819824219e-01,8.952066302299499512e-01,8.954709172248840332e-01,8.955256938934326172e-01,8.955243825912475586e-01,8.955133557319641113e-01,8.955036401748657227e-01,8.954944610595703125e-01,8.954854607582092285e-01,8.954763412475585938e-01,8.954671621322631836e-01,8.954582214355468750e-01,8.954489231109619141e-01,8.954399228096008301e-01,8.954308032989501953e-01,8.954216837882995605e-01,8.954125642776489258e-01,8.954036235809326172e-01,8.953944444656372070e-01,8.953853845596313477e-01,8.953762054443359375e-01,8.953672647476196289e-01,8.953582048416137695e-01,8.953491449356079102e-01,8.953399658203125000e-01,8.953312635421752930e-01,8.953206539154052734e-01,8.953092098236083984e-01,8.953065872192382812e-01,8.953206539154052734e-01,8.951847553253173828e-01,8.953418731689453125e-01,8.937506675720214844e-01,8.879038095474243164e-01,8.782395124435424805e-01,8.736247420310974121e-01,8.495665788650512695e-01,8.042664527893066406e-01,7.410444617271423340e-01,6.649917364120483398e-01,6.359207630157470703e-01,6.027486324310302734e-01,5.862720012664794922e-01,6.013038754463195801e-01,6.564431190490722656e-01,7.354198694229125977e-01,7.914886474609375000e-01,8.241792917251586914e-01,8.525413274765014648e-01,8.647436499595642090e-01,8.700370192527770996e-01,8.691809177398681641e-01,8.624733686447143555e-01,8.499892950057983398e-01,8.217951655387878418e-01,8.014979362487792969e-01,7.943655252456665039e-01,7.679712176322937012e-01,7.155221104621887207e-01,6.079438924789428711e-01
5.823476910591125488e-01,6.035625934600830078e-01,6.450693607330322266e-01,6.443616747856140137e-01,6.657205224037170410e-01,6.876935958862304688e-01,7.224066853523254395e-01,7.425897121429443359e-01,7.618007659912109375e-01,7.788743376731872559e-01,7.956084012985229492e-01,8.115683794021606445e-01,8.266271948814392090e-01,8.405221700668334961e-01,8.527934551239013672e-01,8.630760908126831055e-01,8.709471225738525391e-01,8.763781785964965820e-01,8.801468610763549805e-01,8.825254440307617188e-01,8.838635087013244629e-01,8.845193386077880859e-01,8.847215175628662109e-01,8.847393989562988281e-01,8.847289085388183594e-01,8.847060203552246094e-01,8.846853375434875488e-01,8.846651911735534668e-01,8.846449851989746094e-01,8.846248388290405273e-01,8.846044540405273438e-01,8.845843076705932617e-01,8.845641016960144043e-01,8.845439553260803223e-01,8.845238089561462402e-01,8.845036029815673828e-01,8.844835758209228516e-01,8.844633102416992188e-01,8.844432830810546875e-01,8.844228982925415039e-01,8.844028711318969727e-01,8.843827247619628906e-01,8.843625783920288086e-01,8.843424320220947266e-01,8.843222856521606445e-01,8.843023777008056641e-01,8.842820525169372559e-01,8.842614293098449707e-01,8.842439651489257812e-01,8.842475414276123047e-01,8.841291069984436035e-01,8.845248222351074219e-01,8.825683593750000000e-01,8.756532669067382812e-01,8.675061464309692383e-01,8.626204729080200195e-01,8.362110257148742676e-01,7.915834784507751465e-01,7.291085124015808105e-01,6.541925668716430664e-01,6.385482549667358398e-01,5.955510735511779785e-01,5.709792971611022949e-01,5.863900780677795410e-01,6.261399388313293457e-01,7.180513739585876465e-01,7.747884392738342285e-01,8.074678778648376465e-01,8.395226001739501953e-01,8.521852493286132812e-01,8.585163950920104980e-01,8.590490818023681641e-01,8.523358106613159180e-01,8.399499058723449707e-01,8.112194538116455078e-01,7.921320199966430664e-01,7.858318090438842773e-01,7.610093355178833008e-01,7.075300812721252441e-01,6.019648313522338867e-01
5.752031803131103516e-01,5.937517285346984863e-01,6.341879367828369141e-01,6.314077377319335938e-01,6.507645249366760254e-01,6.714980006217956543e-01,7.052972316741943359e-01,7.246525883674621582e-01,7.431020140647888184e-01,7.594752311706542969e-01,7.753038406372070312e-01,7.904905080795288086e-01,8.051486015319824219e-01,8.185931444168090820e-01,8.304768800735473633e-01,8.404319286346435547e-01,8.479112386703491211e-01,8.532867431640625000e-01,8.570476770401000977e-01,8.593978881835937500e-01,8.606380224227905273e-01,8.611878156661987305e-01,8.613218069076538086e-01,8.613260984420776367e-01,8.612942099571228027e-01,8.612550497055053711e-01,8.612178564071655273e-01,8.611807823181152344e-01,8.611438274383544922e-01,8.611069917678833008e-01,8.610700368881225586e-01,8.610330820083618164e-01,8.609961867332458496e-01,8.609592914581298828e-01,8.609223365783691406e-01,8.608854413032531738e-01,8.608484268188476562e-01,8.608116507530212402e-01,8.607746362686157227e-01,8.607378005981445312e-01,8.607008457183837891e-01,8.606640100479125977e-01,8.606270551681518555e-01,8.605903387069702148e-01,8.605535030364990234e-01,8.605166077613830566e-01,8.604799509048461914e-01,8.604431152343750000e-01,8.604110479354858398e-01,8.604006171226501465e-01,8.606998920440673828e-01,8.610818386077880859e-01,8.579971790313720703e-01,8.508952260017395020e-01,8.466817140579223633e-01,8.407107591629028320e-01,8.087499141693115234e-01,7.673588991165161133e-01,6.903537511825561523e-01,6.524211764335632324e-01,6.138677000999450684e-01,5.637839436531066895e-01,5.535122752189636230e-01,5.637211799621582031e-01,6.098835468292236328e-01,6.987850069999694824e-01,7.431951165199279785e-01,7.767149209976196289e-01,8.145200014114379883e-01,8.277217149734497070e-01,8.347512483596801758e-01,8.367261886596679688e-01,8.296128511428833008e-01,8.173948526382446289e-01,7.881657481193542480e-01,7.704268097877502441e-01,7.674703001976013184e-01,7.442942857742309570e-01,6.928644776344299316e-01,5.924756526947021484e-01
5.642400979995727539e-01,5.783785581588745117e-01,6.170502305030822754e-01,6.110103726387023926e-01,6.274174451828002930e-01,6.464135646820068359e-01,6.783353686332702637e-01,6.956855654716491699e-01,7.117327451705932617e-01,7.257437705993652344e-01,7.394043207168579102e-01,7.528247833251953125e-01,7.661417126655578613e-01,7.786084413528442383e-01,7.895394563674926758e-01,7.988289594650268555e-01,8.062305450439453125e-01,8.115669488906860352e-01,8.152987957000732422e-01,8.176020979881286621e-01,8.186848163604736328e-01,8.189595341682434082e-01,8.189823627471923828e-01,8.189575672149658203e-01,8.189088702201843262e-01,8.188483715057373047e-01,8.187892436981201172e-01,8.187303543090820312e-01,8.186716437339782715e-01,8.186128735542297363e-01,8.185540437698364258e-01,8.184953927993774414e-01,8.184365034103393555e-01,8.183776140213012695e-01,8.183189034461975098e-01,8.182602524757385254e-01,8.182017803192138672e-01,8.181427717208862305e-01,8.180843591690063477e-01,8.180254697799682617e-01,8.179668188095092773e-01,8.179081678390502930e-01,8.178493976593017578e-01,8.177908658981323242e-01,8.177322149276733398e-01,8.176736235618591309e-01,8.176150321960449219e-01,8.175561428070068359e-01,8.174959421157836914e-01,8.174839019775390625e-01,8.181493282318115234e-01,8.177521824836730957e-01,8.119745850563049316e-01,8.067629337310791016e-01,8.065452575683593750e-01,7.925398349761962891e-01,7.611919641494750977e-01,7.256608009338378906e-01,6.667348146438598633e-01,6.186325550079345703e-01,5.812962055206298828e-01,5.288324356079101562e-01,5.345323085784912109e-01,5.427057743072509766e-01,5.830415487289428711e-01,6.566698551177978516e-01,7.050420045852661133e-01,7.310100197792053223e-01,7.645575404167175293e-01,7.872295975685119629e-01,7.943009138107299805e-01,7.953644990921020508e-01,7.885862588882446289e-01,7.778318524360656738e-01,7.483019232749938965e-01,7.333797216415405273e-01,7.347815036773681641e-01,7.137660384178161621e-01,6.687991619110107422e-01,5.797372460365295410e-01
5.497259497642517090e-01,5.539395809173583984e-01,5.888152718544006348e-01,5.787631869316101074e-01,5.919248461723327637e-01,6.082156896591186523e-01,6.378275752067565918e-01,6.524366736412048340e-01,6.663268208503723145e-01,6.780738830566406250e-01,6.894949078559875488e-01,7.006314396858215332e-01,7.116296291351318359e-01,7.215061783790588379e-01,7.303637266159057617e-01,7.380278110504150391e-01,7.437785863876342773e-01,7.477804422378540039e-01,7.504904270172119141e-01,7.519872188568115234e-01,7.524165511131286621e-01,7.524831891059875488e-01,7.524584531784057617e-01,7.523957490921020508e-01,7.523279190063476562e-01,7.522433400154113770e-01,7.521607875823974609e-01,7.520784139633178711e-01,7.519961595535278320e-01,7.519139051437377930e-01,7.518318891525268555e-01,7.517495751380920410e-01,7.516674995422363281e-01,7.515853643417358398e-01,7.515032291412353516e-01,7.514210939407348633e-01,7.513390779495239258e-01,7.512569427490234375e-01,7.511749267578125000e-01,7.510927915573120117e-01,7.510104775428771973e-01,7.509285807609558105e-01,7.508465647697448730e-01,7.507643699645996094e-01,7.506825327873229980e-01,7.506004571914672852e-01,7.505185008049011230e-01,7.504363059997558594e-01,7.503541707992553711e-01,7.502835988998413086e-01,7.512757778167724609e-01,7.503370642662048340e-01,7.437298297882080078e-01,7.424086332321166992e-01,7.434573173522949219e-01,7.182463407516479492e-01,6.962722539901733398e-01,6.652206182479858398e-01,5.938223004341125488e-01,5.687052011489868164e-01,5.529718399047851562e-01,4.960735440254211426e-01,4.962072968482971191e-01,5.198214054107666016e-01,5.518786311149597168e-01,6.014561057090759277e-01,6.451810598373413086e-01,6.702464818954467773e-01,6.974795460700988770e-01,7.187380790710449219e-01,7.292027473449707031e-01,7.284632921218872070e-01,7.234497070312500000e-01,7.131077647209167480e-01,6.837801337242126465e-01,6.730169057846069336e-01,6.819111108779907227e-01,6.631094813346862793e-01,6.338039040565490723e-01,5.564972162246704102e-01
5.325055718421936035e-01,5.236894488334655762e-01,5.544987916946411133e-01,5.385860800743103027e-01,5.464484691619873047e-01,5.593028068542480469e-01,5.835227370262145996e-01,5.946947932243347168e-01,6.051698923110961914e-01,6.133006215095520020e-01,6.213212013244628906e-01,6.292475461959838867e-01,6.369131803512573242e-01,6.437633037567138672e-01,6.499369144439697266e-01,6.547467112541198730e-01,6.579792499542236328e-01,6.604108810424804688e-01,6.619805097579956055e-01,6.628217101097106934e-01,6.630402803421020508e-01,6.630028486251831055e-01,6.629007458686828613e-01,6.628173589706420898e-01,6.627355813980102539e-01,6.626455187797546387e-01,6.625577211380004883e-01,6.624702811241149902e-01,6.623827219009399414e-01,6.622955799102783203e-01,6.622082591056823730e-01,6.621207594871520996e-01,6.620333194732666016e-01,6.619460582733154297e-01,6.618587970733642578e-01,6.617715358734130859e-01,6.616842746734619141e-01,6.615970134735107422e-01,6.615098714828491211e-01,6.614225506782531738e-01,6.613354682922363281e-01,6.612481474876403809e-01,6.611608862876892090e-01,6.610738039016723633e-01,6.609866619110107422e-01,6.608997583389282227e-01,6.608125567436218262e-01,6.607255935668945312e-01,6.606215238571166992e-01,6.604906320571899414e-01,6.616282463073730469e-01,6.593478918075561523e-01,6.546722650527954102e-01,6.538964509963989258e-01,6.555653810501098633e-01,6.285316944122314453e-01,6.079826354980468750e-01,5.898017883300781250e-01,5.242514014244079590e-01,5.259928107261657715e-01,4.980929791927337646e-01,4.522255361080169678e-01,4.553860723972320557e-01,4.801039695739746094e-01,4.948879182338714600e-01,5.387536287307739258e-01,5.771840214729309082e-01,5.957530140876770020e-01,6.194790601730346680e-01,6.378375291824340820e-01,6.426749229431152344e-01,6.423840522766113281e-01,6.392487883567810059e-01,6.309582591056823730e-01,6.033551692962646484e-01,5.960259437561035156e-01,6.116417646408081055e-01,5.968536138534545898e-01,5.880128741264343262e-01,5.268802046775817871e-01
5.115486979484558105e-01,4.893338978290557861e-01,5.141252279281616211e-01,4.908667206764221191e-01,4.924277961254119873e-01,5.010095834732055664e-01,5.196071267127990723e-01,5.275502204895019531e-01,5.347120761871337891e-01,5.395537018775939941e-01,5.444232821464538574e-01,5.495240688323974609e-01,5.544987916946411133e-01,5.588388442993164062e-01,5.624907016754150391e-01,5.651994347572326660e-01,5.675014257431030273e-01,5.691158771514892578e-01,5.702086687088012695e-01,5.707083344459533691e-01,5.708113908767700195e-01,5.707331299781799316e-01,5.705906152725219727e-01,5.705219507217407227e-01,5.704253315925598145e-01,5.703369379043579102e-01,5.702497959136962891e-01,5.701628327369689941e-01,5.700761675834655762e-01,5.699895620346069336e-01,5.699026584625244141e-01,5.698159933090209961e-01,5.697292089462280273e-01,5.696425437927246094e-01,5.695559978485107422e-01,5.694692730903625488e-01,5.693826675415039062e-01,5.692960619926452637e-01,5.692095160484313965e-01,5.691230297088623047e-01,5.690365433692932129e-01,5.689500570297241211e-01,5.688635110855102539e-01,5.687770843505859375e-01,5.686905384063720703e-01,5.686042904853820801e-01,5.685180425643920898e-01,5.684316158294677734e-01,5.683294534683227539e-01,5.681754350662231445e-01,5.691537261009216309e-01,5.667988061904907227e-01,5.642515420913696289e-01,5.659079551696777344e-01,5.657374858856201172e-01,5.405068993568420410e-01,5.331569314002990723e-01,5.136085152626037598e-01,4.782280921936035156e-01,4.629885256290435791e-01,4.469482004642486572e-01,4.244258999824523926e-01,4.194472134113311768e-01,4.291948080062866211e-01,4.566276371479034424e-01,4.778496921062469482e-01,5.048571825027465820e-01,5.187163352966308594e-01,5.399574637413024902e-01,5.502685308456420898e-01,5.530637502670288086e-01,5.535349845886230469e-01,5.523201227188110352e-01,5.454208254814147949e-01,5.215601325035095215e-01,5.173998475074768066e-01,5.384409427642822266e-01,5.280907750129699707e-01,5.396938920021057129e-01,4.965220093727111816e-01
4.905616939067840576e-01,4.556730687618255615e-01,4.712975323200225830e-01,4.408683776855468750e-01,4.361960291862487793e-01,4.405657649040222168e-01,4.539877176284790039e-01,4.580783545970916748e-01,4.624001383781433105e-01,4.647290110588073730e-01,4.672782719135284424e-01,4.700891375541687012e-01,4.728607237339019775e-01,4.754902720451354980e-01,4.777988791465759277e-01,4.795244634151458740e-01,4.808030426502227783e-01,4.817721843719482422e-01,4.823774695396423340e-01,4.826422333717346191e-01,4.826936125755310059e-01,4.826864898204803467e-01,4.826079308986663818e-01,4.825078547000885010e-01,4.824249148368835449e-01,4.823511838912963867e-01,4.822781980037689209e-01,4.822053015232086182e-01,4.821324050426483154e-01,4.820597767829895020e-01,4.819868206977844238e-01,4.819140732288360596e-01,4.818413853645324707e-01,4.817684888839721680e-01,4.816960096359252930e-01,4.816232919692993164e-01,4.815504848957061768e-01,4.814779460430145264e-01,4.814052879810333252e-01,4.813326895236968994e-01,4.812602102756500244e-01,4.811876118183135986e-01,4.811151027679443359e-01,4.810426533222198486e-01,4.809701442718505859e-01,4.808977544307708740e-01,4.808251857757568359e-01,4.807529449462890625e-01,4.806652963161468506e-01,4.804988503456115723e-01,4.810966551303863525e-01,4.797994196414947510e-01,4.785628020763397217e-01,4.801244437694549561e-01,4.768794775009155273e-01,4.598725736141204834e-01,4.588873982429504395e-01,4.497108459472656250e-01,4.289357364177703857e-01,4.096381068229675293e-01,4.011762738227844238e-01,3.960048258304595947e-01,3.837957680225372314e-01,3.866739869117736816e-01,4.072710871696472168e-01,4.181646108627319336e-01,4.341135919094085693e-01,4.435271620750427246e-01,4.582782983779907227e-01,4.679460525512695312e-01,4.711048305034637451e-01,4.725700020790100098e-01,4.739670455455780029e-01,4.693532884120941162e-01,4.494338631629943848e-01,4.483094811439514160e-01,4.718501865863800049e-01,4.688181579113006592e-01,4.950127899646759033e-01,4.691018760204315186e-01
4.694040119647979736e-01,4.224053621292114258e-01,4.285270273685455322e-01,3.950428962707519531e-01,3.840754032135009766e-01,3.856427967548370361e-01,3.960562348365783691e-01,3.989943265914916992e-01,4.020246863365173340e-01,4.032194018363952637e-01,4.044318795204162598e-01,4.056462049484252930e-01,4.066686630249023438e-01,4.076154232025146484e-01,4.084134995937347412e-01,4.090020656585693359e-01,4.096082746982574463e-01,4.101022779941558838e-01,4.103150963783264160e-01,4.103593230247497559e-01,4.103688597679138184e-01,4.102717638015747070e-01,4.102005958557128906e-01,4.101282954216003418e-01,4.100654721260070801e-01,4.100066125392913818e-01,4.099485874176025391e-01,4.098909199237823486e-01,4.098333120346069336e-01,4.097756445407867432e-01,4.097180366516113281e-01,4.096602797508239746e-01,4.096027314662933350e-01,4.095451831817626953e-01,4.094874858856201172e-01,4.094299376010894775e-01,4.093726277351379395e-01,4.093149900436401367e-01,4.092573821544647217e-01,4.091998636722564697e-01,4.091424643993377686e-01,4.090851545333862305e-01,4.090275764465332031e-01,4.089703857898712158e-01,4.089131057262420654e-01,4.088556170463562012e-01,4.087982475757598877e-01,4.087408781051635742e-01,4.086750447750091553e-01,4.085536003112792969e-01,4.088189899921417236e-01,4.083243608474731445e-01,4.078497886657714844e-01,4.086411893367767334e-01,4.062030613422393799e-01,3.988642096519470215e-01,3.960885405540466309e-01,3.918974399566650391e-01,3.841797113418579102e-01,3.681697249412536621e-01,3.603882789611816406e-01,3.607036173343658447e-01,3.545817136764526367e-01,3.553917407989501953e-01,3.588637709617614746e-01,3.704388737678527832e-01,3.779203295707702637e-01,3.872993588447570801e-01,3.947813510894775391e-01,3.977856040000915527e-01,4.024907946586608887e-01,4.013901650905609131e-01,4.039812088012695312e-01,4.011970460414886475e-01,3.857148885726928711e-01,3.876838088035583496e-01,4.135266542434692383e-01,4.177306890487670898e-01,4.560312032699584961e-01,4.460664987564086914e-01
4.513874948024749756e-01,3.938157558441162109e-01,3.929797112941741943e-01,3.572877049446105957e-01,3.413588404655456543e-01,3.406518101692199707e-01,3.481004238128662109e-01,3.498200178146362305e-01,3.515133261680603027e-01,3.519315719604492188e-01,3.524481356143951416e-01,3.529151678085327148e-01,3.533971309661865234e-01,3.538349866867065430e-01,3.541308343410491943e-01,3.542268276214599609e-01,3.543021678924560547e-01,3.541778028011322021e-01,3.540238142013549805e-01,3.539645671844482422e-01,3.539433181285858154e-01,3.539092540740966797e-01,3.538545966148376465e-01,3.538011908531188965e-01,3.537601828575134277e-01,3.537184596061706543e-01,3.536773324012756348e-01,3.536360263824462891e-01,3.535949885845184326e-01,3.535539209842681885e-01,3.535127639770507812e-01,3.534717559814453125e-01,3.534305095672607422e-01,3.533895015716552734e-01,3.533485531806945801e-01,3.533074557781219482e-01,3.532662987709045410e-01,3.532254695892333984e-01,3.531843423843383789e-01,3.531433939933776855e-01,3.531025052070617676e-01,3.530616164207458496e-01,3.530204892158508301e-01,3.529796004295349121e-01,3.529387116432189941e-01,3.528978228569030762e-01,3.528568148612976074e-01,3.528159260749816895e-01,3.527773022651672363e-01,3.526858687400817871e-01,3.527525663375854492e-01,3.526357412338256836e-01,3.528557419776916504e-01,3.524521589279174805e-01,3.514757156372070312e-01,3.493661284446716309e-01,3.458842635154724121e-01,3.420901894569396973e-01,3.441627621650695801e-01,3.279032409191131592e-01,3.232269883155822754e-01,3.283649086952209473e-01,3.211936950683593750e-01,3.200740218162536621e-01,3.302567005157470703e-01,3.301208913326263428e-01,3.368855118751525879e-01,3.410373926162719727e-01,3.473302721977233887e-01,3.470644950866699219e-01,3.489779233932495117e-01,3.502932190895080566e-01,3.512161970138549805e-01,3.489826321601867676e-01,3.362387418746948242e-01,3.392008543014526367e-01,3.653428256511688232e-01,3.756983578205108643e-01,4.224550426006317139e-01,4.258238971233367920e-01
4.349657297134399414e-01,3.689422011375427246e-01,3.612736463546752930e-01,3.251629471778869629e-01,3.061282336711883545e-01,3.047555387020111084e-01,3.108602464199066162e-01,3.122499287128448486e-01,3.134071230888366699e-01,3.134223222732543945e-01,3.134080171585083008e-01,3.133980631828308105e-01,3.134729862213134766e-01,3.135638833045959473e-01,3.135948479175567627e-01,3.136101067066192627e-01,3.135705590248107910e-01,3.135188221931457520e-01,3.135355412960052490e-01,3.135213255882263184e-01,3.134636878967285156e-01,3.134185671806335449e-01,3.133843839168548584e-01,3.133559525012969971e-01,3.133249580860137939e-01,3.132952749729156494e-01,3.132653236389160156e-01,3.132354617118835449e-01,3.132057189941406250e-01,3.131759464740753174e-01,3.131459951400756836e-01,3.131161928176879883e-01,3.130863010883331299e-01,3.130567073822021484e-01,3.130267262458801270e-01,3.129968941211700439e-01,3.129671812057495117e-01,3.129372298717498779e-01,3.129075765609741211e-01,3.128778934478759766e-01,3.128480315208435059e-01,3.128183186054229736e-01,3.127886056900024414e-01,3.127588629722595215e-01,3.127291798591613770e-01,3.126993775367736816e-01,3.126696050167083740e-01,3.126402199268341064e-01,3.126143217086791992e-01,3.125534653663635254e-01,3.125276565551757812e-01,3.125952184200286865e-01,3.126708567142486572e-01,3.122858405113220215e-01,3.126167654991149902e-01,3.115589618682861328e-01,3.088866472244262695e-01,3.095202744007110596e-01,3.095030486583709717e-01,3.018501102924346924e-01,2.996663451194763184e-01,2.972479462623596191e-01,2.944391369819641113e-01,2.956634163856506348e-01,2.977296710014343262e-01,3.001635074615478516e-01,3.034884333610534668e-01,3.076846003532409668e-01,3.081629872322082520e-01,3.114556968212127686e-01,3.108667135238647461e-01,3.108579516410827637e-01,3.121242523193359375e-01,3.102299273014068604e-01,2.991055846214294434e-01,3.025857806205749512e-01,3.288359940052032471e-01,3.441993296146392822e-01,3.968370854854583740e-01,4.101074039936065674e-01
4.212125539779663086e-01,3.491289615631103516e-01,3.364093899726867676e-01,2.999961376190185547e-01,2.791723608970642090e-01,2.769959568977355957e-01,2.819505333900451660e-01,2.831158638000488281e-01,2.839996218681335449e-01,2.838903963565826416e-01,2.838506102561950684e-01,2.838483452796936035e-01,2.838316559791564941e-01,2.838143408298492432e-01,2.838001251220703125e-01,2.837622761726379395e-01,2.837227582931518555e-01,2.836933135986328125e-01,2.836685478687286377e-01,2.836338877677917480e-01,2.836072444915771484e-01,2.835855484008789062e-01,2.835632860660552979e-01,2.835405766963958740e-01,2.835196256637573242e-01,2.834977507591247559e-01,2.834762334823608398e-01,2.834545373916625977e-01,2.834329605102539062e-01,2.834114432334899902e-01,2.833895981311798096e-01,2.833680212497711182e-01,2.833464443683624268e-01,2.833248972892761230e-01,2.833033204078674316e-01,2.832813858985900879e-01,2.832599878311157227e-01,2.832384705543518066e-01,2.832167744636535645e-01,2.831951975822448730e-01,2.831736207008361816e-01,2.831522524356842041e-01,2.831304967403411865e-01,2.831088304519653320e-01,2.830872833728790283e-01,2.830656170845031738e-01,2.830443382263183594e-01,2.830227613449096680e-01,2.830055356025695801e-01,2.829725146293640137e-01,2.829358577728271484e-01,2.829709053039550781e-01,2.829416394233703613e-01,2.827424407005310059e-01,2.831186950206756592e-01,2.823415994644165039e-01,2.812641263008117676e-01,2.816437184810638428e-01,2.812969982624053955e-01,2.788770198822021484e-01,2.781463861465454102e-01,2.746638059616088867e-01,2.736165523529052734e-01,2.768703103065490723e-01,2.747263014316558838e-01,2.749353051185607910e-01,2.786368131637573242e-01,2.779852151870727539e-01,2.808444499969482422e-01,2.809371948242187500e-01,2.828264236450195312e-01,2.827149629592895508e-01,2.830418348312377930e-01,2.818755209445953369e-01,2.718179821968078613e-01,2.751266658306121826e-01,3.007458448410034180e-01,3.195700645446777344e-01,3.763034939765930176e-01,3.975827097892761230e-01
4.091776013374328613e-01,3.324932157993316650e-01,3.159818053245544434e-01,2.799524068832397461e-01,2.584257721900939941e-01,2.558349967002868652e-01,2.600289285182952881e-01,2.610220909118652344e-01,2.617952823638916016e-01,2.617102265357971191e-01,2.616697549819946289e-01,2.616475820541381836e-01,2.616277337074279785e-01,2.616120576858520508e-01,2.615957260131835938e-01,2.615783512592315674e-01,2.615624666213989258e-01,2.615471780300140381e-01,2.615299820899963379e-01,2.615125775337219238e-01,2.614959776401519775e-01,2.614805102348327637e-01,2.614642381668090820e-01,2.614479959011077881e-01,2.614317536354064941e-01,2.614151239395141602e-01,2.613987028598785400e-01,2.613822519779205322e-01,2.613658308982849121e-01,2.613492012023925781e-01,2.613328993320465088e-01,2.613162994384765625e-01,2.612996995449066162e-01,2.612834870815277100e-01,2.612670361995697021e-01,2.612505257129669189e-01,2.612342834472656250e-01,2.612176835536956787e-01,2.612011432647705078e-01,2.611848711967468262e-01,2.611683607101440430e-01,2.611520290374755859e-01,2.611356675624847412e-01,2.611191868782043457e-01,2.611028254032135010e-01,2.610861659049987793e-01,2.610700130462646484e-01,2.610537111759185791e-01,2.610406875610351562e-01,2.610188722610473633e-01,2.610003948211669922e-01,2.610104680061340332e-01,2.610087990760803223e-01,2.608441114425659180e-01,2.609735131263732910e-01,2.609677314758300781e-01,2.608827948570251465e-01,2.600423693656921387e-01,2.604348957538604736e-01,2.604964971542358398e-01,2.588482499122619629e-01,2.574084401130676270e-01,2.578281760215759277e-01,2.561519145965576172e-01,2.579856216907501221e-01,2.579029202461242676e-01,2.576431930065155029e-01,2.586626112461090088e-01,2.595614492893218994e-01,2.601515650749206543e-01,2.598263025283813477e-01,2.606829404830932617e-01,2.612663507461547852e-01,2.600369453430175781e-01,2.512188553810119629e-01,2.544362545013427734e-01,2.794677615165710449e-01,3.009999990463256836e-01,3.605892658233642578e-01,3.876355290412902832e-01
3.991110920906066895e-01,3.188933134078979492e-01,2.997290492057800293e-01,2.643896043300628662e-01,2.423067986965179443e-01,2.394191324710845947e-01,2.430796921253204346e-01,2.439700961112976074e-01,2.446613609790802002e-01,2.445981800556182861e-01,2.445658147335052490e-01,2.445508837699890137e-01,2.445364594459533691e-01,2.445224225521087646e-01,2.445079088211059570e-01,2.444934844970703125e-01,2.444799244403839111e-01,2.444667518138885498e-01,2.444531619548797607e-01,2.444398999214172363e-01,2.444270849227905273e-01,2.444143593311309814e-01,2.444014549255371094e-01,2.443886399269104004e-01,2.443758249282836914e-01,2.443629205226898193e-01,2.443500757217407227e-01,2.443371117115020752e-01,2.443242669105529785e-01,2.443112432956695557e-01,2.442982494831085205e-01,2.442854642868041992e-01,2.442726790904998779e-01,2.442598640918731689e-01,2.442469596862792969e-01,2.442341148853302002e-01,2.442212402820587158e-01,2.442083954811096191e-01,2.441954910755157471e-01,2.441823780536651611e-01,2.441697418689727783e-01,2.441569268703460693e-01,2.441439628601074219e-01,2.441311180591583252e-01,2.441182136535644531e-01,2.441055476665496826e-01,2.440925240516662598e-01,2.440796792507171631e-01,2.440684139728546143e-01,2.440530955791473389e-01,2.440363466739654541e-01,2.440430819988250732e-01,2.440041303634643555e-01,2.438924610614776611e-01,2.440097033977508545e-01,2.440621256828308105e-01,2.438660264015197754e-01,2.436932027339935303e-01,2.438102960586547852e-01,2.437529861927032471e-01,2.435058653354644775e-01,2.426525056362152100e-01,2.420909404754638672e-01,2.425371110439300537e-01,2.424247264862060547e-01,2.429910004138946533e-01,2.429059445858001709e-01,2.427078485488891602e-01,2.431238293647766113e-01,2.434888780117034912e-01,2.436413466930389404e-01,2.434458732604980469e-01,2.442318499088287354e-01,2.433571517467498779e-01,2.352286279201507568e-01,2.385385632514953613e-01,2.629376351833343506e-01,2.863719463348388672e-01,3.479840755462646484e-01,3.796844482421875000e-01
3.908097743988037109e-01,3.077795207500457764e-01,2.866289615631103516e-01,2.519692182540893555e-01,2.295336723327636719e-01,2.264065146446228027e-01,2.296724617481231689e-01,2.304626703262329102e-01,2.310842573642730713e-01,2.310294806957244873e-01,2.310026884078979492e-01,2.309919595718383789e-01,2.309815883636474609e-01,2.309713959693908691e-01,2.309609055519104004e-01,2.309506535530090332e-01,2.309404313564300537e-01,2.309299707412719727e-01,2.309195399284362793e-01,2.309091389179229736e-01,2.308989167213439941e-01,2.308882772922515869e-01,2.308782935142517090e-01,2.308676838874816895e-01,2.308573126792907715e-01,2.308470308780670166e-01,2.308364808559417725e-01,2.308263182640075684e-01,2.308160066604614258e-01,2.308056354522705078e-01,2.307952344417572021e-01,2.307848334312438965e-01,2.307744622230529785e-01,2.307642400264739990e-01,2.307537198066711426e-01,2.307433187961578369e-01,2.307332456111907959e-01,2.307230532169342041e-01,2.307125329971313477e-01,2.307021617889404297e-01,2.306917905807495117e-01,2.306815087795257568e-01,2.306712567806243896e-01,2.306608557701110840e-01,2.306504249572753906e-01,2.306403219699859619e-01,2.306300401687622070e-01,2.306195199489593506e-01,2.306101620197296143e-01,2.305991947650909424e-01,2.305888533592224121e-01,2.305784821510314941e-01,2.305635511875152588e-01,2.305517196655273438e-01,2.305786311626434326e-01,2.305720150470733643e-01,2.305504083633422852e-01,2.304099798202514648e-01,2.305142879486083984e-01,2.305342555046081543e-01,2.304001152515411377e-01,2.300175428390502930e-01,2.298206090927124023e-01,2.294820845127105713e-01,2.300645112991333008e-01,2.299053966999053955e-01,2.303254008293151855e-01,2.303678393363952637e-01,2.302727997303009033e-01,2.303148508071899414e-01,2.303683459758758545e-01,2.303146123886108398e-01,2.305942773818969727e-01,2.300228774547576904e-01,2.226174175739288330e-01,2.259262204170227051e-01,2.498120367527008057e-01,2.745949029922485352e-01,3.377300500869750977e-01,3.732001781463623047e-01
3.838109076023101807e-01,2.985786497592926025e-01,2.758303284645080566e-01,2.418458163738250732e-01,2.191908955574035645e-01,2.158583700656890869e-01,2.188139855861663818e-01,2.195155918598175049e-01,2.200816869735717773e-01,2.200340926647186279e-01,2.200110256671905518e-01,2.200027704238891602e-01,2.199941277503967285e-01,2.199855446815490723e-01,2.199772000312805176e-01,2.199685871601104736e-01,2.199602425098419189e-01,2.199515700340270996e-01,2.199430763721466064e-01,2.199346721172332764e-01,2.199260592460632324e-01,2.199175953865051270e-01,2.199091911315917969e-01,2.199006676673889160e-01,2.198921442031860352e-01,2.198837399482727051e-01,2.198749482631683350e-01,2.198665440082550049e-01,2.198582887649536133e-01,2.198497951030731201e-01,2.198413610458374023e-01,2.198327779769897461e-01,2.198242843151092529e-01,2.198157906532287598e-01,2.198072969913482666e-01,2.197988033294677734e-01,2.197903990745544434e-01,2.197819352149963379e-01,2.197733223438262939e-01,2.197649478912353516e-01,2.197564244270324707e-01,2.197479605674743652e-01,2.197397053241729736e-01,2.197309434413909912e-01,2.197227776050567627e-01,2.197142839431762695e-01,2.197057008743286133e-01,2.196973562240600586e-01,2.196890413761138916e-01,2.196805179119110107e-01,2.196712493896484375e-01,2.196630835533142090e-01,2.196547091007232666e-01,2.196445167064666748e-01,2.196371257305145264e-01,2.196397185325622559e-01,2.196169197559356689e-01,2.195625305175781250e-01,2.196080982685089111e-01,2.196334898471832275e-01,2.195804417133331299e-01,2.194766402244567871e-01,2.194618284702301025e-01,2.193191349506378174e-01,2.192209064960479736e-01,2.194299995899200439e-01,2.193023562431335449e-01,2.194978594779968262e-01,2.195564508438110352e-01,2.194994091987609863e-01,2.195312976837158203e-01,2.195126116275787354e-01,2.197589278221130371e-01,2.192124128341674805e-01,2.123287916183471680e-01,2.156787812709808350e-01,2.391584217548370361e-01,2.649276852607727051e-01,3.292295634746551514e-01,3.678079247474670410e-01
3.778377175331115723e-01,2.908445596694946289e-01,2.668074965476989746e-01,2.334592044353485107e-01,2.106589674949645996e-01,2.071493566036224365e-01,2.098532319068908691e-01,2.104768157005310059e-01,2.109942734241485596e-01,2.109523713588714600e-01,2.109321951866149902e-01,2.109252810478210449e-01,2.109181880950927734e-01,2.109113037586212158e-01,2.109038829803466797e-01,2.108968496322631836e-01,2.108899652957916260e-01,2.108826637268066406e-01,2.108756899833679199e-01,2.108685970306396484e-01,2.108615040779113770e-01,2.108544707298278809e-01,2.108474671840667725e-01,2.108403742313385010e-01,2.108333110809326172e-01,2.108260393142700195e-01,2.108191251754760742e-01,2.108120322227478027e-01,2.108050286769866943e-01,2.107978761196136475e-01,2.107909321784973145e-01,2.107836902141571045e-01,2.107767462730407715e-01,2.107697129249572754e-01,2.107625603675842285e-01,2.107556164264678955e-01,2.107484936714172363e-01,2.107413411140441895e-01,2.107342183589935303e-01,2.107272744178771973e-01,2.107201814651489258e-01,2.107131183147430420e-01,2.107062041759490967e-01,2.106990218162536621e-01,2.106919884681701660e-01,2.106849253177642822e-01,2.106778919696807861e-01,2.106710672378540039e-01,2.106639742851257324e-01,2.106567621231079102e-01,2.106497883796691895e-01,2.106422483921051025e-01,2.106355726718902588e-01,2.106285989284515381e-01,2.106214761734008789e-01,2.106162607669830322e-01,2.106034457683563232e-01,2.105979025363922119e-01,2.106082439422607422e-01,2.105799615383148193e-01,2.105887830257415771e-01,2.105749249458312988e-01,2.105050086975097656e-01,2.104950249195098877e-01,2.105050086975097656e-01,2.104075551033020020e-01,2.105362415313720703e-01,2.105240821838378906e-01,2.105040550231933594e-01,2.105315029621124268e-01,2.104900181293487549e-01,2.104587852954864502e-01,2.107487320899963379e-01,2.102931737899780273e-01,2.038801014423370361e-01,2.071991264820098877e-01,2.303389906883239746e-01,2.568515837192535400e-01,3.220621347427368164e-01,3.632455170154571533e-01
3.726806640625000000e-01,2.842513918876647949e-01,2.591622471809387207e-01,2.263998091220855713e-01,2.035074830055236816e-01,1.998426318168640137e-01,2.023398876190185547e-01,2.028950154781341553e-01,2.033710479736328125e-01,2.033338248729705811e-01,2.033165097236633301e-01,2.033102810382843018e-01,2.033045291900634766e-01,2.032983005046844482e-01,2.032924592494964600e-01,2.032865583896636963e-01,2.032807171344757080e-01,2.032745182514190674e-01,2.032684683799743652e-01,2.032624185085296631e-01,2.032567858695983887e-01,2.032505869865417480e-01,2.032446563243865967e-01,2.032386660575866699e-01,2.032327651977539062e-01,2.032267153263092041e-01,2.032207548618316650e-01,2.032148241996765137e-01,2.032088935375213623e-01,2.032027542591094971e-01,2.031969726085662842e-01,2.031907439231872559e-01,2.031849324703216553e-01,2.031788825988769531e-01,2.031730115413665771e-01,2.031669020652770996e-01,2.031610012054443359e-01,2.031550705432891846e-01,2.031491100788116455e-01,2.031430602073669434e-01,2.031372189521789551e-01,2.031311690807342529e-01,2.031252384185791016e-01,2.031193077564239502e-01,2.031132578849792480e-01,2.031071484088897705e-01,2.031014561653137207e-01,2.030954360961914062e-01,2.030896544456481934e-01,2.030836045742034912e-01,2.030774652957916260e-01,2.030717432498931885e-01,2.030659019947052002e-01,2.030598819255828857e-01,2.030536830425262451e-01,2.030476331710815430e-01,2.030417025089263916e-01,2.030347585678100586e-01,2.030277550220489502e-01,2.030279338359832764e-01,2.030262053012847900e-01,2.030181884765625000e-01,2.030223608016967773e-01,2.030052542686462402e-01,2.029783725738525391e-01,2.029846906661987305e-01,2.029602527618408203e-01,2.029743790626525879e-01,2.029672265052795410e-01,2.029711008071899414e-01,2.029590010643005371e-01,2.029272019863128662e-01,2.031620144844055176e-01,2.027955055236816406e-01,1.967624127864837646e-01,2.000907659530639648e-01,2.229230999946594238e-01,2.500059604644775391e-01,3.159350156784057617e-01,3.593335151672363281e-01
3.681840002536773682e-01,2.785657942295074463e-01,2.526064813137054443e-01,2.203797698020935059e-01,1.974316835403442383e-01,1.936304569244384766e-01,1.959556639194488525e-01,1.964506208896636963e-01,1.968912780284881592e-01,1.968580782413482666e-01,1.968424320220947266e-01,1.968372762203216553e-01,1.968322098255157471e-01,1.968272328376770020e-01,1.968218386173248291e-01,1.968168616294860840e-01,1.968117356300354004e-01,1.968066394329071045e-01,1.968014836311340332e-01,1.967962980270385742e-01,1.967911720275878906e-01,1.967862248420715332e-01,1.967810094356536865e-01,1.967757940292358398e-01,1.967708468437194824e-01,1.967657506465911865e-01,1.967605352401733398e-01,1.967554688453674316e-01,1.967501938343048096e-01,1.967451572418212891e-01,1.967400908470153809e-01,1.967350244522094727e-01,1.967299878597259521e-01,1.967249214649200439e-01,1.967196762561798096e-01,1.967144906520843506e-01,1.967095136642456055e-01,1.967044174671173096e-01,1.966993808746337891e-01,1.966942250728607178e-01,1.966890692710876465e-01,1.966838836669921875e-01,1.966786980628967285e-01,1.966737806797027588e-01,1.966685950756072998e-01,1.966636478900909424e-01,1.966584920883178711e-01,1.966533660888671875e-01,1.966482400894165039e-01,1.966431736946105957e-01,1.966381371021270752e-01,1.966329216957092285e-01,1.966279149055480957e-01,1.966227591037750244e-01,1.966176629066467285e-01,1.966126561164855957e-01,1.966070830821990967e-01,1.966022849082946777e-01,1.965965330600738525e-01,1.965917348861694336e-01,1.965874433517456055e-01,1.965832114219665527e-01,1.965781152248382568e-01,1.965742409229278564e-01,1.965673267841339111e-01,1.965627968311309814e-01,1.965573430061340332e-01,1.965516209602355957e-01,1.965461671352386475e-01,1.965413391590118408e-01,1.965358853340148926e-01,1.965059638023376465e-01,1.967161893844604492e-01,1.964197456836700439e-01,1.907111704349517822e-01,1.940361857414245605e-01,2.166062593460083008e-01,2.441320121288299561e-01,3.106366991996765137e-01,3.559412360191345215e-01
3.642291128635406494e-01,2.736133635044097900e-01,2.469268441200256348e-01,2.151884436607360840e-01,1.922095715999603271e-01,1.882880926132202148e-01,1.904677450656890869e-01,1.909097135066986084e-01,1.913200914859771729e-01,1.912897825241088867e-01,1.912756860256195068e-01,1.912712752819061279e-01,1.912668347358703613e-01,1.912623047828674316e-01,1.912580132484436035e-01,1.912535429000854492e-01,1.912491917610168457e-01,1.912446916103363037e-01,1.912404596805572510e-01,1.912360489368438721e-01,1.912316381931304932e-01,1.912270784378051758e-01,1.912227272987365723e-01,1.912181973457336426e-01,1.912136673927307129e-01,1.912093162536621094e-01,1.912049949169158936e-01,1.912006139755249023e-01,1.911959946155548096e-01,1.911917626857757568e-01,1.911872327327728271e-01,1.911827921867370605e-01,1.911785304546356201e-01,1.911740303039550781e-01,1.911695301532745361e-01,1.911653280258178711e-01,1.911607980728149414e-01,1.911565661430358887e-01,1.911519765853881836e-01,1.911476254463195801e-01,1.911431252956390381e-01,1.911387443542480469e-01,1.911344826221466064e-01,1.911299526691436768e-01,1.911255419254302979e-01,1.911211907863616943e-01,1.911167204380035400e-01,1.911123394966125488e-01,1.911080479621887207e-01,1.911036074161529541e-01,1.910991370677947998e-01,1.910945773124694824e-01,1.910903751850128174e-01,1.910858452320098877e-01,1.910815834999084473e-01,1.910771131515502930e-01,1.910726130008697510e-01,1.910682320594787598e-01,1.910635828971862793e-01,1.910593211650848389e-01,1.910547614097595215e-01,1.910509467124938965e-01,1.910460889339447021e-01,1.910418868064880371e-01,1.910382211208343506e-01,1.910336017608642578e-01,1.910294592380523682e-01,1.910248994827270508e-01,1.910203099250793457e-01,1.910155117511749268e-01,1.910104453563690186e-01,1.909843385219573975e-01,1.911745071411132812e-01,1.909343004226684570e-01,1.855055391788482666e-01,1.888251900672912598e-01,2.111615836620330811e-01,2.390381395816802979e-01,3.060086965560913086e-01,3.529711067676544189e-01
3.607224822044372559e-01,2.692643404006958008e-01,2.419607937335968018e-01,2.106676101684570312e-01,1.876756548881530762e-01,1.836446523666381836e-01,1.856971979141235352e-01,1.860921084880828857e-01,1.864756643772125244e-01,1.864482164382934570e-01,1.864354908466339111e-01,1.864316463470458984e-01,1.864278018474578857e-01,1.864237785339355469e-01,1.864199340343475342e-01,1.864160597324371338e-01,1.864122152328491211e-01,1.864084303379058838e-01,1.864045858383178711e-01,1.864007115364074707e-01,1.863968074321746826e-01,1.863930225372314453e-01,1.863892972469329834e-01,1.863851845264434814e-01,1.863814294338226318e-01,1.863775849342346191e-01,1.863737404346466064e-01,1.863698363304138184e-01,1.863659024238586426e-01,1.863622963428497314e-01,1.863582730293273926e-01,1.863544583320617676e-01,1.863507330417633057e-01,1.863465309143066406e-01,1.863429546356201172e-01,1.863389015197753906e-01,1.863352358341217041e-01,1.863312125205993652e-01,1.863276958465576172e-01,1.863235831260681152e-01,1.863197982311248779e-01,1.863159537315368652e-01,1.863119900226593018e-01,1.863081157207489014e-01,1.863043606281280518e-01,1.863004863262176514e-01,1.862965822219848633e-01,1.862928569316864014e-01,1.862888932228088379e-01,1.862852573394775391e-01,1.862813532352447510e-01,1.862775683403015137e-01,1.862736344337463379e-01,1.862699091434478760e-01,1.862660348415374756e-01,1.862620413303375244e-01,1.862582862377166748e-01,1.862542331218719482e-01,1.862505674362182617e-01,1.862467229366302490e-01,1.862429082393646240e-01,1.862392127513885498e-01,1.862352192401885986e-01,1.862314045429229736e-01,1.862276494503021240e-01,1.862238049507141113e-01,1.862198412418365479e-01,1.862161755561828613e-01,1.862123310565948486e-01,1.862083375453948975e-01,1.862035095691680908e-01,1.861803829669952393e-01,1.863542497158050537e-01,1.861621439456939697e-01,1.809770762920379639e-01,1.842915117740631104e-01,2.064204812049865723e-01,2.345715463161468506e-01,3.019202351570129395e-01,3.503384590148925781e-01
3.576377034187316895e-01,2.654606699943542480e-01,2.376333773136138916e-01,2.067421078681945801e-01,1.837375164031982422e-01,1.796106100082397461e-01,1.815584301948547363e-01,1.819115877151489258e-01,1.822721064090728760e-01,1.822468936443328857e-01,1.822350621223449707e-01,1.822316944599151611e-01,1.822281479835510254e-01,1.822246909141540527e-01,1.822213828563690186e-01,1.822179555892944336e-01,1.822144687175750732e-01,1.822109818458557129e-01,1.822076737880706787e-01,1.822042465209960938e-01,1.822009384632110596e-01,1.821974813938140869e-01,1.821941435337066650e-01,1.821907758712768555e-01,1.821874976158142090e-01,1.821841001510620117e-01,1.821805238723754883e-01,1.821772158145904541e-01,1.821737587451934814e-01,1.821705400943756104e-01,1.821671128273010254e-01,1.821636855602264404e-01,1.821601390838623047e-01,1.821568310260772705e-01,1.821534931659698486e-01,1.821500957012176514e-01,1.821465492248535156e-01,1.821432709693908691e-01,1.821398735046386719e-01,1.821363568305969238e-01,1.821329891681671143e-01,1.821298003196716309e-01,1.821264326572418213e-01,1.821229457855224609e-01,1.821196377277374268e-01,1.821161806583404541e-01,1.821127533912658691e-01,1.821094453334808350e-01,1.821060478687286377e-01,1.821027100086212158e-01,1.820992827415466309e-01,1.820958852767944336e-01,1.820925474166870117e-01,1.820892989635467529e-01,1.820856034755706787e-01,1.820824146270751953e-01,1.820790171623229980e-01,1.820755302906036377e-01,1.820721626281738281e-01,1.820687949657440186e-01,1.820655167102813721e-01,1.820620000362396240e-01,1.820586323738098145e-01,1.820551753044128418e-01,1.820519566535949707e-01,1.820484697818756104e-01,1.820451319217681885e-01,1.820417344570159912e-01,1.820383965969085693e-01,1.820350885391235352e-01,1.820309460163116455e-01,1.820098459720611572e-01,1.821687519550323486e-01,1.820168793201446533e-01,1.770415306091308594e-01,1.803443729877471924e-01,2.022838890552520752e-01,2.306702733039855957e-01,2.983124554157257080e-01,3.479948043823242188e-01
3.552460670471191406e-01,2.622944116592407227e-01,2.341432869434356689e-01,2.035858035087585449e-01,1.805850565433502197e-01,1.763872802257537842e-01,1.782721281051635742e-01,1.786175370216369629e-01,1.789578199386596680e-01,1.789333820343017578e-01,1.789227426052093506e-01,1.789196431636810303e-01,1.789166629314422607e-01,1.789136230945587158e-01,1.789104342460632324e-01,1.789076626300811768e-01,1.789045333862304688e-01,1.789013147354125977e-01,1.788986027240753174e-01,1.788953542709350586e-01,1.788925528526306152e-01,1.788896322250366211e-01,1.788862645626068115e-01,1.788834035396575928e-01,1.788804531097412109e-01,1.788772642612457275e-01,1.788742244243621826e-01,1.788713634014129639e-01,1.788682639598846436e-01,1.788652837276458740e-01,1.788622736930847168e-01,1.788592338562011719e-01,1.788561940193176270e-01,1.788531839847564697e-01,1.788500249385833740e-01,1.788471937179565430e-01,1.788441836833953857e-01,1.788410544395446777e-01,1.788380742073059082e-01,1.788351237773895264e-01,1.788320839405059814e-01,1.788289248943328857e-01,1.788261234760284424e-01,1.788231134414672852e-01,1.788199841976165771e-01,1.788170337677001953e-01,1.788139343261718750e-01,1.788111329078674316e-01,1.788080334663391113e-01,1.788049042224884033e-01,1.788018047809600830e-01,1.787988841533660889e-01,1.787959635257720947e-01,1.787928938865661621e-01,1.787899136543273926e-01,1.787869632244110107e-01,1.787835657596588135e-01,1.787809431552886963e-01,1.787777841091156006e-01,1.787748932838439941e-01,1.787720024585723877e-01,1.787686944007873535e-01,1.787656545639038086e-01,1.787627637386322021e-01,1.787597537040710449e-01,1.787568628787994385e-01,1.787537336349487305e-01,1.787506043910980225e-01,1.787475943565368652e-01,1.787446737289428711e-01,1.787410080432891846e-01,1.787219941616058350e-01,1.788699328899383545e-01,1.787465512752532959e-01,1.739453077316284180e-01,1.772530972957611084e-01,1.989204287528991699e-01,2.273628711700439453e-01,2.952058315277099609e-01,3.462715148925781250e-01
3.522584140300750732e-01,2.585262954235076904e-01,2.300036549568176270e-01,1.997267901897430420e-01,1.766580939292907715e-01,1.722872257232666016e-01,1.739270091056823730e-01,1.741954982280731201e-01,1.744953393936157227e-01,1.744749844074249268e-01,1.744654476642608643e-01,1.744628846645355225e-01,1.744601428508758545e-01,1.744575798511505127e-01,1.744548678398132324e-01,1.744521856307983398e-01,1.744497120380401611e-01,1.744470596313476562e-01,1.744442284107208252e-01,1.744415462017059326e-01,1.744390428066253662e-01,1.744362413883209229e-01,1.744337379932403564e-01,1.744311749935150146e-01,1.744285225868225098e-01,1.744257807731628418e-01,1.744232177734375000e-01,1.744205355644226074e-01,1.744177937507629395e-01,1.744152307510375977e-01,1.744127571582794189e-01,1.744099855422973633e-01,1.744072437286376953e-01,1.744045913219451904e-01,1.744019389152526855e-01,1.743992269039154053e-01,1.743966639041900635e-01,1.743941009044647217e-01,1.743914484977722168e-01,1.743887662887573242e-01,1.743861436843872070e-01,1.743835806846618652e-01,1.743808388710021973e-01,1.743781268596649170e-01,1.743755042552947998e-01,1.743729114532470703e-01,1.743701994419097900e-01,1.743677854537963867e-01,1.743648648262023926e-01,1.743622422218322754e-01,1.743596494197845459e-01,1.743571460247039795e-01,1.743544638156890869e-01,1.743516623973846436e-01,1.743492186069488525e-01,1.743465065956115723e-01,1.743440032005310059e-01,1.743411719799041748e-01,1.743387877941131592e-01,1.743359863758087158e-01,1.743332445621490479e-01,1.743305325508117676e-01,1.743281483650207520e-01,1.743254065513610840e-01,1.743228435516357422e-01,1.743201911449432373e-01,1.743174493312835693e-01,1.743150055408477783e-01,1.743122339248657227e-01,1.743095517158508301e-01,1.743064522743225098e-01,1.742886006832122803e-01,1.744314134120941162e-01,1.743099093437194824e-01,1.696808338165283203e-01,1.730761826038360596e-01,1.948019862174987793e-01,2.234551012516021729e-01,2.916901111602783203e-01,3.432709574699401855e-01
3.534523248672485352e-01,2.556055486202239990e-01,2.290335297584533691e-01,1.991984248161315918e-01,1.747835576534271240e-01,1.703473925590515137e-01,1.715839505195617676e-01,1.718492507934570312e-01,1.721448302268981934e-01,1.721247434616088867e-01,1.721164584159851074e-01,1.721141934394836426e-01,1.721117198467254639e-01,1.721095740795135498e-01,1.721069514751434326e-01,1.721047461032867432e-01,1.721024811267852783e-01,1.721000969409942627e-01,1.720975637435913086e-01,1.720952093601226807e-01,1.720927655696868896e-01,1.720904111862182617e-01,1.720879971981048584e-01,1.720858514308929443e-01,1.720833778381347656e-01,1.720812022686004639e-01,1.720787584781646729e-01,1.720763146877288818e-01,1.720740199089050293e-01,1.720715463161468506e-01,1.720693111419677734e-01,1.720666587352752686e-01,1.720645129680633545e-01,1.720623970031738281e-01,1.720599234104156494e-01,1.720575690269470215e-01,1.720549762248992920e-01,1.720527410507202148e-01,1.720504164695739746e-01,1.720479428768157959e-01,1.720457971096038818e-01,1.720432341098785400e-01,1.720409691333770752e-01,1.720387339591979980e-01,1.720363497734069824e-01,1.720339059829711914e-01,1.720314919948577881e-01,1.720291674137115479e-01,1.720267534255981445e-01,1.720243990421295166e-01,1.720221042633056641e-01,1.720198094844818115e-01,1.720174849033355713e-01,1.720150113105773926e-01,1.720126867294311523e-01,1.720104217529296875e-01,1.720078885555267334e-01,1.720054745674133301e-01,1.720032095909118652e-01,1.720008850097656250e-01,1.719984412193298340e-01,1.719961762428283691e-01,1.719940602779388428e-01,1.719914674758911133e-01,1.719891428947448730e-01,1.719868779182434082e-01,1.719843447208404541e-01,1.719822287559509277e-01,1.719796955585479736e-01,1.719774901866912842e-01,1.719750761985778809e-01,1.719549298286437988e-01,1.720598936080932617e-01,1.720527112483978271e-01,1.679028272628784180e-01,1.713138222694396973e-01,1.922466456890106201e-01,2.205635309219360352e-01,2.916410863399505615e-01,3.415904939174652100e-01
3.557899594306945801e-01,2.536366879940032959e-01,2.169761061668395996e-01,1.914370954036712646e-01,1.698949933052062988e-01,1.649757623672485352e-01,1.661608815193176270e-01,1.664642095565795898e-01,1.667151749134063721e-01,1.666952073574066162e-01,1.666880249977111816e-01,1.666860282421112061e-01,1.666841804981231689e-01,1.666820347309112549e-01,1.666799485683441162e-01,1.666779518127441406e-01,1.666758954524993896e-01,1.666739583015441895e-01,1.666719317436218262e-01,1.666698157787322998e-01,1.666677296161651611e-01,1.666654944419860840e-01,1.666637659072875977e-01,1.666616499423980713e-01,1.666597127914428711e-01,1.666576862335205078e-01,1.666557490825653076e-01,1.666534841060638428e-01,1.666515767574310303e-01,1.666494309902191162e-01,1.666473448276519775e-01,1.666453480720520020e-01,1.666431128978729248e-01,1.666412651538848877e-01,1.666393578052520752e-01,1.666371226310729980e-01,1.666353046894073486e-01,1.666332185268402100e-01,1.666312813758850098e-01,1.666289865970611572e-01,1.666270792484283447e-01,1.666250526905059814e-01,1.666230857372283936e-01,1.666209399700164795e-01,1.666189730167388916e-01,1.666169166564941406e-01,1.666149199008941650e-01,1.666128337383270264e-01,1.666107773780822754e-01,1.666087508201599121e-01,1.666067242622375488e-01,1.666048467159271240e-01,1.666026413440704346e-01,1.666006147861480713e-01,1.665985882282257080e-01,1.665966808795928955e-01,1.665945053100585938e-01,1.665925681591033936e-01,1.665906012058258057e-01,1.665885150432586670e-01,1.665863990783691406e-01,1.665843725204467773e-01,1.665824949741363525e-01,1.665802896022796631e-01,1.665782034397125244e-01,1.665762066841125488e-01,1.665744483470916748e-01,1.665722727775573730e-01,1.665703058242797852e-01,1.665682792663574219e-01,1.665679514408111572e-01,1.665438413619995117e-01,1.666114628314971924e-01,1.667937338352203369e-01,1.623816490173339844e-01,1.654358208179473877e-01,1.886175274848937988e-01,2.108105421066284180e-01,2.860375642776489258e-01,3.337823748588562012e-01
3.380686044692993164e-01,2.402381598949432373e-01,2.027127742767333984e-01,1.804870069026947021e-01,1.658504009246826172e-01,1.592123210430145264e-01,1.592747271060943604e-01,1.594829559326171875e-01,1.597141623497009277e-01,1.596970260143280029e-01,1.596919596195220947e-01,1.596903800964355469e-01,1.596885621547698975e-01,1.596869826316833496e-01,1.596854031085968018e-01,1.596836745738983154e-01,1.596820652484893799e-01,1.596804261207580566e-01,1.596787869930267334e-01,1.596771776676177979e-01,1.596755385398864746e-01,1.596737205982208252e-01,1.596722602844238281e-01,1.596705019474029541e-01,1.596688926219940186e-01,1.596671938896179199e-01,1.596654951572418213e-01,1.596640348434448242e-01,1.596624851226806641e-01,1.596607565879821777e-01,1.596592068672180176e-01,1.596575677394866943e-01,1.596559286117553711e-01,1.596542000770568848e-01,1.596523523330688477e-01,1.596508920192718506e-01,1.596491634845733643e-01,1.596476733684539795e-01,1.596459150314331055e-01,1.596443653106689453e-01,1.596427857875823975e-01,1.596410572528839111e-01,1.596393883228302002e-01,1.596378087997436523e-01,1.596360802650451660e-01,1.596343815326690674e-01,1.596327722072601318e-01,1.596312820911407471e-01,1.596296429634094238e-01,1.596277654170989990e-01,1.596262156963348389e-01,1.596246361732482910e-01,1.596231162548065186e-01,1.596213877201080322e-01,1.596197485923767090e-01,1.596179902553558350e-01,1.596166193485260010e-01,1.596147716045379639e-01,1.596132218837738037e-01,1.596115231513977051e-01,1.596098542213439941e-01,1.596082448959350586e-01,1.596067249774932861e-01,1.596049368381500244e-01,1.596034765243530273e-01,1.596017181873321533e-01,1.596002876758575439e-01,1.595984697341918945e-01,1.595969498157501221e-01,1.595951616764068604e-01,1.595933735370635986e-01,1.595656573772430420e-01,1.596048772335052490e-01,1.598362922668457031e-01,1.557659506797790527e-01,1.533359289169311523e-01,1.688711345195770264e-01,2.049832940101623535e-01,2.839697599411010742e-01,3.553460240364074707e-01
3.297489881515502930e-01,2.279991507530212402e-01,1.979698240756988525e-01,1.790182292461395264e-01,1.636393070220947266e-01,1.572910845279693604e-01,1.598440706729888916e-01,1.601184904575347900e-01,1.602991521358489990e-01,1.602832973003387451e-01,1.602794229984283447e-01,1.602780818939208984e-01,1.602765321731567383e-01,1.602753102779388428e-01,1.602739691734313965e-01,1.602724194526672363e-01,1.602710187435150146e-01,1.602694988250732422e-01,1.602681875228881836e-01,1.602667272090911865e-01,1.602652668952941895e-01,1.602638363838195801e-01,1.602624058723449707e-01,1.602608859539031982e-01,1.602594852447509766e-01,1.602581441402435303e-01,1.602565050125122070e-01,1.602552533149719238e-01,1.602538526058197021e-01,1.602524816989898682e-01,1.602508127689361572e-01,1.602495610713958740e-01,1.602481305599212646e-01,1.602467298507690430e-01,1.602452993392944336e-01,1.602437794208526611e-01,1.602424979209899902e-01,1.602410376071929932e-01,1.602396368980407715e-01,1.602381467819213867e-01,1.602367460727691650e-01,1.602354049682617188e-01,1.602339148521423340e-01,1.602324247360229492e-01,1.602310538291931152e-01,1.602296233177185059e-01,1.602282524108886719e-01,1.602269113063812256e-01,1.602253317832946777e-01,1.602240502834320068e-01,1.602225601673126221e-01,1.602210402488708496e-01,1.602194309234619141e-01,1.602181494235992432e-01,1.602168083190917969e-01,1.602153182029724121e-01,1.602139174938201904e-01,1.602124571800231934e-01,1.602111160755157471e-01,1.602095365524291992e-01,1.602081954479217529e-01,1.602068245410919189e-01,1.602054834365844727e-01,1.602039635181427002e-01,1.602025330066680908e-01,1.602013409137725830e-01,1.601997315883636475e-01,1.601982116699218750e-01,1.601969301700592041e-01,1.601954698562622070e-01,1.601965129375457764e-01,1.601752042770385742e-01,1.602490246295928955e-01,1.604155898094177246e-01,1.554427742958068848e-01,1.561049520969390869e-01,1.747399568557739258e-01,1.962422728538513184e-01,3.100830316543579102e-01,3.704560101032257080e-01
3.673303127288818359e-01,2.730020880699157715e-01,2.366622090339660645e-01,1.968866288661956787e-01,1.776401102542877197e-01,1.728612184524536133e-01,1.740677356719970703e-01,1.743156909942626953e-01,1.744402647018432617e-01,1.744308769702911377e-01,1.744285523891448975e-01,1.744275093078613281e-01,1.744265556335449219e-01,1.744256019592285156e-01,1.744244694709777832e-01,1.744234859943389893e-01,1.744224131107330322e-01,1.744215190410614014e-01,1.744205355644226074e-01,1.744196712970733643e-01,1.744185686111450195e-01,1.744176149368286133e-01,1.744166910648345947e-01,1.744156181812286377e-01,1.744146645069122314e-01,1.744137406349182129e-01,1.744126081466674805e-01,1.744117736816406250e-01,1.744108498096466064e-01,1.744097471237182617e-01,1.744088232517242432e-01,1.744077205657958984e-01,1.744067370891571045e-01,1.744056642055511475e-01,1.744047403335571289e-01,1.744036376476287842e-01,1.744028627872467041e-01,1.744018197059631348e-01,1.744008660316467285e-01,1.743998527526855469e-01,1.743989586830139160e-01,1.743977367877960205e-01,1.743968725204467773e-01,1.743958294391632080e-01,1.743948459625244141e-01,1.743938624858856201e-01,1.743928492069244385e-01,1.743920445442199707e-01,1.743909120559692383e-01,1.743899285793304443e-01,1.743888854980468750e-01,1.743878722190856934e-01,1.743868589401245117e-01,1.743859648704528809e-01,1.743849217891693115e-01,1.743840277194976807e-01,1.743829846382141113e-01,1.743820011615753174e-01,1.743811368942260742e-01,1.743800044059753418e-01,1.743790507316589355e-01,1.743781566619873047e-01,1.743770539760589600e-01,1.743758618831634521e-01,1.743749678134918213e-01,1.743742823600769043e-01,1.743731200695037842e-01,1.743721961975097656e-01,1.743712127208709717e-01,1.743701696395874023e-01,1.743692159652709961e-01,1.743551492691040039e-01,1.744396984577178955e-01,1.744467616081237793e-01,1.704320311546325684e-01,1.741127371788024902e-01,1.803810894489288330e-01,1.959730982780456543e-01,2.897708714008331299e-01,3.657968044281005859e-01
