5.884759426116943359e-01,6.139594912528991699e-01,6.563307046890258789e-01,6.571235060691833496e-01,6.807249784469604492e-01,7.049876451492309570e-01,7.413086295127868652e-01,7.627381086349487305e-01,7.834837436676025391e-01,8.020347356796264648e-01,8.197855949401855469e-01,8.366064429283142090e-01,8.516545891761779785e-01,8.648965358734130859e-01,8.764174580574035645e-01,8.860179185867309570e-01,8.930646181106567383e-01,8.978267312049865723e-01,9.010757207870483398e-01,9.031780958175659180e-01,9.043441414833068848e-01,9.049906730651855469e-01,9.052336215972900391e-01,9.052965641021728516e-01,9.053111076354980469e-01,9.053096771240234375e-01,9.053092002868652344e-01,9.053092002868652344e-01,9.053092002868652344e-01,9.053092002868652344e-01,9.053092002868652344e-01,9.053092002868652344e-01,9.053092002868652344e-01,9.053092002868652344e-01,9.053092002868652344e-01,9.053092002868652344e-01,9.053092002868652344e-01,9.053092002868652344e-01,9.053092002868652344e-01,9.053092002868652344e-01,9.053092002868652344e-01,9.053092002868652344e-01,9.053092002868652344e-01,9.053092002868652344e-01,9.053090810775756836e-01,9.053066372871398926e-01,9.053487181663513184e-01,9.058866500854492188e-01,9.058529734611511230e-01,9.011738300323486328e-01,8.929979801177978516e-01,8.809732198715209961e-01,8.590745925903320312e-01,8.296517133712768555e-01,7.753297090530395508e-01,6.598287820816040039e-01,5.695489048957824707e-01,5.078501105308532715e-01,4.497151374816894531e-01,4.075220227241516113e-01,3.789188861846923828e-01,3.672471046447753906e-01,3.679906725883483887e-01,3.843234479427337646e-01,3.899888992309570312e-01,3.993321657180786133e-01,4.429015815258026123e-01,4.899029135704040527e-01,5.295371413230895996e-01,5.690912604331970215e-01,6.178718209266662598e-01,6.770548820495605469e-01,7.308975458145141602e-01,7.639412879943847656e-01,7.703434228897094727e-01,7.633457183837890625e-01,7.728181481361389160e-01,7.599967122077941895e-01,7.135438919067382812e-01,6.117525100708007812e-01
5.885012149810791016e-01,6.139479279518127441e-01,6.565037965774536133e-01,6.572775840759277344e-01,6.807771921157836914e-01,7.049942016601562500e-01,7.413735389709472656e-01,7.627732157707214355e-01,7.835447788238525391e-01,8.021687269210815430e-01,8.199286460876464844e-01,8.364087939262390137e-01,8.515362143516540527e-01,8.648512363433837891e-01,8.763726353645324707e-01,8.859378099441528320e-01,8.930208683013916016e-01,8.977286815643310547e-01,9.010208845138549805e-01,9.031490683555603027e-01,9.043530821800231934e-01,9.050096273422241211e-01,9.052693843841552734e-01,9.053224921226501465e-01,9.053358435630798340e-01,9.053343534469604492e-01,9.053338766098022461e-01,9.053338766098022461e-01,9.053338766098022461e-01,9.053338766098022461e-01,9.053338766098022461e-01,9.053338766098022461e-01,9.053338766098022461e-01,9.053338766098022461e-01,9.053338766098022461e-01,9.053338766098022461e-01,9.053338766098022461e-01,9.053338766098022461e-01,9.053338766098022461e-01,9.053338766098022461e-01,9.053338766098022461e-01,9.053338766098022461e-01,9.053338766098022461e-01,9.053338766098022461e-01,9.053338766098022461e-01,9.053354263305664062e-01,9.053280353546142578e-01,9.057958126068115234e-01,9.054824709892272949e-01,9.011063575744628906e-01,8.927721381187438965e-01,8.811256885528564453e-01,8.620985746383666992e-01,8.331311345100402832e-01,7.764968872070312500e-01,6.699506640434265137e-01,5.690465569496154785e-01,5.060654878616333008e-01,4.537894129753112793e-01,4.127310216426849365e-01,3.797992467880249023e-01,3.703480064868927002e-01,3.758633732795715332e-01,4.015017747879028320e-01,3.938897252082824707e-01,4.207985997200012207e-01,4.419136047363281250e-01,5.187656283378601074e-01,5.511631965637207031e-01,5.883342027664184570e-01,6.175254583358764648e-01,6.511941552162170410e-01,7.098793387413024902e-01,7.444714903831481934e-01,7.564190626144409180e-01,7.528386712074279785e-01,7.636164426803588867e-01,7.511287927627563477e-01,7.103747129440307617e-01,6.100518703460693359e-01
5.884802937507629395e-01,6.139110326766967773e-01,6.564778685569763184e-01,6.572378277778625488e-01,6.807463169097900391e-01,7.049646377563476562e-01,7.413293123245239258e-01,7.627432346343994141e-01,7.835166454315185547e-01,8.021473884582519531e-01,8.199397921562194824e-01,8.364353179931640625e-01,8.513953685760498047e-01,8.647888302803039551e-01,8.763929605484008789e-01,8.858845233917236328e-01,8.929585814476013184e-01,8.977018594741821289e-01,9.009693861007690430e-01,9.031197428703308105e-01,9.043424129486083984e-01,9.050059914588928223e-01,9.052579998970031738e-01,9.053188562393188477e-01,9.053306579589843750e-01,9.053287506103515625e-01,9.053283333778381348e-01,9.053283333778381348e-01,9.053283333778381348e-01,9.053283333778381348e-01,9.053283333778381348e-01,9.053283333778381348e-01,9.053283333778381348e-01,9.053283333778381348e-01,9.053283333778381348e-01,9.053283333778381348e-01,9.053283333778381348e-01,9.053283333778381348e-01,9.053283333778381348e-01,9.053283333778381348e-01,9.053283333778381348e-01,9.053283333778381348e-01,9.053283333778381348e-01,9.053283333778381348e-01,9.053291082382202148e-01,9.053299427032470703e-01,9.053490757942199707e-01,9.056499004364013672e-01,9.058336019515991211e-01,9.014369249343872070e-01,8.943728208541870117e-01,8.805114030838012695e-01,8.626307249069213867e-01,8.328560590744018555e-01,7.780933976173400879e-01,6.699946522712707520e-01,5.736330151557922363e-01,5.024755001068115234e-01,4.583006501197814941e-01,4.050754904747009277e-01,3.764910101890563965e-01,3.664060831069946289e-01,3.759574294090270996e-01,3.957733809947967529e-01,4.071957170963287354e-01,4.317404031753540039e-01,4.896059930324554443e-01,5.377371907234191895e-01,5.817218422889709473e-01,6.165118217468261719e-01,6.340721845626831055e-01,6.619409918785095215e-01,6.893832087516784668e-01,7.388040423393249512e-01,7.483019828796386719e-01,7.477628588676452637e-01,7.581917643547058105e-01,7.449659705162048340e-01,7.047733664512634277e-01,6.082581877708435059e-01
5.884733200073242188e-01,6.138995885848999023e-01,6.564646959304809570e-01,6.572222709655761719e-01,6.807286739349365234e-01,7.049446105957031250e-01,7.413129210472106934e-01,7.627194523811340332e-01,7.834950685501098633e-01,8.021346330642700195e-01,8.199266195297241211e-01,8.364295959472656250e-01,8.513959646224975586e-01,8.647278547286987305e-01,8.763759136199951172e-01,8.859142065048217773e-01,8.929374217987060547e-01,8.976858258247375488e-01,9.009733200073242188e-01,9.031088352203369141e-01,9.043349623680114746e-01,9.050054550170898438e-01,9.052594304084777832e-01,9.053182601928710938e-01,9.053307771682739258e-01,9.053288698196411133e-01,9.053283333778381348e-01,9.053283333778381348e-01,9.053283333778381348e-01,9.053283333778381348e-01,9.053283333778381348e-01,9.053283333778381348e-01,9.053283333778381348e-01,9.053283333778381348e-01,9.053283333778381348e-01,9.053283333778381348e-01,9.053283333778381348e-01,9.053283333778381348e-01,9.053283333778381348e-01,9.053283333778381348e-01,9.053283333778381348e-01,9.053283333778381348e-01,9.053283333778381348e-01,9.053283333778381348e-01,9.053286314010620117e-01,9.053297042846679688e-01,9.053366184234619141e-01,9.056795835494995117e-01,9.059218168258666992e-01,9.016790390014648438e-01,8.943828344345092773e-01,8.816043138504028320e-01,8.636878728866577148e-01,8.335583806037902832e-01,7.749957442283630371e-01,6.693860292434692383e-01,5.780327320098876953e-01,5.103512406349182129e-01,4.564708173274993896e-01,4.150079786777496338e-01,3.712103962898254395e-01,3.750531673431396484e-01,3.889258801937103271e-01,4.008074998855590820e-01,4.202551841735839844e-01,4.478548765182495117e-01,4.955364465713500977e-01,5.806512832641601562e-01,6.128798723220825195e-01,6.476999521255493164e-01,6.678635478019714355e-01,6.751580834388732910e-01,7.039840221405029297e-01,7.226414680480957031e-01,7.321462035179138184e-01,7.489875555038452148e-01,7.503948211669921875e-01,7.379272580146789551e-01,6.920483112335205078e-01,6.051964163780212402e-01
5.884664058685302734e-01,6.138883829116821289e-01,6.564514636993408203e-01,6.572069525718688965e-01,6.807118058204650879e-01,7.049267292022705078e-01,7.412939071655273438e-01,7.627025842666625977e-01,7.834753990173339844e-01,8.021141290664672852e-01,8.199133872985839844e-01,8.364168405532836914e-01,8.513845801353454590e-01,8.647173643112182617e-01,8.763567209243774414e-01,8.859026432037353516e-01,8.929393291473388672e-01,8.976821899414062500e-01,9.009668827056884766e-01,9.031097888946533203e-01,9.043337106704711914e-01,9.050043821334838867e-01,9.052593708038330078e-01,9.053182005882263184e-01,9.053307175636291504e-01,9.053288698196411133e-01,9.053283333778381348e-01,9.053283333778381348e-01,9.053283333778381348e-01,9.053283333778381348e-01,9.053283333778381348e-01,9.053283333778381348e-01,9.053283333778381348e-01,9.053283333778381348e-01,9.053283333778381348e-01,9.053283333778381348e-01,9.053283333778381348e-01,9.053283333778381348e-01,9.053283333778381348e-01,9.053283333778381348e-01,9.053283333778381348e-01,9.053283333778381348e-01,9.053283333778381348e-01,9.053283333778381348e-01,9.053283929824829102e-01,9.053283333778381348e-01,9.053492546081542969e-01,9.058041572570800781e-01,9.058725237846374512e-01,9.018676280975341797e-01,8.941693902015686035e-01,8.820418119430541992e-01,8.671824336051940918e-01,8.370116353034973145e-01,7.858321070671081543e-01,6.812680363655090332e-01,5.734993815422058105e-01,5.248709321022033691e-01,4.520811438560485840e-01,4.153249263763427734e-01,3.737604618072509766e-01,3.738806843757629395e-01,3.875497579574584961e-01,4.094912409782409668e-01,4.336390495300292969e-01,4.696080982685089111e-01,5.157222747802734375e-01,6.151646971702575684e-01,6.623736619949340820e-01,6.719378829002380371e-01,6.888349652290344238e-01,6.977365016937255859e-01,7.305085659027099609e-01,7.320920825004577637e-01,7.175924777984619141e-01,7.426866888999938965e-01,7.621386051177978516e-01,7.319169044494628906e-01,6.921451091766357422e-01,5.991446375846862793e-01
5.884594917297363281e-01,6.138772368431091309e-01,6.564384102821350098e-01,6.571917533874511719e-01,6.806949377059936523e-01,7.049095034599304199e-01,7.412762641906738281e-01,7.626844048500061035e-01,7.834579944610595703e-01,8.020963668823242188e-01,8.198961615562438965e-01,8.364021778106689453e-01,8.513699769973754883e-01,8.647048473358154297e-01,8.763458728790283203e-01,8.858938217163085938e-01,8.929321169853210449e-01,8.976776003837585449e-01,9.009642601013183594e-01,9.031083583831787109e-01,9.043329954147338867e-01,9.050039052963256836e-01,9.052593708038330078e-01,9.053181409835815430e-01,9.053306579589843750e-01,9.053288698196411133e-01,9.053283333778381348e-01,9.053283333778381348e-01,9.053283333778381348e-01,9.053283333778381348e-01,9.053283333778381348e-01,9.053283333778381348e-01,9.053283333778381348e-01,9.053283333778381348e-01,9.053283333778381348e-01,9.053283333778381348e-01,9.053283333778381348e-01,9.053283333778381348e-01,9.053283333778381348e-01,9.053283333778381348e-01,9.053283333778381348e-01,9.053283333778381348e-01,9.053283333778381348e-01,9.053283333778381348e-01,9.053283333778381348e-01,9.053287506103515625e-01,9.053417444229125977e-01,9.057532548904418945e-01,9.056128263473510742e-01,9.024420976638793945e-01,8.930951356887817383e-01,8.845163583755493164e-01,8.663253784179687500e-01,8.423733711242675781e-01,7.866618633270263672e-01,6.834169030189514160e-01,5.857073664665222168e-01,5.185372829437255859e-01,4.712993800640106201e-01,4.200715720653533936e-01,3.885372877120971680e-01,3.791123032569885254e-01,3.933500349521636963e-01,4.207473397254943848e-01,4.612621665000915527e-01,4.840077459812164307e-01,5.426228642463684082e-01,6.285817623138427734e-01,6.985034942626953125e-01,7.283458113670349121e-01,7.221596240997314453e-01,7.296742200851440430e-01,7.270104885101318359e-01,7.575541734695434570e-01,7.279115319252014160e-01,7.268093228340148926e-01,7.564677000045776367e-01,7.398433685302734375e-01,6.906984448432922363e-01,5.939743518829345703e-01
5.884526371955871582e-01,6.138662099838256836e-01,6.564255952835083008e-01,6.571767330169677734e-01,6.806784868240356445e-01,7.048926353454589844e-01,7.412590384483337402e-01,7.626670598983764648e-01,7.834407091140747070e-01,8.020790815353393555e-01,8.198797702789306641e-01,8.363867402076721191e-01,8.513561487197875977e-01,8.646922111511230469e-01,8.763348460197448730e-01,8.858852982521057129e-01,8.929259777069091797e-01,8.976736068725585938e-01,9.009613990783691406e-01,9.031068682670593262e-01,9.043320417404174805e-01,9.050033092498779297e-01,9.052591919898986816e-01,9.053180217742919922e-01,9.053306579589843750e-01,9.053288698196411133e-01,9.053283333778381348e-01,9.053283333778381348e-01,9.053283333778381348e-01,9.053283333778381348e-01,9.053283333778381348e-01,9.053283333778381348e-01,9.053283333778381348e-01,9.053283333778381348e-01,9.053283333778381348e-01,9.053283333778381348e-01,9.053283333778381348e-01,9.053283333778381348e-01,9.053283333778381348e-01,9.053283333778381348e-01,9.053283333778381348e-01,9.053283333778381348e-01,9.053283333778381348e-01,9.053283333778381348e-01,9.053283333778381348e-01,9.053325057029724121e-01,9.053583741188049316e-01,9.058842062950134277e-01,9.061846733093261719e-01,9.017459154129028320e-01,8.952927589416503906e-01,8.833971023559570312e-01,8.675394654273986816e-01,8.440560698509216309e-01,7.927054166793823242e-01,7.042648196220397949e-01,6.028284430503845215e-01,5.510802268981933594e-01,4.948588013648986816e-01,4.285753369331359863e-01,3.952443301677703857e-01,3.746976554393768311e-01,4.065557420253753662e-01,4.256660342216491699e-01,4.671157300472259521e-01,5.093275904655456543e-01,5.583294630050659180e-01,6.592602729797363281e-01,7.126973867416381836e-01,7.558581829071044922e-01,7.699066996574401855e-01,7.553390264511108398e-01,7.559284567832946777e-01,7.652652263641357422e-01,7.486864924430847168e-01,7.338156104087829590e-01,7.510083913803100586e-01,7.414252758026123047e-01,6.982607245445251465e-01,5.965434312820434570e-01
5.884459018707275391e-01,6.138554215431213379e-01,6.564128398895263672e-01,6.571619510650634766e-01,6.806622147560119629e-01,7.048755884170532227e-01,7.412420511245727539e-01,7.626501321792602539e-01,7.834235429763793945e-01,8.020621538162231445e-01,8.198634386062622070e-01,8.363716006278991699e-01,8.513423204421997070e-01,8.646798729896545410e-01,8.763240575790405273e-01,8.858765363693237305e-01,8.929201364517211914e-01,8.976694345474243164e-01,9.009583592414855957e-01,9.031051397323608398e-01,9.043312072753906250e-01,9.050029516220092773e-01,9.052590131759643555e-01,9.053180217742919922e-01,9.053307175636291504e-01,9.053288698196411133e-01,9.053283333778381348e-01,9.053283333778381348e-01,9.053283333778381348e-01,9.053283333778381348e-01,9.053283333778381348e-01,9.053283333778381348e-01,9.053283333778381348e-01,9.053283333778381348e-01,9.053283333778381348e-01,9.053283333778381348e-01,9.053283333778381348e-01,9.053283333778381348e-01,9.053283333778381348e-01,9.053283333778381348e-01,9.053283333778381348e-01,9.053283333778381348e-01,9.053283333778381348e-01,9.053283333778381348e-01,9.053283333778381348e-01,9.053380489349365234e-01,9.053463935852050781e-01,9.057362079620361328e-01,9.055165052413940430e-01,9.013288021087646484e-01,8.941832184791564941e-01,8.852463960647583008e-01,8.727765083312988281e-01,8.522048592567443848e-01,8.012852668762207031e-01,7.173035740852355957e-01,6.067334413528442383e-01,5.619078874588012695e-01,5.040562152862548828e-01,4.494437277317047119e-01,3.993054032325744629e-01,3.967187702655792236e-01,4.104214906692504883e-01,4.408852458000183105e-01,4.701329469680786133e-01,5.309991836547851562e-01,5.967003107070922852e-01,6.669718623161315918e-01,7.395297288894653320e-01,7.687878608703613281e-01,8.057584762573242188e-01,8.024305105209350586e-01,7.767484188079833984e-01,7.670427560806274414e-01,7.653055787086486816e-01,7.628509998321533203e-01,7.570875287055969238e-01,7.466031312942504883e-01,6.980437636375427246e-01,5.977324247360229492e-01
5.884398221969604492e-01,6.138451099395751953e-01,6.564006209373474121e-01,6.571474075317382812e-01,6.806463003158569336e-01,7.048591375350952148e-01,7.412254214286804199e-01,7.626332640647888184e-01,7.834068536758422852e-01,8.020455837249755859e-01,8.198475837707519531e-01,8.363567590713500977e-01,8.513289690017700195e-01,8.646677136421203613e-01,8.763132691383361816e-01,8.858680725097656250e-01,8.929139375686645508e-01,8.976656198501586914e-01,9.009554386138916016e-01,9.031034708023071289e-01,9.043302536010742188e-01,9.050022363662719727e-01,9.052591323852539062e-01,9.053180217742919922e-01,9.053307175636291504e-01,9.053288698196411133e-01,9.053283333778381348e-01,9.053283333778381348e-01,9.053283333778381348e-01,9.053283333778381348e-01,9.053283333778381348e-01,9.053283333778381348e-01,9.053283333778381348e-01,9.053283333778381348e-01,9.053283333778381348e-01,9.053283333778381348e-01,9.053283333778381348e-01,9.053283333778381348e-01,9.053283333778381348e-01,9.053283333778381348e-01,9.053283333778381348e-01,9.053283333778381348e-01,9.053283333778381348e-01,9.053283333778381348e-01,9.053283333778381348e-01,9.053375720977783203e-01,9.053511619567871094e-01,9.055447578430175781e-01,9.052659273147583008e-01,9.021820425987243652e-01,8.935861587524414062e-01,8.853131532669067383e-01,8.732074499130249023e-01,8.532598018646240234e-01,8.188053369522094727e-01,7.129334211349487305e-01,6.421224474906921387e-01,5.721289515495300293e-01,5.353382825851440430e-01,4.718973040580749512e-01,4.260121285915374756e-01,4.099565744400024414e-01,4.229755997657775879e-01,4.509088993072509766e-01,4.819314479827880859e-01,5.467147231101989746e-01,6.233305335044860840e-01,6.940554380416870117e-01,7.432495951652526855e-01,7.886993288993835449e-01,8.108724951744079590e-01,8.295303583145141602e-01,8.163190484046936035e-01,7.948763966560363770e-01,7.749204039573669434e-01,7.722053527832031250e-01,7.745972275733947754e-01,7.480418086051940918e-01,7.068729996681213379e-01,6.010115146636962891e-01
5.884342789649963379e-01,6.138356924057006836e-01,6.563893556594848633e-01,6.571338176727294922e-01,6.806309223175048828e-01,7.048431634902954102e-01,7.412093281745910645e-01,7.626171708106994629e-01,7.833905220031738281e-01,8.020293712615966797e-01,8.198323249816894531e-01,8.363424539566040039e-01,8.513156175613403320e-01,8.646557331085205078e-01,8.763029575347900391e-01,8.858597278594970703e-01,8.929081559181213379e-01,8.976616859436035156e-01,9.009526968002319336e-01,9.031017422676086426e-01,9.043291807174682617e-01,9.050018787384033203e-01,9.052589535713195801e-01,9.053180217742919922e-01,9.053307771682739258e-01,9.053288698196411133e-01,9.053283333778381348e-01,9.053283333778381348e-01,9.053283333778381348e-01,9.053283333778381348e-01,9.053283333778381348e-01,9.053283333778381348e-01,9.053283333778381348e-01,9.053283333778381348e-01,9.053283333778381348e-01,9.053283333778381348e-01,9.053283333778381348e-01,9.053283333778381348e-01,9.053283333778381348e-01,9.053283333778381348e-01,9.053283333778381348e-01,9.053283333778381348e-01,9.053283333778381348e-01,9.053283333778381348e-01,9.053283333778381348e-01,9.053282141685485840e-01,9.053344726562500000e-01,9.054361581802368164e-01,9.055927395820617676e-01,9.030026793479919434e-01,8.969609737396240234e-01,8.891983032226562500e-01,8.784862756729125977e-01,8.595769405364990234e-01,8.176835775375366211e-01,7.275429368019104004e-01,6.581895351409912109e-01,5.983034968376159668e-01,5.784331560134887695e-01,5.065093040466308594e-01,4.543749392032623291e-01,4.262448251247406006e-01,4.373377859592437744e-01,4.652228951454162598e-01,4.970404207706451416e-01,5.612089037895202637e-01,6.390210390090942383e-01,7.215211987495422363e-01,7.771793603897094727e-01,7.991682291030883789e-01,8.253461718559265137e-01,8.356756567955017090e-01,8.457019329071044922e-01,8.223267197608947754e-01,7.804119586944580078e-01,7.814571857452392578e-01,7.833806276321411133e-01,7.606112957000732422e-01,7.138814926147460938e-01,6.105886101722717285e-01
5.884294509887695312e-01,6.138274073600769043e-01,6.563792824745178223e-01,6.571215391159057617e-01,6.806167960166931152e-01,7.048283815383911133e-01,7.411940097808837891e-01,7.626013755798339844e-01,7.833746671676635742e-01,8.020137548446655273e-01,8.198171854019165039e-01,8.363284468650817871e-01,8.513027429580688477e-01,8.646442890167236328e-01,8.762928247451782227e-01,8.858516812324523926e-01,8.929025530815124512e-01,8.976579904556274414e-01,9.009498357772827148e-01,9.031002521514892578e-01,9.043284058570861816e-01,9.050014019012451172e-01,9.052587747573852539e-01,9.053179025650024414e-01,9.053307175636291504e-01,9.053288698196411133e-01,9.053283333778381348e-01,9.053283333778381348e-01,9.053283333778381348e-01,9.053283333778381348e-01,9.053283333778381348e-01,9.053283333778381348e-01,9.053283333778381348e-01,9.053283333778381348e-01,9.053283333778381348e-01,9.053283333778381348e-01,9.053283333778381348e-01,9.053283333778381348e-01,9.053283333778381348e-01,9.053283333778381348e-01,9.053283333778381348e-01,9.053283333778381348e-01,9.053283333778381348e-01,9.053283333778381348e-01,9.053283333778381348e-01,9.053257703781127930e-01,9.053332805633544922e-01,9.053343534469604492e-01,9.061846733093261719e-01,9.025590419769287109e-01,8.991791009902954102e-01,8.891448974609375000e-01,8.849174976348876953e-01,8.654555678367614746e-01,8.240106105804443359e-01,7.609881162643432617e-01,6.816142201423645020e-01,6.642049551010131836e-01,6.076068282127380371e-01,5.484268665313720703e-01,4.794317781925201416e-01,4.622204899787902832e-01,4.564226269721984863e-01,4.765599370002746582e-01,5.174937844276428223e-01,5.787836909294128418e-01,6.714004278182983398e-01,7.343248128890991211e-01,7.928311824798583984e-01,8.168538808822631836e-01,8.323119878768920898e-01,8.458098173141479492e-01,8.486375808715820312e-01,8.439774513244628906e-01,8.043501377105712891e-01,7.871530055999755859e-01,7.861477136611938477e-01,7.642640471458435059e-01,7.201318144798278809e-01,6.165762543678283691e-01
5.884248614311218262e-01,6.138198971748352051e-01,6.563701629638671875e-01,6.571109294891357422e-01,6.806043386459350586e-01,7.048152685165405273e-01,7.411798238754272461e-01,7.625869512557983398e-01,7.833597660064697266e-01,8.019984364509582520e-01,8.198029994964599609e-01,8.363151550292968750e-01,8.512905836105346680e-01,8.646332025527954102e-01,8.762828111648559570e-01,8.858438730239868164e-01,8.928968906402587891e-01,8.976542949676513672e-01,9.009473323822021484e-01,9.030987620353698730e-01,9.043276309967041016e-01,9.050009250640869141e-01,9.052588939666748047e-01,9.053179025650024414e-01,9.053307771682739258e-01,9.053288698196411133e-01,9.053283333778381348e-01,9.053283333778381348e-01,9.053283333778381348e-01,9.053283333778381348e-01,9.053283333778381348e-01,9.053283333778381348e-01,9.053283333778381348e-01,9.053283333778381348e-01,9.053283333778381348e-01,9.053283333778381348e-01,9.053283333778381348e-01,9.053283333778381348e-01,9.053283333778381348e-01,9.053283333778381348e-01,9.053283333778381348e-01,9.053283333778381348e-01,9.053283333778381348e-01,9.053283333778381348e-01,9.053283333778381348e-01,9.053279161453247070e-01,9.053177237510681152e-01,9.055529832839965820e-01,9.063657522201538086e-01,9.045995473861694336e-01,8.993309140205383301e-01,8.937782049179077148e-01,8.923518657684326172e-01,8.740963339805603027e-01,8.482176065444946289e-01,7.757686972618103027e-01,7.343298196792602539e-01,6.998773813247680664e-01,6.685150265693664551e-01,6.077587604522705078e-01,5.258319377899169922e-01,5.024009943008422852e-01,4.911077022552490234e-01,5.010270476341247559e-01,5.445426702499389648e-01,6.152963638305664062e-01,6.766048669815063477e-01,7.536758184432983398e-01,8.074693679809570312e-01,8.349566459655761719e-01,8.460043072700500488e-01,8.540571928024291992e-01,8.594519495964050293e-01,8.463793992996215820e-01,8.196471929550170898e-01,7.952682971954345703e-01,7.903296947479248047e-01,7.641068696975708008e-01,7.171859741210937500e-01,6.196964979171752930e-01
5.884205102920532227e-01,6.138127446174621582e-01,6.563615798950195312e-01,6.571010351181030273e-01,6.805933117866516113e-01,7.048036456108093262e-01,7.411678433418273926e-01,7.625741958618164062e-01,7.833464145660400391e-01,8.019847869873046875e-01,8.197891116142272949e-01,8.363023996353149414e-01,8.512785434722900391e-01,8.646225929260253906e-01,8.762735128402709961e-01,8.858361244201660156e-01,8.928914070129394531e-01,8.976508378982543945e-01,9.009445905685424805e-01,9.030972123146057129e-01,9.043266773223876953e-01,9.050005674362182617e-01,9.052586555480957031e-01,9.053179025650024414e-01,9.053307771682739258e-01,9.053288698196411133e-01,9.053283333778381348e-01,9.053283333778381348e-01,9.053283333778381348e-01,9.053283333778381348e-01,9.053283333778381348e-01,9.053283333778381348e-01,9.053283333778381348e-01,9.053283333778381348e-01,9.053283333778381348e-01,9.053283333778381348e-01,9.053283333778381348e-01,9.053283333778381348e-01,9.053283333778381348e-01,9.053283333778381348e-01,9.053283333778381348e-01,9.053283333778381348e-01,9.053283333778381348e-01,9.053283333778381348e-01,9.053283333778381348e-01,9.053212404251098633e-01,9.053360819816589355e-01,9.058397412300109863e-01,9.065581560134887695e-01,9.040800333023071289e-01,8.986853361129760742e-01,8.988457322120666504e-01,8.937776088714599609e-01,8.816773891448974609e-01,8.568260669708251953e-01,8.113640546798706055e-01,7.931224703788757324e-01,7.638959884643554688e-01,7.315341234207153320e-01,6.523103713989257812e-01,5.796765089035034180e-01,5.452501773834228516e-01,5.310126543045043945e-01,5.210636854171752930e-01,5.839157700538635254e-01,6.353235840797424316e-01,6.954250931739807129e-01,7.649883031845092773e-01,8.164467811584472656e-01,8.436478972434997559e-01,8.556551933288574219e-01,8.601423501968383789e-01,8.610796332359313965e-01,8.543118238449096680e-01,8.238831758499145508e-01,8.038337230682373047e-01,7.948843240737915039e-01,7.682608366012573242e-01,7.157809734344482422e-01,6.145268678665161133e-01
5.884158611297607422e-01,6.138053536415100098e-01,6.563534736633300781e-01,6.570919156074523926e-01,6.805832386016845703e-01,7.047929763793945312e-01,7.411568164825439453e-01,7.625630497932434082e-01,7.833349704742431641e-01,8.019725680351257324e-01,8.197771906852722168e-01,8.362907171249389648e-01,8.512674570083618164e-01,8.646124601364135742e-01,8.762645721435546875e-01,8.858290910720825195e-01,8.928864002227783203e-01,8.976475000381469727e-01,9.009420871734619141e-01,9.030957221984863281e-01,9.043258428573608398e-01,9.050000905990600586e-01,9.052586555480957031e-01,9.053179025650024414e-01,9.053307175636291504e-01,9.053288698196411133e-01,9.053283333778381348e-01,9.053283333778381348e-01,9.053283333778381348e-01,9.053283333778381348e-01,9.053283333778381348e-01,9.053283333778381348e-01,9.053283333778381348e-01,9.053283333778381348e-01,9.053283333778381348e-01,9.053283333778381348e-01,9.053283333778381348e-01,9.053283333778381348e-01,9.053283333778381348e-01,9.053283333778381348e-01,9.053283333778381348e-01,9.053283333778381348e-01,9.053283333778381348e-01,9.053283333778381348e-01,9.053283333778381348e-01,9.053279161453247070e-01,9.053322076797485352e-01,9.058915376663208008e-01,9.063923954963684082e-01,9.030365943908691406e-01,9.014850854873657227e-01,9.035524129867553711e-01,8.999260663986206055e-01,8.934259414672851562e-01,8.749082088470458984e-01,8.527320027351379395e-01,8.155465126037597656e-01,7.950761318206787109e-01,7.641977071762084961e-01,7.081384658813476562e-01,6.449933648109436035e-01,5.978938937187194824e-01,5.780898928642272949e-01,5.561608076095581055e-01,6.059923768043518066e-01,6.482714414596557617e-01,7.296158671379089355e-01,7.839796543121337891e-01,8.215024471282958984e-01,8.500524759292602539e-01,8.617863655090332031e-01,8.682489395141601562e-01,8.638848066329956055e-01,8.549055457115173340e-01,8.291139602661132812e-01,8.058038949966430664e-01,7.979971766471862793e-01,7.728655934333801270e-01,7.207518815994262695e-01,6.140289306640625000e-01
5.884106159210205078e-01,6.137974858283996582e-01,6.563448905944824219e-01,6.570818424224853516e-01,6.805729269981384277e-01,7.047826647758483887e-01,7.411465644836425781e-01,7.625526785850524902e-01,7.833243012428283691e-01,8.019618988037109375e-01,8.197667598724365234e-01,8.362804651260375977e-01,8.512575626373291016e-01,8.646034002304077148e-01,8.762563467025756836e-01,8.858223557472229004e-01,8.928816914558410645e-01,8.976442813873291016e-01,9.009399414062500000e-01,9.030944705009460449e-01,9.043250679969787598e-01,9.049996137619018555e-01,9.052584171295166016e-01,9.053179025650024414e-01,9.053307771682739258e-01,9.053288698196411133e-01,9.053283333778381348e-01,9.053283333778381348e-01,9.053283333778381348e-01,9.053283333778381348e-01,9.053283333778381348e-01,9.053283333778381348e-01,9.053283333778381348e-01,9.053283333778381348e-01,9.053283333778381348e-01,9.053283333778381348e-01,9.053283333778381348e-01,9.053283333778381348e-01,9.053283333778381348e-01,9.053283333778381348e-01,9.053283333778381348e-01,9.053283333778381348e-01,9.053283333778381348e-01,9.053283333778381348e-01,9.053283333778381348e-01,9.053291082382202148e-01,9.053145647048950195e-01,9.057170152664184570e-01,9.057796001434326172e-01,9.032236337661743164e-01,9.031661748886108398e-01,9.046738147735595703e-01,9.014716148376464844e-01,8.968626856803894043e-01,8.873108625411987305e-01,8.647577166557312012e-01,8.426274657249450684e-01,8.261960148811340332e-01,8.047379851341247559e-01,7.516353130340576172e-01,6.900381445884704590e-01,6.379430890083312988e-01,5.972197055816650391e-01,5.917724370956420898e-01,6.191458106040954590e-01,6.787874102592468262e-01,7.476426362991333008e-01,8.008584976196289062e-01,8.266348838806152344e-01,8.519965410232543945e-01,8.650022149085998535e-01,8.715610504150390625e-01,8.673770427703857422e-01,8.564828634262084961e-01,8.303024768829345703e-01,8.065311908721923828e-01,8.003076910972595215e-01,7.752188444137573242e-01,7.211902737617492676e-01,6.161177158355712891e-01
5.884053111076354980e-01,6.137888431549072266e-01,6.563351750373840332e-01,6.570709943771362305e-01,6.805616021156311035e-01,7.047712802886962891e-01,7.411359548568725586e-01,7.625424861907958984e-01,7.833142876625061035e-01,8.019518852233886719e-01,8.197568655014038086e-01,8.362708091735839844e-01,8.512482643127441406e-01,8.645946979522705078e-01,8.762484788894653320e-01,8.858159780502319336e-01,8.928763866424560547e-01,8.976401686668395996e-01,9.009364843368530273e-01,9.030916690826416016e-01,9.043227434158325195e-01,9.049974679946899414e-01,9.052566289901733398e-01,9.053159952163696289e-01,9.053288698196411133e-01,9.053270220756530762e-01,9.053264856338500977e-01,9.053264856338500977e-01,9.053264856338500977e-01,9.053264856338500977e-01,9.053264856338500977e-01,9.053264856338500977e-01,9.053264856338500977e-01,9.053264260292053223e-01,9.053264260292053223e-01,9.053264260292053223e-01,9.053263664245605469e-01,9.053264260292053223e-01,9.053263664245605469e-01,9.053263664245605469e-01,9.053263664245605469e-01,9.053263664245605469e-01,9.053262472152709961e-01,9.053262472152709961e-01,9.053262472152709961e-01,9.053238630294799805e-01,9.053040146827697754e-01,9.056476950645446777e-01,9.053154587745666504e-01,9.046088457107543945e-01,9.057661890983581543e-01,9.068574905395507812e-01,9.031270146369934082e-01,8.988075852394104004e-01,8.914434909820556641e-01,8.760055303573608398e-01,8.659893274307250977e-01,8.382502794265747070e-01,8.203984498977661133e-01,7.778156995773315430e-01,7.127506732940673828e-01,6.516382098197937012e-01,6.064690351486206055e-01,6.196251511573791504e-01,6.407428979873657227e-01,7.053741812705993652e-01,7.676581144332885742e-01,8.095499873161315918e-01,8.360973596572875977e-01,8.572224378585815430e-01,8.703482151031494141e-01,8.751384019851684570e-01,8.689913749694824219e-01,8.576169610023498535e-01,8.304940462112426758e-01,8.087356090545654297e-01,8.014682531356811523e-01,7.753587961196899414e-01,7.220934033393859863e-01,6.161035895347595215e-01
5.883995890617370605e-01,6.137793064117431641e-01,6.563242077827453613e-01,6.570578217506408691e-01,6.805462837219238281e-01,7.047550082206726074e-01,7.411192655563354492e-01,7.625261545181274414e-01,7.832980155944824219e-01,8.019359111785888672e-01,8.197414875030517578e-01,8.362557888031005859e-01,8.512330055236816406e-01,8.645802736282348633e-01,8.762354850769042969e-01,8.858042955398559570e-01,8.928660154342651367e-01,8.976318836212158203e-01,9.009284377098083496e-01,9.030840396881103516e-01,9.043152332305908203e-01,9.049903154373168945e-01,9.052499532699584961e-01,9.053096771240234375e-01,9.053227305412292480e-01,9.053209424018859863e-01,9.053205251693725586e-01,9.053205251693725586e-01,9.053205847740173340e-01,9.053205847740173340e-01,9.053206443786621094e-01,9.053206443786621094e-01,9.053206443786621094e-01,9.053207635879516602e-01,9.053207635879516602e-01,9.053207635879516602e-01,9.053208827972412109e-01,9.053209424018859863e-01,9.053209424018859863e-01,9.053209424018859863e-01,9.053210020065307617e-01,9.053211212158203125e-01,9.053211212158203125e-01,9.053211212158203125e-01,9.053212404251098633e-01,9.053156971931457520e-01,9.052985906600952148e-01,9.053380489349365234e-01,9.054532051086425781e-01,9.053043723106384277e-01,9.065591692924499512e-01,9.068315029144287109e-01,9.013745784759521484e-01,9.005713462829589844e-01,8.918827772140502930e-01,8.852204084396362305e-01,8.709113001823425293e-01,8.553800582885742188e-01,8.238666057586669922e-01,7.932317852973937988e-01,7.271455526351928711e-01,6.550378799438476562e-01,6.179314851760864258e-01,6.318185925483703613e-01,6.560751199722290039e-01,7.161924242973327637e-01,7.797400951385498047e-01,8.162433505058288574e-01,8.451581001281738281e-01,8.654854297637939453e-01,8.745943307876586914e-01,8.761603832244873047e-01,8.700315952301025391e-01,8.576303720474243164e-01,8.298729658126831055e-01,8.092091083526611328e-01,8.014049530029296875e-01,7.750718593597412109e-01,7.227169275283813477e-01,6.164255738258361816e-01
5.883886814117431641e-01,6.137656569480895996e-01,6.563083529472351074e-01,6.570439934730529785e-01,6.805328726768493652e-01,7.047404646873474121e-01,7.411063313484191895e-01,7.625184059143066406e-01,7.832974195480346680e-01,8.019433021545410156e-01,8.197596073150634766e-01,8.362871408462524414e-01,8.512839078903198242e-01,8.646482229232788086e-01,8.763051033020019531e-01,8.858635425567626953e-01,8.929136991500854492e-01,8.976706266403198242e-01,9.009687900543212891e-01,9.031348228454589844e-01,9.043724536895751953e-01,9.050532579421997070e-01,9.053155779838562012e-01,9.053769111633300781e-01,9.053902626037597656e-01,9.053887128829956055e-01,9.053886532783508301e-01,9.053889513015747070e-01,9.053890705108642578e-01,9.053894281387329102e-01,9.053896665573120117e-01,9.053899049758911133e-01,9.053901433944702148e-01,9.053905010223388672e-01,9.053907394409179688e-01,9.053911566734313965e-01,9.053912758827209473e-01,9.053915143013000488e-01,9.053918123245239258e-01,9.053920507431030273e-01,9.053922295570373535e-01,9.053925871849060059e-01,9.053928256034851074e-01,9.053931236267089844e-01,9.053934216499328613e-01,9.053928852081298828e-01,9.053641557693481445e-01,9.053232073783874512e-01,9.056792259216308594e-01,9.058402776718139648e-01,9.066236019134521484e-01,9.053761363029479980e-01,9.043926000595092773e-01,9.029475450515747070e-01,8.942730426788330078e-01,8.869068026542663574e-01,8.756294250488281250e-01,8.554208278656005859e-01,8.199667930603027344e-01,7.869257926940917969e-01,7.350884675979614258e-01,6.550469398498535156e-01,6.189584732055664062e-01,6.327242851257324219e-01,6.582925319671630859e-01,7.338321208953857422e-01,7.868410348892211914e-01,8.198975324630737305e-01,8.503692746162414551e-01,8.679354190826416016e-01,8.750473260879516602e-01,8.772757053375244141e-01,8.704616427421569824e-01,8.584073781967163086e-01,8.299199938774108887e-01,8.088967204093933105e-01,8.012529611587524414e-01,7.752954959869384766e-01,7.225445508956909180e-01,6.164155006408691406e-01
5.883954763412475586e-01,6.137744188308715820e-01,6.563149690628051758e-01,6.570618748664855957e-01,6.805615425109863281e-01,7.048020362854003906e-01,7.412192821502685547e-01,7.626797556877136230e-01,7.834848165512084961e-01,8.021432161331176758e-01,8.199614882469177246e-01,8.364866971969604492e-01,8.514606356620788574e-01,8.647933006286621094e-01,8.764220476150512695e-01,8.859454393386840820e-01,8.929836750030517578e-01,8.977727293968200684e-01,9.010934829711914062e-01,9.032582044601440430e-01,9.044927358627319336e-01,9.051686525344848633e-01,9.054247140884399414e-01,9.054827690124511719e-01,9.054936766624450684e-01,9.054911136627197266e-01,9.054898023605346680e-01,9.054889678955078125e-01,9.054880142211914062e-01,9.054871797561645508e-01,9.054863452911376953e-01,9.054855108261108398e-01,9.054845571517944336e-01,9.054837822914123535e-01,9.054828882217407227e-01,9.054819941520690918e-01,9.054811000823974609e-01,9.054803252220153809e-01,9.054794311523437500e-01,9.054785966873168945e-01,9.054777026176452637e-01,9.054768085479736328e-01,9.054759740829467773e-01,9.054751396179199219e-01,9.054741859436035156e-01,9.054709076881408691e-01,9.054521918296813965e-01,9.054274559020996094e-01,9.055657386779785156e-01,9.058631062507629395e-01,9.059592485427856445e-01,9.052633047103881836e-01,9.055760502815246582e-01,9.017591476440429688e-01,8.955617547035217285e-01,8.893257379531860352e-01,8.735889196395874023e-01,8.573237061500549316e-01,8.216156363487243652e-01,7.757387161254882812e-01,7.283304929733276367e-01,6.583420634269714355e-01,6.247268915176391602e-01,6.287183761596679688e-01,6.689053773880004883e-01,7.286005020141601562e-01,7.902909517288208008e-01,8.229596614837646484e-01,8.527038693428039551e-01,8.681411743164062500e-01,8.763986825942993164e-01,8.785483837127685547e-01,8.702994585037231445e-01,8.585821390151977539e-01,8.302226662635803223e-01,8.091704845428466797e-01,8.015352487564086914e-01,7.755240797996520996e-01,7.228063344955444336e-01,6.167895197868347168e-01
5.885780453681945801e-01,6.139516234397888184e-01,6.565682888031005859e-01,6.573184132575988770e-01,6.808105111122131348e-01,7.049672603607177734e-01,7.413076162338256836e-01,7.626922726631164551e-01,7.833582758903503418e-01,8.018857240676879883e-01,8.195866346359252930e-01,8.359771966934204102e-01,8.508606553077697754e-01,8.641116619110107422e-01,8.756411075592041016e-01,8.851386904716491699e-01,8.922115564346313477e-01,8.969813585281372070e-01,9.002740383148193359e-01,9.024296998977661133e-01,9.036750793457031250e-01,9.043314456939697266e-01,9.045726656913757324e-01,9.046294689178466797e-01,9.046416282653808594e-01,9.046391844749450684e-01,9.046378731727600098e-01,9.046369791030883789e-01,9.046360254287719727e-01,9.046351909637451172e-01,9.046342372894287109e-01,9.046332836151123047e-01,9.046324491500854492e-01,9.046316146850585938e-01,9.046306610107421875e-01,9.046297073364257812e-01,9.046288728713989258e-01,9.046279191970825195e-01,9.046269655227661133e-01,9.046259522438049316e-01,9.046250581741333008e-01,9.046243429183959961e-01,9.046232700347900391e-01,9.046224355697631836e-01,9.046216011047363281e-01,9.046207666397094727e-01,9.046118259429931641e-01,9.046217799186706543e-01,9.046580791473388672e-01,9.048452377319335938e-01,9.047964811325073242e-01,9.045951366424560547e-01,9.040963649749755859e-01,9.016183614730834961e-01,8.940078020095825195e-01,8.858985900878906250e-01,8.708442449569702148e-01,8.555737733840942383e-01,8.146955966949462891e-01,7.601306438446044922e-01,7.048342823982238770e-01,6.452514529228210449e-01,6.183118224143981934e-01,6.271033287048339844e-01,6.608069539070129395e-01,7.307485342025756836e-01,7.932771444320678711e-01,8.249469995498657227e-01,8.548528552055358887e-01,8.695381879806518555e-01,8.753005862236022949e-01,8.774603605270385742e-01,8.698928356170654297e-01,8.579310178756713867e-01,8.293095827102661133e-01,8.083075881004333496e-01,8.009088039398193359e-01,7.746563553810119629e-01,7.219782471656799316e-01,6.162475943565368652e-01
5.889355540275573730e-01,6.138246655464172363e-01,6.562421321868896484e-01,6.566776633262634277e-01,6.799251437187194824e-01,7.037643194198608398e-01,7.398921847343444824e-01,7.610058188438415527e-01,7.815133333206176758e-01,7.999103665351867676e-01,8.175234794616699219e-01,8.339136838912963867e-01,8.489236235618591309e-01,8.623853325843811035e-01,8.741690516471862793e-01,8.838956952095031738e-01,8.910561800003051758e-01,8.958871364593505859e-01,8.992758989334106445e-01,9.014960527420043945e-01,9.027299880981445312e-01,9.033838510513305664e-01,9.036417007446289062e-01,9.037145376205444336e-01,9.037276506423950195e-01,9.037253856658935547e-01,9.037238359451293945e-01,9.037227630615234375e-01,9.037218093872070312e-01,9.037206172943115234e-01,9.037196636199951172e-01,9.037185907363891602e-01,9.037173986434936523e-01,9.037163853645324707e-01,9.037153124809265137e-01,9.037143588066101074e-01,9.037132263183593750e-01,9.037121534347534180e-01,9.037110805511474609e-01,9.037101268768310547e-01,9.037089347839355469e-01,9.037078619003295898e-01,9.037069082260131836e-01,9.037058353424072266e-01,9.037047624588012695e-01,9.037039279937744141e-01,9.036991000175476074e-01,9.036710858345031738e-01,9.037477970123291016e-01,9.035934209823608398e-01,9.035980701446533203e-01,9.035081863403320312e-01,9.030351638793945312e-01,9.003469944000244141e-01,8.924300670623779297e-01,8.794540166854858398e-01,8.703658580780029297e-01,8.487426042556762695e-01,8.039619326591491699e-01,7.478143572807312012e-01,6.682071685791015625e-01,6.323153376579284668e-01,6.108978986740112305e-01,6.216390132904052734e-01,6.546018123626708984e-01,7.285544872283935547e-01,7.905555963516235352e-01,8.238525390625000000e-01,8.565562963485717773e-01,8.708116412162780762e-01,8.763058781623840332e-01,8.768916130065917969e-01,8.691831231117248535e-01,8.572841882705688477e-01,8.287259340286254883e-01,8.075733780860900879e-01,8.000962734222412109e-01,7.738282680511474609e-01,7.208209037780761719e-01,6.147249937057495117e-01
5.881916284561157227e-01,6.121518611907958984e-01,6.544510126113891602e-01,6.547915339469909668e-01,6.775829792022705078e-01,7.009681463241577148e-01,7.370872497558593750e-01,7.582464814186096191e-01,7.788029909133911133e-01,7.971995472908020020e-01,8.147957324981689453e-01,8.312979936599731445e-01,8.464382886886596680e-01,8.599840402603149414e-01,8.718599081039428711e-01,8.816282749176025391e-01,8.889316320419311523e-01,8.940092325210571289e-01,8.974869251251220703e-01,8.997217416763305664e-01,9.009760618209838867e-01,9.016547203063964844e-01,9.019180536270141602e-01,9.019803404808044434e-01,9.019871950149536133e-01,9.019800424575805664e-01,9.019736051559448242e-01,9.019675254821777344e-01,9.019614458084106445e-01,9.019554257392883301e-01,9.019494056701660156e-01,9.019430875778198242e-01,9.019371271133422852e-01,9.019310474395751953e-01,9.019249081611633301e-01,9.019187688827514648e-01,9.019126892089843750e-01,9.019067287445068359e-01,9.019007086753845215e-01,9.018945693969726562e-01,9.018885493278503418e-01,9.018825292587280273e-01,9.018764495849609375e-01,9.018702507019042969e-01,9.018641710281372070e-01,9.018589258193969727e-01,9.018516540527343750e-01,9.018419981002807617e-01,9.018343687057495117e-01,9.018304347991943359e-01,9.019029140472412109e-01,9.016481041908264160e-01,9.008340835571289062e-01,8.982715606689453125e-01,8.884502053260803223e-01,8.764421939849853516e-01,8.681080937385559082e-01,8.371924161911010742e-01,7.827974557876586914e-01,7.303044795989990234e-01,6.645225286483764648e-01,6.089166402816772461e-01,5.982628464698791504e-01,6.127428412437438965e-01,6.463229060173034668e-01,7.219203710556030273e-01,7.879396677017211914e-01,8.234571218490600586e-01,8.538292646408081055e-01,8.690519332885742188e-01,8.751168251037597656e-01,8.754251003265380859e-01,8.677091002464294434e-01,8.558744192123413086e-01,8.274036645889282227e-01,8.065305948257446289e-01,7.989581823348999023e-01,7.723730802536010742e-01,7.195339202880859375e-01,6.129422783851623535e-01
5.862554907798767090e-01,6.094373464584350586e-01,6.514806151390075684e-01,6.515451073646545410e-01,6.740766763687133789e-01,6.969127655029296875e-01,7.324785590171813965e-01,7.531214952468872070e-01,7.730057239532470703e-01,7.909489870071411133e-01,8.082791566848754883e-01,8.245598077774047852e-01,8.395540714263916016e-01,8.531526327133178711e-01,8.651054501533508301e-01,8.749620914459228516e-01,8.823380470275878906e-01,8.874378204345703125e-01,8.910177946090698242e-01,8.932570219039916992e-01,8.945035934448242188e-01,8.952060341835021973e-01,8.954703807830810547e-01,8.955252766609191895e-01,8.955239057540893555e-01,8.955127000808715820e-01,8.955030441284179688e-01,8.954938650131225586e-01,8.954848051071166992e-01,8.954756259918212891e-01,8.954665660858154297e-01,8.954575061798095703e-01,8.954483270645141602e-01,8.954392671585083008e-01,8.954303264617919922e-01,8.954210281372070312e-01,8.954120278358459473e-01,8.954027295112609863e-01,8.953937292098999023e-01,8.953846096992492676e-01,8.953756093978881836e-01,8.953665494918823242e-01,8.953574299812316895e-01,8.953484296798706055e-01,8.953393101692199707e-01,8.953303098678588867e-01,8.953201174736022949e-01,8.953081369400024414e-01,8.953109979629516602e-01,8.953071832656860352e-01,8.952264785766601562e-01,8.945927023887634277e-01,8.944199085235595703e-01,8.895825147628784180e-01,8.803540468215942383e-01,8.707320094108581543e-01,8.617926239967346191e-01,8.219987154006958008e-01,7.685775756835937500e-01,6.975393891334533691e-01,6.374519467353820801e-01,5.944965481758117676e-01,5.739586353302001953e-01,5.971177816390991211e-01,6.294412612915039062e-01,7.142880558967590332e-01,7.781898379325866699e-01,8.135677576065063477e-01,8.472684621810913086e-01,8.632504940032958984e-01,8.691158890724182129e-01,8.696378469467163086e-01,8.621467351913452148e-01,8.500368595123291016e-01,8.218026161193847656e-01,8.014961481094360352e-01,7.943640947341918945e-01,7.679697275161743164e-01,7.155206203460693359e-01,6.079428791999816895e-01
5.823478102684020996e-01,6.035627722740173340e-01,6.450696587562561035e-01,6.443620920181274414e-01,6.657210588455200195e-01,6.876938343048095703e-01,7.224071025848388672e-01,7.425900697708129883e-01,7.618012428283691406e-01,7.788747549057006836e-01,7.956087589263916016e-01,8.115684986114501953e-01,8.266274333000183105e-01,8.405221700668334961e-01,8.527933359146118164e-01,8.630759716033935547e-01,8.709466457366943359e-01,8.763772845268249512e-01,8.801463246345520020e-01,8.825246691703796387e-01,8.838626146316528320e-01,8.845183849334716797e-01,8.847204446792602539e-01,8.847383260726928711e-01,8.847277164459228516e-01,8.847049474716186523e-01,8.846843242645263672e-01,8.846638202667236328e-01,8.846437335014343262e-01,8.846235275268554688e-01,8.846032619476318359e-01,8.845831751823425293e-01,8.845628499984741211e-01,8.845425844192504883e-01,8.845223188400268555e-01,8.845022916793823242e-01,8.844819068908691406e-01,8.844617605209350586e-01,8.844415545463562012e-01,8.844213485717773438e-01,8.844013214111328125e-01,8.843812346458435059e-01,8.843609690666198730e-01,8.843407630920410156e-01,8.843207359313964844e-01,8.843006491661071777e-01,8.842800855636596680e-01,8.842597007751464844e-01,8.842427730560302734e-01,8.842473030090332031e-01,8.841201066970825195e-01,8.839275836944580078e-01,8.835837841033935547e-01,8.778469562530517578e-01,8.670456409454345703e-01,8.606873750686645508e-01,8.447795510292053223e-01,8.058577775955200195e-01,7.464017868041992188e-01,6.610984802246093750e-01,6.239629983901977539e-01,5.848584175109863281e-01,5.642759203910827637e-01,5.775641798973083496e-01,6.125855445861816406e-01,6.988086700439453125e-01,7.612897753715515137e-01,8.001450300216674805e-01,8.346211910247802734e-01,8.518641591072082520e-01,8.579245805740356445e-01,8.593686223030090332e-01,8.521201610565185547e-01,8.399852514266967773e-01,8.112266659736633301e-01,7.921288013458251953e-01,7.858297824859619141e-01,7.610077857971191406e-01,7.075282931327819824e-01,6.019638180732727051e-01
5.752030611038208008e-01,5.937517881393432617e-01,6.341878175735473633e-01,6.314078569412231445e-01,6.507643461227416992e-01,6.714979410171508789e-01,7.052969932556152344e-01,7.246523499488830566e-01,7.431017160415649414e-01,7.594751119613647461e-01,7.753036022186279297e-01,7.904897928237915039e-01,8.051479458808898926e-01,8.185923099517822266e-01,8.304760456085205078e-01,8.404307961463928223e-01,8.479098677635192871e-01,8.532851934432983398e-01,8.570458889007568359e-01,8.593961000442504883e-01,8.606361150741577148e-01,8.611857891082763672e-01,8.613196611404418945e-01,8.613239526748657227e-01,8.612918257713317871e-01,8.612526655197143555e-01,8.612154722213745117e-01,8.611784577369689941e-01,8.611414432525634766e-01,8.611044883728027344e-01,8.610675334930419922e-01,8.610305190086364746e-01,8.609936237335205078e-01,8.609566092491149902e-01,8.609197139739990234e-01,8.608826398849487305e-01,8.608458042144775391e-01,8.608088493347167969e-01,8.607718348503112793e-01,8.607349395751953125e-01,8.606978654861450195e-01,8.606609106063842773e-01,8.606240749359130859e-01,8.605874776840209961e-01,8.605505228042602539e-01,8.605135679244995117e-01,8.604766726493835449e-01,8.604397773742675781e-01,8.604012727737426758e-01,8.603844046592712402e-01,8.603719472885131836e-01,8.610488176345825195e-01,8.592581152915954590e-01,8.532972335815429688e-01,8.432170748710632324e-01,8.406385779380798340e-01,8.136017322540283203e-01,7.673571109771728516e-01,7.149851322174072266e-01,6.293247938156127930e-01,6.058000922203063965e-01,5.489354729652404785e-01,5.438565015792846680e-01,5.508365035057067871e-01,5.946030020713806152e-01,6.745570898056030273e-01,7.327595949172973633e-01,7.707800865173339844e-01,8.096263408660888672e-01,8.273590803146362305e-01,8.347184658050537109e-01,8.364079594612121582e-01,8.296595811843872070e-01,8.173913955688476562e-01,7.881718873977661133e-01,7.704226970672607422e-01,7.674670219421386719e-01,7.442911267280578613e-01,6.928618550300598145e-01,5.924739241600036621e-01
5.642395615577697754e-01,5.783778429031372070e-01,6.170495152473449707e-01,6.110095977783203125e-01,6.274166107177734375e-01,6.464126110076904297e-01,6.783342957496643066e-01,6.956845521926879883e-01,7.117315530776977539e-01,7.257423996925354004e-01,7.394025921821594238e-01,7.528231739997863770e-01,7.661402821540832520e-01,7.786068320274353027e-01,7.895374298095703125e-01,7.988265752792358398e-01,8.062280416488647461e-01,8.115642666816711426e-01,8.152959346771240234e-01,8.175989389419555664e-01,8.186814785003662109e-01,8.189561367034912109e-01,8.189789056777954102e-01,8.189539909362792969e-01,8.189052343368530273e-01,8.188445568084716797e-01,8.187853097915649414e-01,8.187265396118164062e-01,8.186676502227783203e-01,8.186087608337402344e-01,8.185500502586364746e-01,8.184911608695983887e-01,8.184321522712707520e-01,8.183735609054565430e-01,8.183147311210632324e-01,8.182559609413146973e-01,8.181971907615661621e-01,8.181381821632385254e-01,8.180795907974243164e-01,8.180207014083862305e-01,8.179621696472167969e-01,8.179031610488891602e-01,8.178446888923645020e-01,8.177857995033264160e-01,8.177272081375122070e-01,8.176684379577636719e-01,8.176098465919494629e-01,8.175510168075561523e-01,8.174970149993896484e-01,8.174700736999511719e-01,8.175483942031860352e-01,8.186880350112915039e-01,8.144450187683105469e-01,8.069645762443542480e-01,8.027141094207763672e-01,7.962970137596130371e-01,7.646561861038208008e-01,7.235807776451110840e-01,6.661176681518554688e-01,6.060583591461181641e-01,5.612263083457946777e-01,5.175838470458984375e-01,5.155918598175048828e-01,5.246330499649047852e-01,5.670146346092224121e-01,6.394078731536865234e-01,6.977933645248413086e-01,7.245483994483947754e-01,7.611173391342163086e-01,7.852268218994140625e-01,7.941492795944213867e-01,7.954237461090087891e-01,7.887095212936401367e-01,7.778285741806030273e-01,7.483012676239013672e-01,7.333745956420898438e-01,7.347760200500488281e-01,7.137608528137207031e-01,6.687951683998107910e-01,5.797349810600280762e-01
5.497250556945800781e-01,5.539380908012390137e-01,5.888136625289916992e-01,5.787614583969116211e-01,5.919231772422790527e-01,6.082140803337097168e-01,6.378258466720581055e-01,6.524345874786376953e-01,6.663247942924499512e-01,6.780713796615600586e-01,6.894924044609069824e-01,7.006285786628723145e-01,7.116263508796691895e-01,7.215028405189514160e-01,7.303603887557983398e-01,7.380239367485046387e-01,7.437744140625000000e-01,7.477759122848510742e-01,7.504858970642089844e-01,7.519822120666503906e-01,7.524115443229675293e-01,7.524780035018920898e-01,7.524532675743103027e-01,7.523904442787170410e-01,7.523224353790283203e-01,7.522377967834472656e-01,7.521548271179199219e-01,7.520725131034851074e-01,7.519904375076293945e-01,7.519079446792602539e-01,7.518255710601806641e-01,7.517434358596801758e-01,7.516612410545349121e-01,7.515791654586791992e-01,7.514969110488891602e-01,7.514144182205200195e-01,7.513323426246643066e-01,7.512502670288085938e-01,7.511680126190185547e-01,7.510858774185180664e-01,7.510036230087280273e-01,7.509214878082275391e-01,7.508392333984375000e-01,7.507572174072265625e-01,7.506750822067260742e-01,7.505928874015808105e-01,7.505108118057250977e-01,7.504287958145141602e-01,7.503528594970703125e-01,7.502977848052978516e-01,7.508351802825927734e-01,7.509530186653137207e-01,7.467252016067504883e-01,7.385048866271972656e-01,7.374137043952941895e-01,7.281181216239929199e-01,6.919339895248413086e-01,6.637561917304992676e-01,5.891880989074707031e-01,5.609064698219299316e-01,5.246534347534179688e-01,4.879279434680938721e-01,4.833517372608184814e-01,4.996435940265655518e-01,5.378141999244689941e-01,5.916594266891479492e-01,6.411897540092468262e-01,6.678593754768371582e-01,6.960936784744262695e-01,7.183631658554077148e-01,7.284051179885864258e-01,7.282240390777587891e-01,7.235130667686462402e-01,7.131348848342895508e-01,6.837903261184692383e-01,6.730081439018249512e-01,6.819036006927490234e-01,6.631020903587341309e-01,6.337987184524536133e-01,5.564938783645629883e-01
5.325044393539428711e-01,5.236875414848327637e-01,5.544967055320739746e-01,5.385836958885192871e-01,5.464458465576171875e-01,5.592998862266540527e-01,5.835195183753967285e-01,5.946915745735168457e-01,6.051665544509887695e-01,6.132968664169311523e-01,6.213172078132629395e-01,6.292434930801391602e-01,6.369086503982543945e-01,6.437587738037109375e-01,6.499323844909667969e-01,6.547413468360900879e-01,6.579737663269042969e-01,6.604052782058715820e-01,6.619746685028076172e-01,6.628156900405883789e-01,6.630342006683349609e-01,6.629966497421264648e-01,6.628944873809814453e-01,6.628109216690063477e-01,6.627292037010192871e-01,6.626388430595397949e-01,6.625509262084960938e-01,6.624634265899658203e-01,6.623758673667907715e-01,6.622884273529052734e-01,6.622011065483093262e-01,6.621134281158447266e-01,6.620259881019592285e-01,6.619386672973632812e-01,6.618512868881225586e-01,6.617639064788818359e-01,6.616765856742858887e-01,6.615891456604003906e-01,6.615017652511596680e-01,6.614144444465637207e-01,6.613271236419677734e-01,6.612397432327270508e-01,6.611526012420654297e-01,6.610653996467590332e-01,6.609780788421630859e-01,6.608909368515014648e-01,6.608037948608398438e-01,6.607164144515991211e-01,6.606258749961853027e-01,6.605627536773681641e-01,6.614124178886413574e-01,6.604529023170471191e-01,6.546955704689025879e-01,6.511718630790710449e-01,6.497071981430053711e-01,6.339664459228515625e-01,6.038567423820495605e-01,5.795431137084960938e-01,5.279790759086608887e-01,4.965607821941375732e-01,4.902966618537902832e-01,4.426881670951843262e-01,4.497969746589660645e-01,4.666902422904968262e-01,4.899517595767974854e-01,5.369878411293029785e-01,5.744817256927490234e-01,5.936038494110107422e-01,6.174526214599609375e-01,6.366761326789855957e-01,6.420755386352539062e-01,6.423906087875366211e-01,6.392006874084472656e-01,6.309381723403930664e-01,6.033446192741394043e-01,5.960147380828857422e-01,6.116324663162231445e-01,5.968444347381591797e-01,5.880064368247985840e-01,5.268759727478027344e-01
5.115471482276916504e-01,4.893317520618438721e-01,5.141225457191467285e-01,4.908636808395385742e-01,4.924244582653045654e-01,5.010058283805847168e-01,5.196031928062438965e-01,5.275462269783020020e-01,5.347076058387756348e-01,5.395490527153015137e-01,5.444183945655822754e-01,5.495191216468811035e-01,5.544934272766113281e-01,5.588333606719970703e-01,5.624848604202270508e-01,5.651933550834655762e-01,5.674949884414672852e-01,5.691093802452087402e-01,5.702022314071655273e-01,5.707017779350280762e-01,5.708048343658447266e-01,5.707262158393859863e-01,5.705838203430175781e-01,5.705150365829467773e-01,5.704182386398315430e-01,5.703297853469848633e-01,5.702423453330993652e-01,5.701554417610168457e-01,5.700684189796447754e-01,5.699815750122070312e-01,5.698949098587036133e-01,5.698080062866210938e-01,5.697211623191833496e-01,5.696345567703247070e-01,5.695476531982421875e-01,5.694611668586730957e-01,5.693744421005249023e-01,5.692877173423767090e-01,5.692008733749389648e-01,5.691143274307250977e-01,5.690276622772216797e-01,5.689410567283630371e-01,5.688543915748596191e-01,5.687680244445800781e-01,5.686814785003662109e-01,5.685951113700866699e-01,5.685085058212280273e-01,5.684219598770141602e-01,5.683286190032958984e-01,5.681986212730407715e-01,5.689198970794677734e-01,5.679835677146911621e-01,5.627296566963195801e-01,5.629658699035644531e-01,5.648058056831359863e-01,5.447483658790588379e-01,5.269661545753479004e-01,5.087387561798095703e-01,4.691737592220306396e-01,4.527022838592529297e-01,4.299598932266235352e-01,4.171801209449768066e-01,4.115016758441925049e-01,4.233576059341430664e-01,4.514225721359252930e-01,4.762569367885589600e-01,5.043641328811645508e-01,5.152354836463928223e-01,5.388200879096984863e-01,5.497827529907226562e-01,5.527888536453247070e-01,5.533940792083740234e-01,5.523185729980468750e-01,5.453975796699523926e-01,5.215429067611694336e-01,5.173860192298889160e-01,5.384303331375122070e-01,5.280816555023193359e-01,5.396869778633117676e-01,4.965181052684783936e-01
4.905601739883422852e-01,4.556705057621002197e-01,4.712944626808166504e-01,4.408651888370513916e-01,4.361922740936279297e-01,4.405617713928222656e-01,4.539833962917327881e-01,4.580738544464111328e-01,4.623955190181732178e-01,4.647241830825805664e-01,4.672733247280120850e-01,4.700842797756195068e-01,4.728556871414184570e-01,4.754847884178161621e-01,4.777933061122894287e-01,4.795188009738922119e-01,4.807971119880676270e-01,4.817659854888916016e-01,4.823710918426513672e-01,4.826357960700988770e-01,4.826872646808624268e-01,4.826799929141998291e-01,4.826014935970306396e-01,4.825012087821960449e-01,4.824180603027343750e-01,4.823442995548248291e-01,4.822712540626525879e-01,4.821982979774475098e-01,4.821254014968872070e-01,4.820525646209716797e-01,4.819796383380889893e-01,4.819065928459167480e-01,4.818339347839355469e-01,4.817609786987304688e-01,4.816884100437164307e-01,4.816154837608337402e-01,4.815428555011749268e-01,4.814699888229370117e-01,4.813973903656005859e-01,4.813247919082641602e-01,4.812518954277038574e-01,4.811795055866241455e-01,4.811067283153533936e-01,4.810341894626617432e-01,4.809617102146148682e-01,4.808891415596008301e-01,4.808164536952972412e-01,4.807440936565399170e-01,4.806495010852813721e-01,4.804878532886505127e-01,4.808210730552673340e-01,4.801392853260040283e-01,4.779488742351531982e-01,4.783026874065399170e-01,4.782024621963500977e-01,4.626166820526123047e-01,4.515301287174224854e-01,4.470994472503662109e-01,4.200037121772766113e-01,4.044306576251983643e-01,3.931739330291748047e-01,3.888629674911499023e-01,3.793789446353912354e-01,3.799957633018493652e-01,4.059191346168518066e-01,4.154741466045379639e-01,4.330106377601623535e-01,4.428062140941619873e-01,4.573724865913391113e-01,4.675650000572204590e-01,4.708341062068939209e-01,4.724332094192504883e-01,4.738325774669647217e-01,4.693003594875335693e-01,4.494150876998901367e-01,4.483017921447753906e-01,4.718416929244995117e-01,4.688102602958679199e-01,4.950067400932312012e-01,4.690979421138763428e-01
4.694022834300994873e-01,4.224027991294860840e-01,4.285241961479187012e-01,3.950397372245788574e-01,3.840717077255249023e-01,3.856391310691833496e-01,3.960523605346679688e-01,3.989903926849365234e-01,4.020202159881591797e-01,4.032148718833923340e-01,4.044275283813476562e-01,4.056414365768432617e-01,4.066638946533203125e-01,4.076104760169982910e-01,4.084084331989288330e-01,4.089968800544738770e-01,4.096029698848724365e-01,4.100969731807708740e-01,4.103094935417175293e-01,4.103537201881408691e-01,4.103631973266601562e-01,4.102658927440643311e-01,4.101947546005249023e-01,4.101222157478332520e-01,4.100594818592071533e-01,4.100006520748138428e-01,4.099426269531250000e-01,4.098847210407257080e-01,4.098272025585174561e-01,4.097692966461181641e-01,4.097116589546203613e-01,4.096539616584777832e-01,4.095962345600128174e-01,4.095385670661926270e-01,4.094807803630828857e-01,4.094232022762298584e-01,4.093657433986663818e-01,4.093081355094909668e-01,4.092505574226379395e-01,4.091930389404296875e-01,4.091355800628662109e-01,4.090779125690460205e-01,4.090206027030944824e-01,4.089631438255310059e-01,4.089056253433227539e-01,4.088482856750488281e-01,4.087907373905181885e-01,4.087334573268890381e-01,4.086648523807525635e-01,4.085287153720855713e-01,4.087275564670562744e-01,4.081552028656005859e-01,4.080083370208740234e-01,4.089763164520263672e-01,4.076993763446807861e-01,3.985248208045959473e-01,3.938165307044982910e-01,3.876326978206634521e-01,3.813163638114929199e-01,3.619408011436462402e-01,3.551743030548095703e-01,3.555681109428405762e-01,3.498151600360870361e-01,3.530455827713012695e-01,3.565758466720581055e-01,3.696119189262390137e-01,3.764858543872833252e-01,3.863269090652465820e-01,3.939255475997924805e-01,3.975279629230499268e-01,4.020537734031677246e-01,4.014164209365844727e-01,4.038159847259521484e-01,4.011620581150054932e-01,3.857027888298034668e-01,3.876739144325256348e-01,4.135193526744842529e-01,4.177235960960388184e-01,4.560254216194152832e-01,4.460631012916564941e-01
4.513860046863555908e-01,3.938134312629699707e-01,3.929769396781921387e-01,3.572846055030822754e-01,3.413556218147277832e-01,3.406484723091125488e-01,3.480964004993438721e-01,3.498162031173706055e-01,3.515094518661499023e-01,3.519276976585388184e-01,3.524441719055175781e-01,3.529110848903656006e-01,3.533929586410522461e-01,3.538307547569274902e-01,3.541266024112701416e-01,3.542225360870361328e-01,3.542976975440979004e-01,3.541730046272277832e-01,3.540192246437072754e-01,3.539598286151885986e-01,3.539387583732604980e-01,3.539044260978698730e-01,3.538497686386108398e-01,3.537963628768920898e-01,3.537552058696746826e-01,3.537135124206542969e-01,3.536722660064697266e-01,3.536309897899627686e-01,3.535899519920349121e-01,3.535487949848175049e-01,3.535076379776000977e-01,3.534663915634155273e-01,3.534251451492309570e-01,3.533841371536254883e-01,3.533430695533752441e-01,3.533019721508026123e-01,3.532608151435852051e-01,3.532198071479797363e-01,3.531787395477294922e-01,3.531376719474792480e-01,3.530968129634857178e-01,3.530559241771697998e-01,3.530147075653076172e-01,3.529737889766693115e-01,3.529328107833862305e-01,3.528918027877807617e-01,3.528508245944976807e-01,3.528098464012145996e-01,3.527671694755554199e-01,3.526800870895385742e-01,3.526929020881652832e-01,3.525966405868530273e-01,3.526546359062194824e-01,3.531110286712646484e-01,3.521872162818908691e-01,3.481043279170989990e-01,3.446665406227111816e-01,3.416942954063415527e-01,3.385455012321472168e-01,3.286825716495513916e-01,3.205999135971069336e-01,3.244244456291198730e-01,3.196634650230407715e-01,3.205778896808624268e-01,3.276333212852478027e-01,3.288913369178771973e-01,3.365050554275512695e-01,3.407602906227111816e-01,3.466905951499938965e-01,3.469453454017639160e-01,3.488881587982177734e-01,3.501007556915283203e-01,3.511155843734741211e-01,3.489382863044738770e-01,3.362261354923248291e-01,3.391962647438049316e-01,3.653368353843688965e-01,3.756923675537109375e-01,4.224501848220825195e-01,4.258210361003875732e-01
4.349642992019653320e-01,3.689399063587188721e-01,3.612710237503051758e-01,3.251602649688720703e-01,3.061254024505615234e-01,3.047525286674499512e-01,3.108572363853454590e-01,3.122465312480926514e-01,3.134037852287292480e-01,3.134188652038574219e-01,3.134043514728546143e-01,3.133945763111114502e-01,3.134693503379821777e-01,3.135602474212646484e-01,3.135911226272583008e-01,3.136063218116760254e-01,3.135669529438018799e-01,3.135150372982025146e-01,3.135317862033843994e-01,3.135173618793487549e-01,3.134596943855285645e-01,3.134145140647888184e-01,3.133805096149444580e-01,3.133520483970642090e-01,3.133209943771362305e-01,3.132913112640380859e-01,3.132613301277160645e-01,3.132315576076507568e-01,3.132015764713287354e-01,3.131716251373291016e-01,3.131419420242309570e-01,3.131120502948760986e-01,3.130819201469421387e-01,3.130522370338439941e-01,3.130222558975219727e-01,3.129925131797790527e-01,3.129626512527465820e-01,3.129327297210693359e-01,3.129030466079711914e-01,3.128731846809387207e-01,3.128434419631958008e-01,3.128136694431304932e-01,3.127840161323547363e-01,3.127542138099670410e-01,3.127245306968688965e-01,3.126946389675140381e-01,3.126648664474487305e-01,3.126351237297058105e-01,3.126069307327270508e-01,3.125534653663635254e-01,3.125080466270446777e-01,3.125577569007873535e-01,3.127313554286956787e-01,3.125708103179931641e-01,3.122853636741638184e-01,3.115110695362091064e-01,3.092048466205596924e-01,3.083724379539489746e-01,3.078110814094543457e-01,3.011274635791778564e-01,2.980486452579498291e-01,2.966175675392150879e-01,2.942741513252258301e-01,2.949369549751281738e-01,2.976345419883728027e-01,2.995086312294006348e-01,3.030057847499847412e-01,3.070035576820373535e-01,3.081412315368652344e-01,3.110131919384002686e-01,3.107534050941467285e-01,3.107722401618957520e-01,3.121051192283630371e-01,3.102004230022430420e-01,2.990852594375610352e-01,3.025792837142944336e-01,3.288305401802062988e-01,3.441944420337677002e-01,3.968329727649688721e-01,4.101049005985260010e-01
4.212110638618469238e-01,3.491270244121551514e-01,3.364070057868957520e-01,2.999935746192932129e-01,2.791697978973388672e-01,2.769935131072998047e-01,2.819475829601287842e-01,2.831131815910339355e-01,2.839968204498291016e-01,2.838875949382781982e-01,2.838476300239562988e-01,2.838452458381652832e-01,2.838287949562072754e-01,2.838113307952880859e-01,2.837969660758972168e-01,2.837593257427215576e-01,2.837197184562683105e-01,2.836902439594268799e-01,2.836653590202331543e-01,2.836307287216186523e-01,2.836039662361145020e-01,2.835823297500610352e-01,2.835599184036254883e-01,2.835374474525451660e-01,2.835160493850708008e-01,2.834945321083068848e-01,2.834729552268981934e-01,2.834512889385223389e-01,2.834295034408569336e-01,2.834079265594482422e-01,2.833862304687500000e-01,2.833644151687622070e-01,2.833428084850311279e-01,2.833210825920104980e-01,2.832995057106018066e-01,2.832779884338378906e-01,2.832562327384948730e-01,2.832346260547637939e-01,2.832131385803222656e-01,2.831915915012359619e-01,2.831698060035705566e-01,2.831483483314514160e-01,2.831266224384307861e-01,2.831051349639892578e-01,2.830833494663238525e-01,2.830618023872375488e-01,2.830402851104736328e-01,2.830186486244201660e-01,2.830012440681457520e-01,2.829694747924804688e-01,2.829254865646362305e-01,2.829369902610778809e-01,2.830150723457336426e-01,2.827500104904174805e-01,2.827671170234680176e-01,2.825199663639068604e-01,2.815240621566772461e-01,2.811307907104492188e-01,2.810603380203247070e-01,2.785397171974182129e-01,2.772816419601440430e-01,2.750201225280761719e-01,2.733166813850402832e-01,2.754888534545898438e-01,2.748696804046630859e-01,2.746345400810241699e-01,2.784129381179809570e-01,2.777684926986694336e-01,2.809164822101593018e-01,2.809573709964752197e-01,2.827998399734497070e-01,2.826629877090454102e-01,2.830508351325988770e-01,2.818752229213714600e-01,2.718108594417572021e-01,2.751194834709167480e-01,3.007412552833557129e-01,3.195660412311553955e-01,3.763000667095184326e-01,3.975805640220642090e-01
4.091762900352478027e-01,3.324914574623107910e-01,3.159793615341186523e-01,2.799502611160278320e-01,2.584234476089477539e-01,2.558325529098510742e-01,2.600265145301818848e-01,2.610198259353637695e-01,2.617930471897125244e-01,2.617077529430389404e-01,2.616672515869140625e-01,2.616449594497680664e-01,2.616251707077026367e-01,2.616097033023834229e-01,2.615928649902343750e-01,2.615758478641510010e-01,2.615598738193511963e-01,2.615446448326110840e-01,2.615271806716918945e-01,2.615098059177398682e-01,2.614933848381042480e-01,2.614777982234954834e-01,2.614616155624389648e-01,2.614452242851257324e-01,2.614289522171020508e-01,2.614123821258544922e-01,2.613959312438964844e-01,2.613793015480041504e-01,2.613626718521118164e-01,2.613465189933776855e-01,2.613298892974853516e-01,2.613131999969482422e-01,2.612969875335693359e-01,2.612803578376770020e-01,2.612639069557189941e-01,2.612473964691162109e-01,2.612310647964477539e-01,2.612146735191345215e-01,2.611981034278869629e-01,2.611817717552185059e-01,2.611652612686157227e-01,2.611489892005920410e-01,2.611323595046997070e-01,2.611159384250640869e-01,2.610994875431060791e-01,2.610831260681152344e-01,2.610667049884796143e-01,2.610502541065216064e-01,2.610374093055725098e-01,2.610177397727966309e-01,2.609941959381103516e-01,2.610138952732086182e-01,2.610264420509338379e-01,2.608227431774139404e-01,2.609428763389587402e-01,2.610810995101928711e-01,2.608209848403930664e-01,2.601420879364013672e-01,2.601602673530578613e-01,2.602197527885437012e-01,2.587060034275054932e-01,2.573364377021789551e-01,2.574601173400878906e-01,2.560133934020996094e-01,2.577509284019470215e-01,2.576802372932434082e-01,2.576333284378051758e-01,2.585124969482421875e-01,2.594757080078125000e-01,2.600737810134887695e-01,2.598038315773010254e-01,2.606947124004364014e-01,2.612531185150146484e-01,2.600423693656921387e-01,2.512192726135253906e-01,2.544310092926025391e-01,2.794641256332397461e-01,3.009966909885406494e-01,3.605864048004150391e-01,3.876338303089141846e-01
3.991098701953887939e-01,3.188917338848114014e-01,2.997269630432128906e-01,2.643877267837524414e-01,2.423048615455627441e-01,2.394171953201293945e-01,2.430776059627532959e-01,2.439681589603424072e-01,2.446594536304473877e-01,2.445960342884063721e-01,2.445636093616485596e-01,2.445485591888427734e-01,2.445339262485504150e-01,2.445201277732849121e-01,2.445055544376373291e-01,2.444912493228912354e-01,2.444777190685272217e-01,2.444643080234527588e-01,2.444508075714111328e-01,2.444375455379486084e-01,2.444247007369995117e-01,2.444118559360504150e-01,2.443991899490356445e-01,2.443863153457641602e-01,2.443734705448150635e-01,2.443604767322540283e-01,2.443476021289825439e-01,2.443346679210662842e-01,2.443217337131500244e-01,2.443088293075561523e-01,2.442960739135742188e-01,2.442828714847564697e-01,2.442700564861297607e-01,2.442570924758911133e-01,2.442444264888763428e-01,2.442315816879272461e-01,2.442185878753662109e-01,2.442056238651275635e-01,2.441928088665008545e-01,2.441799938678741455e-01,2.441671788692474365e-01,2.441541850566864014e-01,2.441412210464477539e-01,2.441284060478210449e-01,2.441155314445495605e-01,2.441027164459228516e-01,2.440899312496185303e-01,2.440769076347351074e-01,2.440656125545501709e-01,2.440513968467712402e-01,2.440327405929565430e-01,2.440388798713684082e-01,2.440038919448852539e-01,2.438744604587554932e-01,2.439941167831420898e-01,2.440744042396545410e-01,2.439007163047790527e-01,2.436548471450805664e-01,2.438269555568695068e-01,2.437083125114440918e-01,2.434920966625213623e-01,2.426076829433441162e-01,2.420788705348968506e-01,2.423041164875030518e-01,2.423076927661895752e-01,2.428951561450958252e-01,2.428094744682312012e-01,2.425507009029388428e-01,2.430879175662994385e-01,2.434644103050231934e-01,2.436133325099945068e-01,2.434342801570892334e-01,2.442412078380584717e-01,2.433521449565887451e-01,2.352225482463836670e-01,2.385352253913879395e-01,2.629348039627075195e-01,2.863692641258239746e-01,3.479815721511840820e-01,3.796828687191009521e-01
3.908087015151977539e-01,3.077780008316040039e-01,2.866272926330566406e-01,2.519677877426147461e-01,2.295318841934204102e-01,2.264045774936676025e-01,2.296706736087799072e-01,2.304607033729553223e-01,2.310822904109954834e-01,2.310277819633483887e-01,2.310006916522979736e-01,2.309898436069488525e-01,2.309795320034027100e-01,2.309692502021789551e-01,2.309588491916656494e-01,2.309487164020538330e-01,2.309383749961853027e-01,2.309279143810272217e-01,2.309175133705139160e-01,2.309070229530334473e-01,2.308968901634216309e-01,2.308861613273620605e-01,2.308759093284606934e-01,2.308655083179473877e-01,2.308551371097564697e-01,2.308448851108551025e-01,2.308343946933746338e-01,2.308241426944732666e-01,2.308135628700256348e-01,2.308032512664794922e-01,2.307929694652557373e-01,2.307825982570648193e-01,2.307722270488739014e-01,2.307618558406829834e-01,2.307516038417816162e-01,2.307413518428802490e-01,2.307307720184326172e-01,2.307203710079193115e-01,2.307102382183074951e-01,2.306998968124389648e-01,2.306895554065704346e-01,2.306792438030242920e-01,2.306689321994781494e-01,2.306586503982543945e-01,2.306482791900634766e-01,2.306379079818725586e-01,2.306274473667144775e-01,2.306170463562011719e-01,2.306075990200042725e-01,2.305967509746551514e-01,2.305862605571746826e-01,2.305762171745300293e-01,2.305592894554138184e-01,2.305473685264587402e-01,2.305772304534912109e-01,2.305665612220764160e-01,2.305558621883392334e-01,2.303956151008605957e-01,2.305073738098144531e-01,2.305121719837188721e-01,2.303677499294281006e-01,2.299503386020660400e-01,2.297903299331665039e-01,2.294506132602691650e-01,2.300253510475158691e-01,2.298744022846221924e-01,2.303008735179901123e-01,2.303731739521026611e-01,2.302217483520507812e-01,2.302922904491424561e-01,2.303664684295654297e-01,2.302995026111602783e-01,2.305854558944702148e-01,2.300248742103576660e-01,2.226171493530273438e-01,2.259246110916137695e-01,2.498094141483306885e-01,2.745921909809112549e-01,3.377279639244079590e-01,3.731988668441772461e-01
3.838098645210266113e-01,2.985772788524627686e-01,2.758288085460662842e-01,2.418444454669952393e-01,2.191893756389617920e-01,2.158567309379577637e-01,2.188121974468231201e-01,2.195137441158294678e-01,2.200799584388732910e-01,2.200323641300201416e-01,2.200092673301696777e-01,2.200007736682891846e-01,2.199921309947967529e-01,2.199839055538177490e-01,2.199752628803253174e-01,2.199667394161224365e-01,2.199583947658538818e-01,2.199498713016510010e-01,2.199411988258361816e-01,2.199328839778900146e-01,2.199243605136871338e-01,2.199158370494842529e-01,2.199071943759918213e-01,2.198987305164337158e-01,2.198902070522308350e-01,2.198818922042846680e-01,2.198731601238250732e-01,2.198646664619445801e-01,2.198563516139984131e-01,2.198478579521179199e-01,2.198393046855926514e-01,2.198308110237121582e-01,2.198223471641540527e-01,2.198138236999511719e-01,2.198053002357482910e-01,2.197967469692230225e-01,2.197885513305664062e-01,2.197799086570739746e-01,2.197713553905487061e-01,2.197628021240234375e-01,2.197544574737548828e-01,2.197459936141967773e-01,2.197373807430267334e-01,2.197291553020477295e-01,2.197205424308776855e-01,2.197120487689971924e-01,2.197035551071166992e-01,2.196950912475585938e-01,2.196868956089019775e-01,2.196784019470214844e-01,2.196690738201141357e-01,2.196608185768127441e-01,2.196526527404785156e-01,2.196422219276428223e-01,2.196346223354339600e-01,2.196395695209503174e-01,2.196123003959655762e-01,2.195644676685333252e-01,2.196159362792968750e-01,2.196350693702697754e-01,2.195794582366943359e-01,2.194878458976745605e-01,2.194193303585052490e-01,2.193088829517364502e-01,2.192148566246032715e-01,2.193946242332458496e-01,2.192898988723754883e-01,2.195035815238952637e-01,2.195483744144439697e-01,2.194986939430236816e-01,2.195382416248321533e-01,2.195165157318115234e-01,2.197539806365966797e-01,2.192066907882690430e-01,2.123262584209442139e-01,2.156770527362823486e-01,2.391563653945922852e-01,2.649255096912384033e-01,3.292275667190551758e-01,3.678066730499267578e-01
3.778367340564727783e-01,2.908433079719543457e-01,2.668061256408691406e-01,2.334578037261962891e-01,2.106576561927795410e-01,2.071478068828582764e-01,2.098516225814819336e-01,2.104752063751220703e-01,2.109926640987396240e-01,2.109506726264953613e-01,2.109307944774627686e-01,2.109237313270568848e-01,2.109166383743286133e-01,2.109095752239227295e-01,2.109023630619049072e-01,2.108954489231109619e-01,2.108882367610931396e-01,2.108812630176544189e-01,2.108742296695709229e-01,2.108669281005859375e-01,2.108598649501800537e-01,2.108528614044189453e-01,2.108457386493682861e-01,2.108385860919952393e-01,2.108316123485565186e-01,2.108243405818939209e-01,2.108173668384552002e-01,2.108103334903717041e-01,2.108033597469329834e-01,2.107960581779479980e-01,2.107891142368316650e-01,2.107820510864257812e-01,2.107749283313751221e-01,2.107678055763244629e-01,2.107607424259185791e-01,2.107536792755126953e-01,2.107467055320739746e-01,2.107396721839904785e-01,2.107324004173278809e-01,2.107254266738891602e-01,2.107182741165161133e-01,2.107115387916564941e-01,2.107042670249938965e-01,2.106973528861999512e-01,2.106902897357940674e-01,2.106830477714538574e-01,2.106762528419494629e-01,2.106689810752868652e-01,2.106620669364929199e-01,2.106548547744750977e-01,2.106478810310363770e-01,2.106403708457946777e-01,2.106337249279022217e-01,2.106264829635620117e-01,2.106195688247680664e-01,2.106133699417114258e-01,2.106033861637115479e-01,2.105948030948638916e-01,2.105961740016937256e-01,2.105803191661834717e-01,2.105932533740997314e-01,2.105422616004943848e-01,2.105015218257904053e-01,2.104962468147277832e-01,2.104789316654205322e-01,2.104106545448303223e-01,2.105318903923034668e-01,2.105049490928649902e-01,2.105091214179992676e-01,2.105315327644348145e-01,2.104819715023040771e-01,2.104548513889312744e-01,2.107481062412261963e-01,2.102921605110168457e-01,2.038781344890594482e-01,2.071970403194427490e-01,2.303368747234344482e-01,2.568497061729431152e-01,3.220602273941040039e-01,3.632443547248840332e-01
3.726795911788940430e-01,2.842503190040588379e-01,2.591607272624969482e-01,2.263984680175781250e-01,2.035062015056610107e-01,1.998414695262908936e-01,2.023386061191558838e-01,2.028936147689819336e-01,2.033699154853820801e-01,2.033325135707855225e-01,2.033149898052215576e-01,2.033088803291320801e-01,2.033029794692993164e-01,2.032970190048217773e-01,2.032910883426666260e-01,2.032851576805114746e-01,2.032791078090667725e-01,2.032729387283325195e-01,2.032670080661773682e-01,2.032610774040222168e-01,2.032552659511566162e-01,2.032490968704223633e-01,2.032430171966552734e-01,2.032372951507568359e-01,2.032311856746673584e-01,2.032252252101898193e-01,2.032190859317779541e-01,2.032132744789123535e-01,2.032074928283691406e-01,2.032013535499572754e-01,2.031952738761901855e-01,2.031892836093902588e-01,2.031832337379455566e-01,2.031774818897247314e-01,2.031714618206024170e-01,2.031652629375457764e-01,2.031593918800354004e-01,2.031535208225250244e-01,2.031475007534027100e-01,2.031413912773132324e-01,2.031355500221252441e-01,2.031296789646148682e-01,2.031235694885253906e-01,2.031175792217254639e-01,2.031118869781494141e-01,2.031056284904479980e-01,2.030996680259704590e-01,2.030938863754272461e-01,2.030877768993377686e-01,2.030818462371826172e-01,2.030757665634155273e-01,2.030699551105499268e-01,2.030640542507171631e-01,2.030582427978515625e-01,2.030520737171173096e-01,2.030461430549621582e-01,2.030400335788726807e-01,2.030325531959533691e-01,2.030265629291534424e-01,2.030300498008728027e-01,2.030215859413146973e-01,2.030215859413146973e-01,2.030175626277923584e-01,2.030026316642761230e-01,2.029774785041809082e-01,2.029827833175659180e-01,2.029550075531005859e-01,2.029725313186645508e-01,2.029676735401153564e-01,2.029693126678466797e-01,2.029565572738647461e-01,2.029268145561218262e-01,2.031606435775756836e-01,2.027934789657592773e-01,1.967609524726867676e-01,2.000890076160430908e-01,2.229214310646057129e-01,2.500041425228118896e-01,3.159336149692535400e-01,3.593327403068542480e-01
3.681830763816833496e-01,2.785646319389343262e-01,2.526051998138427734e-01,2.203785777091979980e-01,1.974305510520935059e-01,1.936293244361877441e-01,1.959542930126190186e-01,1.964494287967681885e-01,1.968900859355926514e-01,1.968569159507751465e-01,1.968410611152648926e-01,1.968361437320709229e-01,1.968307495117187500e-01,1.968257129192352295e-01,1.968206465244293213e-01,1.968155801296234131e-01,1.968104839324951172e-01,1.968054473400115967e-01,1.968001425266265869e-01,1.967949271202087402e-01,1.967897415161132812e-01,1.967850625514984131e-01,1.967795193195343018e-01,1.967744827270507812e-01,1.967693865299224854e-01,1.967643499374389648e-01,1.967592239379882812e-01,1.967540681362152100e-01,1.967488825321197510e-01,1.967437565326690674e-01,1.967386007308959961e-01,1.967335939407348633e-01,1.967284381389617920e-01,1.967232525348663330e-01,1.967181563377380371e-01,1.967131197452545166e-01,1.967081129550933838e-01,1.967030763626098633e-01,1.966977417469024658e-01,1.966927349567413330e-01,1.966876685619354248e-01,1.966823637485504150e-01,1.966773867607116699e-01,1.966722905635833740e-01,1.966672241687774658e-01,1.966619193553924561e-01,1.966568827629089355e-01,1.966518461704254150e-01,1.966468095779418945e-01,1.966418325901031494e-01,1.966365277767181396e-01,1.966315805912017822e-01,1.966264247894287109e-01,1.966212987899780273e-01,1.966162621974945068e-01,1.966110765933990479e-01,1.966057121753692627e-01,1.966003775596618652e-01,1.965948939323425293e-01,1.965905427932739258e-01,1.965864300727844238e-01,1.965810358524322510e-01,1.965767145156860352e-01,1.965729296207427979e-01,1.965656280517578125e-01,1.965603232383728027e-01,1.965557634830474854e-01,1.965500116348266602e-01,1.965440511703491211e-01,1.965391635894775391e-01,1.965343356132507324e-01,1.965045630931854248e-01,1.967142820358276367e-01,1.964180469512939453e-01,1.907095313072204590e-01,1.940346062183380127e-01,2.166044712066650391e-01,2.441304624080657959e-01,3.106351494789123535e-01,3.559404015541076660e-01
3.642283678054809570e-01,2.736122012138366699e-01,2.469257414340972900e-01,2.151871919631958008e-01,1.922085881233215332e-01,1.882869601249694824e-01,1.904665529727935791e-01,1.909086108207702637e-01,1.913187503814697266e-01,1.912883520126342773e-01,1.912746429443359375e-01,1.912699341773986816e-01,1.912657022476196289e-01,1.912613511085510254e-01,1.912568211555480957e-01,1.912524104118347168e-01,1.912480890750885010e-01,1.912434399127960205e-01,1.912390887737274170e-01,1.912346482276916504e-01,1.912304162979125977e-01,1.912257671356201172e-01,1.912212371826171875e-01,1.912170350551605225e-01,1.912125349044799805e-01,1.912081539630889893e-01,1.912037134170532227e-01,1.911993324756622314e-01,1.911948919296264648e-01,1.911902725696563721e-01,1.911859810352325439e-01,1.911817193031311035e-01,1.911770999431610107e-01,1.911727190017700195e-01,1.911683678627014160e-01,1.911640167236328125e-01,1.911594867706298828e-01,1.911548972129821777e-01,1.911505460739135742e-01,1.911461651325225830e-01,1.911418437957763672e-01,1.911374032497406006e-01,1.911331415176391602e-01,1.911285221576690674e-01,1.911242008209228516e-01,1.911197900772094727e-01,1.911152601242065430e-01,1.911108195781707764e-01,1.911066472530364990e-01,1.911021471023559570e-01,1.910977959632873535e-01,1.910932064056396484e-01,1.910888552665710449e-01,1.910842955112457275e-01,1.910802125930786133e-01,1.910757124423980713e-01,1.910712122917175293e-01,1.910666823387145996e-01,1.910621821880340576e-01,1.910577118396759033e-01,1.910535097122192383e-01,1.910491585731506348e-01,1.910448074340820312e-01,1.910406053066253662e-01,1.910369694232940674e-01,1.910319626331329346e-01,1.910281777381896973e-01,1.910236477851867676e-01,1.910187900066375732e-01,1.910138726234436035e-01,1.910091042518615723e-01,1.909829974174499512e-01,1.911728382110595703e-01,1.909328401088714600e-01,1.855039894580841064e-01,1.888237595558166504e-01,2.111603617668151855e-01,2.390367388725280762e-01,3.060073256492614746e-01,3.529703617095947266e-01
3.607217073440551758e-01,2.692633867263793945e-01,2.419597208499908447e-01,2.106665968894958496e-01,1.876747608184814453e-01,1.836437284946441650e-01,1.856962740421295166e-01,1.860910654067993164e-01,1.864744722843170166e-01,1.864472329616546631e-01,1.864344477653503418e-01,1.864303946495056152e-01,1.864267289638519287e-01,1.864227056503295898e-01,1.864190101623535156e-01,1.864150464534759521e-01,1.864112317562103271e-01,1.864074468612670898e-01,1.864036023616790771e-01,1.863996088504791260e-01,1.863958239555358887e-01,1.863918304443359375e-01,1.863880753517150879e-01,1.863841414451599121e-01,1.863802373409271240e-01,1.863763928413391113e-01,1.863726079463958740e-01,1.863686144351959229e-01,1.863647699356079102e-01,1.863610446453094482e-01,1.863571107387542725e-01,1.863533258438110352e-01,1.863494217395782471e-01,1.863455474376678467e-01,1.863416135311126709e-01,1.863378584384918213e-01,1.863339543342590332e-01,1.863301098346710205e-01,1.863261759281158447e-01,1.863224208354949951e-01,1.863186061382293701e-01,1.863146424293518066e-01,1.863106191158294678e-01,1.863069236278533936e-01,1.863030195236206055e-01,1.862992942333221436e-01,1.862954199314117432e-01,1.862915754318237305e-01,1.862876415252685547e-01,1.862839460372924805e-01,1.862801015377044678e-01,1.862761974334716797e-01,1.862725317478179932e-01,1.862684786319732666e-01,1.862645149230957031e-01,1.862606704235076904e-01,1.862568855285644531e-01,1.862530410289764404e-01,1.862493157386779785e-01,1.862453520298004150e-01,1.862414777278900146e-01,1.862374842166900635e-01,1.862338781356811523e-01,1.862302422523498535e-01,1.862261891365051270e-01,1.862223446369171143e-01,1.862184405326843262e-01,1.862147152423858643e-01,1.862108111381530762e-01,1.862067580223083496e-01,1.862022578716278076e-01,1.861791312694549561e-01,1.863527894020080566e-01,1.861605644226074219e-01,1.809759140014648438e-01,1.842903196811676025e-01,2.064191699028015137e-01,2.345702052116394043e-01,3.019190728664398193e-01,3.503377437591552734e-01
3.576368689537048340e-01,2.654597759246826172e-01,2.376323640346527100e-01,2.067411839962005615e-01,1.837365925312042236e-01,1.796096265316009521e-01,1.815574467182159424e-01,1.819107532501220703e-01,1.822710335254669189e-01,1.822459995746612549e-01,1.822338998317718506e-01,1.822306513786315918e-01,1.822271049022674561e-01,1.822237968444824219e-01,1.822204887866973877e-01,1.822169125080108643e-01,1.822133660316467285e-01,1.822101473808288574e-01,1.822067797183990479e-01,1.822032928466796875e-01,1.822000443935394287e-01,1.821964979171752930e-01,1.821932196617126465e-01,1.821897029876708984e-01,1.821863949298858643e-01,1.821829378604888916e-01,1.821795701980590820e-01,1.821762919425964355e-01,1.821728348731994629e-01,1.821692883968353271e-01,1.821658611297607422e-01,1.821624338626861572e-01,1.821590960025787354e-01,1.821557879447937012e-01,1.821524500846862793e-01,1.821490824222564697e-01,1.821453869342803955e-01,1.821421682834625244e-01,1.821387410163879395e-01,1.821353733539581299e-01,1.821320056915283203e-01,1.821285784244537354e-01,1.821250915527343750e-01,1.821217536926269531e-01,1.821183860301971436e-01,1.821149885654449463e-01,1.821115911006927490e-01,1.821082234382629395e-01,1.821050047874450684e-01,1.821015477180480957e-01,1.820981502532958984e-01,1.820946633815765381e-01,1.820913851261138916e-01,1.820879578590393066e-01,1.820845305919647217e-01,1.820810437202453613e-01,1.820779442787170410e-01,1.820742785930633545e-01,1.820710897445678711e-01,1.820675730705261230e-01,1.820642650127410889e-01,1.820609271526336670e-01,1.820573508739471436e-01,1.820539534091949463e-01,1.820506155490875244e-01,1.820473968982696533e-01,1.820439994335174561e-01,1.820404827594757080e-01,1.820371747016906738e-01,1.820338070392608643e-01,1.820296347141265869e-01,1.820086240768432617e-01,1.821675002574920654e-01,1.820157468318939209e-01,1.770403683185577393e-01,1.803431510925292969e-01,2.022826969623565674e-01,2.306691110134124756e-01,2.983112931251525879e-01,3.479941785335540771e-01
3.552453815937042236e-01,2.622934281826019287e-01,2.341422736644744873e-01,2.035848796367645264e-01,1.805842816829681396e-01,1.763862073421478271e-01,1.782712638378143311e-01,1.786165237426757812e-01,1.789570152759552002e-01,1.789325177669525146e-01,1.789218187332153320e-01,1.789186894893646240e-01,1.789156496524810791e-01,1.789125800132751465e-01,1.789097785949707031e-01,1.789066195487976074e-01,1.789037287235260010e-01,1.789003908634185791e-01,1.788975298404693604e-01,1.788945496082305908e-01,1.788914501667022705e-01,1.788885295391082764e-01,1.788852810859680176e-01,1.788823008537292480e-01,1.788794100284576416e-01,1.788763999938964844e-01,1.788735389709472656e-01,1.788703203201293945e-01,1.788673400878906250e-01,1.788642108440399170e-01,1.788610816001892090e-01,1.788582801818847656e-01,1.788551509380340576e-01,1.788520514965057373e-01,1.788491010665893555e-01,1.788460612297058105e-01,1.788429319858551025e-01,1.788399815559387207e-01,1.788371205329895020e-01,1.788339614868164062e-01,1.788311898708343506e-01,1.788278222084045410e-01,1.788251399993896484e-01,1.788218021392822266e-01,1.788189709186553955e-01,1.788157820701599121e-01,1.788130700588226318e-01,1.788099110126495361e-01,1.788069307804107666e-01,1.788037717342376709e-01,1.788007318973541260e-01,1.787977516651153564e-01,1.787947118282318115e-01,1.787918210029602051e-01,1.787887811660766602e-01,1.787857711315155029e-01,1.787825524806976318e-01,1.787797212600708008e-01,1.787766218185424805e-01,1.787736415863037109e-01,1.787705123424530029e-01,1.787674129009246826e-01,1.787646114826202393e-01,1.787616312503814697e-01,1.787585318088531494e-01,1.787554919719696045e-01,1.787526011466979980e-01,1.787495315074920654e-01,1.787465214729309082e-01,1.787435710430145264e-01,1.787398457527160645e-01,1.787209212779998779e-01,1.788688898086547852e-01,1.787454783916473389e-01,1.739442348480224609e-01,1.772521734237670898e-01,1.989191472530364990e-01,2.273617982864379883e-01,2.952048778533935547e-01,3.462707102298736572e-01
3.522576689720153809e-01,2.585254609584808350e-01,2.300028502941131592e-01,1.997258663177490234e-01,1.766572892665863037e-01,1.722865998744964600e-01,1.739260554313659668e-01,1.741946637630462646e-01,1.744943857192993164e-01,1.744742989540100098e-01,1.744646430015563965e-01,1.744619309902191162e-01,1.744593381881713867e-01,1.744568347930908203e-01,1.744539737701416016e-01,1.744513213634490967e-01,1.744488179683685303e-01,1.744460761547088623e-01,1.744434535503387451e-01,1.744408607482910156e-01,1.744381189346313477e-01,1.744355261325836182e-01,1.744328141212463379e-01,1.744303703308105469e-01,1.744277775287628174e-01,1.744248569011688232e-01,1.744222939014434814e-01,1.744194626808166504e-01,1.744168102741241455e-01,1.744142770767211914e-01,1.744116246700286865e-01,1.744089722633361816e-01,1.744062900543212891e-01,1.744036376476287842e-01,1.744010448455810547e-01,1.743983626365661621e-01,1.743957400321960449e-01,1.743931472301483154e-01,1.743904650211334229e-01,1.743879020214080811e-01,1.743851900100708008e-01,1.743825376033782959e-01,1.743797957897186279e-01,1.743773818016052246e-01,1.743745505809783936e-01,1.743718385696411133e-01,1.743693649768829346e-01,1.743666529655456543e-01,1.743640899658203125e-01,1.743612289428710938e-01,1.743587553501129150e-01,1.743559837341308594e-01,1.743533611297607422e-01,1.743507683277130127e-01,1.743481159210205078e-01,1.743455529212951660e-01,1.743427813053131104e-01,1.743403077125549316e-01,1.743375658988952637e-01,1.743349730968475342e-01,1.743321120738983154e-01,1.743296086788177490e-01,1.743269860744476318e-01,1.743245422840118408e-01,1.743217408657073975e-01,1.743190884590148926e-01,1.743164956569671631e-01,1.743139624595642090e-01,1.743110120296478271e-01,1.743085086345672607e-01,1.743051707744598389e-01,1.742874681949615479e-01,1.744302809238433838e-01,1.743087768554687500e-01,1.696802377700805664e-01,1.730752587318420410e-01,1.948008239269256592e-01,2.234540581703186035e-01,2.916892766952514648e-01,3.432702422142028809e-01
3.534517586231231689e-01,2.556046843528747559e-01,2.290327548980712891e-01,1.991975009441375732e-01,1.747828423976898193e-01,1.703466475009918213e-01,1.715830862522125244e-01,1.718485057353973389e-01,1.721439063549041748e-01,1.721238493919372559e-01,1.721156835556030273e-01,1.721132993698120117e-01,1.721111238002777100e-01,1.721086204051971436e-01,1.721062064170837402e-01,1.721039116382598877e-01,1.721015870571136475e-01,1.720991432666778564e-01,1.720967590808868408e-01,1.720943152904510498e-01,1.720920801162719727e-01,1.720896959304809570e-01,1.720873117446899414e-01,1.720848679542541504e-01,1.720825731754302979e-01,1.720803976058959961e-01,1.720778346061706543e-01,1.720755100250244141e-01,1.720732450485229492e-01,1.720707714557647705e-01,1.720683574676513672e-01,1.720659732818603516e-01,1.720635592937469482e-01,1.720613241195678711e-01,1.720588505268096924e-01,1.720565259456634521e-01,1.720542013645172119e-01,1.720519661903381348e-01,1.720494925975799561e-01,1.720471978187561035e-01,1.720447540283203125e-01,1.720424294471740723e-01,1.720400154590606689e-01,1.720378100872039795e-01,1.720353662967681885e-01,1.720330417156219482e-01,1.720305383205413818e-01,1.720283925533294678e-01,1.720257699489593506e-01,1.720234155654907227e-01,1.720211505889892578e-01,1.720187067985534668e-01,1.720163226127624512e-01,1.720140874385833740e-01,1.720117032527923584e-01,1.720091998577117920e-01,1.720068752765655518e-01,1.720046103000640869e-01,1.720024347305297852e-01,1.719999611377716064e-01,1.719975769519805908e-01,1.719953417778015137e-01,1.719927787780761719e-01,1.719905138015747070e-01,1.719881594181060791e-01,1.719857156276702881e-01,1.719834506511688232e-01,1.719810366630554199e-01,1.719787120819091797e-01,1.719764173030853271e-01,1.719742417335510254e-01,1.719539165496826172e-01,1.720589697360992432e-01,1.720517575740814209e-01,1.679019033908843994e-01,1.713129281997680664e-01,1.922456324100494385e-01,2.205625176429748535e-01,2.916401028633117676e-01,3.415899872779846191e-01
