5.884596705436706543e-01,6.138774156570434570e-01,6.564387083053588867e-01,6.571919918060302734e-01,6.806952953338623047e-01,7.049096822738647461e-01,7.412765026092529297e-01,7.626844644546508789e-01,7.834579944610595703e-01,8.020963072776794434e-01,8.198961019515991211e-01,8.364021778106689453e-01,8.513698577880859375e-01,8.647047281265258789e-01,8.763457536697387695e-01,8.858938217163085938e-01,8.929320573806762695e-01,8.976775407791137695e-01,9.009642004966735840e-01,9.031084775924682617e-01,9.043331146240234375e-01,9.050039052963256836e-01,9.052593111991882324e-01,9.053181409835815430e-01,9.053306579589843750e-01,9.053288698196411133e-01,9.053283333778381348e-01,9.053283333778381348e-01,9.053283333778381348e-01,9.053283333778381348e-01,9.053283333778381348e-01,9.053283333778381348e-01,9.053283333778381348e-01,9.053283333778381348e-01,9.053283333778381348e-01,9.053283333778381348e-01,9.053283333778381348e-01,9.053283333778381348e-01,9.053283333778381348e-01,9.053283333778381348e-01,9.053283333778381348e-01,9.053283333778381348e-01,9.053283333778381348e-01,9.053283333778381348e-01,9.053283333778381348e-01,9.053319692611694336e-01,9.053351879119873047e-01,9.056873321533203125e-01,9.055192470550537109e-01,9.052664041519165039e-01,8.996519446372985840e-01,8.901888132095336914e-01,8.809239864349365234e-01,8.604406118392944336e-01,8.258848190307617188e-01,7.571069002151489258e-01,6.291354298591613770e-01,5.573382377624511719e-01,5.034149885177612305e-01,4.397199153900146484e-01,3.981985747814178467e-01,3.585900068283081055e-01,3.658655285835266113e-01,3.863241076469421387e-01,4.245489239692687988e-01,4.449246525764465332e-01,4.779115915298461914e-01,5.374006628990173340e-01,6.282915472984313965e-01,6.836211085319519043e-01,6.991564631462097168e-01,7.041833996772766113e-01,6.968536376953125000e-01,7.402297258377075195e-01,7.196229696273803711e-01,7.204915881156921387e-01,7.418457269668579102e-01,7.418768405914306641e-01,6.923663020133972168e-01,5.933945178985595703e-01
5.884527564048767090e-01,6.138664484024047852e-01,6.564259529113769531e-01,6.571770906448364258e-01,6.806788444519042969e-01,7.048928737640380859e-01,7.412590980529785156e-01,7.626672983169555664e-01,7.834405899047851562e-01,8.020789623260498047e-01,8.198797106742858887e-01,8.363867998123168945e-01,8.513559103012084961e-01,8.646921515464782715e-01,8.763347268104553223e-01,8.858851194381713867e-01,8.929259181022644043e-01,8.976734280586242676e-01,9.009613990783691406e-01,9.031068682670593262e-01,9.043320417404174805e-01,9.050033092498779297e-01,9.052591323852539062e-01,9.053180217742919922e-01,9.053307175636291504e-01,9.053288698196411133e-01,9.053283333778381348e-01,9.053283333778381348e-01,9.053283333778381348e-01,9.053283333778381348e-01,9.053283333778381348e-01,9.053283333778381348e-01,9.053283333778381348e-01,9.053283333778381348e-01,9.053283333778381348e-01,9.053283333778381348e-01,9.053283333778381348e-01,9.053283333778381348e-01,9.053283333778381348e-01,9.053283333778381348e-01,9.053283333778381348e-01,9.053283333778381348e-01,9.053283333778381348e-01,9.053283333778381348e-01,9.053283333778381348e-01,9.053315520286560059e-01,9.053498506546020508e-01,9.054622650146484375e-01,9.054205417633056641e-01,9.041557908058166504e-01,8.979072570800781250e-01,8.905932903289794922e-01,8.769232630729675293e-01,8.620305061340332031e-01,8.311966657638549805e-01,7.686814069747924805e-01,6.441392302513122559e-01,5.684125423431396484e-01,5.177436470985412598e-01,4.456584155559539795e-01,4.003274738788604736e-01,3.660645484924316406e-01,3.770042359828948975e-01,3.864312469959259033e-01,4.199486374855041504e-01,4.572150111198425293e-01,4.940986931324005127e-01,5.610575079917907715e-01,6.483806967735290527e-01,7.082676291465759277e-01,7.539250850677490234e-01,7.371230125427246094e-01,7.291703224182128906e-01,7.388303875923156738e-01,7.403012514114379883e-01,7.363494038581848145e-01,7.489233613014221191e-01,7.383735179901123047e-01,6.923456192016601562e-01,5.937425494194030762e-01
5.884461402893066406e-01,6.138557195663452148e-01,6.564130783081054688e-01,6.571623682975769043e-01,6.806625127792358398e-01,7.048760056495666504e-01,7.412422299385070801e-01,7.626501917839050293e-01,7.834236025810241699e-01,8.020621538162231445e-01,8.198634982109069824e-01,8.363716602325439453e-01,8.513422012329101562e-01,8.646799325942993164e-01,8.763239383697509766e-01,8.858765363693237305e-01,8.929201364517211914e-01,8.976694345474243164e-01,9.009583592414855957e-01,9.031051397323608398e-01,9.043312072753906250e-01,9.050029516220092773e-01,9.052590727806091309e-01,9.053180217742919922e-01,9.053307175636291504e-01,9.053288698196411133e-01,9.053283333778381348e-01,9.053283333778381348e-01,9.053283333778381348e-01,9.053283333778381348e-01,9.053283333778381348e-01,9.053283333778381348e-01,9.053283333778381348e-01,9.053283333778381348e-01,9.053283333778381348e-01,9.053283333778381348e-01,9.053283333778381348e-01,9.053283333778381348e-01,9.053283333778381348e-01,9.053283333778381348e-01,9.053283333778381348e-01,9.053283333778381348e-01,9.053283333778381348e-01,9.053283333778381348e-01,9.053283333778381348e-01,9.053406715393066406e-01,9.053475856781005859e-01,9.053405523300170898e-01,9.058552980422973633e-01,9.043296575546264648e-01,8.998690843582153320e-01,8.911755084991455078e-01,8.825834989547729492e-01,8.668409585952758789e-01,8.405319452285766602e-01,7.549814581871032715e-01,6.603863239288330078e-01,5.902107954025268555e-01,5.360953807830810547e-01,4.647809565067291260e-01,4.194816350936889648e-01,3.820949792861938477e-01,3.720552921295166016e-01,4.021809101104736328e-01,4.264246821403503418e-01,4.638384282588958740e-01,5.179886817932128906e-01,5.778567790985107422e-01,6.538812518119812012e-01,7.218538522720336914e-01,7.695274353027343750e-01,7.831863760948181152e-01,7.679137587547302246e-01,7.602723836898803711e-01,7.585299015045166016e-01,7.573049068450927734e-01,7.599735260009765625e-01,7.398822307586669922e-01,6.962834596633911133e-01,5.957813858985900879e-01
5.884400606155395508e-01,6.138454675674438477e-01,6.564010381698608398e-01,6.571477651596069336e-01,6.806466579437255859e-01,7.048595547676086426e-01,7.412257790565490723e-01,7.626336812973022461e-01,7.834069728851318359e-01,8.020455837249755859e-01,8.198475837707519531e-01,8.363567590713500977e-01,8.513287305831909180e-01,8.646676540374755859e-01,8.763132691383361816e-01,8.858679533004760742e-01,8.929139375686645508e-01,8.976656198501586914e-01,9.009554386138916016e-01,9.031034708023071289e-01,9.043302536010742188e-01,9.050022363662719727e-01,9.052590727806091309e-01,9.053180217742919922e-01,9.053307175636291504e-01,9.053288698196411133e-01,9.053283333778381348e-01,9.053283333778381348e-01,9.053283333778381348e-01,9.053283333778381348e-01,9.053283333778381348e-01,9.053283333778381348e-01,9.053283333778381348e-01,9.053283333778381348e-01,9.053283333778381348e-01,9.053283333778381348e-01,9.053283333778381348e-01,9.053283333778381348e-01,9.053283333778381348e-01,9.053283333778381348e-01,9.053283333778381348e-01,9.053283333778381348e-01,9.053283333778381348e-01,9.053283333778381348e-01,9.053283333778381348e-01,9.053353667259216309e-01,9.053300619125366211e-01,9.051291346549987793e-01,9.051056504249572754e-01,9.044560194015502930e-01,8.983117341995239258e-01,8.902364373207092285e-01,8.838540315628051758e-01,8.705765008926391602e-01,8.410946130752563477e-01,7.673279047012329102e-01,6.783696413040161133e-01,6.133295893669128418e-01,5.720948576927185059e-01,4.974430203437805176e-01,4.325078725814819336e-01,3.968761563301086426e-01,3.808790743350982666e-01,4.144871532917022705e-01,4.272345006465911865e-01,4.710727334022521973e-01,5.371543169021606445e-01,6.072567105293273926e-01,6.793080568313598633e-01,7.371901273727416992e-01,7.744053602218627930e-01,8.026952743530273438e-01,8.093517422676086426e-01,7.994228601455688477e-01,7.666041254997253418e-01,7.725979089736938477e-01,7.784953117370605469e-01,7.526555061340332031e-01,7.096935510635375977e-01,6.074003577232360840e-01
5.884345769882202148e-01,6.138360500335693359e-01,6.563897132873535156e-01,6.571341156959533691e-01,6.806313395500183105e-01,7.048437595367431641e-01,7.412096261978149414e-01,7.626173496246337891e-01,7.833907604217529297e-01,8.020294904708862305e-01,8.198323249816894531e-01,8.363426923751831055e-01,8.513156175613403320e-01,8.646558523178100586e-01,8.763028383255004883e-01,8.858597278594970703e-01,8.929080963134765625e-01,8.976616859436035156e-01,9.009526968002319336e-01,9.031018018722534180e-01,9.043291807174682617e-01,9.050017595291137695e-01,9.052589535713195801e-01,9.053179025650024414e-01,9.053307175636291504e-01,9.053288698196411133e-01,9.053283333778381348e-01,9.053283333778381348e-01,9.053283333778381348e-01,9.053283333778381348e-01,9.053283333778381348e-01,9.053283333778381348e-01,9.053283333778381348e-01,9.053283333778381348e-01,9.053283333778381348e-01,9.053283333778381348e-01,9.053283333778381348e-01,9.053283333778381348e-01,9.053283333778381348e-01,9.053283333778381348e-01,9.053283333778381348e-01,9.053283333778381348e-01,9.053283333778381348e-01,9.053283333778381348e-01,9.053283333778381348e-01,9.053312540054321289e-01,9.053444862365722656e-01,9.052835702896118164e-01,9.054006338119506836e-01,9.052367806434631348e-01,8.996765017509460449e-01,8.913801908493041992e-01,8.883062601089477539e-01,8.721620440483093262e-01,8.460505008697509766e-01,7.797641158103942871e-01,7.049341201782226562e-01,6.482103466987609863e-01,6.165079474449157715e-01,5.408069491386413574e-01,4.596475064754486084e-01,4.105016291141510010e-01,4.114363789558410645e-01,4.379777014255523682e-01,4.420624077320098877e-01,4.876292347908020020e-01,5.508600473403930664e-01,6.317879557609558105e-01,7.099742293357849121e-01,7.587877511978149414e-01,7.854167819023132324e-01,8.080587387084960938e-01,8.301482200622558594e-01,8.164576292037963867e-01,7.907741069793701172e-01,7.830543518066406250e-01,7.852761745452880859e-01,7.645407915115356445e-01,7.191839218139648438e-01,6.171627640724182129e-01
5.884297490119934082e-01,6.138277053833007812e-01,6.563798189163208008e-01,6.571219563484191895e-01,6.806172728538513184e-01,7.048288583755493164e-01,7.411942481994628906e-01,7.626016736030578613e-01,7.833748459815979004e-01,8.020138740539550781e-01,8.198174238204956055e-01,8.363286852836608887e-01,8.513026237487792969e-01,8.646442890167236328e-01,8.762927651405334473e-01,8.858515620231628418e-01,8.929024934768676758e-01,8.976579904556274414e-01,9.009498953819274902e-01,9.031001329421997070e-01,9.043284654617309570e-01,9.050014019012451172e-01,9.052588939666748047e-01,9.053179025650024414e-01,9.053307771682739258e-01,9.053288698196411133e-01,9.053283333778381348e-01,9.053283333778381348e-01,9.053283333778381348e-01,9.053283333778381348e-01,9.053283333778381348e-01,9.053283333778381348e-01,9.053283333778381348e-01,9.053283333778381348e-01,9.053283333778381348e-01,9.053283333778381348e-01,9.053283333778381348e-01,9.053283333778381348e-01,9.053283333778381348e-01,9.053283333778381348e-01,9.053283333778381348e-01,9.053283333778381348e-01,9.053283333778381348e-01,9.053283333778381348e-01,9.053283333778381348e-01,9.053223133087158203e-01,9.053366184234619141e-01,9.052153825759887695e-01,9.058352708816528320e-01,9.051204919815063477e-01,9.000761508941650391e-01,8.933928608894348145e-01,8.953882455825805664e-01,8.783953189849853516e-01,8.497353792190551758e-01,7.994248867034912109e-01,7.317237257957458496e-01,7.023346424102783203e-01,6.434938907623291016e-01,5.908520817756652832e-01,4.992374479770660400e-01,4.423447847366333008e-01,4.370129108428955078e-01,4.502166509628295898e-01,4.522882401943206787e-01,5.044297575950622559e-01,5.740618705749511719e-01,6.506091952323913574e-01,7.244712114334106445e-01,7.786124944686889648e-01,8.013598918914794922e-01,8.190187215805053711e-01,8.359388113021850586e-01,8.360048532485961914e-01,8.087120056152343750e-01,7.884370684623718262e-01,7.854249477386474609e-01,7.660473585128784180e-01,7.187651395797729492e-01,6.184707880020141602e-01
5.884252190589904785e-01,6.138203740119934082e-01,6.563707590103149414e-01,6.571114659309387207e-01,6.806048154830932617e-01,7.048156261444091797e-01,7.411803007125854492e-01,7.625872492790222168e-01,7.833600640296936035e-01,8.019987344741821289e-01,8.198029994964599609e-01,8.363152742385864258e-01,8.512907028198242188e-01,8.646333217620849609e-01,8.762829303741455078e-01,8.858437538146972656e-01,8.928968906402587891e-01,8.976542949676513672e-01,9.009472727775573730e-01,9.030987024307250977e-01,9.043276309967041016e-01,9.050009250640869141e-01,9.052587747573852539e-01,9.053179025650024414e-01,9.053307771682739258e-01,9.053288698196411133e-01,9.053283333778381348e-01,9.053283333778381348e-01,9.053283333778381348e-01,9.053283333778381348e-01,9.053283333778381348e-01,9.053283333778381348e-01,9.053283333778381348e-01,9.053283333778381348e-01,9.053283333778381348e-01,9.053283333778381348e-01,9.053283333778381348e-01,9.053283333778381348e-01,9.053283333778381348e-01,9.053283333778381348e-01,9.053283333778381348e-01,9.053283333778381348e-01,9.053283333778381348e-01,9.053283333778381348e-01,9.053283333778381348e-01,9.053262472152709961e-01,9.053458571434020996e-01,9.054611921310424805e-01,9.066201448440551758e-01,9.051381945610046387e-01,9.001293182373046875e-01,8.974338173866271973e-01,8.956936597824096680e-01,8.819879293441772461e-01,8.626842498779296875e-01,8.194829225540161133e-01,7.862244844436645508e-01,7.454904913902282715e-01,7.031565904617309570e-01,6.285843849182128906e-01,5.407202839851379395e-01,4.827339053153991699e-01,4.698564410209655762e-01,4.813787639141082764e-01,4.802233874797821045e-01,5.225391387939453125e-01,5.919376015663146973e-01,6.643535494804382324e-01,7.451719641685485840e-01,7.910662889480590820e-01,8.168329000473022461e-01,8.332254886627197266e-01,8.459492325782775879e-01,8.420717716217041016e-01,8.172404766082763672e-01,7.979025840759277344e-01,7.904859781265258789e-01,7.642796039581298828e-01,7.168165445327758789e-01,6.156682968139648438e-01
5.884208679199218750e-01,6.138132810592651367e-01,6.563619375228881836e-01,6.571015119552612305e-01,6.805938482284545898e-01,7.048041820526123047e-01,7.411683201789855957e-01,7.625745534896850586e-01,7.833468914031982422e-01,8.019850254058837891e-01,8.197892904281616211e-01,8.363025188446044922e-01,8.512786626815795898e-01,8.646227121353149414e-01,8.762736320495605469e-01,8.858362436294555664e-01,8.928914070129394531e-01,8.976507782936096191e-01,9.009445905685424805e-01,9.030972123146057129e-01,9.043266773223876953e-01,9.050004482269287109e-01,9.052586555480957031e-01,9.053179025650024414e-01,9.053307175636291504e-01,9.053288698196411133e-01,9.053283333778381348e-01,9.053283333778381348e-01,9.053283333778381348e-01,9.053283333778381348e-01,9.053283333778381348e-01,9.053283333778381348e-01,9.053283333778381348e-01,9.053283333778381348e-01,9.053283333778381348e-01,9.053283333778381348e-01,9.053283333778381348e-01,9.053283333778381348e-01,9.053283333778381348e-01,9.053283333778381348e-01,9.053283333778381348e-01,9.053283333778381348e-01,9.053283333778381348e-01,9.053283333778381348e-01,9.053283333778381348e-01,9.053307175636291504e-01,9.053362607955932617e-01,9.056785702705383301e-01,9.063440561294555664e-01,9.043239355087280273e-01,9.005588889122009277e-01,9.024211764335632324e-01,9.033358097076416016e-01,8.923999071121215820e-01,8.759344816207885742e-01,8.435671329498291016e-01,8.171274662017822266e-01,7.893375158309936523e-01,7.570759057998657227e-01,6.765968203544616699e-01,5.894571542739868164e-01,5.360760092735290527e-01,5.175728201866149902e-01,4.958426058292388916e-01,5.047715902328491211e-01,5.457156896591186523e-01,6.056356430053710938e-01,6.942064166069030762e-01,7.483134269714355469e-01,7.963548898696899414e-01,8.267979621887207031e-01,8.360471129417419434e-01,8.486520051956176758e-01,8.465486764907836914e-01,8.251119852066040039e-01,8.032918572425842285e-01,7.959567308425903320e-01,7.708073854446411133e-01,7.184489965438842773e-01,6.133463978767395020e-01
5.884161591529846191e-01,6.138058304786682129e-01,6.563539505004882812e-01,6.570924520492553711e-01,6.805837750434875488e-01,7.047933340072631836e-01,7.411571741104125977e-01,7.625635266304016113e-01,7.833350896835327148e-01,8.019729852676391602e-01,8.197773694992065430e-01,8.362907171249389648e-01,8.512676954269409180e-01,8.646124601364135742e-01,8.762646913528442383e-01,8.858290910720825195e-01,8.928864598274230957e-01,8.976475000381469727e-01,9.009422063827514648e-01,9.030957221984863281e-01,9.043258428573608398e-01,9.050000905990600586e-01,9.052585959434509277e-01,9.053179025650024414e-01,9.053307175636291504e-01,9.053288698196411133e-01,9.053283333778381348e-01,9.053283333778381348e-01,9.053283333778381348e-01,9.053283333778381348e-01,9.053283333778381348e-01,9.053283333778381348e-01,9.053283333778381348e-01,9.053283333778381348e-01,9.053283333778381348e-01,9.053283333778381348e-01,9.053283333778381348e-01,9.053283333778381348e-01,9.053283333778381348e-01,9.053283333778381348e-01,9.053283333778381348e-01,9.053283333778381348e-01,9.053283333778381348e-01,9.053283333778381348e-01,9.053283333778381348e-01,9.053301811218261719e-01,9.053430557250976562e-01,9.057489633560180664e-01,9.056833386421203613e-01,9.037042856216430664e-01,9.017288684844970703e-01,9.035599827766418457e-01,9.020209312438964844e-01,8.972116708755493164e-01,8.903029561042785645e-01,8.695347309112548828e-01,8.369341492652893066e-01,8.242180347442626953e-01,7.962264418601989746e-01,7.260819673538208008e-01,6.576853990554809570e-01,5.815981030464172363e-01,5.573557615280151367e-01,5.153127312660217285e-01,5.405554771423339844e-01,5.634965300559997559e-01,6.336579322814941406e-01,7.100774049758911133e-01,7.607069015502929688e-01,8.052673339843750000e-01,8.340431451797485352e-01,8.450396060943603516e-01,8.528328537940979004e-01,8.514059782028198242e-01,8.253144025802612305e-01,8.045830726623535156e-01,7.991559505462646484e-01,7.749922275543212891e-01,7.210756540298461914e-01,6.163054108619689941e-01
5.884109735488891602e-01,6.137978434562683105e-01,6.563454270362854004e-01,6.570823788642883301e-01,6.805733442306518555e-01,7.047831416130065918e-01,7.411470413208007812e-01,7.625530958175659180e-01,7.833245992660522461e-01,8.019622564315795898e-01,8.197670578956604004e-01,8.362806439399719238e-01,8.512576818466186523e-01,8.646034002304077148e-01,8.762563467025756836e-01,8.858225345611572266e-01,8.928817510604858398e-01,8.976442813873291016e-01,9.009398221969604492e-01,9.030944108963012695e-01,9.043251276016235352e-01,9.049996733665466309e-01,9.052584767341613770e-01,9.053179025650024414e-01,9.053307771682739258e-01,9.053288698196411133e-01,9.053283333778381348e-01,9.053283333778381348e-01,9.053283333778381348e-01,9.053283333778381348e-01,9.053283333778381348e-01,9.053283333778381348e-01,9.053283333778381348e-01,9.053283333778381348e-01,9.053283333778381348e-01,9.053283333778381348e-01,9.053283333778381348e-01,9.053283333778381348e-01,9.053283333778381348e-01,9.053283333778381348e-01,9.053283333778381348e-01,9.053283333778381348e-01,9.053283333778381348e-01,9.053283333778381348e-01,9.053283333778381348e-01,9.053276777267456055e-01,9.053253531455993652e-01,9.056366682052612305e-01,9.056077599525451660e-01,9.043098688125610352e-01,9.051867127418518066e-01,9.068894982337951660e-01,9.038402438163757324e-01,9.004402160644531250e-01,8.965305089950561523e-01,8.755336999893188477e-01,8.584018349647521973e-01,8.401280641555786133e-01,8.214621543884277344e-01,7.766158580780029297e-01,6.978574991226196289e-01,6.113926172256469727e-01,5.742038488388061523e-01,5.422659516334533691e-01,5.601389408111572266e-01,5.970645546913146973e-01,6.581221818923950195e-01,7.299390435218811035e-01,7.789279222488403320e-01,8.153517246246337891e-01,8.397215604782104492e-01,8.504446744918823242e-01,8.574650287628173828e-01,8.536266088485717773e-01,8.274726867675781250e-01,8.082481622695922852e-01,8.017265796661376953e-01,7.747238874435424805e-01,7.216619849205017090e-01,6.159266829490661621e-01
5.884054899215698242e-01,6.137892007827758789e-01,6.563357114791870117e-01,6.570712924003601074e-01,6.805620193481445312e-01,7.047716379165649414e-01,7.411362528800964355e-01,7.625427246093750000e-01,7.833146452903747559e-01,8.019522428512573242e-01,8.197572231292724609e-01,8.362711668014526367e-01,8.512483835220336914e-01,8.645948171615600586e-01,8.762485980987548828e-01,8.858159780502319336e-01,8.928763866424560547e-01,8.976401686668395996e-01,9.009364843368530273e-01,9.030917286872863770e-01,9.043227434158325195e-01,9.049975872039794922e-01,9.052566289901733398e-01,9.053159356117248535e-01,9.053288698196411133e-01,9.053270220756530762e-01,9.053264856338500977e-01,9.053264856338500977e-01,9.053265452384948730e-01,9.053264856338500977e-01,9.053264856338500977e-01,9.053264260292053223e-01,9.053264856338500977e-01,9.053264260292053223e-01,9.053264260292053223e-01,9.053264260292053223e-01,9.053264260292053223e-01,9.053264260292053223e-01,9.053263664245605469e-01,9.053263664245605469e-01,9.053263664245605469e-01,9.053263664245605469e-01,9.053263664245605469e-01,9.053262472152709961e-01,9.053262472152709961e-01,9.053210020065307617e-01,9.053071737289428711e-01,9.053332209587097168e-01,9.054736495018005371e-01,9.049317836761474609e-01,9.055174589157104492e-01,9.065040349960327148e-01,9.024629592895507812e-01,8.997598290443420410e-01,8.971461653709411621e-01,8.864575624465942383e-01,8.776836395263671875e-01,8.535293340682983398e-01,8.296140432357788086e-01,7.848864793777465820e-01,7.196285724639892578e-01,6.362339854240417480e-01,5.843402147293090820e-01,5.584706068038940430e-01,5.852996110916137695e-01,6.380544900894165039e-01,6.781169772148132324e-01,7.403438091278076172e-01,7.900041341781616211e-01,8.268061876296997070e-01,8.450657129287719727e-01,8.591872453689575195e-01,8.618723154067993164e-01,8.540924787521362305e-01,8.283421993255615234e-01,8.094774484634399414e-01,8.011355996131896973e-01,7.751381993293762207e-01,7.227919101715087891e-01,6.163434386253356934e-01
5.883997082710266113e-01,6.137794852256774902e-01,6.563243865966796875e-01,6.570581197738647461e-01,6.805465221405029297e-01,7.047553062438964844e-01,7.411195635795593262e-01,7.625265717506408691e-01,7.832983732223510742e-01,8.019360303878784180e-01,8.197419643402099609e-01,8.362558484077453613e-01,8.512332439422607422e-01,8.645805120468139648e-01,8.762355446815490723e-01,8.858043551445007324e-01,8.928661346435546875e-01,8.976318836212158203e-01,9.009284377098083496e-01,9.030840396881103516e-01,9.043152332305908203e-01,9.049903154373168945e-01,9.052499532699584961e-01,9.053096771240234375e-01,9.053227305412292480e-01,9.053209424018859863e-01,9.053205251693725586e-01,9.053205251693725586e-01,9.053205847740173340e-01,9.053205847740173340e-01,9.053206443786621094e-01,9.053206443786621094e-01,9.053206443786621094e-01,9.053207635879516602e-01,9.053207635879516602e-01,9.053207635879516602e-01,9.053208827972412109e-01,9.053208827972412109e-01,9.053209424018859863e-01,9.053209424018859863e-01,9.053210020065307617e-01,9.053211212158203125e-01,9.053212404251098633e-01,9.053211212158203125e-01,9.053212404251098633e-01,9.053204655647277832e-01,9.052959680557250977e-01,9.052630662918090820e-01,9.055249691009521484e-01,9.060854315757751465e-01,9.066055417060852051e-01,9.060892462730407715e-01,9.046611785888671875e-01,9.042302966117858887e-01,8.968400955200195312e-01,8.894351720809936523e-01,8.806338310241699219e-01,8.570684194564819336e-01,8.318712115287780762e-01,7.978912591934204102e-01,7.462934255599975586e-01,6.548681259155273438e-01,6.013830900192260742e-01,5.777732729911804199e-01,5.939836502075195312e-01,6.533681154251098633e-01,7.026441097259521484e-01,7.634850740432739258e-01,8.077499866485595703e-01,8.381001949310302734e-01,8.565530776977539062e-01,8.654752373695373535e-01,8.651725053787231445e-01,8.560112714767456055e-01,8.286278247833251953e-01,8.087189197540283203e-01,8.011547327041625977e-01,7.753064036369323730e-01,7.225667238235473633e-01,6.164145469665527344e-01
5.883888006210327148e-01,6.137659549713134766e-01,6.563085317611694336e-01,6.570444107055664062e-01,6.805330514907836914e-01,7.047407627105712891e-01,7.411065101623535156e-01,7.625186443328857422e-01,7.832977771759033203e-01,8.019433617591857910e-01,8.197597861289978027e-01,8.362873196601867676e-01,8.512840867042541504e-01,8.646484613418579102e-01,8.763051629066467285e-01,8.858637213706970215e-01,8.929137587547302246e-01,8.976705074310302734e-01,9.009688496589660645e-01,9.031348228454589844e-01,9.043724536895751953e-01,9.050532579421997070e-01,9.053156375885009766e-01,9.053769111633300781e-01,9.053903222084045410e-01,9.053887128829956055e-01,9.053885936737060547e-01,9.053888320922851562e-01,9.053890705108642578e-01,9.053894281387329102e-01,9.053897261619567871e-01,9.053899645805358887e-01,9.053901433944702148e-01,9.053905010223388672e-01,9.053907394409179688e-01,9.053910970687866211e-01,9.053912758827209473e-01,9.053915143013000488e-01,9.053918123245239258e-01,9.053921699523925781e-01,9.053922891616821289e-01,9.053926467895507812e-01,9.053928852081298828e-01,9.053932428359985352e-01,9.053934216499328613e-01,9.053906798362731934e-01,9.053715467453002930e-01,9.053308963775634766e-01,9.054219126701354980e-01,9.057881832122802734e-01,9.059173464775085449e-01,9.051439762115478516e-01,9.048480987548828125e-01,9.033209085464477539e-01,8.985984325408935547e-01,8.936374187469482422e-01,8.833063840866088867e-01,8.648118972778320312e-01,8.360673189163208008e-01,8.020982742309570312e-01,7.331632375717163086e-01,6.621496677398681641e-01,6.094720363616943359e-01,5.952761173248291016e-01,6.159723997116088867e-01,6.680423617362976074e-01,7.367426156997680664e-01,7.804009914398193359e-01,8.201915025711059570e-01,8.458362817764282227e-01,8.589925765991210938e-01,8.697836995124816895e-01,8.660182952880859375e-01,8.569754362106323242e-01,8.294627070426940918e-01,8.089981675148010254e-01,8.012722730636596680e-01,7.752827405929565430e-01,7.225252389907836914e-01,6.163943409919738770e-01
5.883955955505371094e-01,6.137745976448059082e-01,6.563152074813842773e-01,6.570620536804199219e-01,6.805616617202758789e-01,7.048023343086242676e-01,7.412194013595581055e-01,7.626799941062927246e-01,7.834851741790771484e-01,8.021434545516967773e-01,8.199616670608520508e-01,8.364868760108947754e-01,8.514609336853027344e-01,8.647935390472412109e-01,8.764221668243408203e-01,8.859453201293945312e-01,8.929836750030517578e-01,8.977727890014648438e-01,9.010933637619018555e-01,9.032582044601440430e-01,9.044928550720214844e-01,9.051686525344848633e-01,9.054247140884399414e-01,9.054826498031616211e-01,9.054937362670898438e-01,9.054911136627197266e-01,9.054898023605346680e-01,9.054888486862182617e-01,9.054880142211914062e-01,9.054871201515197754e-01,9.054863452911376953e-01,9.054855108261108398e-01,9.054845571517944336e-01,9.054836034774780273e-01,9.054828882217407227e-01,9.054819345474243164e-01,9.054811000823974609e-01,9.054801464080810547e-01,9.054794311523437500e-01,9.054785370826721191e-01,9.054777026176452637e-01,9.054766893386840820e-01,9.054759144783020020e-01,9.054749011993408203e-01,9.054741859436035156e-01,9.054731130599975586e-01,9.054656028747558594e-01,9.054754972457885742e-01,9.055318832397460938e-01,9.057126045227050781e-01,9.058757424354553223e-01,9.059871435165405273e-01,9.059127569198608398e-01,9.042062759399414062e-01,8.994837999343872070e-01,8.919228315353393555e-01,8.770892620086669922e-01,8.648822307586669922e-01,8.337769508361816406e-01,7.952829599380493164e-01,7.447945475578308105e-01,6.645894646644592285e-01,6.074390411376953125e-01,6.155947446823120117e-01,6.429288387298583984e-01,6.832580566406250000e-01,7.522507905960083008e-01,7.965054512023925781e-01,8.313515186309814453e-01,8.539730310440063477e-01,8.661707639694213867e-01,8.736468553543090820e-01,8.689373731613159180e-01,8.571867346763610840e-01,8.302847146987915039e-01,8.090682029724121094e-01,8.016114234924316406e-01,7.755178213119506836e-01,7.227983474731445312e-01,6.167845726013183594e-01
5.885781645774841309e-01,6.139517426490783691e-01,6.565683484077453613e-01,6.573184728622436523e-01,6.808103322982788086e-01,7.049671411514282227e-01,7.413076758384704590e-01,7.626924514770507812e-01,7.833583354949951172e-01,8.018858432769775391e-01,8.195868134498596191e-01,8.359770774841308594e-01,8.508606553077697754e-01,8.641116619110107422e-01,8.756411075592041016e-01,8.851386904716491699e-01,8.922114968299865723e-01,8.969812393188476562e-01,9.002740383148193359e-01,9.024298191070556641e-01,9.036750793457031250e-01,9.043314456939697266e-01,9.045726060867309570e-01,9.046295285224914551e-01,9.046416282653808594e-01,9.046392440795898438e-01,9.046378135681152344e-01,9.046369791030883789e-01,9.046360254287719727e-01,9.046350717544555664e-01,9.046342372894287109e-01,9.046332240104675293e-01,9.046323299407958984e-01,9.046315550804138184e-01,9.046305418014526367e-01,9.046296477317810059e-01,9.046287536621093750e-01,9.046277403831481934e-01,9.046269655227661133e-01,9.046258926391601562e-01,9.046250581741333008e-01,9.046241641044616699e-01,9.046232700347900391e-01,9.046224355697631836e-01,9.046213626861572266e-01,9.046204090118408203e-01,9.046154618263244629e-01,9.045850634574890137e-01,9.046335816383361816e-01,9.045701026916503906e-01,9.044188261032104492e-01,9.046423435211181641e-01,9.047178030014038086e-01,9.035112857818603516e-01,8.995370864868164062e-01,8.890680074691772461e-01,8.765494823455810547e-01,8.651489019393920898e-01,8.275704383850097656e-01,7.821435928344726562e-01,7.330110073089599609e-01,6.648669242858886719e-01,6.101501584053039551e-01,6.204809546470642090e-01,6.465412378311157227e-01,6.992659568786621094e-01,7.700313329696655273e-01,8.097692131996154785e-01,8.421666622161865234e-01,8.625890016555786133e-01,8.697996139526367188e-01,8.735650181770324707e-01,8.689207434654235840e-01,8.567417860031127930e-01,8.294510841369628906e-01,8.083086609840393066e-01,8.009368181228637695e-01,7.746574878692626953e-01,7.219785451889038086e-01,6.162478923797607422e-01
5.889355540275573730e-01,6.138246655464172363e-01,6.562421321868896484e-01,6.566776037216186523e-01,6.799250245094299316e-01,7.037642002105712891e-01,7.398920059204101562e-01,7.610059380531311035e-01,7.815131545066833496e-01,7.999104261398315430e-01,8.175234794616699219e-01,8.339135646820068359e-01,8.489235639572143555e-01,8.623852729797363281e-01,8.741691708564758301e-01,8.838956952095031738e-01,8.910560607910156250e-01,8.958871364593505859e-01,8.992758989334106445e-01,9.014960527420043945e-01,9.027298688888549805e-01,9.033837318420410156e-01,9.036415815353393555e-01,9.037145376205444336e-01,9.037274122238159180e-01,9.037253856658935547e-01,9.037237167358398438e-01,9.037225842475891113e-01,9.037216305732727051e-01,9.037204980850219727e-01,9.037196636199951172e-01,9.037184715270996094e-01,9.037173390388488770e-01,9.037163853645324707e-01,9.037153720855712891e-01,9.037142992019653320e-01,9.037132263183593750e-01,9.037120342254638672e-01,9.037109613418579102e-01,9.037098884582519531e-01,9.037088155746459961e-01,9.037077426910400391e-01,9.037067890167236328e-01,9.037058353424072266e-01,9.037046432495117188e-01,9.037044048309326172e-01,9.037024378776550293e-01,9.036977291107177734e-01,9.036861658096313477e-01,9.036756753921508789e-01,9.037216305732727051e-01,9.037535190582275391e-01,9.032472372055053711e-01,9.027837514877319336e-01,8.965423703193664551e-01,8.847342729568481445e-01,8.756314516067504883e-01,8.598014116287231445e-01,8.205618858337402344e-01,7.757878303527832031e-01,7.065585851669311523e-01,6.489783525466918945e-01,6.118821501731872559e-01,6.199812889099121094e-01,6.419918537139892578e-01,7.116460204124450684e-01,7.771605849266052246e-01,8.142894506454467773e-01,8.473321199417114258e-01,8.651937246322631836e-01,8.735287189483642578e-01,8.749542236328125000e-01,8.690527677536010742e-01,8.567385673522949219e-01,8.288649320602416992e-01,8.075447082519531250e-01,8.001239299774169922e-01,7.738292217254638672e-01,7.208216190338134766e-01,6.147253513336181641e-01
5.881916284561157227e-01,6.121517419815063477e-01,6.544509530067443848e-01,6.547914147377014160e-01,6.775828599929809570e-01,7.009678483009338379e-01,7.370870709419250488e-01,7.582464814186096191e-01,7.788027524948120117e-01,7.971994280815124512e-01,8.147954344749450684e-01,8.312978744506835938e-01,8.464381694793701172e-01,8.599838614463806152e-01,8.718597888946533203e-01,8.816279172897338867e-01,8.889313340187072754e-01,8.940089941024780273e-01,8.974866867065429688e-01,8.997213840484619141e-01,9.009758234024047852e-01,9.016544818878173828e-01,9.019178152084350586e-01,9.019799828529357910e-01,9.019869565963745117e-01,9.019796848297119141e-01,9.019732475280761719e-01,9.019671082496643066e-01,9.019610881805419922e-01,9.019549489021301270e-01,9.019489288330078125e-01,9.019428491592407227e-01,9.019367098808288574e-01,9.019305706024169922e-01,9.019245505332946777e-01,9.019185304641723633e-01,9.019124507904052734e-01,9.019062519073486328e-01,9.019001722335815430e-01,9.018941521644592285e-01,9.018880724906921387e-01,9.018819332122802734e-01,9.018758535385131836e-01,9.018697738647460938e-01,9.018636941909790039e-01,9.018579721450805664e-01,9.018507003784179688e-01,9.018408060073852539e-01,9.018365144729614258e-01,9.018423557281494141e-01,9.018788337707519531e-01,9.017298817634582520e-01,9.015591144561767578e-01,9.003407955169677734e-01,8.932638168334960938e-01,8.808190822601318359e-01,8.712447285652160645e-01,8.511463403701782227e-01,8.169009685516357422e-01,7.592992782592773438e-01,6.858214735984802246e-01,6.329842209815979004e-01,6.119357347488403320e-01,6.168962717056274414e-01,6.424729228019714355e-01,7.166668176651000977e-01,7.801189422607421875e-01,8.172385692596435547e-01,8.490697145462036133e-01,8.643156290054321289e-01,8.722327351570129395e-01,8.742686510086059570e-01,8.672692775726318359e-01,8.557757139205932617e-01,8.273988366127014160e-01,8.066232800483703613e-01,7.989460229873657227e-01,7.723737955093383789e-01,7.195343971252441406e-01,6.129424571990966797e-01
5.862554311752319336e-01,6.094371676445007324e-01,6.514804959297180176e-01,6.515449881553649902e-01,6.740764379501342773e-01,6.969124078750610352e-01,7.324781417846679688e-01,7.531211972236633301e-01,7.730053663253784180e-01,7.909486293792724609e-01,8.082787990570068359e-01,8.245596885681152344e-01,8.395538330078125000e-01,8.531523346900939941e-01,8.651050329208374023e-01,8.749616742134094238e-01,8.823374509811401367e-01,8.874374032020568848e-01,8.910174369812011719e-01,8.932566046714782715e-01,8.945031166076660156e-01,8.952056169509887695e-01,8.954700231552124023e-01,8.955247402191162109e-01,8.955235481262207031e-01,8.955123424530029297e-01,8.955026268959045410e-01,8.954933881759643555e-01,8.954843878746032715e-01,8.954750299453735352e-01,8.954660296440124512e-01,8.954570293426513672e-01,8.954477906227111816e-01,8.954386711120605469e-01,8.954296112060546875e-01,8.954204320907592773e-01,8.954113721847534180e-01,8.954022526741027832e-01,8.953930735588073730e-01,8.953840732574462891e-01,8.953749537467956543e-01,8.953657746315002441e-01,8.953565955162048340e-01,8.953477144241333008e-01,8.953384160995483398e-01,8.953296542167663574e-01,8.953202962875366211e-01,8.953107595443725586e-01,8.953004479408264160e-01,8.952977657318115234e-01,8.953395485877990723e-01,8.952091932296752930e-01,8.953596949577331543e-01,8.931906819343566895e-01,8.867627382278442383e-01,8.747988939285278320e-01,8.654959201812744141e-01,8.376771211624145508e-01,7.956784367561340332e-01,7.396124601364135742e-01,6.645679473876953125e-01,6.212071776390075684e-01,5.913749337196350098e-01,6.050385236740112305e-01,6.298750042915344238e-01,7.166802883148193359e-01,7.755860090255737305e-01,8.127695322036743164e-01,8.441762924194335938e-01,8.591195344924926758e-01,8.667037487030029297e-01,8.689268827438354492e-01,8.620064258575439453e-01,8.502160906791687012e-01,8.218905925750732422e-01,8.015151023864746094e-01,7.943656444549560547e-01,7.679700851440429688e-01,7.155208587646484375e-01,6.079428791999816895e-01
5.823475718498229980e-01,6.035625338554382324e-01,6.450694203376770020e-01,6.443617939949035645e-01,6.657206416130065918e-01,6.876935362815856934e-01,7.224067449569702148e-01,7.425895333290100098e-01,7.618005275726318359e-01,7.788741588592529297e-01,7.956082224845886230e-01,8.115679621696472168e-01,8.266268968582153320e-01,8.405218124389648438e-01,8.527928590774536133e-01,8.630753159523010254e-01,8.709460496902465820e-01,8.763766288757324219e-01,8.801454901695251465e-01,8.825237751007080078e-01,8.838618993759155273e-01,8.845174312591552734e-01,8.847196698188781738e-01,8.847373723983764648e-01,8.847268819808959961e-01,8.847039937973022461e-01,8.846830725669860840e-01,8.846628665924072266e-01,8.846426010131835938e-01,8.846222162246704102e-01,8.846020698547363281e-01,8.845818042755126953e-01,8.845614790916442871e-01,8.845412731170654297e-01,8.845210075378417969e-01,8.845007419586181641e-01,8.844805955886840820e-01,8.844604492187500000e-01,8.844401836395263672e-01,8.844199776649475098e-01,8.843997716903686523e-01,8.843794465065002441e-01,8.843593597412109375e-01,8.843390941619873047e-01,8.843189477920532227e-01,8.842988610267639160e-01,8.842784166336059570e-01,8.842583894729614258e-01,8.842400312423706055e-01,8.842255473136901855e-01,8.842187523841857910e-01,8.841303586959838867e-01,8.844300508499145508e-01,8.814650774002075195e-01,8.742181062698364258e-01,8.647704124450683594e-01,8.527119159698486328e-01,8.252520561218261719e-01,7.785732150077819824e-01,7.133339643478393555e-01,6.421724557876586914e-01,6.006472110748291016e-01,5.741448402404785156e-01,5.826960802078247070e-01,6.156637072563171387e-01,6.992021203041076660e-01,7.561199665069580078e-01,7.965269088745117188e-01,8.318266868591308594e-01,8.498094677925109863e-01,8.570474982261657715e-01,8.588811159133911133e-01,8.517462015151977539e-01,8.400424122810363770e-01,8.112360835075378418e-01,7.921524643898010254e-01,7.858284711837768555e-01,7.610077857971191406e-01,7.075278759002685547e-01,6.019635200500488281e-01
5.752027630805969238e-01,5.937513113021850586e-01,6.341874599456787109e-01,6.314072608947753906e-01,6.507637500762939453e-01,6.714973449707031250e-01,7.052963376045227051e-01,7.246517539024353027e-01,7.431011795997619629e-01,7.594742774963378906e-01,7.753027677536010742e-01,7.904887795448303223e-01,8.051470518112182617e-01,8.185912966728210449e-01,8.304750323295593262e-01,8.404294252395629883e-01,8.479084968566894531e-01,8.532837629318237305e-01,8.570445775985717773e-01,8.593945503234863281e-01,8.606345653533935547e-01,8.611843585968017578e-01,8.613179922103881836e-01,8.613222837448120117e-01,8.612901568412780762e-01,8.612508773803710938e-01,8.612135648727416992e-01,8.611764311790466309e-01,8.611394762992858887e-01,8.611023426055908203e-01,8.610652685165405273e-01,8.610281944274902344e-01,8.609911203384399414e-01,8.609542250633239746e-01,8.609170317649841309e-01,8.608803153038024902e-01,8.608430624008178711e-01,8.608061075210571289e-01,8.607690930366516113e-01,8.607323169708251953e-01,8.606953024864196777e-01,8.606582283973693848e-01,8.606212735176086426e-01,8.605841398239135742e-01,8.605474829673767090e-01,8.605103492736816406e-01,8.604736328125000000e-01,8.604364991188049316e-01,8.604019880294799805e-01,8.603700399398803711e-01,8.603643178939819336e-01,8.607118129730224609e-01,8.605612516403198242e-01,8.578210473060607910e-01,8.501189947128295898e-01,8.420221209526062012e-01,8.291324377059936523e-01,7.972911000251770020e-01,7.451798319816589355e-01,6.651576161384582520e-01,6.141855716705322266e-01,5.706447362899780273e-01,5.520305633544921875e-01,5.647780299186706543e-01,5.964015126228332520e-01,6.713079810142517090e-01,7.303200960159301758e-01,7.699874639511108398e-01,8.078119754791259766e-01,8.256542682647705078e-01,8.342151641845703125e-01,8.362126350402832031e-01,8.295615911483764648e-01,8.174277544021606445e-01,7.881867885589599609e-01,7.704091072082519531e-01,7.674655914306640625e-01,7.442892193794250488e-01,6.928603649139404297e-01,5.924730300903320312e-01
5.642393231391906738e-01,5.783773660659790039e-01,6.170490384101867676e-01,6.110088825225830078e-01,6.274157762527465820e-01,6.464116573333740234e-01,6.783335208892822266e-01,6.956835985183715820e-01,7.117304801940917969e-01,7.257412672042846680e-01,7.394015192985534668e-01,7.528219223022460938e-01,7.661390304565429688e-01,7.786054015159606934e-01,7.895358800888061523e-01,7.988250255584716797e-01,8.062261343002319336e-01,8.115622997283935547e-01,8.152939081192016602e-01,8.175969123840332031e-01,8.186790943145751953e-01,8.189535140991210938e-01,8.189763426780700684e-01,8.189511299133300781e-01,8.189023733139038086e-01,8.188416361808776855e-01,8.187820911407470703e-01,8.187235593795776367e-01,8.186644911766052246e-01,8.186053633689880371e-01,8.185464143753051758e-01,8.184874057769775391e-01,8.184286355972290039e-01,8.183698654174804688e-01,8.183109164237976074e-01,8.182520270347595215e-01,8.181930780410766602e-01,8.181341886520385742e-01,8.180755376815795898e-01,8.180164098739624023e-01,8.179576396942138672e-01,8.178989887237548828e-01,8.178399205207824707e-01,8.177810907363891602e-01,8.177223205566406250e-01,8.176635503768920898e-01,8.176047205924987793e-01,8.175461292266845703e-01,8.174892663955688477e-01,8.174236416816711426e-01,8.173743486404418945e-01,8.178094625473022461e-01,8.172729611396789551e-01,8.125412464141845703e-01,8.056840300559997559e-01,8.000824451446533203e-01,7.833063006401062012e-01,7.529903650283813477e-01,6.942563056945800781e-01,6.341360211372375488e-01,5.703290700912475586e-01,5.417926311492919922e-01,5.196027159690856934e-01,5.377027392387390137e-01,5.660507678985595703e-01,6.290422677993774414e-01,6.894793510437011719e-01,7.231942415237426758e-01,7.608246803283691406e-01,7.841246128082275391e-01,7.930054068565368652e-01,7.948946952819824219e-01,7.887755632400512695e-01,7.778516411781311035e-01,7.482979297637939453e-01,7.333702445030212402e-01,7.347718477249145508e-01,7.137571573257446289e-01,6.687926054000854492e-01,5.797333717346191406e-01
5.497247576713562012e-01,5.539376139640808105e-01,5.888129472732543945e-01,5.787606239318847656e-01,5.919222831726074219e-01,6.082131266593933105e-01,6.378247737884521484e-01,6.524333953857421875e-01,6.663233637809753418e-01,6.780697703361511230e-01,6.894906759262084961e-01,7.006268501281738281e-01,7.116246223449707031e-01,7.215009331703186035e-01,7.303581833839416504e-01,7.380215525627136230e-01,7.437717914581298828e-01,7.477732896804809570e-01,7.504828572273254395e-01,7.519788742065429688e-01,7.524081468582153320e-01,7.524744272232055664e-01,7.524496316909790039e-01,7.523865699768066406e-01,7.523186206817626953e-01,7.522335052490234375e-01,7.521507740020751953e-01,7.520682811737060547e-01,7.519859075546264648e-01,7.519032955169677734e-01,7.518209218978881836e-01,7.517386674880981445e-01,7.516560554504394531e-01,7.515738010406494141e-01,7.514914274215698242e-01,7.514092922210693359e-01,7.513267397880554199e-01,7.512443661689758301e-01,7.511620521545410156e-01,7.510798573493957520e-01,7.509974241256713867e-01,7.509151697158813477e-01,7.508327960968017578e-01,7.507506608963012695e-01,7.506684064865112305e-01,7.505860924720764160e-01,7.505038976669311523e-01,7.504216432571411133e-01,7.503404617309570312e-01,7.502653598785400391e-01,7.501704692840576172e-01,7.510522603988647461e-01,7.504895925521850586e-01,7.439685463905334473e-01,7.369220256805419922e-01,7.344977855682373047e-01,7.081019878387451172e-01,6.801375150680541992e-01,6.250916123390197754e-01,5.771014094352722168e-01,5.352494716644287109e-01,4.934328496456146240e-01,4.915526509284973145e-01,4.984548985958099365e-01,5.290995240211486816e-01,5.841448307037353516e-01,6.387361288070678711e-01,6.656799912452697754e-01,6.948037147521972656e-01,7.172132730484008789e-01,7.270982265472412109e-01,7.280484437942504883e-01,7.234457731246948242e-01,7.131353616714477539e-01,6.837905645370483398e-01,6.729996800422668457e-01,6.818971037864685059e-01,6.630958914756774902e-01,6.337943077087402344e-01,5.564910769462585449e-01
5.325040817260742188e-01,5.236870646476745605e-01,5.544959902763366699e-01,5.385826826095581055e-01,5.464448332786560059e-01,5.592987537384033203e-01,5.835181474685668945e-01,5.946902632713317871e-01,6.051647663116455078e-01,6.132951378822326660e-01,6.213153004646301270e-01,6.292414665222167969e-01,6.369066834449768066e-01,6.437563896179199219e-01,6.499300003051757812e-01,6.547386646270751953e-01,6.579707264900207520e-01,6.604021191596984863e-01,6.619712710380554199e-01,6.628121137619018555e-01,6.630305051803588867e-01,6.629927158355712891e-01,6.628904938697814941e-01,6.628068089485168457e-01,6.627248525619506836e-01,6.626344919204711914e-01,6.625463366508483887e-01,6.624587774276733398e-01,6.623710393905639648e-01,6.622833013534545898e-01,6.621956825256347656e-01,6.621081829071044922e-01,6.620204448699951172e-01,6.619330048561096191e-01,6.618454456329345703e-01,6.617580056190490723e-01,6.616703867912292480e-01,6.615828275680541992e-01,6.614953279495239258e-01,6.614078879356384277e-01,6.613205075263977051e-01,6.612330675125122070e-01,6.611456871032714844e-01,6.610583066940307617e-01,6.609709858894348145e-01,6.608836054801940918e-01,6.607962846755981445e-01,6.607088446617126465e-01,6.606199145317077637e-01,6.605170965194702148e-01,6.604367494583129883e-01,6.615107059478759766e-01,6.598631739616394043e-01,6.552598476409912109e-01,6.498069763183593750e-01,6.481417417526245117e-01,6.215522289276123047e-01,5.874578356742858887e-01,5.575659275054931641e-01,5.140825510025024414e-01,4.790775179862976074e-01,4.471134543418884277e-01,4.524254500865936279e-01,4.570336937904357910e-01,4.823831319808959961e-01,5.343526005744934082e-01,5.729517936706542969e-01,5.889317989349365234e-01,6.159507036209106445e-01,6.336571574211120605e-01,6.408663392066955566e-01,6.423636078834533691e-01,6.392305493354797363e-01,6.309448480606079102e-01,6.033347845077514648e-01,5.960065126419067383e-01,6.116241812705993652e-01,5.968363881111145020e-01,5.880005955696105957e-01,5.268721580505371094e-01
5.115467905998229980e-01,4.893310368061065674e-01,5.141217112541198730e-01,4.908627569675445557e-01,4.924234747886657715e-01,5.010046958923339844e-01,5.196018218994140625e-01,5.275447368621826172e-01,5.347059369087219238e-01,5.395470857620239258e-01,5.444165468215942383e-01,5.495169162750244141e-01,5.544910430908203125e-01,5.588307380676269531e-01,5.624820590019226074e-01,5.651905536651611328e-01,5.674918293952941895e-01,5.691061615943908691e-01,5.701987743377685547e-01,5.706980228424072266e-01,5.708010196685791016e-01,5.707223415374755859e-01,5.705797672271728516e-01,5.705107450485229492e-01,5.704138278961181641e-01,5.703253149986267090e-01,5.702377557754516602e-01,5.701506137847900391e-01,5.700635313987731934e-01,5.699764490127563477e-01,5.698895454406738281e-01,5.698027014732360840e-01,5.697157382965087891e-01,5.696287751197814941e-01,5.695419311523437500e-01,5.694550871849060059e-01,5.693683028221130371e-01,5.692813396453857422e-01,5.691947340965270996e-01,5.691077113151550293e-01,5.690208673477172852e-01,5.689340829849243164e-01,5.688474774360656738e-01,5.687608718872070312e-01,5.686742067337036133e-01,5.685876607894897461e-01,5.685009956359863281e-01,5.684144496917724609e-01,5.683314204216003418e-01,5.682395696640014648e-01,5.681133866310119629e-01,5.688869357109069824e-01,5.664325356483459473e-01,5.626887083053588867e-01,5.624085664749145508e-01,5.567992925643920898e-01,5.354674458503723145e-01,5.096402764320373535e-01,4.867663681507110596e-01,4.606768786907196045e-01,4.257137775421142578e-01,4.177412092685699463e-01,4.144831299781799316e-01,4.176591038703918457e-01,4.408846497535705566e-01,4.732227325439453125e-01,5.019491910934448242e-01,5.131964087486267090e-01,5.341629385948181152e-01,5.485867857933044434e-01,5.528140068054199219e-01,5.529096126556396484e-01,5.522218942642211914e-01,5.454128384590148926e-01,5.215327739715576172e-01,5.173776745796203613e-01,5.384223461151123047e-01,5.280740261077880859e-01,5.396810173988342285e-01,4.965147376060485840e-01
4.905597567558288574e-01,4.556698501110076904e-01,4.712936580181121826e-01,4.408642053604125977e-01,4.361911416053771973e-01,4.405605494976043701e-01,4.539820253849029541e-01,4.580722451210021973e-01,4.623938500881195068e-01,4.647224843502044678e-01,4.672714471817016602e-01,4.700821936130523682e-01,4.728535711765289307e-01,4.754827320575714111e-01,4.777911901473999023e-01,4.795162975788116455e-01,4.807944297790527344e-01,4.817632734775543213e-01,4.823682308197021484e-01,4.826327860355377197e-01,4.826840460300445557e-01,4.826766252517700195e-01,4.825979173183441162e-01,4.824976027011871338e-01,4.824143648147583008e-01,4.823404252529144287e-01,4.822674095630645752e-01,4.821941852569580078e-01,4.821212291717529297e-01,4.820480942726135254e-01,4.819750785827636719e-01,4.819020032882690430e-01,4.818291068077087402e-01,4.817562103271484375e-01,4.816834628582000732e-01,4.816107451915740967e-01,4.815377295017242432e-01,4.814647436141967773e-01,4.813920855522155762e-01,4.813191294670104980e-01,4.812462627887725830e-01,4.811735749244689941e-01,4.811009466648101807e-01,4.810281395912170410e-01,4.809556305408477783e-01,4.808829426765441895e-01,4.808103442192077637e-01,4.807376563549041748e-01,4.806648194789886475e-01,4.805786311626434326e-01,4.806307256221771240e-01,4.805143773555755615e-01,4.798588156700134277e-01,4.773804247379302979e-01,4.791991412639617920e-01,4.754794836044311523e-01,4.611111879348754883e-01,4.459819197654724121e-01,4.303345680236816406e-01,4.096093773841857910e-01,3.891225159168243408e-01,3.788208961486816406e-01,3.787311613559722900e-01,3.780349195003509521e-01,3.960020542144775391e-01,4.160133302211761475e-01,4.310649335384368896e-01,4.429710507392883301e-01,4.552826285362243652e-01,4.675455689430236816e-01,4.711800813674926758e-01,4.726924300193786621e-01,4.737212657928466797e-01,4.692661762237548828e-01,4.494103491306304932e-01,4.482946395874023438e-01,4.718347191810607910e-01,4.688038229942321777e-01,4.950019419193267822e-01,4.690951108932495117e-01
4.694018959999084473e-01,4.224022924900054932e-01,4.285233318805694580e-01,3.950388431549072266e-01,3.840708732604980469e-01,3.856382071971893311e-01,3.960510790348052979e-01,3.989890813827514648e-01,4.020188152790069580e-01,4.032134115695953369e-01,4.044257104396820068e-01,4.056398868560791016e-01,4.066620171070098877e-01,4.076085388660430908e-01,4.084063470363616943e-01,4.089947640895843506e-01,4.096008539199829102e-01,4.100944399833679199e-01,4.103069603443145752e-01,4.103513062000274658e-01,4.103604853153228760e-01,4.102632999420166016e-01,4.101919531822204590e-01,4.101192951202392578e-01,4.100562632083892822e-01,4.099975526332855225e-01,4.099393486976623535e-01,4.098814725875854492e-01,4.098234474658966064e-01,4.097657203674316406e-01,4.097079634666442871e-01,4.096499681472778320e-01,4.095923900604248047e-01,4.095348119735717773e-01,4.094770252704620361e-01,4.094192981719970703e-01,4.093615412712097168e-01,4.093039035797119141e-01,4.092462062835693359e-01,4.091885089874267578e-01,4.091308712959289551e-01,4.090733230113983154e-01,4.090157747268676758e-01,4.089581668376922607e-01,4.089007377624511719e-01,4.088433086872100830e-01,4.087857604026794434e-01,4.087281823158264160e-01,4.086691439151763916e-01,4.085986614227294922e-01,4.086315929889678955e-01,4.080963134765625000e-01,4.075316190719604492e-01,4.073344469070434570e-01,4.081853628158569336e-01,4.033538401126861572e-01,3.959970772266387939e-01,3.853850662708282471e-01,3.812097012996673584e-01,3.638632297515869141e-01,3.560815453529357910e-01,3.514097034931182861e-01,3.494167327880859375e-01,3.498924374580383301e-01,3.554167747497558594e-01,3.681860566139221191e-01,3.764148056507110596e-01,3.846281766891479492e-01,3.941346108913421631e-01,3.982861042022705078e-01,4.019423127174377441e-01,4.017899036407470703e-01,4.037076830863952637e-01,4.011750817298889160e-01,3.856948018074035645e-01,3.876676559448242188e-01,4.135132730007171631e-01,4.177181720733642578e-01,4.560209214687347412e-01,4.460608363151550293e-01
4.513856768608093262e-01,3.938128352165222168e-01,3.929762840270996094e-01,3.572839200496673584e-01,3.413546681404113770e-01,3.406473398208618164e-01,3.480954766273498535e-01,3.498151600360870361e-01,3.515082001686096191e-01,3.519263863563537598e-01,3.524428904056549072e-01,3.529097139835357666e-01,3.533914387226104736e-01,3.538294434547424316e-01,3.541249036788940430e-01,3.542208075523376465e-01,3.542958199977874756e-01,3.541714847087860107e-01,3.540171086788177490e-01,3.539579510688781738e-01,3.539367318153381348e-01,3.539023101329803467e-01,3.538477420806884766e-01,3.537941575050354004e-01,3.537530004978179932e-01,3.537112474441528320e-01,3.536700010299682617e-01,3.536284565925598145e-01,3.535871803760528564e-01,3.535461425781250000e-01,3.535049557685852051e-01,3.534637987613677979e-01,3.534224629402160645e-01,3.533814549446105957e-01,3.533402681350708008e-01,3.532989025115966797e-01,3.532578945159912109e-01,3.532168269157409668e-01,3.531755208969116211e-01,3.531343638896942139e-01,3.530933260917663574e-01,3.530524969100952148e-01,3.530110716819763184e-01,3.529703021049499512e-01,3.529291152954101562e-01,3.528881967067718506e-01,3.528470993041992188e-01,3.528062403202056885e-01,3.527627289295196533e-01,3.527088761329650879e-01,3.527123928070068359e-01,3.524971604347229004e-01,3.524246811866760254e-01,3.531919717788696289e-01,3.537075519561767578e-01,3.504109382629394531e-01,3.478887677192687988e-01,3.439487814903259277e-01,3.379633426666259766e-01,3.293578326702117920e-01,3.208916187286376953e-01,3.192727565765380859e-01,3.172630369663238525e-01,3.201535344123840332e-01,3.264366984367370605e-01,3.260535001754760742e-01,3.363344073295593262e-01,3.398241400718688965e-01,3.458216190338134766e-01,3.472518920898437500e-01,3.491254448890686035e-01,3.499498963356018066e-01,3.510554432868957520e-01,3.489521741867065430e-01,3.362264633178710938e-01,3.391913771629333496e-01,3.653316795825958252e-01,3.756882548332214355e-01,4.224469363689422607e-01,4.258190393447875977e-01
4.349639415740966797e-01,3.689393997192382812e-01,3.612703382968902588e-01,3.251595497131347656e-01,3.061248064041137695e-01,3.047516942024230957e-01,3.108564019203186035e-01,3.122457265853881836e-01,3.134027421474456787e-01,3.134177327156066895e-01,3.134032487869262695e-01,3.133934736251831055e-01,3.134682774543762207e-01,3.135590553283691406e-01,3.135898113250732422e-01,3.136052489280700684e-01,3.135657012462615967e-01,3.135138154029846191e-01,3.135303258895874023e-01,3.135159015655517578e-01,3.134582042694091797e-01,3.134130835533142090e-01,3.133790493011474609e-01,3.133502602577209473e-01,3.133192658424377441e-01,3.132895827293395996e-01,3.132595121860504150e-01,3.132294416427612305e-01,3.131996691226959229e-01,3.131697177886962891e-01,3.131397962570190430e-01,3.131099343299865723e-01,3.130799829959869385e-01,3.130500316619873047e-01,3.130203485488891602e-01,3.129904270172119141e-01,3.129604756832122803e-01,3.129305243492126465e-01,3.129006624221801758e-01,3.128706812858581543e-01,3.128410279750823975e-01,3.128110766410827637e-01,3.127813339233398438e-01,3.127513825893402100e-01,3.127216696739196777e-01,3.126918077468872070e-01,3.126622140407562256e-01,3.126324415206909180e-01,3.125969171524047852e-01,3.125581741333007812e-01,3.124900758266448975e-01,3.124324083328247070e-01,3.125718832015991211e-01,3.128050565719604492e-01,3.122977614402770996e-01,3.109264373779296875e-01,3.098307251930236816e-01,3.094995021820068359e-01,3.059169650077819824e-01,3.006766736507415771e-01,2.986351847648620605e-01,2.940488457679748535e-01,2.942689061164855957e-01,2.942134737968444824e-01,2.975245118141174316e-01,2.982782721519470215e-01,3.025119304656982422e-01,3.065062761306762695e-01,3.084630668163299561e-01,3.104003071784973145e-01,3.108971118927001953e-01,3.108930289745330811e-01,3.120798468589782715e-01,3.102103471755981445e-01,2.990776002407073975e-01,3.025754392147064209e-01,3.288266956806182861e-01,3.441910743713378906e-01,3.968304991722106934e-01,4.101034104824066162e-01
4.212107658386230469e-01,3.491265773773193359e-01,3.364065289497375488e-01,2.999930977821350098e-01,2.791693508625030518e-01,2.769926190376281738e-01,2.819470763206481934e-01,2.831124067306518555e-01,2.839959263801574707e-01,2.838868796825408936e-01,2.838469743728637695e-01,2.838444113731384277e-01,2.838278114795684814e-01,2.838101685047149658e-01,2.837958931922912598e-01,2.837581634521484375e-01,2.837186455726623535e-01,2.836890220642089844e-01,2.836640477180480957e-01,2.836296260356903076e-01,2.836027443408966064e-01,2.835810184478759766e-01,2.835586667060852051e-01,2.835360467433929443e-01,2.835150361061096191e-01,2.834932804107666016e-01,2.834716439247131348e-01,2.834497392177581787e-01,2.834280729293823242e-01,2.834064066410064697e-01,2.833846211433410645e-01,2.833630740642547607e-01,2.833412885665893555e-01,2.833197116851806641e-01,2.832980155944824219e-01,2.832764387130737305e-01,2.832545042037963867e-01,2.832329869270324707e-01,2.832113206386566162e-01,2.831897139549255371e-01,2.831681370735168457e-01,2.831464111804962158e-01,2.831245660781860352e-01,2.831032276153564453e-01,2.830814123153686523e-01,2.830598950386047363e-01,2.830381989479064941e-01,2.830166220664978027e-01,2.829958200454711914e-01,2.829707264900207520e-01,2.829465270042419434e-01,2.828611433506011963e-01,2.830888032913208008e-01,2.830925583839416504e-01,2.825512886047363281e-01,2.824174761772155762e-01,2.827900052070617676e-01,2.813586592674255371e-01,2.805242538452148438e-01,2.787645459175109863e-01,2.765157520771026611e-01,2.746445834636688232e-01,2.745346426963806152e-01,2.733972668647766113e-01,2.748133540153503418e-01,2.750170230865478516e-01,2.778946161270141602e-01,2.780874371528625488e-01,2.811785340309143066e-01,2.811117172241210938e-01,2.826514244079589844e-01,2.825989723205566406e-01,2.831070423126220703e-01,2.818757295608520508e-01,2.718090116977691650e-01,2.751169204711914062e-01,3.007382452487945557e-01,3.195636272430419922e-01,3.762980103492736816e-01,3.975792825222015381e-01
4.091761112213134766e-01,3.324910700321197510e-01,3.159790635108947754e-01,2.799497544765472412e-01,2.584230303764343262e-01,2.558319568634033203e-01,2.600260972976684570e-01,2.610192894935607910e-01,2.617924809455871582e-01,2.617070674896240234e-01,2.616665363311767578e-01,2.616442143917083740e-01,2.616245448589324951e-01,2.616087794303894043e-01,2.615924179553985596e-01,2.615749239921569824e-01,2.615590691566467285e-01,2.615437507629394531e-01,2.615263462066650391e-01,2.615088224411010742e-01,2.614925503730773926e-01,2.614766955375671387e-01,2.614603936672210693e-01,2.614439725875854492e-01,2.614278495311737061e-01,2.614113390445709229e-01,2.613947689533233643e-01,2.613783478736877441e-01,2.613617181777954102e-01,2.613453269004821777e-01,2.613287270069122314e-01,2.613121867179870605e-01,2.612957358360290527e-01,2.612793147563934326e-01,2.612627744674682617e-01,2.612464129924774170e-01,2.612296044826507568e-01,2.612131834030151367e-01,2.611969113349914551e-01,2.611805200576782227e-01,2.611639499664306641e-01,2.611474692821502686e-01,2.611310184001922607e-01,2.611145973205566406e-01,2.610979676246643066e-01,2.610815763473510742e-01,2.610651850700378418e-01,2.610487341880798340e-01,2.610333263874053955e-01,2.610179781913757324e-01,2.609910368919372559e-01,2.609999179840087891e-01,2.610201835632324219e-01,2.608492374420166016e-01,2.608296275138854980e-01,2.610103487968444824e-01,2.608570158481597900e-01,2.603470087051391602e-01,2.600223720073699951e-01,2.595010697841644287e-01,2.588112354278564453e-01,2.573254108428955078e-01,2.570051848888397217e-01,2.558022141456604004e-01,2.576679587364196777e-01,2.573301494121551514e-01,2.577621936798095703e-01,2.585012316703796387e-01,2.593390941619873047e-01,2.600783407688140869e-01,2.598945498466491699e-01,2.607088387012481689e-01,2.612261772155761719e-01,2.600368261337280273e-01,2.512181997299194336e-01,2.544288635253906250e-01,2.794620096683502197e-01,3.009947538375854492e-01,3.605846166610717773e-01,3.876329064369201660e-01
3.991097211837768555e-01,3.188913464546203613e-01,2.997265756130218506e-01,2.643873691558837891e-01,2.423043549060821533e-01,2.394167780876159668e-01,2.430771589279174805e-01,2.439676523208618164e-01,2.446587383747100830e-01,2.445956468582153320e-01,2.445630133152008057e-01,2.445480823516845703e-01,2.445335388183593750e-01,2.445195913314819336e-01,2.445048987865447998e-01,2.444906234741210938e-01,2.444769442081451416e-01,2.444635927677154541e-01,2.444499731063842773e-01,2.444368898868560791e-01,2.444239854812622070e-01,2.444113194942474365e-01,2.443983256816864014e-01,2.443856894969940186e-01,2.443726062774658203e-01,2.443595528602600098e-01,2.443467676639556885e-01,2.443338036537170410e-01,2.443207800388336182e-01,2.443079352378845215e-01,2.442950308322906494e-01,2.442820668220520020e-01,2.442692220211029053e-01,2.442562878131866455e-01,2.442435026168823242e-01,2.442304491996765137e-01,2.442176043987274170e-01,2.442044913768768311e-01,2.441916763782501221e-01,2.441787421703338623e-01,2.441660165786743164e-01,2.441530525684356689e-01,2.441401183605194092e-01,2.441272139549255371e-01,2.441145777702331543e-01,2.441014051437377930e-01,2.440887093544006348e-01,2.440756261348724365e-01,2.440631985664367676e-01,2.440506517887115479e-01,2.440334260463714600e-01,2.440305352210998535e-01,2.440100312232971191e-01,2.439044713973999023e-01,2.439683079719543457e-01,2.440303564071655273e-01,2.439826428890228271e-01,2.436558604240417480e-01,2.438795566558837891e-01,2.436186671257019043e-01,2.434921264648437500e-01,2.424854338169097900e-01,2.422110140323638916e-01,2.421275377273559570e-01,2.424095571041107178e-01,2.427838146686553955e-01,2.428868114948272705e-01,2.425145208835601807e-01,2.430763840675354004e-01,2.434438765048980713e-01,2.435986101627349854e-01,2.434343099594116211e-01,2.442651987075805664e-01,2.433450520038604736e-01,2.352212667465209961e-01,2.385336160659790039e-01,2.629330754280090332e-01,2.863675355911254883e-01,3.479801416397094727e-01,3.796819746494293213e-01
3.908085525035858154e-01,3.077777326107025146e-01,2.866269946098327637e-01,2.519674897193908691e-01,2.295316755771636963e-01,2.264043390750885010e-01,2.296702265739440918e-01,2.304603159427642822e-01,2.310819923877716064e-01,2.310272455215454102e-01,2.310003042221069336e-01,2.309895455837249756e-01,2.309790551662445068e-01,2.309688031673431396e-01,2.309584021568298340e-01,2.309483289718627930e-01,2.309378385543823242e-01,2.309274077415466309e-01,2.309167981147766113e-01,2.309064567089080811e-01,2.308961153030395508e-01,2.308855652809143066e-01,2.308753728866577148e-01,2.308649718761444092e-01,2.308545410633087158e-01,2.308440208435058594e-01,2.308336496353149414e-01,2.308232784271240234e-01,2.308130264282226562e-01,2.308025360107421875e-01,2.307922840118408203e-01,2.307819426059722900e-01,2.307714819908142090e-01,2.307611703872680664e-01,2.307508289813995361e-01,2.307403683662414551e-01,2.307298779487609863e-01,2.307196855545043945e-01,2.307093739509582520e-01,2.306990325450897217e-01,2.306886613368988037e-01,2.306782603263854980e-01,2.306679785251617432e-01,2.306575179100036621e-01,2.306470572948455811e-01,2.306368649005889893e-01,2.306264340877532959e-01,2.306160628795623779e-01,2.306064069271087646e-01,2.305957674980163574e-01,2.305857241153717041e-01,2.305766940116882324e-01,2.305607795715332031e-01,2.305511534214019775e-01,2.305711209774017334e-01,2.305461466312408447e-01,2.305700778961181641e-01,2.304261922836303711e-01,2.304948568344116211e-01,2.304904758930206299e-01,2.303743660449981689e-01,2.299330830574035645e-01,2.297396659851074219e-01,2.294583022594451904e-01,2.300091087818145752e-01,2.298968732357025146e-01,2.302883863449096680e-01,2.303284108638763428e-01,2.302339971065521240e-01,2.303156852722167969e-01,2.303653657436370850e-01,2.302877902984619141e-01,2.305793464183807373e-01,2.300265729427337646e-01,2.226158082485198975e-01,2.259230613708496094e-01,2.498078048229217529e-01,2.745909094810485840e-01,3.377268612384796143e-01,3.731981515884399414e-01
3.838096857070922852e-01,2.985769510269165039e-01,2.758285105228424072e-01,2.418440580368041992e-01,2.191890180110931396e-01,2.158563733100891113e-01,2.188119590282440186e-01,2.195132672786712646e-01,2.200795710086822510e-01,2.200319468975067139e-01,2.200089097023010254e-01,2.200005948543548584e-01,2.199918031692504883e-01,2.199834883213043213e-01,2.199749648571014404e-01,2.199664711952209473e-01,2.199579477310180664e-01,2.199493050575256348e-01,2.199407815933227539e-01,2.199321985244750977e-01,2.199237048625946045e-01,2.199153602123260498e-01,2.199066579341888428e-01,2.198981642723083496e-01,2.198895514011383057e-01,2.198811173439025879e-01,2.198726534843444824e-01,2.198640406131744385e-01,2.198556959629058838e-01,2.198471724987030029e-01,2.198387682437896729e-01,2.198300957679748535e-01,2.198216319084167480e-01,2.198131680488586426e-01,2.198044359683990479e-01,2.197961807250976562e-01,2.197877168655395508e-01,2.197791039943695068e-01,2.197708189487457275e-01,2.197621166706085205e-01,2.197537422180175781e-01,2.197452485561370850e-01,2.197367548942565918e-01,2.197283804416656494e-01,2.197197973728179932e-01,2.197113335132598877e-01,2.197027206420898438e-01,2.196943163871765137e-01,2.196861505508422852e-01,2.196775376796722412e-01,2.196681499481201172e-01,2.196599543094635010e-01,2.196515202522277832e-01,2.196402847766876221e-01,2.196332812309265137e-01,2.196388542652130127e-01,2.196095287799835205e-01,2.195643484592437744e-01,2.196136116981506348e-01,2.196378111839294434e-01,2.195806503295898438e-01,2.194809615612030029e-01,2.194052338600158691e-01,2.192893326282501221e-01,2.192371189594268799e-01,2.193966805934906006e-01,2.192842662334442139e-01,2.195076048374176025e-01,2.195508182048797607e-01,2.194974124431610107e-01,2.195366024971008301e-01,2.195125520229339600e-01,2.197509706020355225e-01,2.192050218582153320e-01,2.123255431652069092e-01,2.156759202480316162e-01,2.391550540924072266e-01,2.649244368076324463e-01,3.292265832424163818e-01,3.678060472011566162e-01
3.778366148471832275e-01,2.908430099487304688e-01,2.668058872222900391e-01,2.334576249122619629e-01,2.106573581695556641e-01,2.071474194526672363e-01,2.098512947559356689e-01,2.104748487472534180e-01,2.109924256801605225e-01,2.109504342079162598e-01,2.109304964542388916e-01,2.109234631061553955e-01,2.109164893627166748e-01,2.109093368053436279e-01,2.109020352363586426e-01,2.108950912952423096e-01,2.108879983425140381e-01,2.108808457851409912e-01,2.108736336231231689e-01,2.108666002750396729e-01,2.108594477176666260e-01,2.108524143695831299e-01,2.108452022075653076e-01,2.108382582664489746e-01,2.108310759067535400e-01,2.108239531517028809e-01,2.108168005943298340e-01,2.108097970485687256e-01,2.108025550842285156e-01,2.107954919338226318e-01,2.107885181903839111e-01,2.107815146446228027e-01,2.107744812965393066e-01,2.107671797275543213e-01,2.107601761817932129e-01,2.107530534267425537e-01,2.107459902763366699e-01,2.107391357421875000e-01,2.107319533824920654e-01,2.107248902320861816e-01,2.107177674770355225e-01,2.107107043266296387e-01,2.107034325599670410e-01,2.106965482234954834e-01,2.106894254684448242e-01,2.106824815273284912e-01,2.106754481792449951e-01,2.106682658195495605e-01,2.106612622737884521e-01,2.106539309024810791e-01,2.106469869613647461e-01,2.106395959854125977e-01,2.106328010559082031e-01,2.106255292892456055e-01,2.106185555458068848e-01,2.106124758720397949e-01,2.106024026870727539e-01,2.105939388275146484e-01,2.105947732925415039e-01,2.105784714221954346e-01,2.105924785137176514e-01,2.105386555194854736e-01,2.104985713958740234e-01,2.104914784431457520e-01,2.104746103286743164e-01,2.104099094867706299e-01,2.105301618576049805e-01,2.105030119419097900e-01,2.105082273483276367e-01,2.105291187763214111e-01,2.104814350605010986e-01,2.104544937610626221e-01,2.107470631599426270e-01,2.102911770343780518e-01,2.038771212100982666e-01,2.071957588195800781e-01,2.303359806537628174e-01,2.568485140800476074e-01,3.220594227313995361e-01,3.632438480854034424e-01
3.726795315742492676e-01,2.842501401901245117e-01,2.591604292392730713e-01,2.263982892036437988e-01,2.035059928894042969e-01,1.998411417007446289e-01,2.023385167121887207e-01,2.028933465480804443e-01,2.033695578575134277e-01,2.033322751522064209e-01,2.033146321773529053e-01,2.033087015151977539e-01,2.033028304576873779e-01,2.032968699932098389e-01,2.032908201217651367e-01,2.032845914363861084e-01,2.032787799835205078e-01,2.032727003097534180e-01,2.032667696475982666e-01,2.032606899738311768e-01,2.032549083232879639e-01,2.032486796379089355e-01,2.032425701618194580e-01,2.032366991043090820e-01,2.032308280467987061e-01,2.032248377799987793e-01,2.032187283039093018e-01,2.032128870487213135e-01,2.032069563865661621e-01,2.032009065151214600e-01,2.031946182250976562e-01,2.031887471675872803e-01,2.031828463077545166e-01,2.031768858432769775e-01,2.031708359718322754e-01,2.031647562980651855e-01,2.031590044498443604e-01,2.031528651714324951e-01,2.031469047069549561e-01,2.031410634517669678e-01,2.031348645687103271e-01,2.031290233135223389e-01,2.031229734420776367e-01,2.031169533729553223e-01,2.031111419200897217e-01,2.031049132347106934e-01,2.030990421772003174e-01,2.030929923057556152e-01,2.030871808528900146e-01,2.030812203884124756e-01,2.030750811100006104e-01,2.030692994594573975e-01,2.030632793903350830e-01,2.030574679374694824e-01,2.030513286590576172e-01,2.030456960201263428e-01,2.030393183231353760e-01,2.030315995216369629e-01,2.030257582664489746e-01,2.030299901962280273e-01,2.030211389064788818e-01,2.030215859413146973e-01,2.030164599418640137e-01,2.030009627342224121e-01,2.029762268066406250e-01,2.029808759689331055e-01,2.029543519020080566e-01,2.029718458652496338e-01,2.029666900634765625e-01,2.029687464237213135e-01,2.029561400413513184e-01,2.029260098934173584e-01,2.031597793102264404e-01,2.027926146984100342e-01,1.967601776123046875e-01,2.000882923603057861e-01,2.229205667972564697e-01,2.500033378601074219e-01,3.159328401088714600e-01,3.593322634696960449e-01
3.681828975677490234e-01,2.785643339157104492e-01,2.526050508022308350e-01,2.203785777091979980e-01,1.974304914474487305e-01,1.936291158199310303e-01,1.959540843963623047e-01,1.964492201805114746e-01,1.968899071216583252e-01,1.968565881252288818e-01,1.968409419059753418e-01,1.968359649181365967e-01,1.968306005001068115e-01,1.968255341053009033e-01,1.968203783035278320e-01,1.968152225017547607e-01,1.968102157115936279e-01,1.968050599098205566e-01,1.967997848987579346e-01,1.967945992946624756e-01,1.967893838882446289e-01,1.967846751213073730e-01,1.967792809009552002e-01,1.967743337154388428e-01,1.967689990997314453e-01,1.967639327049255371e-01,1.967586278915405273e-01,1.967535912990570068e-01,1.967484951019287109e-01,1.967433989048004150e-01,1.967382431030273438e-01,1.967331171035766602e-01,1.967279911041259766e-01,1.967229247093200684e-01,1.967177987098693848e-01,1.967127025127410889e-01,1.967076361179351807e-01,1.967025101184844971e-01,1.966972649097442627e-01,1.966921985149383545e-01,1.966871023178100586e-01,1.966819167137145996e-01,1.966768205165863037e-01,1.966718435287475586e-01,1.966665089130401611e-01,1.966616213321685791e-01,1.966563463211059570e-01,1.966513693332672119e-01,1.966460347175598145e-01,1.966410577297210693e-01,1.966359913349151611e-01,1.966307759284973145e-01,1.966258287429809570e-01,1.966206431388854980e-01,1.966155171394348145e-01,1.966103315353393555e-01,1.966049969196319580e-01,1.965998709201812744e-01,1.965939998626708984e-01,1.965900063514709473e-01,1.965857148170471191e-01,1.965803205966949463e-01,1.965760290622711182e-01,1.965721547603607178e-01,1.965649724006652832e-01,1.965595483779907227e-01,1.965548396110534668e-01,1.965494155883789062e-01,1.965433061122894287e-01,1.965384483337402344e-01,1.965332925319671631e-01,1.965035200119018555e-01,1.967135369777679443e-01,1.964170634746551514e-01,1.907088160514831543e-01,1.940340697765350342e-01,2.166037559509277344e-01,2.441297769546508789e-01,3.106345534324645996e-01,3.559398651123046875e-01
3.642282485961914062e-01,2.736120820045471191e-01,2.469255626201629639e-01,2.151869237422943115e-01,1.922082901000976562e-01,1.882867217063903809e-01,1.904664635658264160e-01,1.909084320068359375e-01,1.913183629512786865e-01,1.912883520126342773e-01,1.912743449211120605e-01,1.912698149681091309e-01,1.912655234336853027e-01,1.912611424922943115e-01,1.912565529346466064e-01,1.912521719932556152e-01,1.912477016448974609e-01,1.912431716918945312e-01,1.912387609481811523e-01,1.912344098091125488e-01,1.912299394607543945e-01,1.912252902984619141e-01,1.912209093570709229e-01,1.912166178226470947e-01,1.912121176719665527e-01,1.912079155445098877e-01,1.912033259868621826e-01,1.911990344524383545e-01,1.911946535110473633e-01,1.911901235580444336e-01,1.911855936050415039e-01,1.911813020706176758e-01,1.911767125129699707e-01,1.911723911762237549e-01,1.911677420139312744e-01,1.911635100841522217e-01,1.911591589450836182e-01,1.911546587944030762e-01,1.911501884460449219e-01,1.911458373069763184e-01,1.911414563655853271e-01,1.911370456218719482e-01,1.911325454711914062e-01,1.911281049251556396e-01,1.911238133907318115e-01,1.911193430423736572e-01,1.911148726940155029e-01,1.911104917526245117e-01,1.911061108112335205e-01,1.911016404628753662e-01,1.910973787307739258e-01,1.910927593708038330e-01,1.910882890224456787e-01,1.910839080810546875e-01,1.910796165466308594e-01,1.910750567913055420e-01,1.910706162452697754e-01,1.910661160945892334e-01,1.910614967346191406e-01,1.910570263862609863e-01,1.910530030727386475e-01,1.910486221313476562e-01,1.910442709922790527e-01,1.910400390625000000e-01,1.910363733768463135e-01,1.910313665866851807e-01,1.910274624824523926e-01,1.910229325294494629e-01,1.910183131694793701e-01,1.910133063793182373e-01,1.910084486007690430e-01,1.909821927547454834e-01,1.911721527576446533e-01,1.909321844577789307e-01,1.855033934116363525e-01,1.888231337070465088e-01,2.111594676971435547e-01,2.390359938144683838e-01,3.060067296028137207e-01,3.529695868492126465e-01
3.607215583324432373e-01,2.692632973194122314e-01,2.419595122337341309e-01,2.106663286685943604e-01,1.876744627952575684e-01,1.836435198783874512e-01,1.856960058212280273e-01,1.860907673835754395e-01,1.864743232727050781e-01,1.864471137523651123e-01,1.864342689514160156e-01,1.864302158355712891e-01,1.864265799522399902e-01,1.864224672317504883e-01,1.864188611507415771e-01,1.864147782325744629e-01,1.864109635353088379e-01,1.864071488380432129e-01,1.864032447338104248e-01,1.863994300365447998e-01,1.863955855369567871e-01,1.863915920257568359e-01,1.863878965377807617e-01,1.863839030265808105e-01,1.863799095153808594e-01,1.863761544227600098e-01,1.863723397254943848e-01,1.863681972026824951e-01,1.863645911216735840e-01,1.863606274127960205e-01,1.863568127155303955e-01,1.863529682159423828e-01,1.863490343093872070e-01,1.863453388214111328e-01,1.863413453102111816e-01,1.863374412059783936e-01,1.863335072994232178e-01,1.863296926021575928e-01,1.863259673118591309e-01,1.863219738006591797e-01,1.863182485103607178e-01,1.863141059875488281e-01,1.863102912902832031e-01,1.863065659999847412e-01,1.863027513027191162e-01,1.862987279891967773e-01,1.862949132919311523e-01,1.862911283969879150e-01,1.862872242927551270e-01,1.862835884094238281e-01,1.862796247005462646e-01,1.862756907939910889e-01,1.862719058990478516e-01,1.862679719924926758e-01,1.862642168998718262e-01,1.862602829933166504e-01,1.862564682960510254e-01,1.862525343894958496e-01,1.862488687038421631e-01,1.862449944019317627e-01,1.862410306930541992e-01,1.862370967864990234e-01,1.862333118915557861e-01,1.862295269966125488e-01,1.862257719039916992e-01,1.862218379974365234e-01,1.862179636955261230e-01,1.862141191959381104e-01,1.862102746963500977e-01,1.862061619758605957e-01,1.862015426158905029e-01,1.861786246299743652e-01,1.863521933555603027e-01,1.861600279808044434e-01,1.809752583503723145e-01,1.842896640300750732e-01,2.064185440540313721e-01,2.345696091651916504e-01,3.019185066223144531e-01,3.503374457359313965e-01
3.576367497444152832e-01,2.654596567153930664e-01,2.376321554183959961e-01,2.067410945892333984e-01,1.837365031242370605e-01,1.796094775199890137e-01,1.815572977066040039e-01,1.819105446338653564e-01,1.822709441184997559e-01,1.822456717491149902e-01,1.822338402271270752e-01,1.822303533554077148e-01,1.822268664836883545e-01,1.822235882282257080e-01,1.822201311588287354e-01,1.822165548801422119e-01,1.822130978107452393e-01,1.822098493576049805e-01,1.822066009044647217e-01,1.822029948234558105e-01,1.821996271610260010e-01,1.821961998939514160e-01,1.821929514408111572e-01,1.821894943714141846e-01,1.821861863136291504e-01,1.821827292442321777e-01,1.821791827678680420e-01,1.821758747100830078e-01,1.821724474430084229e-01,1.821691393852233887e-01,1.821654736995697021e-01,1.821622550487518311e-01,1.821587085723876953e-01,1.821554005146026611e-01,1.821520924568176270e-01,1.821487247943878174e-01,1.821450591087341309e-01,1.821417510509490967e-01,1.821383237838745117e-01,1.821350157260894775e-01,1.821316480636596680e-01,1.821282505989074707e-01,1.821248531341552734e-01,1.821213662624359131e-01,1.821179986000061035e-01,1.821146011352539062e-01,1.821112334728240967e-01,1.821077167987823486e-01,1.821046173572540283e-01,1.821011602878570557e-01,1.820976436138153076e-01,1.820942461490631104e-01,1.820910573005676270e-01,1.820875406265258789e-01,1.820840835571289062e-01,1.820806562900543213e-01,1.820773780345916748e-01,1.820740997791290283e-01,1.820705533027648926e-01,1.820671856403350830e-01,1.820636987686157227e-01,1.820603609085083008e-01,1.820569336414337158e-01,1.820534765720367432e-01,1.820502281188964844e-01,1.820468604564666748e-01,1.820434629917144775e-01,1.820400059223175049e-01,1.820365786552429199e-01,1.820333003997802734e-01,1.820291578769683838e-01,1.820079386234283447e-01,1.821669042110443115e-01,1.820151507854461670e-01,1.770399510860443115e-01,1.803425550460815430e-01,2.022819817066192627e-01,2.306683063507080078e-01,2.983108758926391602e-01,3.479939699172973633e-01
3.552451729774475098e-01,2.622933983802795410e-01,2.341420948505401611e-01,2.035847306251525879e-01,1.805840134620666504e-01,1.763860881328582764e-01,1.782712340354919434e-01,1.786163747310638428e-01,1.789569258689880371e-01,1.789322793483734131e-01,1.789216399192810059e-01,1.789185702800750732e-01,1.789154708385467529e-01,1.789124608039855957e-01,1.789095401763916016e-01,1.789063513278961182e-01,1.789033412933349609e-01,1.789002716541290283e-01,1.788975000381469727e-01,1.788943409919738770e-01,1.788913309574127197e-01,1.788883805274963379e-01,1.788850128650665283e-01,1.788821816444396973e-01,1.788792312145233154e-01,1.788761317729949951e-01,1.788731813430786133e-01,1.788700222969055176e-01,1.788669526576995850e-01,1.788638532161712646e-01,1.788608729839324951e-01,1.788580119609832764e-01,1.788549125194549561e-01,1.788517832756042480e-01,1.788488626480102539e-01,1.788457334041595459e-01,1.788428127765655518e-01,1.788395643234252930e-01,1.788368225097656250e-01,1.788337826728820801e-01,1.788308620452880859e-01,1.788276433944702148e-01,1.788247227668762207e-01,1.788215637207031250e-01,1.788184642791748047e-01,1.788156032562255859e-01,1.788125634193420410e-01,1.788095235824584961e-01,1.788065433502197266e-01,1.788033843040466309e-01,1.788003444671630859e-01,1.787974536418914795e-01,1.787942945957183838e-01,1.787913739681243896e-01,1.787883937358856201e-01,1.787854135036468506e-01,1.787824034690856934e-01,1.787793040275573730e-01,1.787763833999633789e-01,1.787731647491455078e-01,1.787702739238739014e-01,1.787669956684112549e-01,1.787640750408172607e-01,1.787611544132232666e-01,1.787581145763397217e-01,1.787550747394561768e-01,1.787521243095397949e-01,1.787491440773010254e-01,1.787461042404174805e-01,1.787429451942443848e-01,1.787392795085906982e-01,1.787205040454864502e-01,1.788684725761413574e-01,1.787449419498443604e-01,1.739438176155090332e-01,1.772517859935760498e-01,1.989185512065887451e-01,2.273612916469573975e-01,2.952042222023010254e-01,3.462705016136169434e-01
3.522575497627258301e-01,2.585255205631256104e-01,2.300026714801788330e-01,1.997256875038146973e-01,1.766571998596191406e-01,1.722863912582397461e-01,1.739258766174316406e-01,1.741945445537567139e-01,1.744942367076873779e-01,1.744740903377532959e-01,1.744644939899444580e-01,1.744617819786071777e-01,1.744592487812042236e-01,1.744565367698669434e-01,1.744538247585296631e-01,1.744511425495147705e-01,1.744486093521118164e-01,1.744459271430969238e-01,1.744431257247924805e-01,1.744405031204223633e-01,1.744378209114074707e-01,1.744354069232940674e-01,1.744326353073120117e-01,1.744301319122314453e-01,1.744274795055389404e-01,1.744246184825897217e-01,1.744219958782196045e-01,1.744191646575927734e-01,1.744165420532226562e-01,1.744141876697540283e-01,1.744113564491271973e-01,1.744087338447570801e-01,1.744061112403869629e-01,1.744033694267272949e-01,1.744009256362915039e-01,1.743980348110198975e-01,1.743954122066497803e-01,1.743928492069244385e-01,1.743903160095214844e-01,1.743876636028289795e-01,1.743849813938140869e-01,1.743822395801544189e-01,1.743796765804290771e-01,1.743770539760589600e-01,1.743742823600769043e-01,1.743715107440948486e-01,1.743690073490142822e-01,1.743663847446441650e-01,1.743637025356292725e-01,1.743610501289367676e-01,1.743583977222442627e-01,1.743557751178741455e-01,1.743529736995697021e-01,1.743504405021667480e-01,1.743477880954742432e-01,1.743451356887817383e-01,1.743425428867340088e-01,1.743400394916534424e-01,1.743372678756713867e-01,1.743344068527221680e-01,1.743316650390625000e-01,1.743292510509490967e-01,1.743265688419342041e-01,1.743240654468536377e-01,1.743212640285491943e-01,1.743186116218566895e-01,1.743161678314208984e-01,1.743135452270507812e-01,1.743105947971343994e-01,1.743081212043762207e-01,1.743048727512359619e-01,1.742869615554809570e-01,1.744298636913299561e-01,1.743083298206329346e-01,1.696796715259552002e-01,1.730746626853942871e-01,1.948002874851226807e-01,2.234536111354827881e-01,2.916888296604156494e-01,3.432699441909790039e-01
3.534516692161560059e-01,2.556045651435852051e-01,2.290329039096832275e-01,1.991973519325256348e-01,1.747826933860778809e-01,1.703464984893798828e-01,1.715829372406005859e-01,1.718484759330749512e-01,1.721439659595489502e-01,1.721237003803253174e-01,1.721155941486358643e-01,1.721131205558776855e-01,1.721109151840209961e-01,1.721085011959075928e-01,1.721059381961822510e-01,1.721036732196807861e-01,1.721013784408569336e-01,1.720987856388092041e-01,1.720965802669525146e-01,1.720942258834838867e-01,1.720919013023376465e-01,1.720895171165466309e-01,1.720870733261108398e-01,1.720848083496093750e-01,1.720824837684631348e-01,1.720801293849945068e-01,1.720776557922363281e-01,1.720752120018005371e-01,1.720729768276214600e-01,1.720705032348632812e-01,1.720682680606842041e-01,1.720658540725708008e-01,1.720634102821350098e-01,1.720611751079559326e-01,1.720586717128753662e-01,1.720563173294067383e-01,1.720540821552276611e-01,1.720516085624694824e-01,1.720491647720336914e-01,1.720468401908874512e-01,1.720443964004516602e-01,1.720421910285949707e-01,1.720398664474487305e-01,1.720374524593353271e-01,1.720349490642547607e-01,1.720327734947204590e-01,1.720302104949951172e-01,1.720278859138488770e-01,1.720255613327026367e-01,1.720229685306549072e-01,1.720209121704101562e-01,1.720184981822967529e-01,1.720160841941833496e-01,1.720137298107147217e-01,1.720114648342132568e-01,1.720090508460998535e-01,1.720066964626312256e-01,1.720043122768402100e-01,1.720018982887268066e-01,1.719995141029357910e-01,1.719972193241119385e-01,1.719949245452880859e-01,1.719925701618194580e-01,1.719901859760284424e-01,1.719877123832702637e-01,1.719853579998016357e-01,1.719830632209777832e-01,1.719807386398315430e-01,1.719783544540405273e-01,1.719760000705718994e-01,1.719739437103271484e-01,1.719536483287811279e-01,1.720585525035858154e-01,1.720513105392456055e-01,1.679014861583709717e-01,1.713122725486755371e-01,1.922450959682464600e-01,2.205621898174285889e-01,2.916398644447326660e-01,3.415896296501159668e-01
3.557892441749572754e-01,2.536357045173645020e-01,2.169753015041351318e-01,1.914363503456115723e-01,1.698942482471466064e-01,1.649749279022216797e-01,1.661600768566131592e-01,1.664632260799407959e-01,1.667143404483795166e-01,1.666944921016693115e-01,1.666871309280395508e-01,1.666851043701171875e-01,1.666830480098724365e-01,1.666811406612396240e-01,1.666789948940277100e-01,1.666769087314605713e-01,1.666751503944396973e-01,1.666729748249053955e-01,1.666708886623382568e-01,1.666690111160278320e-01,1.666668355464935303e-01,1.666647791862487793e-01,1.666627526283264160e-01,1.666608750820159912e-01,1.666587293148040771e-01,1.666567921638488770e-01,1.666548252105712891e-01,1.666526198387145996e-01,1.666506826877593994e-01,1.666485369205474854e-01,1.666465103626251221e-01,1.666442751884460449e-01,1.666422188282012939e-01,1.666403412818908691e-01,1.666381955146789551e-01,1.666364371776580811e-01,1.666341423988342285e-01,1.666322052478790283e-01,1.666299700736999512e-01,1.666279733180999756e-01,1.666259765625000000e-01,1.666239500045776367e-01,1.666218638420104980e-01,1.666198074817657471e-01,1.666179895401000977e-01,1.666158735752105713e-01,1.666138768196105957e-01,1.666117012500762939e-01,1.666096448898315430e-01,1.666076481342315674e-01,1.666058897972106934e-01,1.666036546230316162e-01,1.666015982627868652e-01,1.665996015071868896e-01,1.665975153446197510e-01,1.665955185890197754e-01,1.665933430194854736e-01,1.665914356708526611e-01,1.665894091129302979e-01,1.665874719619750977e-01,1.665852069854736328e-01,1.665831804275512695e-01,1.665812730789184570e-01,1.665792465209960938e-01,1.665771603584289551e-01,1.665750443935394287e-01,1.665731072425842285e-01,1.665710806846618652e-01,1.665689945220947266e-01,1.665671169757843018e-01,1.665667295455932617e-01,1.665427088737487793e-01,1.666102707386016846e-01,1.667924821376800537e-01,1.623805761337280273e-01,1.654345989227294922e-01,1.886161863803863525e-01,2.108092904090881348e-01,2.860364913940429688e-01,3.337816596031188965e-01
3.380681574344635010e-01,2.402376234531402588e-01,2.027120292186737061e-01,1.804863214492797852e-01,1.658499836921691895e-01,1.592115759849548340e-01,1.592740118503570557e-01,1.594822406768798828e-01,1.597132682800292969e-01,1.596964299678802490e-01,1.596911847591400146e-01,1.596895456314086914e-01,1.596878767013549805e-01,1.596862971782684326e-01,1.596845388412475586e-01,1.596828997135162354e-01,1.596813797950744629e-01,1.596796214580535889e-01,1.596780121326446533e-01,1.596764624118804932e-01,1.596747040748596191e-01,1.596730351448059082e-01,1.596713960170745850e-01,1.596699655055999756e-01,1.596681475639343262e-01,1.596664488315582275e-01,1.596646606922149658e-01,1.596632897853851318e-01,1.596617400646209717e-01,1.596599817276000977e-01,1.596583724021911621e-01,1.596566438674926758e-01,1.596550643444061279e-01,1.596533358097076416e-01,1.596515476703643799e-01,1.596500575542449951e-01,1.596483588218688965e-01,1.596465706825256348e-01,1.596451699733734131e-01,1.596434414386749268e-01,1.596419513225555420e-01,1.596401035785675049e-01,1.596385836601257324e-01,1.596368551254272461e-01,1.596352159976959229e-01,1.596336066722869873e-01,1.596319973468780518e-01,1.596303284168243408e-01,1.596286296844482422e-01,1.596270203590393066e-01,1.596253216266632080e-01,1.596237123012542725e-01,1.596220731735229492e-01,1.596204340457916260e-01,1.596188247203826904e-01,1.596170663833618164e-01,1.596155166625976562e-01,1.596138477325439453e-01,1.596122980117797852e-01,1.596106290817260742e-01,1.596088707447052002e-01,1.596072614192962646e-01,1.596057116985321045e-01,1.596039831638336182e-01,1.596022546291351318e-01,1.596008837223052979e-01,1.595990955829620361e-01,1.595975458621978760e-01,1.595958173274993896e-01,1.595942080020904541e-01,1.595926284790039062e-01,1.595645844936370850e-01,1.596036553382873535e-01,1.598354279994964600e-01,1.557650268077850342e-01,1.533350348472595215e-01,1.688700914382934570e-01,2.049821317195892334e-01,2.839686870574951172e-01,3.553453683853149414e-01
3.297485709190368652e-01,2.279986739158630371e-01,1.979692876338958740e-01,1.790176630020141602e-01,1.636388003826141357e-01,1.572906076908111572e-01,1.598435044288635254e-01,1.601178050041198730e-01,1.602984964847564697e-01,1.602827608585357666e-01,1.602787673473358154e-01,1.602772772312164307e-01,1.602760553359985352e-01,1.602746844291687012e-01,1.602731347084045410e-01,1.602716743946075439e-01,1.602703034877777100e-01,1.602689325809478760e-01,1.602676808834075928e-01,1.602660715579986572e-01,1.602646708488464355e-01,1.602631509304046631e-01,1.602616310119628906e-01,1.602601408958435059e-01,1.602587699890136719e-01,1.602574288845062256e-01,1.602559387683868408e-01,1.602544188499450684e-01,1.602530479431152344e-01,1.602517068386077881e-01,1.602503061294555664e-01,1.602489054203033447e-01,1.602474153041839600e-01,1.602459549903869629e-01,1.602446138858795166e-01,1.602431833744049072e-01,1.602416932582855225e-01,1.602403521537780762e-01,1.602389514446258545e-01,1.602373421192169189e-01,1.602359414100646973e-01,1.602346003055572510e-01,1.602332293987274170e-01,1.602317094802856445e-01,1.602304279804229736e-01,1.602288186550140381e-01,1.602274477481842041e-01,1.602260768413543701e-01,1.602247655391693115e-01,1.602233350276947021e-01,1.602216958999633789e-01,1.602202355861663818e-01,1.602187454700469971e-01,1.602173447608947754e-01,1.602158546447753906e-01,1.602145135402679443e-01,1.602131426334381104e-01,1.602117121219635010e-01,1.602103412151336670e-01,1.602088510990142822e-01,1.602075099945068359e-01,1.602060496807098389e-01,1.602044701576232910e-01,1.602031290531158447e-01,1.602017581462860107e-01,1.602002978324890137e-01,1.601987779140472412e-01,1.601974070072174072e-01,1.601961255073547363e-01,1.601944863796234131e-01,1.601958572864532471e-01,1.601740419864654541e-01,1.602481305599212646e-01,1.604146063327789307e-01,1.554421186447143555e-01,1.561040282249450684e-01,1.747391223907470703e-01,1.962414085865020752e-01,3.100821673870086670e-01,3.704555332660675049e-01
3.673300147056579590e-01,2.730015814304351807e-01,2.366617619991302490e-01,1.968862116336822510e-01,1.776396334171295166e-01,1.728608906269073486e-01,1.740673780441284180e-01,1.743152439594268799e-01,1.744397282600402832e-01,1.744302809238433838e-01,1.744279265403747559e-01,1.744270324707031250e-01,1.744261682033538818e-01,1.744251549243927002e-01,1.744240522384643555e-01,1.744231879711151123e-01,1.744221746921539307e-01,1.744209527969360352e-01,1.744200885295867920e-01,1.744191944599151611e-01,1.744182109832763672e-01,1.744170784950256348e-01,1.744160652160644531e-01,1.744151115417480469e-01,1.744141280651092529e-01,1.744132041931152344e-01,1.744121611118316650e-01,1.744112968444824219e-01,1.744102835655212402e-01,1.744092106819152832e-01,1.744081974029541016e-01,1.744072437286376953e-01,1.744062006473541260e-01,1.744051873683929443e-01,1.744042932987213135e-01,1.744031608104705811e-01,1.744023859500885010e-01,1.744011342525482178e-01,1.744001805782318115e-01,1.743993759155273438e-01,1.743983626365661621e-01,1.743972897529602051e-01,1.743962764739990234e-01,1.743954122066497803e-01,1.743942797183990479e-01,1.743933260440826416e-01,1.743924915790557861e-01,1.743914186954498291e-01,1.743904650211334229e-01,1.743893623352050781e-01,1.743882894515991211e-01,1.743872761726379395e-01,1.743863821029663086e-01,1.743855178356170654e-01,1.743842661380767822e-01,1.743834912776947021e-01,1.743825078010559082e-01,1.743814647197723389e-01,1.743804514408111572e-01,1.743795275688171387e-01,1.743787527084350586e-01,1.743775308132171631e-01,1.743764281272888184e-01,1.743754744529724121e-01,1.743745207786560059e-01,1.743734478950500488e-01,1.743726432323455811e-01,1.743715703487396240e-01,1.743706166744232178e-01,1.743696928024291992e-01,1.743685603141784668e-01,1.743548512458801270e-01,1.744389533996582031e-01,1.744460165500640869e-01,1.704315841197967529e-01,1.741121113300323486e-01,1.803804636001586914e-01,1.959725916385650635e-01,2.897702455520629883e-01,3.657963871955871582e-01
3.785714507102966309e-01,3.069037199020385742e-01,2.609404921531677246e-01,2.302911877632141113e-01,2.096592187881469727e-01,2.076260745525360107e-01,2.071301639080047607e-01,2.072287797927856445e-01,2.073737382888793945e-01,2.073736786842346191e-01,2.073746323585510254e-01,2.073738873004913330e-01,2.073733508586883545e-01,2.073729634284973145e-01,2.073721885681152344e-01,2.073715925216674805e-01,2.073708176612854004e-01,2.073701024055480957e-01,2.073695957660675049e-01,2.073691487312316895e-01,2.073683738708496094e-01,2.073677480220794678e-01,2.073669731616973877e-01,2.073664069175720215e-01,2.073656618595123291e-01,2.073650360107421875e-01,2.073644697666168213e-01,2.073637843132019043e-01,2.073633670806884766e-01,2.073625624179840088e-01,2.073619663715362549e-01,2.073612213134765625e-01,2.073606848716735840e-01,2.073600590229034424e-01,2.073595225811004639e-01,2.073586583137512207e-01,2.073581218719482422e-01,2.073574662208557129e-01,2.073568403720855713e-01,2.073562741279602051e-01,2.073555588722229004e-01,2.073549330234527588e-01,2.073543369770050049e-01,2.073539197444915771e-01,2.073531150817871094e-01,2.073525190353393555e-01,2.073518633842468262e-01,2.073512375354766846e-01,2.073505520820617676e-01,2.073499560356140137e-01,2.073493003845214844e-01,2.073485553264617920e-01,2.073480188846588135e-01,2.073472440242767334e-01,2.073467969894409180e-01,2.073462307453155518e-01,2.073455452919006348e-01,2.073448002338409424e-01,2.073440849781036377e-01,2.073435783386230469e-01,2.073429226875305176e-01,2.073423564434051514e-01,2.073416113853454590e-01,2.073411643505096436e-01,2.073405086994171143e-01,2.073397934436798096e-01,2.073393166065216064e-01,2.073384821414947510e-01,2.073378860950469971e-01,2.073372006416320801e-01,2.073360383510589600e-01,2.073110938072204590e-01,2.072975337505340576e-01,2.073974609375000000e-01,2.048478722572326660e-01,2.087791264057159424e-01,2.079809308052062988e-01,2.248890101909637451e-01,2.848502993583679199e-01,3.590070307254791260e-01
