5.889573693275451660e-01,6.137151718139648438e-01,6.569471955299377441e-01,6.574051380157470703e-01,6.812244057655334473e-01,7.053260207176208496e-01,7.418448328971862793e-01,7.632298469543457031e-01,7.838402390480041504e-01,8.024203777313232422e-01,8.205603361129760742e-01,8.372569084167480469e-01,8.524581193923950195e-01,8.655387163162231445e-01,8.768951892852783203e-01,8.865472078323364258e-01,8.936620354652404785e-01,8.983407020568847656e-01,9.015564322471618652e-01,9.035388231277465820e-01,9.046003818511962891e-01,9.052472114562988281e-01,9.055244922637939453e-01,9.055815339088439941e-01,9.055951833724975586e-01,9.055936932563781738e-01,9.055932760238647461e-01,9.055932760238647461e-01,9.055932760238647461e-01,9.055932760238647461e-01,9.055932760238647461e-01,9.055932760238647461e-01,9.055932760238647461e-01,9.055932760238647461e-01,9.055932760238647461e-01,9.055932760238647461e-01,9.055932760238647461e-01,9.055932760238647461e-01,9.055932760238647461e-01,9.055932760238647461e-01,9.055932760238647461e-01,9.055932760238647461e-01,9.055932760238647461e-01,9.055932760238647461e-01,9.055932760238647461e-01,9.055871963500976562e-01,9.055743217468261719e-01,9.056650400161743164e-01,9.062708616256713867e-01,9.055359363555908203e-01,9.014457464218139648e-01,8.908824324607849121e-01,8.727627396583557129e-01,8.519896268844604492e-01,8.121993541717529297e-01,7.551269531250000000e-01,6.145858764648437500e-01,5.306478142738342285e-01,4.638623297214508057e-01,4.160333275794982910e-01,3.791073858737945557e-01,3.463842868804931641e-01,3.343349695205688477e-01,3.300377130508422852e-01,3.375862240791320801e-01,3.392851948738098145e-01,3.559044599533081055e-01,3.799940049648284912e-01,4.296122789382934570e-01,4.870640933513641357e-01,5.301231741905212402e-01,5.737813711166381836e-01,6.564394831657409668e-01,7.076443433761596680e-01,7.248084545135498047e-01,7.357429862022399902e-01,7.576555013656616211e-01,7.502351999282836914e-01,7.049363851547241211e-01,6.081224679946899414e-01
5.884758234024047852e-01,6.139590740203857422e-01,6.563302874565124512e-01,6.571229100227355957e-01,6.807245612144470215e-01,7.049870491027832031e-01,7.413078546524047852e-01,7.627376317977905273e-01,7.834831476211547852e-01,8.020340204238891602e-01,8.197849392890930176e-01,8.366057872772216797e-01,8.516540527343750000e-01,8.648959994316101074e-01,8.764169216156005859e-01,8.860176205635070801e-01,8.930643796920776367e-01,8.978265523910522461e-01,9.010756015777587891e-01,9.031780958175659180e-01,9.043440818786621094e-01,9.049906730651855469e-01,9.052336215972900391e-01,9.052965044975280762e-01,9.053112268447875977e-01,9.053096771240234375e-01,9.053092002868652344e-01,9.053092002868652344e-01,9.053092002868652344e-01,9.053092002868652344e-01,9.053092002868652344e-01,9.053092002868652344e-01,9.053092002868652344e-01,9.053092002868652344e-01,9.053092002868652344e-01,9.053092002868652344e-01,9.053092002868652344e-01,9.053092002868652344e-01,9.053092002868652344e-01,9.053092002868652344e-01,9.053092002868652344e-01,9.053092002868652344e-01,9.053092002868652344e-01,9.053092002868652344e-01,9.053092002868652344e-01,9.053080081939697266e-01,9.052841663360595703e-01,9.052746295928955078e-01,9.061124324798583984e-01,9.058741927146911621e-01,9.014009237289428711e-01,8.902470469474792480e-01,8.774254322052001953e-01,8.532626628875732422e-01,8.158187866210937500e-01,7.526614069938659668e-01,6.217975616455078125e-01,5.267953276634216309e-01,4.654189348220825195e-01,4.161374568939208984e-01,3.771606087684631348e-01,3.420996367931365967e-01,3.307559490203857422e-01,3.367738127708435059e-01,3.428115844726562500e-01,3.423444628715515137e-01,3.715018630027770996e-01,3.826570510864257812e-01,4.273012876510620117e-01,4.904377758502960205e-01,5.499535799026489258e-01,5.651384592056274414e-01,6.290823221206665039e-01,6.954373717308044434e-01,7.199612259864807129e-01,7.318150401115417480e-01,7.545435428619384766e-01,7.452973127365112305e-01,7.026954889297485352e-01,6.080049872398376465e-01
5.885009169578552246e-01,6.139475107192993164e-01,6.565032005310058594e-01,6.572769284248352051e-01,6.807764172554016113e-01,7.049935460090637207e-01,7.413729429244995117e-01,7.627725601196289062e-01,7.835441231727600098e-01,8.021681308746337891e-01,8.199276924133300781e-01,8.364081978797912598e-01,8.515356779098510742e-01,8.648507595062255859e-01,8.763722777366638184e-01,8.859374523162841797e-01,8.930207490921020508e-01,8.977285027503967285e-01,9.010207653045654297e-01,9.031490087509155273e-01,9.043530821800231934e-01,9.050096273422241211e-01,9.052693843841552734e-01,9.053225517272949219e-01,9.053358435630798340e-01,9.053343534469604492e-01,9.053338766098022461e-01,9.053338766098022461e-01,9.053338766098022461e-01,9.053338766098022461e-01,9.053338766098022461e-01,9.053338766098022461e-01,9.053338766098022461e-01,9.053338766098022461e-01,9.053338766098022461e-01,9.053338766098022461e-01,9.053338766098022461e-01,9.053338766098022461e-01,9.053338766098022461e-01,9.053338766098022461e-01,9.053338766098022461e-01,9.053338766098022461e-01,9.053338766098022461e-01,9.053338766098022461e-01,9.053338766098022461e-01,9.053313732147216797e-01,9.053163528442382812e-01,9.053113460540771484e-01,9.058851003646850586e-01,9.059219360351562500e-01,9.005511999130249023e-01,8.902397155761718750e-01,8.776189088821411133e-01,8.538357019424438477e-01,8.168738484382629395e-01,7.580424547195434570e-01,6.220651865005493164e-01,5.305358171463012695e-01,4.708085954189300537e-01,4.220321476459503174e-01,3.691686391830444336e-01,3.424918949604034424e-01,3.320494294166564941e-01,3.353482484817504883e-01,3.416310548782348633e-01,3.519676029682159424e-01,3.783111572265625000e-01,4.073189198970794678e-01,4.367190599441528320e-01,5.027638077735900879e-01,5.361424088478088379e-01,5.886133909225463867e-01,6.226737499237060547e-01,6.946971416473388672e-01,7.089560031890869141e-01,7.331407070159912109e-01,7.497427463531494141e-01,7.351019978523254395e-01,6.989617347717285156e-01,6.069145202636718750e-01
5.884799957275390625e-01,6.139104962348937988e-01,6.564773917198181152e-01,6.572372913360595703e-01,6.807456612586975098e-01,7.049639225006103516e-01,7.413285374641418457e-01,7.627425193786621094e-01,7.835161685943603516e-01,8.021466732025146484e-01,8.199391365051269531e-01,8.364345431327819824e-01,8.513947725296020508e-01,8.647880554199218750e-01,8.763923645019531250e-01,8.858838081359863281e-01,8.929584026336669922e-01,8.977016806602478027e-01,9.009692668914794922e-01,9.031196832656860352e-01,9.043424129486083984e-01,9.050058722496032715e-01,9.052580595016479492e-01,9.053188562393188477e-01,9.053307175636291504e-01,9.053287506103515625e-01,9.053283333778381348e-01,9.053283333778381348e-01,9.053283333778381348e-01,9.053283333778381348e-01,9.053283333778381348e-01,9.053283333778381348e-01,9.053283333778381348e-01,9.053283333778381348e-01,9.053283333778381348e-01,9.053283333778381348e-01,9.053283333778381348e-01,9.053283333778381348e-01,9.053283333778381348e-01,9.053283333778381348e-01,9.053283333778381348e-01,9.053283333778381348e-01,9.053283333778381348e-01,9.053283333778381348e-01,9.053283333778381348e-01,9.053285121917724609e-01,9.053243398666381836e-01,9.053601026535034180e-01,9.058895111083984375e-01,9.058969020843505859e-01,9.007255434989929199e-01,8.911995887756347656e-01,8.787516355514526367e-01,8.557677268981933594e-01,8.235865235328674316e-01,7.564308047294616699e-01,6.248006224632263184e-01,5.478796958923339844e-01,4.653520584106445312e-01,4.208016991615295410e-01,3.760572671890258789e-01,3.436680436134338379e-01,3.327758312225341797e-01,3.369894027709960938e-01,3.392217755317687988e-01,3.628322780132293701e-01,3.782213032245635986e-01,4.202358424663543701e-01,4.588523507118225098e-01,5.109475851058959961e-01,5.531269311904907227e-01,5.862336754798889160e-01,6.325621008872985840e-01,6.694294214248657227e-01,6.948002576828002930e-01,7.282552719116210938e-01,7.402157187461853027e-01,7.323628664016723633e-01,6.896192431449890137e-01,6.015404462814331055e-01
5.884729623794555664e-01,6.138991117477416992e-01,6.564639806747436523e-01,6.572215557098388672e-01,6.807281374931335449e-01,7.049437761306762695e-01,7.413120865821838379e-01,7.627187967300415039e-01,7.834943532943725586e-01,8.021337985992431641e-01,8.199257850646972656e-01,8.364288806915283203e-01,8.513953089714050293e-01,8.647271394729614258e-01,8.763754367828369141e-01,8.859137296676635742e-01,8.929373025894165039e-01,8.976855278015136719e-01,9.009732604026794434e-01,9.031087756156921387e-01,9.043349623680114746e-01,9.050055146217346191e-01,9.052593708038330078e-01,9.053182005882263184e-01,9.053307771682739258e-01,9.053288698196411133e-01,9.053283333778381348e-01,9.053283333778381348e-01,9.053283333778381348e-01,9.053283333778381348e-01,9.053283333778381348e-01,9.053283333778381348e-01,9.053283333778381348e-01,9.053283333778381348e-01,9.053283333778381348e-01,9.053283333778381348e-01,9.053283333778381348e-01,9.053283333778381348e-01,9.053283333778381348e-01,9.053283333778381348e-01,9.053283333778381348e-01,9.053283333778381348e-01,9.053283333778381348e-01,9.053283333778381348e-01,9.053283333778381348e-01,9.053284525871276855e-01,9.053286314010620117e-01,9.053180217742919922e-01,9.058775305747985840e-01,9.054776430130004883e-01,9.004495143890380859e-01,8.914432525634765625e-01,8.781808614730834961e-01,8.592838048934936523e-01,8.243380188941955566e-01,7.595888376235961914e-01,6.308158040046691895e-01,5.463508963584899902e-01,4.752775430679321289e-01,4.156762063503265381e-01,3.835031688213348389e-01,3.452323973178863525e-01,3.324844539165496826e-01,3.414537906646728516e-01,3.550908565521240234e-01,3.784833252429962158e-01,3.801644742488861084e-01,4.061298668384552002e-01,4.915102720260620117e-01,5.369302034378051758e-01,5.766519904136657715e-01,5.894814729690551758e-01,6.401108503341674805e-01,6.702565550804138184e-01,6.810115575790405273e-01,7.230359315872192383e-01,7.518275976181030273e-01,7.297019958496093750e-01,6.878930926322937012e-01,5.970989465713500977e-01
5.884661078453063965e-01,6.138877868652343750e-01,6.564507484436035156e-01,6.572064161300659180e-01,6.807110905647277832e-01,7.049259543418884277e-01,7.412931919097900391e-01,7.627017498016357422e-01,7.834746837615966797e-01,8.021134138107299805e-01,8.199125528335571289e-01,8.364161252975463867e-01,8.513839840888977051e-01,8.647167086601257324e-01,8.763561248779296875e-01,8.859021663665771484e-01,8.929390907287597656e-01,8.976818919181823730e-01,9.009667634963989258e-01,9.031097888946533203e-01,9.043335914611816406e-01,9.050043821334838867e-01,9.052593708038330078e-01,9.053182601928710938e-01,9.053307175636291504e-01,9.053288698196411133e-01,9.053283333778381348e-01,9.053283333778381348e-01,9.053283333778381348e-01,9.053283333778381348e-01,9.053283333778381348e-01,9.053283333778381348e-01,9.053283333778381348e-01,9.053283333778381348e-01,9.053283333778381348e-01,9.053283333778381348e-01,9.053283333778381348e-01,9.053283333778381348e-01,9.053283333778381348e-01,9.053283333778381348e-01,9.053283333778381348e-01,9.053283333778381348e-01,9.053283333778381348e-01,9.053283333778381348e-01,9.053283333778381348e-01,9.053289890289306641e-01,9.053328037261962891e-01,9.053529500961303711e-01,9.058220386505126953e-01,9.056874513626098633e-01,9.012880325317382812e-01,8.915818929672241211e-01,8.810416460037231445e-01,8.611170053482055664e-01,8.233199119567871094e-01,7.637026309967041016e-01,6.364156007766723633e-01,5.556931495666503906e-01,4.915727674961090088e-01,4.393382370471954346e-01,3.776055574417114258e-01,3.408261835575103760e-01,3.351217508316040039e-01,3.411534130573272705e-01,3.594807684421539307e-01,3.901405930519104004e-01,3.949438035488128662e-01,4.253400862216949463e-01,4.836118817329406738e-01,5.717548131942749023e-01,5.900276303291320801e-01,6.208242177963256836e-01,6.402215957641601562e-01,6.808518171310424805e-01,6.874125003814697266e-01,6.988066434860229492e-01,7.441765069961547852e-01,7.332687377929687500e-01,6.830995082855224609e-01,5.926150679588317871e-01
5.884591937065124512e-01,6.138765811920166016e-01,6.564377546310424805e-01,6.571910381317138672e-01,6.806942224502563477e-01,7.049087882041931152e-01,7.412753701210021973e-01,7.626835107803344727e-01,7.834571003913879395e-01,8.020955324172973633e-01,8.198952674865722656e-01,8.364015817642211914e-01,8.513693809509277344e-01,8.647042512893676758e-01,8.763453364372253418e-01,8.858933448791503906e-01,8.929317593574523926e-01,8.976775407791137695e-01,9.009641408920288086e-01,9.031083583831787109e-01,9.043329954147338867e-01,9.050039052963256836e-01,9.052593708038330078e-01,9.053181409835815430e-01,9.053306579589843750e-01,9.053288698196411133e-01,9.053283333778381348e-01,9.053283333778381348e-01,9.053283333778381348e-01,9.053283333778381348e-01,9.053283333778381348e-01,9.053283333778381348e-01,9.053283333778381348e-01,9.053283333778381348e-01,9.053283333778381348e-01,9.053283333778381348e-01,9.053283333778381348e-01,9.053283333778381348e-01,9.053283333778381348e-01,9.053283333778381348e-01,9.053283333778381348e-01,9.053283333778381348e-01,9.053283333778381348e-01,9.053283333778381348e-01,9.053283333778381348e-01,9.053286910057067871e-01,9.053345918655395508e-01,9.053528308868408203e-01,9.058098793029785156e-01,9.056708812713623047e-01,9.005623459815979004e-01,8.912825584411621094e-01,8.833172321319580078e-01,8.655815124511718750e-01,8.352394104003906250e-01,7.707939147949218750e-01,6.457988023757934570e-01,5.764653682708740234e-01,4.892278313636779785e-01,4.458198547363281250e-01,3.850950598716735840e-01,3.498818874359130859e-01,3.379068970680236816e-01,3.392491340637207031e-01,3.565281629562377930e-01,3.929081261157989502e-01,4.050025641918182373e-01,4.411069452762603760e-01,4.885070323944091797e-01,5.788096785545349121e-01,6.468307971954345703e-01,6.469764113426208496e-01,6.564344763755798340e-01,6.922813057899475098e-01,7.024280428886413574e-01,7.072594165802001953e-01,7.339268326759338379e-01,7.362619042396545410e-01,6.927821636199951172e-01,5.931240916252136230e-01
5.884522795677185059e-01,6.138655543327331543e-01,6.564249396324157715e-01,6.571757793426513672e-01,6.806777119636535645e-01,7.048916220664978027e-01,7.412582039833068848e-01,7.626662254333496094e-01,7.834396362304687500e-01,8.020781874656677246e-01,8.198788166046142578e-01,8.363860249519348145e-01,8.513554334640502930e-01,8.646914958953857422e-01,8.763343095779418945e-01,8.858848810195922852e-01,8.929257392883300781e-01,8.976733088493347168e-01,9.009612798690795898e-01,9.031068086624145508e-01,9.043321609497070312e-01,9.050033092498779297e-01,9.052591323852539062e-01,9.053180217742919922e-01,9.053307175636291504e-01,9.053288698196411133e-01,9.053283333778381348e-01,9.053283333778381348e-01,9.053283333778381348e-01,9.053283333778381348e-01,9.053283333778381348e-01,9.053283333778381348e-01,9.053283333778381348e-01,9.053283333778381348e-01,9.053283333778381348e-01,9.053283333778381348e-01,9.053283333778381348e-01,9.053283333778381348e-01,9.053283333778381348e-01,9.053283333778381348e-01,9.053283333778381348e-01,9.053283333778381348e-01,9.053283333778381348e-01,9.053283333778381348e-01,9.053283333778381348e-01,9.053283929824829102e-01,9.053337574005126953e-01,9.053537845611572266e-01,9.057177305221557617e-01,9.057936072349548340e-01,9.003914594650268555e-01,8.947618603706359863e-01,8.836531639099121094e-01,8.685421943664550781e-01,8.399435281753540039e-01,7.797355651855468750e-01,6.691405177116394043e-01,5.896561145782470703e-01,5.125029683113098145e-01,4.456689357757568359e-01,4.029748439788818359e-01,3.571116030216217041e-01,3.421338796615600586e-01,3.410279750823974609e-01,3.573154807090759277e-01,3.887374997138977051e-01,4.175966084003448486e-01,4.544491767883300781e-01,5.026151537895202637e-01,6.053944826126098633e-01,6.662206053733825684e-01,6.884077191352844238e-01,6.928027272224426270e-01,7.083282470703125000e-01,7.171458005905151367e-01,7.325984239578247070e-01,7.420952320098876953e-01,7.330619096755981445e-01,6.938564777374267578e-01,5.956625938415527344e-01
5.884455442428588867e-01,6.138547062873840332e-01,6.564121246337890625e-01,6.571611166000366211e-01,6.806612014770507812e-01,7.048746347427368164e-01,7.412412166595458984e-01,7.626490592956542969e-01,7.834225296974182129e-01,8.020612001419067383e-01,8.198626041412353516e-01,8.363709449768066406e-01,8.513415455818176270e-01,8.646793365478515625e-01,8.763234615325927734e-01,8.858762383460998535e-01,8.929197788238525391e-01,8.976692557334899902e-01,9.009582400321960449e-01,9.031050801277160645e-01,9.043312072753906250e-01,9.050028324127197266e-01,9.052590131759643555e-01,9.053180217742919922e-01,9.053307175636291504e-01,9.053288698196411133e-01,9.053283333778381348e-01,9.053283333778381348e-01,9.053283333778381348e-01,9.053283333778381348e-01,9.053283333778381348e-01,9.053283333778381348e-01,9.053283333778381348e-01,9.053283333778381348e-01,9.053283333778381348e-01,9.053283333778381348e-01,9.053283333778381348e-01,9.053283333778381348e-01,9.053283333778381348e-01,9.053283333778381348e-01,9.053283333778381348e-01,9.053283333778381348e-01,9.053283333778381348e-01,9.053283333778381348e-01,9.053283333778381348e-01,9.053283333778381348e-01,9.053320884704589844e-01,9.053329825401306152e-01,9.056812524795532227e-01,9.059353470802307129e-01,9.016314744949340820e-01,8.969128131866455078e-01,8.899030685424804688e-01,8.731861710548400879e-01,8.494669198989868164e-01,7.871760129928588867e-01,6.758788824081420898e-01,6.205922961235046387e-01,5.488285422325134277e-01,4.826565980911254883e-01,4.180483222007751465e-01,3.706032335758209229e-01,3.536171317100524902e-01,3.486940860748291016e-01,3.632736206054687500e-01,3.878499269485473633e-01,4.222534596920013428e-01,4.668715000152587891e-01,4.987900257110595703e-01,6.033785343170166016e-01,6.782528758049011230e-01,7.321506738662719727e-01,7.377738356590270996e-01,7.294958829879760742e-01,7.373725175857543945e-01,7.500975131988525391e-01,7.578992247581481934e-01,7.409312725067138672e-01,7.041569948196411133e-01,5.978174209594726562e-01
5.884394049644470215e-01,6.138445138931274414e-01,6.563998460769653320e-01,6.571465730667114258e-01,6.806452870368957520e-01,7.048581838607788086e-01,7.412244677543640137e-01,7.626322507858276367e-01,7.834059000015258789e-01,8.020447492599487305e-01,8.198466300964355469e-01,8.363560438156127930e-01,8.513280153274536133e-01,8.646669387817382812e-01,8.763127326965332031e-01,8.858675956726074219e-01,8.929136395454406738e-01,8.976653814315795898e-01,9.009553194046020508e-01,9.031033515930175781e-01,9.043302536010742188e-01,9.050021171569824219e-01,9.052590131759643555e-01,9.053180217742919922e-01,9.053307175636291504e-01,9.053288698196411133e-01,9.053283333778381348e-01,9.053283333778381348e-01,9.053283333778381348e-01,9.053283333778381348e-01,9.053283333778381348e-01,9.053283333778381348e-01,9.053283333778381348e-01,9.053283333778381348e-01,9.053283333778381348e-01,9.053283333778381348e-01,9.053283333778381348e-01,9.053283333778381348e-01,9.053283333778381348e-01,9.053283333778381348e-01,9.053283333778381348e-01,9.053283333778381348e-01,9.053283333778381348e-01,9.053283333778381348e-01,9.053283333778381348e-01,9.053283333778381348e-01,9.053276777267456055e-01,9.053354263305664062e-01,9.057262539863586426e-01,9.059423208236694336e-01,9.025627374649047852e-01,8.980923891067504883e-01,8.930107355117797852e-01,8.826432228088378906e-01,8.549467325210571289e-01,8.067299723625183105e-01,7.099735736846923828e-01,6.636055111885070801e-01,5.969825983047485352e-01,5.293113589286804199e-01,4.438472390174865723e-01,3.839139938354492188e-01,3.580734729766845703e-01,3.673926591873168945e-01,3.678471446037292480e-01,3.910627663135528564e-01,4.340547919273376465e-01,4.764742553234100342e-01,5.389561057090759277e-01,6.162528991699218750e-01,6.839836239814758301e-01,7.283721566200256348e-01,7.654051184654235840e-01,7.661556005477905273e-01,7.474257946014404297e-01,7.639519572257995605e-01,7.732189893722534180e-01,7.546418905258178711e-01,7.112597227096557617e-01,6.090645790100097656e-01
5.884339213371276855e-01,6.138349771499633789e-01,6.563885211944580078e-01,6.571327447891235352e-01,6.806297898292541504e-01,7.048421502113342285e-01,7.412081360816955566e-01,7.626161575317382812e-01,7.833894491195678711e-01,8.020282983779907227e-01,8.198313713073730469e-01,8.363416194915771484e-01,8.513149023056030273e-01,8.646550178527832031e-01,8.763024210929870605e-01,8.858591318130493164e-01,8.929077982902526855e-01,8.976615071296691895e-01,9.009525775909423828e-01,9.031016826629638672e-01,9.043291807174682617e-01,9.050017595291137695e-01,9.052589535713195801e-01,9.053179025650024414e-01,9.053307771682739258e-01,9.053288698196411133e-01,9.053283333778381348e-01,9.053283333778381348e-01,9.053283333778381348e-01,9.053283333778381348e-01,9.053283333778381348e-01,9.053283333778381348e-01,9.053283333778381348e-01,9.053283333778381348e-01,9.053283333778381348e-01,9.053283333778381348e-01,9.053283333778381348e-01,9.053283333778381348e-01,9.053283333778381348e-01,9.053283333778381348e-01,9.053283333778381348e-01,9.053283333778381348e-01,9.053283333778381348e-01,9.053283333778381348e-01,9.053283333778381348e-01,9.053283333778381348e-01,9.053232073783874512e-01,9.053364992141723633e-01,9.057492017745971680e-01,9.060962796211242676e-01,9.033229947090148926e-01,8.994976878166198730e-01,8.960779309272766113e-01,8.871372342109680176e-01,8.718246221542358398e-01,8.275685310363769531e-01,7.627955675125122070e-01,6.897625923156738281e-01,6.469003558158874512e-01,5.745669007301330566e-01,4.952926933765411377e-01,4.228367209434509277e-01,3.844740688800811768e-01,3.816018700599670410e-01,3.784986734390258789e-01,3.944726586341857910e-01,4.367139935493469238e-01,4.832845032215118408e-01,5.473375320434570312e-01,6.281734704971313477e-01,6.934872269630432129e-01,7.396869659423828125e-01,7.782949805259704590e-01,7.924548387527465820e-01,7.692576050758361816e-01,7.704649567604064941e-01,7.781745791435241699e-01,7.622494697570800781e-01,7.174727916717529297e-01,6.175794005393981934e-01
5.884289741516113281e-01,6.138265728950500488e-01,6.563783884048461914e-01,6.571205854415893555e-01,6.806157231330871582e-01,7.048270702362060547e-01,7.411927580833435059e-01,7.626004219055175781e-01,7.833737134933471680e-01,8.020128011703491211e-01,8.198161721229553223e-01,8.363276720046997070e-01,8.513021469116210938e-01,8.646435737609863281e-01,8.762922286987304688e-01,8.858512043952941895e-01,8.929022550582885742e-01,8.976578712463378906e-01,9.009497165679931641e-01,9.031001329421997070e-01,9.043283462524414062e-01,9.050014019012451172e-01,9.052587747573852539e-01,9.053179025650024414e-01,9.053307175636291504e-01,9.053288698196411133e-01,9.053283333778381348e-01,9.053283333778381348e-01,9.053283333778381348e-01,9.053283333778381348e-01,9.053283333778381348e-01,9.053283333778381348e-01,9.053283333778381348e-01,9.053283333778381348e-01,9.053283333778381348e-01,9.053283333778381348e-01,9.053283333778381348e-01,9.053283333778381348e-01,9.053283333778381348e-01,9.053283333778381348e-01,9.053283333778381348e-01,9.053283333778381348e-01,9.053283333778381348e-01,9.053283333778381348e-01,9.053283333778381348e-01,9.053283333778381348e-01,9.053223729133605957e-01,9.053260087966918945e-01,9.059104919433593750e-01,9.066762924194335938e-01,9.026405215263366699e-01,9.020105600357055664e-01,8.993870615959167480e-01,8.897288441658020020e-01,8.762128353118896484e-01,8.444015383720397949e-01,7.960810065269470215e-01,7.702594995498657227e-01,6.956304311752319336e-01,6.244231462478637695e-01,5.323060750961303711e-01,4.549461007118225098e-01,4.096251428127288818e-01,4.013100564479827881e-01,4.007032513618469238e-01,4.084972143173217773e-01,4.356396198272705078e-01,4.885989427566528320e-01,5.583057999610900879e-01,6.533565521240234375e-01,7.081557512283325195e-01,7.401891350746154785e-01,7.788059711456298828e-01,7.962709665298461914e-01,7.897429466247558594e-01,7.771955132484436035e-01,7.816175222396850586e-01,7.625944614410400391e-01,7.154546976089477539e-01,6.190721988677978516e-01
5.884244441986083984e-01,6.138191223144531250e-01,6.563693284988403320e-01,6.571099162101745605e-01,6.806032657623291016e-01,7.048138976097106934e-01,7.411786913871765137e-01,7.625858783721923828e-01,7.833586931228637695e-01,8.019976019859313965e-01,8.198019266128540039e-01,8.363143205642700195e-01,8.512896299362182617e-01,8.646326065063476562e-01,8.762820959091186523e-01,8.858431577682495117e-01,8.928964138031005859e-01,8.976540565490722656e-01,9.009470939636230469e-01,9.030987620353698730e-01,9.043276309967041016e-01,9.050009250640869141e-01,9.052587747573852539e-01,9.053179025650024414e-01,9.053307771682739258e-01,9.053288698196411133e-01,9.053283333778381348e-01,9.053283333778381348e-01,9.053283333778381348e-01,9.053283333778381348e-01,9.053283333778381348e-01,9.053283333778381348e-01,9.053283333778381348e-01,9.053283333778381348e-01,9.053283333778381348e-01,9.053283333778381348e-01,9.053283333778381348e-01,9.053283333778381348e-01,9.053283333778381348e-01,9.053283333778381348e-01,9.053283333778381348e-01,9.053283333778381348e-01,9.053283333778381348e-01,9.053283333778381348e-01,9.053283333778381348e-01,9.053283333778381348e-01,9.053252339363098145e-01,9.053161144256591797e-01,9.058869481086730957e-01,9.061305522918701172e-01,9.028642177581787109e-01,9.033115506172180176e-01,9.050861597061157227e-01,8.980294466018676758e-01,8.849333524703979492e-01,8.592793941497802734e-01,8.243952989578247070e-01,8.041213750839233398e-01,7.443949580192565918e-01,6.675510406494140625e-01,5.666258335113525391e-01,4.810867905616760254e-01,4.385257661342620850e-01,4.224748909473419189e-01,4.301919937133789062e-01,4.187747836112976074e-01,4.401595592498779297e-01,4.920850396156311035e-01,5.706191062927246094e-01,6.523946523666381836e-01,7.189322113990783691e-01,7.513191699981689453e-01,7.906534671783447266e-01,8.061580657958984375e-01,7.933480739593505859e-01,7.886829972267150879e-01,7.847285270690917969e-01,7.626520395278930664e-01,7.141565084457397461e-01,6.148250699043273926e-01
5.884200334548950195e-01,6.138120293617248535e-01,6.563607454299926758e-01,6.570999622344970703e-01,6.805921792984008789e-01,7.048025131225585938e-01,7.411667108535766602e-01,7.625731229782104492e-01,7.833453416824340820e-01,8.019835352897644043e-01,8.197880983352661133e-01,8.363014459609985352e-01,8.512778282165527344e-01,8.646218776702880859e-01,8.762729167938232422e-01,8.858354687690734863e-01,8.928911685943603516e-01,8.976505994796752930e-01,9.009444117546081543e-01,9.030971527099609375e-01,9.043266773223876953e-01,9.050004482269287109e-01,9.052587747573852539e-01,9.053179025650024414e-01,9.053307771682739258e-01,9.053288698196411133e-01,9.053283333778381348e-01,9.053283333778381348e-01,9.053283333778381348e-01,9.053283333778381348e-01,9.053283333778381348e-01,9.053283333778381348e-01,9.053283333778381348e-01,9.053283333778381348e-01,9.053283333778381348e-01,9.053283333778381348e-01,9.053283333778381348e-01,9.053283333778381348e-01,9.053283333778381348e-01,9.053283333778381348e-01,9.053283333778381348e-01,9.053283333778381348e-01,9.053283333778381348e-01,9.053283333778381348e-01,9.053283333778381348e-01,9.053283333778381348e-01,9.053292274475097656e-01,9.053123593330383301e-01,9.057852029800415039e-01,9.053950309753417969e-01,9.037917852401733398e-01,9.044502973556518555e-01,9.057640433311462402e-01,8.992053866386413574e-01,8.963401317596435547e-01,8.761061429977416992e-01,8.471461534500122070e-01,8.166751861572265625e-01,7.879424095153808594e-01,7.121798396110534668e-01,6.125925183296203613e-01,5.211311578750610352e-01,4.750061035156250000e-01,4.374362230300903320e-01,4.416434764862060547e-01,4.386948347091674805e-01,4.475134313106536865e-01,5.053800940513610840e-01,5.843147635459899902e-01,6.688404679298400879e-01,7.181710004806518555e-01,7.544230222702026367e-01,7.966394424438476562e-01,8.042079210281372070e-01,8.005020618438720703e-01,7.925652861595153809e-01,7.910020351409912109e-01,7.697957754135131836e-01,7.190167307853698730e-01,6.126225590705871582e-01
5.884153842926025391e-01,6.138045787811279297e-01,6.563525199890136719e-01,6.570907831192016602e-01,6.805820465087890625e-01,7.047916650772094727e-01,7.411556839942932129e-01,7.625619173049926758e-01,7.833336591720581055e-01,8.019714355468750000e-01,8.197761178016662598e-01,8.362896442413330078e-01,8.512666225433349609e-01,8.646116256713867188e-01,8.762639760971069336e-01,8.858284950256347656e-01,8.928860425949096680e-01,8.976472020149230957e-01,9.009419679641723633e-01,9.030956029891967773e-01,9.043258428573608398e-01,9.050000905990600586e-01,9.052585959434509277e-01,9.053179025650024414e-01,9.053307175636291504e-01,9.053288698196411133e-01,9.053283333778381348e-01,9.053283333778381348e-01,9.053283333778381348e-01,9.053283333778381348e-01,9.053283333778381348e-01,9.053283333778381348e-01,9.053283333778381348e-01,9.053283333778381348e-01,9.053283333778381348e-01,9.053283333778381348e-01,9.053283333778381348e-01,9.053283333778381348e-01,9.053283333778381348e-01,9.053283333778381348e-01,9.053283333778381348e-01,9.053283333778381348e-01,9.053283333778381348e-01,9.053283333778381348e-01,9.053283333778381348e-01,9.053283333778381348e-01,9.053251743316650391e-01,9.053052663803100586e-01,9.056565761566162109e-01,9.052761197090148926e-01,9.043657779693603516e-01,9.066777229309082031e-01,9.071172475814819336e-01,9.017294049263000488e-01,8.986642360687255859e-01,8.845335245132446289e-01,8.646675348281860352e-01,8.393937349319458008e-01,8.125869035720825195e-01,7.525945305824279785e-01,6.599428653717041016e-01,5.533789992332458496e-01,4.912844896316528320e-01,4.643045067787170410e-01,4.483672976493835449e-01,4.443330764770507812e-01,4.653307795524597168e-01,5.214761495590209961e-01,5.968994498252868652e-01,6.831074953079223633e-01,7.339887022972106934e-01,7.697849869728088379e-01,8.013825416564941406e-01,8.126590847969055176e-01,8.058105707168579102e-01,7.950072288513183594e-01,7.922335267066955566e-01,7.730536460876464844e-01,7.203762531280517578e-01,6.163031458854675293e-01
5.884101390838623047e-01,6.137966513633728027e-01,6.563441157341003418e-01,6.570808291435241699e-01,6.805716753005981445e-01,7.047815322875976562e-01,7.411453723907470703e-01,7.625515460968017578e-01,7.833230495452880859e-01,8.019607067108154297e-01,8.197658061981201172e-01,8.362793922424316406e-01,8.512566089630126953e-01,8.646024465560913086e-01,8.762555718421936035e-01,8.858218193054199219e-01,8.928812742233276367e-01,8.976441025733947754e-01,9.009397029876708984e-01,9.030943512916564941e-01,9.043250083923339844e-01,9.049996137619018555e-01,9.052584171295166016e-01,9.053179025650024414e-01,9.053307175636291504e-01,9.053289294242858887e-01,9.053283333778381348e-01,9.053283333778381348e-01,9.053283333778381348e-01,9.053283333778381348e-01,9.053283333778381348e-01,9.053283333778381348e-01,9.053283333778381348e-01,9.053283333778381348e-01,9.053283333778381348e-01,9.053283333778381348e-01,9.053283333778381348e-01,9.053283333778381348e-01,9.053283333778381348e-01,9.053283333778381348e-01,9.053283333778381348e-01,9.053283333778381348e-01,9.053283333778381348e-01,9.053283333778381348e-01,9.053283333778381348e-01,9.053283333778381348e-01,9.053230285644531250e-01,9.053052663803100586e-01,9.053670167922973633e-01,9.055439233779907227e-01,9.049128293991088867e-01,9.064670801162719727e-01,9.067872762680053711e-01,9.024624228477478027e-01,8.998118638992309570e-01,8.853362798690795898e-01,8.805077075958251953e-01,8.477777242660522461e-01,8.310944437980651855e-01,7.795243263244628906e-01,6.805585622787475586e-01,5.807495117187500000e-01,5.102332234382629395e-01,4.845437407493591309e-01,4.676835536956787109e-01,4.630537927150726318e-01,5.011183619499206543e-01,5.407596230506896973e-01,6.170303225517272949e-01,6.978759765625000000e-01,7.538639307022094727e-01,7.808433771133422852e-01,8.075314760208129883e-01,8.216920495033264160e-01,8.105784654617309570e-01,7.990931272506713867e-01,7.973843216896057129e-01,7.743566036224365234e-01,7.216826677322387695e-01,6.157330870628356934e-01
5.884048342704772949e-01,6.137880682945251465e-01,6.563342213630676270e-01,6.570697426795959473e-01,6.805603504180908203e-01,7.047700881958007812e-01,7.411345243453979492e-01,7.625409364700317383e-01,7.833130359649658203e-01,8.019506931304931641e-01,8.197556734085083008e-01,8.362697958946228027e-01,8.512473106384277344e-01,8.645936250686645508e-01,8.762475848197937012e-01,8.858152031898498535e-01,8.928759098052978516e-01,8.976398706436157227e-01,9.009363651275634766e-01,9.030915498733520508e-01,9.043227434158325195e-01,9.049974679946899414e-01,9.052566289901733398e-01,9.053159952163696289e-01,9.053288698196411133e-01,9.053270220756530762e-01,9.053264856338500977e-01,9.053264856338500977e-01,9.053264856338500977e-01,9.053264856338500977e-01,9.053264856338500977e-01,9.053264856338500977e-01,9.053264856338500977e-01,9.053264856338500977e-01,9.053264260292053223e-01,9.053264260292053223e-01,9.053263664245605469e-01,9.053264260292053223e-01,9.053263664245605469e-01,9.053263664245605469e-01,9.053263664245605469e-01,9.053262472152709961e-01,9.053262472152709961e-01,9.053262472152709961e-01,9.053262472152709961e-01,9.053262472152709961e-01,9.053254127502441406e-01,9.052960276603698730e-01,9.052665233612060547e-01,9.056526422500610352e-01,9.057211875915527344e-01,9.060977697372436523e-01,9.055413007736206055e-01,9.059900045394897461e-01,9.012364149093627930e-01,8.932217359542846680e-01,8.837844133377075195e-01,8.578150868415832520e-01,8.335908651351928711e-01,7.920127511024475098e-01,7.051327824592590332e-01,5.896786451339721680e-01,5.361389517784118652e-01,5.038040280342102051e-01,4.720538258552551270e-01,4.826160073280334473e-01,5.422396659851074219e-01,5.873836278915405273e-01,6.329991221427917480e-01,7.091482281684875488e-01,7.768450975418090820e-01,7.985801696777343750e-01,8.156443238258361816e-01,8.306236267089843750e-01,8.166623115539550781e-01,8.025376796722412109e-01,7.989386916160583496e-01,7.740280032157897949e-01,7.225356101989746094e-01,6.162881851196289062e-01
5.883989930152893066e-01,6.137783527374267578e-01,6.563231945037841797e-01,6.570564508438110352e-01,6.805449724197387695e-01,7.047537565231323242e-01,7.411180734634399414e-01,7.625248432159423828e-01,7.832965850830078125e-01,8.019344210624694824e-01,8.197403550148010254e-01,8.362545967102050781e-01,8.512321710586547852e-01,8.645793795585632324e-01,8.762347102165222168e-01,8.858035802841186523e-01,8.928657770156860352e-01,8.976315259933471680e-01,9.009282588958740234e-01,9.030839204788208008e-01,9.043152332305908203e-01,9.049903154373168945e-01,9.052499532699584961e-01,9.053096771240234375e-01,9.053227305412292480e-01,9.053209424018859863e-01,9.053205251693725586e-01,9.053205251693725586e-01,9.053205847740173340e-01,9.053205847740173340e-01,9.053206443786621094e-01,9.053206443786621094e-01,9.053206443786621094e-01,9.053207635879516602e-01,9.053207635879516602e-01,9.053207635879516602e-01,9.053208827972412109e-01,9.053208827972412109e-01,9.053208827972412109e-01,9.053209424018859863e-01,9.053210020065307617e-01,9.053211212158203125e-01,9.053211212158203125e-01,9.053211212158203125e-01,9.053212404251098633e-01,9.053212404251098633e-01,9.053189158439636230e-01,9.053001403808593750e-01,9.052820205688476562e-01,9.053953289985656738e-01,9.056485891342163086e-01,9.055080413818359375e-01,9.048177003860473633e-01,9.056156873703002930e-01,9.021518230438232422e-01,8.952502012252807617e-01,8.876436352729797363e-01,8.643325567245483398e-01,8.387069702148437500e-01,7.946164608001708984e-01,7.293590903282165527e-01,5.923584699630737305e-01,5.478331446647644043e-01,5.158932209014892578e-01,5.048216581344604492e-01,5.130813717842102051e-01,5.567088127136230469e-01,6.220594048500061035e-01,6.818947792053222656e-01,7.493607401847839355e-01,7.906505465507507324e-01,8.174278140068054199e-01,8.337171077728271484e-01,8.388752341270446777e-01,8.189227581024169922e-01,8.039885163307189941e-01,7.997149229049682617e-01,7.751203775405883789e-01,7.226547598838806152e-01,6.163443326950073242e-01
5.883880853652954102e-01,6.137647032737731934e-01,6.563071608543395996e-01,6.570427417755126953e-01,6.805314421653747559e-01,7.047392129898071289e-01,7.411049604415893555e-01,7.625172138214111328e-01,7.832959890365600586e-01,8.019418120384216309e-01,8.197585344314575195e-01,8.362860679626464844e-01,8.512828350067138672e-01,8.646472692489624023e-01,8.763042688369750977e-01,8.858630061149597168e-01,8.929133415222167969e-01,8.976703882217407227e-01,9.009686708450317383e-01,9.031347036361694336e-01,9.043723344802856445e-01,9.050531387329101562e-01,9.053155779838562012e-01,9.053769111633300781e-01,9.053903222084045410e-01,9.053888320922851562e-01,9.053886532783508301e-01,9.053888320922851562e-01,9.053890705108642578e-01,9.053893685340881348e-01,9.053896665573120117e-01,9.053899049758911133e-01,9.053901433944702148e-01,9.053905010223388672e-01,9.053907394409179688e-01,9.053910970687866211e-01,9.053912758827209473e-01,9.053914546966552734e-01,9.053918123245239258e-01,9.053921699523925781e-01,9.053922891616821289e-01,9.053925871849060059e-01,9.053928852081298828e-01,9.053931236267089844e-01,9.053934216499328613e-01,9.053937196731567383e-01,9.053940773010253906e-01,9.053858518600463867e-01,9.054007530212402344e-01,9.054664373397827148e-01,9.055367708206176758e-01,9.055355787277221680e-01,9.056816697120666504e-01,9.065459370613098145e-01,9.046794176101684570e-01,8.971801996231079102e-01,8.847432136535644531e-01,8.674349784851074219e-01,8.374876379966735840e-01,8.026856184005737305e-01,7.287791967391967773e-01,6.239881515502929688e-01,5.727888941764831543e-01,5.309734344482421875e-01,5.318601131439208984e-01,5.497212409973144531e-01,6.052983999252319336e-01,6.496708393096923828e-01,7.351052761077880859e-01,7.760488986968994141e-01,8.032401800155639648e-01,8.300150632858276367e-01,8.436366915702819824e-01,8.454186916351318359e-01,8.230123519897460938e-01,8.064092397689819336e-01,8.001136779785156250e-01,7.754083275794982910e-01,7.222317457199096680e-01,6.164818406105041504e-01
5.883948802947998047e-01,6.137732863426208496e-01,6.563137769699096680e-01,6.570606827735900879e-01,6.805601716041564941e-01,7.048007249832153320e-01,7.412178516387939453e-01,7.626782655715942383e-01,7.834835052490234375e-01,8.021416664123535156e-01,8.199603557586669922e-01,8.364855051040649414e-01,8.514596819877624512e-01,8.647924661636352539e-01,8.764213323593139648e-01,8.859447240829467773e-01,8.929833173751831055e-01,8.977724313735961914e-01,9.010931253433227539e-01,9.032580852508544922e-01,9.044927358627319336e-01,9.051686525344848633e-01,9.054245948791503906e-01,9.054826498031616211e-01,9.054936170578002930e-01,9.054911136627197266e-01,9.054898023605346680e-01,9.054889678955078125e-01,9.054880738258361816e-01,9.054871797561645508e-01,9.054862856864929199e-01,9.054855108261108398e-01,9.054845571517944336e-01,9.054837226867675781e-01,9.054828882217407227e-01,9.054819345474243164e-01,9.054811000823974609e-01,9.054801464080810547e-01,9.054794311523437500e-01,9.054785370826721191e-01,9.054776430130004883e-01,9.054766893386840820e-01,9.054758548736572266e-01,9.054749608039855957e-01,9.054741859436035156e-01,9.054732322692871094e-01,9.054725170135498047e-01,9.054671525955200195e-01,9.054400920867919922e-01,9.055166244506835938e-01,9.053407907485961914e-01,9.053416848182678223e-01,9.056022167205810547e-01,9.065414667129516602e-01,9.044262170791625977e-01,8.978743553161621094e-01,8.865129947662353516e-01,8.727890253067016602e-01,8.441956043243408203e-01,7.964906096458435059e-01,7.532280683517456055e-01,6.408233046531677246e-01,5.851921439170837402e-01,5.496265292167663574e-01,5.610262751579284668e-01,6.025043725967407227e-01,6.511420011520385742e-01,6.903209090232849121e-01,7.642825245857238770e-01,8.052955865859985352e-01,8.254746198654174805e-01,8.470804691314697266e-01,8.554006814956665039e-01,8.507869243621826172e-01,8.258498907089233398e-01,8.064944744110107422e-01,8.009269237518310547e-01,7.756977081298828125e-01,7.228778600692749023e-01,6.167950034141540527e-01
5.885774493217468262e-01,6.139506101608276367e-01,6.565670967102050781e-01,6.573170423507690430e-01,6.808089017868041992e-01,7.049654722213745117e-01,7.413061857223510742e-01,7.626909017562866211e-01,7.833566665649414062e-01,8.018841743469238281e-01,8.195853233337402344e-01,8.359759449958801270e-01,8.508595824241638184e-01,8.641104102134704590e-01,8.756402730941772461e-01,8.851380348205566406e-01,8.922109007835388184e-01,8.969807624816894531e-01,9.002737402915954590e-01,9.024296402931213379e-01,9.036750793457031250e-01,9.043313264846801758e-01,9.045726060867309570e-01,9.046294689178466797e-01,9.046415090560913086e-01,9.046392440795898438e-01,9.046378135681152344e-01,9.046369194984436035e-01,9.046360254287719727e-01,9.046350717544555664e-01,9.046341776847839355e-01,9.046331644058227539e-01,9.046323299407958984e-01,9.046315550804138184e-01,9.046305418014526367e-01,9.046295881271362305e-01,9.046287536621093750e-01,9.046277403831481934e-01,9.046269059181213379e-01,9.046258926391601562e-01,9.046250581741333008e-01,9.046242237091064453e-01,9.046232700347900391e-01,9.046224355697631836e-01,9.046213626861572266e-01,9.046205282211303711e-01,9.046202898025512695e-01,9.046178460121154785e-01,9.046150445938110352e-01,9.046059846878051758e-01,9.046006202697753906e-01,9.046500921249389648e-01,9.049212932586669922e-01,9.053084254264831543e-01,9.035120010375976562e-01,8.947083950042724609e-01,8.856456279754638672e-01,8.689714670181274414e-01,8.466166257858276367e-01,8.113284111022949219e-01,7.445999383926391602e-01,6.642241477966308594e-01,5.998076200485229492e-01,5.766900777816772461e-01,5.766448974609375000e-01,6.439192295074462891e-01,6.829183697700500488e-01,7.393764257431030273e-01,7.914575338363647461e-01,8.268523216247558594e-01,8.429681062698364258e-01,8.589570522308349609e-01,8.589752912521362305e-01,8.510921597480773926e-01,8.274912834167480469e-01,8.072376847267150879e-01,8.011924028396606445e-01,7.745755910873413086e-01,7.220050096511840820e-01,6.162703037261962891e-01
5.889348983764648438e-01,6.138233542442321777e-01,6.562408208847045898e-01,6.566761136054992676e-01,6.799235939979553223e-01,7.037626504898071289e-01,7.398905158042907715e-01,7.610042095184326172e-01,7.815115451812744141e-01,7.999088764190673828e-01,8.175220489501953125e-01,8.339121937751770020e-01,8.489222526550292969e-01,8.623842597007751465e-01,8.741680979728698730e-01,8.838949203491210938e-01,8.910555839538574219e-01,8.958868384361267090e-01,8.992757797241210938e-01,9.014958739280700684e-01,9.027297496795654297e-01,9.033837318420410156e-01,9.036415219306945801e-01,9.037144184112548828e-01,9.037274122238159180e-01,9.037252664566040039e-01,9.037237167358398438e-01,9.037225842475891113e-01,9.037215113639831543e-01,9.037204980850219727e-01,9.037196040153503418e-01,9.037184715270996094e-01,9.037173986434936523e-01,9.037163257598876953e-01,9.037152528762817383e-01,9.037141799926757812e-01,9.037131071090698242e-01,9.037120342254638672e-01,9.037109613418579102e-01,9.037098884582519531e-01,9.037088751792907715e-01,9.037077426910400391e-01,9.037067890167236328e-01,9.037057161331176758e-01,9.037046432495117188e-01,9.037036299705505371e-01,9.037027955055236816e-01,9.037002325057983398e-01,9.036968946456909180e-01,9.036998748779296875e-01,9.037102460861206055e-01,9.037154316902160645e-01,9.041335582733154297e-01,9.039982557296752930e-01,9.016640186309814453e-01,8.952803611755371094e-01,8.845503330230712891e-01,8.683793544769287109e-01,8.474679589271545410e-01,8.136234283447265625e-01,7.394645214080810547e-01,6.703392863273620605e-01,6.148487329483032227e-01,6.020759344100952148e-01,6.183531880378723145e-01,6.672132015228271484e-01,7.218787670135498047e-01,7.729630470275878906e-01,8.092840909957885742e-01,8.384221792221069336e-01,8.587050437927246094e-01,8.660299181938171387e-01,8.641642332077026367e-01,8.540024757385253906e-01,8.269957304000854492e-01,8.067330121994018555e-01,7.999837994575500488e-01,7.740640044212341309e-01,7.209125757217407227e-01,6.146943569183349609e-01
5.881907939910888672e-01,6.121507287025451660e-01,6.544497013092041016e-01,6.547899246215820312e-01,6.775811910629272461e-01,7.009662389755249023e-01,7.370854616165161133e-01,7.582449913024902344e-01,7.788013815879821777e-01,7.971979379653930664e-01,8.147939443588256836e-01,8.312965631484985352e-01,8.464369773864746094e-01,8.599828481674194336e-01,8.718588352203369141e-01,8.816272020339965820e-01,8.889307975769042969e-01,8.940085768699645996e-01,8.974864482879638672e-01,8.997212052345275879e-01,9.009758234024047852e-01,9.016543626785278320e-01,9.019178152084350586e-01,9.019800424575805664e-01,9.019869565963745117e-01,9.019796848297119141e-01,9.019732475280761719e-01,9.019671082496643066e-01,9.019610881805419922e-01,9.019548892974853516e-01,9.019488096237182617e-01,9.019426703453063965e-01,9.019367694854736328e-01,9.019306302070617676e-01,9.019244909286499023e-01,9.019185304641723633e-01,9.019123315811157227e-01,9.019062519073486328e-01,9.019001722335815430e-01,9.018940925598144531e-01,9.018881320953369141e-01,9.018820524215698242e-01,9.018758535385131836e-01,9.018697738647460938e-01,9.018638134002685547e-01,9.018577337265014648e-01,9.018518924713134766e-01,9.018454551696777344e-01,9.018392562866210938e-01,9.018315672874450684e-01,9.018347263336181641e-01,9.018488526344299316e-01,9.019778966903686523e-01,9.013476371765136719e-01,8.992604017257690430e-01,8.923635482788085938e-01,8.824859857559204102e-01,8.640544414520263672e-01,8.441634178161621094e-01,8.093824386596679688e-01,7.532261610031127930e-01,6.629752516746520996e-01,6.186217665672302246e-01,6.188063621520996094e-01,6.375418901443481445e-01,6.830582618713378906e-01,7.442610263824462891e-01,7.910479903221130371e-01,8.229913711547851562e-01,8.486875295639038086e-01,8.619722127914428711e-01,8.659024238586425781e-01,8.643502593040466309e-01,8.536841273307800293e-01,8.262943029403686523e-01,8.066842555999755859e-01,7.989853620529174805e-01,7.723731994628906250e-01,7.195623517036437988e-01,6.129449605941772461e-01
5.862545967102050781e-01,6.094360351562500000e-01,6.514791250228881836e-01,6.515434384346008301e-01,6.740748882293701172e-01,6.969109177589416504e-01,7.324768304824829102e-01,7.531195878982543945e-01,7.730038762092590332e-01,7.909471988677978516e-01,8.082773685455322266e-01,8.245581984519958496e-01,8.395525217056274414e-01,8.531510829925537109e-01,8.651040196418762207e-01,8.749608993530273438e-01,8.823369145393371582e-01,8.874369859695434570e-01,8.910171389579772949e-01,8.932564258575439453e-01,8.945031166076660156e-01,8.952054977416992188e-01,8.954699039459228516e-01,8.955247402191162109e-01,8.955234289169311523e-01,8.955122828483581543e-01,8.955025076866149902e-01,8.954933285713195801e-01,8.954843878746032715e-01,8.954749107360839844e-01,8.954659700393676758e-01,8.954570293426513672e-01,8.954477906227111816e-01,8.954386711120605469e-01,8.954296112060546875e-01,8.954204320907592773e-01,8.954113721847534180e-01,8.954022526741027832e-01,8.953931331634521484e-01,8.953840732574462891e-01,8.953749537467956543e-01,8.953658342361450195e-01,8.953566551208496094e-01,8.953475952148437500e-01,8.953385353088378906e-01,8.953295946121215820e-01,8.953204154968261719e-01,8.953113555908203125e-01,8.953021764755249023e-01,8.952931165695190430e-01,8.952937722206115723e-01,8.952965140342712402e-01,8.952628970146179199e-01,8.953140974044799805e-01,8.939781188964843750e-01,8.863977193832397461e-01,8.734437823295593262e-01,8.596527576446533203e-01,8.324794769287109375e-01,8.015246391296386719e-01,7.269525527954101562e-01,6.542822122573852539e-01,6.024972200393676758e-01,6.139314174652099609e-01,6.295323371887207031e-01,7.055624723434448242e-01,7.532573938369750977e-01,7.967377901077270508e-01,8.279907703399658203e-01,8.493562936782836914e-01,8.592202067375183105e-01,8.618179559707641602e-01,8.598789572715759277e-01,8.496719598770141602e-01,8.218632936477661133e-01,8.013974428176879883e-01,7.944315671920776367e-01,7.680460214614868164e-01,7.154985666275024414e-01,6.079425215721130371e-01
5.823468565940856934e-01,6.035615205764770508e-01,6.450681686401367188e-01,6.443604230880737305e-01,6.657190322875976562e-01,6.876920461654663086e-01,7.224049568176269531e-01,7.425880432128906250e-01,7.617992162704467773e-01,7.788727283477783203e-01,7.956067323684692383e-01,8.115667104721069336e-01,8.266255259513854980e-01,8.405205607414245605e-01,8.527917861938476562e-01,8.630743622779846191e-01,8.709452748298645020e-01,8.763761520385742188e-01,8.801450729370117188e-01,8.825235366821289062e-01,8.838617205619812012e-01,8.845173120498657227e-01,8.847193717956542969e-01,8.847372531890869141e-01,8.847267627716064453e-01,8.847036957740783691e-01,8.846828937530517578e-01,8.846628069877624512e-01,8.846424818038940430e-01,8.846222162246704102e-01,8.846020698547363281e-01,8.845818042755126953e-01,8.845615386962890625e-01,8.845413923263549805e-01,8.845208883285522461e-01,8.845008611679077148e-01,8.844805955886840820e-01,8.844605684280395508e-01,8.844401836395263672e-01,8.844200372695922852e-01,8.843998908996582031e-01,8.843796253204345703e-01,8.843594789505004883e-01,8.843392729759216309e-01,8.843189477920532227e-01,8.842989206314086914e-01,8.842786550521850586e-01,8.842586278915405273e-01,8.842383623123168945e-01,8.842182159423828125e-01,8.841949701309204102e-01,8.841841816902160645e-01,8.840960264205932617e-01,8.844788074493408203e-01,8.827098011970520020e-01,8.751877546310424805e-01,8.613948225975036621e-01,8.495051264762878418e-01,8.148931264877319336e-01,7.736493349075317383e-01,7.236126661300659180e-01,6.442583799362182617e-01,6.019293069839477539e-01,6.010773181915283203e-01,6.367000937461853027e-01,6.805448532104492188e-01,7.409025430679321289e-01,7.866134643554687500e-01,8.234299421310424805e-01,8.399758338928222656e-01,8.526151180267333984e-01,8.566092848777770996e-01,8.497549295425415039e-01,8.392273187637329102e-01,8.109787702560424805e-01,7.924457788467407227e-01,7.859287261962890625e-01,7.609962224960327148e-01,7.075263261795043945e-01,6.019632220268249512e-01
5.752021074295043945e-01,5.937502980232238770e-01,6.341860890388488770e-01,6.314060091972351074e-01,6.507623791694641113e-01,6.714959144592285156e-01,7.052949070930480957e-01,7.246503233909606934e-01,7.430995702743530273e-01,7.594728469848632812e-01,7.753012776374816895e-01,7.904874682426452637e-01,8.051458597183227539e-01,8.185901641845703125e-01,8.304737806320190430e-01,8.404284715652465820e-01,8.479077816009521484e-01,8.532832264900207520e-01,8.570441007614135742e-01,8.593943715095520020e-01,8.606343269348144531e-01,8.611841201782226562e-01,8.613178730010986328e-01,8.613219261169433594e-01,8.612900972366333008e-01,8.612506985664367676e-01,8.612134456634521484e-01,8.611763715744018555e-01,8.611394166946411133e-01,8.611023426055908203e-01,8.610655069351196289e-01,8.610282540321350098e-01,8.609913587570190430e-01,8.609542846679687500e-01,8.609173297882080078e-01,8.608802556991577148e-01,8.608433604240417480e-01,8.608062267303466797e-01,8.607692718505859375e-01,8.607323169708251953e-01,8.606954813003540039e-01,8.606585264205932617e-01,8.606215715408325195e-01,8.605846166610717773e-01,8.605477809906005859e-01,8.605108261108398438e-01,8.604738116264343262e-01,8.604369163513183594e-01,8.604000806808471680e-01,8.603631258010864258e-01,8.603318929672241211e-01,8.603246808052062988e-01,8.604447245597839355e-01,8.614643812179565430e-01,8.583392500877380371e-01,8.501563072204589844e-01,8.384920358657836914e-01,8.249152898788452148e-01,7.851997017860412598e-01,7.421109676361083984e-01,6.804546117782592773e-01,6.049280762672424316e-01,5.725213289260864258e-01,5.769401788711547852e-01,6.116598844528198242e-01,6.701338291168212891e-01,7.212471961975097656e-01,7.628196477890014648e-01,8.027807474136352539e-01,8.202180862426757812e-01,8.292764425277709961e-01,8.340871334075927734e-01,8.285661339759826660e-01,8.175670504570007324e-01,7.882580161094665527e-01,7.703776359558105469e-01,7.674880027770996094e-01,7.442981004714965820e-01,6.928607821464538574e-01,5.924731492996215820e-01
5.642387866973876953e-01,5.783765316009521484e-01,6.170479059219360352e-01,6.110077500343322754e-01,6.274144649505615234e-01,6.464107036590576172e-01,6.783320307731628418e-01,6.956821680068969727e-01,7.117291688919067383e-01,7.257400751113891602e-01,7.394002676010131836e-01,7.528206706047058105e-01,7.661378383636474609e-01,7.786043882369995117e-01,7.895348072052001953e-01,7.988240122795104980e-01,8.062252998352050781e-01,8.115617036819458008e-01,8.152932524681091309e-01,8.175966143608093262e-01,8.186789751052856445e-01,8.189535140991210938e-01,8.189762234687805176e-01,8.189510107040405273e-01,8.189023733139038086e-01,8.188418149948120117e-01,8.187822103500366211e-01,8.187235593795776367e-01,8.186644911766052246e-01,8.186055421829223633e-01,8.185467720031738281e-01,8.184878826141357422e-01,8.184289336204528809e-01,8.183701038360595703e-01,8.183110952377319336e-01,8.182522654533386230e-01,8.181935548782348633e-01,8.181346654891967773e-01,8.180760145187377930e-01,8.180170059204101562e-01,8.179582357406616211e-01,8.178993463516235352e-01,8.178404569625854492e-01,8.177816867828369141e-01,8.177229166030883789e-01,8.176642656326293945e-01,8.176055550575256348e-01,8.175467252731323242e-01,8.174879550933837891e-01,8.174292445182800293e-01,8.173751831054687500e-01,8.173379898071289062e-01,8.178485631942749023e-01,8.185652494430541992e-01,8.142726421356201172e-01,8.049911260604858398e-01,7.960592508316040039e-01,7.825269699096679688e-01,7.393982410430908203e-01,7.015835642814636230e-01,6.235883235931396484e-01,5.656006932258605957e-01,5.479651689529418945e-01,5.489742755889892578e-01,5.749174952507019043e-01,6.356281042098999023e-01,6.849639415740966797e-01,7.202110290527343750e-01,7.573361396789550781e-01,7.803477048873901367e-01,7.916547060012817383e-01,7.944774627685546875e-01,7.885490655899047852e-01,7.775557041168212891e-01,7.483956813812255859e-01,7.334669232368469238e-01,7.347415089607238770e-01,7.137567996978759766e-01,6.687929630279541016e-01,5.797336101531982422e-01
5.497243404388427734e-01,5.539368391036987305e-01,5.888121128082275391e-01,5.787595510482788086e-01,5.919212698936462402e-01,6.082119345664978027e-01,6.378235220909118652e-01,6.524320840835571289e-01,6.663221716880798340e-01,6.780687570571899414e-01,6.894897222518920898e-01,7.006257176399230957e-01,7.116235494613647461e-01,7.214998602867126465e-01,7.303573489189147949e-01,7.380208373069763184e-01,7.437713742256164551e-01,7.477728128433227539e-01,7.504825592041015625e-01,7.519788742065429688e-01,7.524081468582153320e-01,7.524744272232055664e-01,7.524493932723999023e-01,7.523866295814514160e-01,7.523187398910522461e-01,7.522338628768920898e-01,7.521510124206542969e-01,7.520686388015747070e-01,7.519862651824951172e-01,7.519038915634155273e-01,7.518214583396911621e-01,7.517392039299011230e-01,7.516567707061767578e-01,7.515745162963867188e-01,7.514922618865966797e-01,7.514100074768066406e-01,7.513275146484375000e-01,7.512452602386474609e-01,7.511631250381469727e-01,7.510806918144226074e-01,7.509984970092773438e-01,7.509162425994873047e-01,7.508338689804077148e-01,7.507518529891967773e-01,7.506697177886962891e-01,7.505874633789062500e-01,7.505050897598266602e-01,7.504230141639709473e-01,7.503407001495361328e-01,7.502586841583251953e-01,7.501767873764038086e-01,7.501497864723205566e-01,7.510375976562500000e-01,7.505068778991699219e-01,7.448205947875976562e-01,7.361977696418762207e-01,7.300881743431091309e-01,7.062875628471374512e-01,6.679126024246215820e-01,6.335294842720031738e-01,5.709165930747985840e-01,5.179539322853088379e-01,5.118553638458251953e-01,5.137715339660644531e-01,5.394557714462280273e-01,5.877543091773986816e-01,6.365337371826171875e-01,6.618055105209350586e-01,6.932433843612670898e-01,7.155197858810424805e-01,7.264965772628784180e-01,7.271673679351806641e-01,7.233229875564575195e-01,7.133791446685791016e-01,6.838783621788024902e-01,6.729890108108520508e-01,6.818950176239013672e-01,6.630958914756774902e-01,6.337955594062805176e-01,5.564919114112854004e-01
5.325036644935607910e-01,5.236864686012268066e-01,5.544950962066650391e-01,5.385819077491760254e-01,5.464439988136291504e-01,5.592979192733764648e-01,5.835172533988952637e-01,5.946892499923706055e-01,6.051640510559082031e-01,6.132944226264953613e-01,6.213147044181823730e-01,6.292407512664794922e-01,6.369057893753051758e-01,6.437557935714721680e-01,6.499294638633728027e-01,6.547383069992065430e-01,6.579706072807312012e-01,6.604019999504089355e-01,6.619712114334106445e-01,6.628122329711914062e-01,6.630306243896484375e-01,6.629928350448608398e-01,6.628907322883605957e-01,6.628071069717407227e-01,6.627253293991088867e-01,6.626349687576293945e-01,6.625469923019409180e-01,6.624594330787658691e-01,6.623716950416564941e-01,6.622842550277709961e-01,6.621965169906616211e-01,6.621090173721313477e-01,6.620213985443115234e-01,6.619340181350708008e-01,6.618463993072509766e-01,6.617588996887207031e-01,6.616714000701904297e-01,6.615840196609497070e-01,6.614966988563537598e-01,6.614092588424682617e-01,6.613218784332275391e-01,6.612344384193420410e-01,6.611472368240356445e-01,6.610598564147949219e-01,6.609725356101989746e-01,6.608852148056030273e-01,6.607979536056518555e-01,6.607106328010559082e-01,6.606233716011047363e-01,6.605362892150878906e-01,6.604458689689636230e-01,6.603432297706604004e-01,6.613781452178955078e-01,6.609184741973876953e-01,6.550267338752746582e-01,6.495323777198791504e-01,6.438504457473754883e-01,6.160748600959777832e-01,5.871835350990295410e-01,5.571477413177490234e-01,4.987393617630004883e-01,4.613489508628845215e-01,4.655677676200866699e-01,4.776318371295928955e-01,4.827859997749328613e-01,5.343813300132751465e-01,5.722415447235107422e-01,5.914535522460937500e-01,6.145500540733337402e-01,6.352454423904418945e-01,6.424950957298278809e-01,6.427363753318786621e-01,6.395727992057800293e-01,6.308598518371582031e-01,6.033606529235839844e-01,5.960017442703247070e-01,6.116285920143127441e-01,5.968396663665771484e-01,5.880023241043090820e-01,5.268734097480773926e-01
5.115466117858886719e-01,4.893306791782379150e-01,5.141214132308959961e-01,4.908623397350311279e-01,4.924228489398956299e-01,5.010042190551757812e-01,5.196012258529663086e-01,5.275442600250244141e-01,5.347055196762084961e-01,5.395468473434448242e-01,5.444160699844360352e-01,5.495166182518005371e-01,5.544905662536621094e-01,5.588303208351135254e-01,5.624817609786987305e-01,5.651904940605163574e-01,5.674918889999389648e-01,5.691062808036804199e-01,5.701986551284790039e-01,5.706984400749206543e-01,5.708014369010925293e-01,5.707228183746337891e-01,5.705802440643310547e-01,5.705114006996154785e-01,5.704146027565002441e-01,5.703260302543640137e-01,5.702385902404785156e-01,5.701516270637512207e-01,5.700646638870239258e-01,5.699774622917175293e-01,5.698907375335693359e-01,5.698037147521972656e-01,5.697169303894042969e-01,5.696300864219665527e-01,5.695433020591735840e-01,5.694563984870910645e-01,5.693695545196533203e-01,5.692828893661499023e-01,5.691962242126464844e-01,5.691094398498535156e-01,5.690227150917053223e-01,5.689359307289123535e-01,5.688492655754089355e-01,5.687627196311950684e-01,5.686759948730468750e-01,5.685895681381225586e-01,5.685028433799743652e-01,5.684165954589843750e-01,5.683298110961914062e-01,5.682436227798461914e-01,5.681339502334594727e-01,5.679709315299987793e-01,5.686166286468505859e-01,5.678479671478271484e-01,5.632589459419250488e-01,5.605427026748657227e-01,5.552976131439208984e-01,5.294708609580993652e-01,5.092211365699768066e-01,4.851546883583068848e-01,4.478768706321716309e-01,4.229878485202789307e-01,4.208309054374694824e-01,4.267852306365966797e-01,4.433311223983764648e-01,4.760357737541198730e-01,5.007830262184143066e-01,5.165252089500427246e-01,5.374002456665039062e-01,5.506312251091003418e-01,5.528618693351745605e-01,5.539491176605224609e-01,5.523629784584045410e-01,5.456430912017822266e-01,5.214986205101013184e-01,5.173779129981994629e-01,5.384249687194824219e-01,5.280767083168029785e-01,5.396831631660461426e-01,4.965159893035888672e-01
4.905595481395721436e-01,4.556696414947509766e-01,4.712935388088226318e-01,4.408639371395111084e-01,4.361912012100219727e-01,4.405602514743804932e-01,4.539816677570343018e-01,4.580719470977783203e-01,4.623937606811523438e-01,4.647223949432373047e-01,4.672713279724121094e-01,4.700821340084075928e-01,4.728535413742065430e-01,4.754829108715057373e-01,4.777914285659790039e-01,4.795166254043579102e-01,4.807948172092437744e-01,4.817635416984558105e-01,4.823685586452484131e-01,4.826331436634063721e-01,4.826844632625579834e-01,4.826771616935729980e-01,4.825985133647918701e-01,4.824983775615692139e-01,4.824150204658508301e-01,4.823412895202636719e-01,4.822681546211242676e-01,4.821950495243072510e-01,4.821221828460693359e-01,4.820492267608642578e-01,4.819761514663696289e-01,4.819034337997436523e-01,4.818305671215057373e-01,4.817574918270111084e-01,4.816847741603851318e-01,4.816118776798248291e-01,4.815390110015869141e-01,4.814662337303161621e-01,4.813935160636901855e-01,4.813206493854522705e-01,4.812479317188262939e-01,4.811751246452331543e-01,4.811026155948638916e-01,4.810298085212707520e-01,4.809572696685791016e-01,4.808846116065979004e-01,4.808122813701629639e-01,4.807394742965698242e-01,4.806671142578125000e-01,4.805945754051208496e-01,4.805067181587219238e-01,4.803289175033569336e-01,4.807650446891784668e-01,4.800877869129180908e-01,4.788812398910522461e-01,4.779843986034393311e-01,4.734892249107360840e-01,4.549660682678222656e-01,4.420020878314971924e-01,4.225224554538726807e-01,3.986934423446655273e-01,3.836020231246948242e-01,3.789230883121490479e-01,3.833901584148406982e-01,4.037935733795166016e-01,4.130137860774993896e-01,4.344989657402038574e-01,4.434854984283447266e-01,4.581557810306549072e-01,4.671657979488372803e-01,4.726988375186920166e-01,4.732859432697296143e-01,4.742296636104583740e-01,4.692500829696655273e-01,4.494313895702362061e-01,4.482999444007873535e-01,4.718373715877532959e-01,4.688064157962799072e-01,4.950040876865386963e-01,4.690964519977569580e-01
4.694017767906188965e-01,4.224021434783935547e-01,4.285230636596679688e-01,3.950389623641967773e-01,3.840709030628204346e-01,3.856381773948669434e-01,3.960511684417724609e-01,3.989892005920410156e-01,4.020191133022308350e-01,4.032135605812072754e-01,4.044259786605834961e-01,4.056399166584014893e-01,4.066622853279113770e-01,4.076087176799774170e-01,4.084066152572631836e-01,4.089951813220977783e-01,4.096012711524963379e-01,4.100948870182037354e-01,4.103075861930847168e-01,4.103516936302185059e-01,4.103610515594482422e-01,4.102636575698852539e-01,4.101924896240234375e-01,4.101199209690093994e-01,4.100570678710937500e-01,4.099982082843780518e-01,4.099400639533996582e-01,4.098822772502899170e-01,4.098244607448577881e-01,4.097666740417480469e-01,4.097090363502502441e-01,4.096511900424957275e-01,4.095936715602874756e-01,4.095357954502105713e-01,4.094780683517456055e-01,4.094202518463134766e-01,4.093627333641052246e-01,4.093050658702850342e-01,4.092473983764648438e-01,4.091899096965789795e-01,4.091322422027587891e-01,4.090747237205505371e-01,4.090171456336975098e-01,4.089594781398773193e-01,4.089022278785705566e-01,4.088447093963623047e-01,4.087871909141540527e-01,4.087297618389129639e-01,4.086723923683166504e-01,4.086150527000427246e-01,4.085446298122406006e-01,4.083932638168334961e-01,4.085083901882171631e-01,4.081573188304901123e-01,4.083271920680999756e-01,4.083661139011383057e-01,4.050404429435729980e-01,3.945302069187164307e-01,3.864134848117828369e-01,3.715013265609741211e-01,3.605276942253112793e-01,3.519889116287231445e-01,3.485066890716552734e-01,3.523852229118347168e-01,3.556671738624572754e-01,3.680227398872375488e-01,3.794149160385131836e-01,3.870674967765808105e-01,3.956402540206909180e-01,3.991065919399261475e-01,4.029455184936523438e-01,4.016172885894775391e-01,4.042816758155822754e-01,4.012548327445983887e-01,3.856819570064544678e-01,3.876766562461853027e-01,4.135155379772186279e-01,4.177203178405761719e-01,4.560230672359466553e-01,4.460620880126953125e-01
4.513855278491973877e-01,3.938128948211669922e-01,3.929763436317443848e-01,3.572840690612792969e-01,3.413548767566680908e-01,3.406475186347961426e-01,3.480956554412841797e-01,3.498152494430541992e-01,3.515084981918334961e-01,3.519268035888671875e-01,3.524430692195892334e-01,3.529099822044372559e-01,3.533916771411895752e-01,3.538298010826110840e-01,3.541253209114074707e-01,3.542212843894958496e-01,3.542963266372680664e-01,3.541718125343322754e-01,3.540176153182983398e-01,3.539584875106811523e-01,3.539372682571411133e-01,3.539028167724609375e-01,3.538482785224914551e-01,3.537947535514831543e-01,3.537538647651672363e-01,3.537119626998901367e-01,3.536706566810607910e-01,3.536292910575866699e-01,3.535881638526916504e-01,3.535469770431518555e-01,3.535056412220001221e-01,3.534646630287170410e-01,3.534233868122100830e-01,3.533823490142822266e-01,3.533411026000976562e-01,3.532999455928802490e-01,3.532590568065643311e-01,3.532178401947021484e-01,3.531767129898071289e-01,3.531356751918792725e-01,3.530945777893066406e-01,3.530535697937011719e-01,3.530122637748718262e-01,3.529715836048126221e-01,3.529303073883056641e-01,3.528894782066345215e-01,3.528485894203186035e-01,3.528076410293579102e-01,3.527665734291076660e-01,3.527255654335021973e-01,3.526836633682250977e-01,3.525859713554382324e-01,3.525657057762145996e-01,3.523781895637512207e-01,3.528459668159484863e-01,3.529382646083831787e-01,3.513438701629638672e-01,3.457405269145965576e-01,3.414449691772460938e-01,3.293187022209167480e-01,3.244839310646057129e-01,3.207295835018157959e-01,3.179522752761840820e-01,3.191435933113098145e-01,3.258136808872222900e-01,3.314180076122283936e-01,3.366391658782958984e-01,3.412917256355285645e-01,3.466979265213012695e-01,3.470711708068847656e-01,3.490071892738342285e-01,3.500014543533325195e-01,3.512633442878723145e-01,3.490546643733978271e-01,3.362511396408081055e-01,3.391884565353393555e-01,3.653336167335510254e-01,3.756899535655975342e-01,4.224486351013183594e-01,4.258202016353607178e-01
4.349639117717742920e-01,3.689393997192382812e-01,3.612704873085021973e-01,3.251598775386810303e-01,3.061250150203704834e-01,3.047520518302917480e-01,3.108565807342529297e-01,3.122460246086120605e-01,3.134031891822814941e-01,3.134182989597320557e-01,3.134036660194396973e-01,3.133938312530517578e-01,3.134685754776000977e-01,3.135595917701721191e-01,3.135903179645538330e-01,3.136056065559387207e-01,3.135661184787750244e-01,3.135142922401428223e-01,3.135308623313903809e-01,3.135164380073547363e-01,3.134585022926330566e-01,3.134135007858276367e-01,3.133794665336608887e-01,3.133509755134582520e-01,3.133199810981750488e-01,3.132900893688201904e-01,3.132601082324981689e-01,3.132302463054656982e-01,3.132004439830780029e-01,3.131703734397888184e-01,3.131406009197235107e-01,3.131105303764343262e-01,3.130806982517242432e-01,3.130508065223693848e-01,3.130210340023040771e-01,3.129910528659820557e-01,3.129612505435943604e-01,3.129313886165618896e-01,3.129016160964965820e-01,3.128716945648193359e-01,3.128420114517211914e-01,3.128120303153991699e-01,3.127822577953338623e-01,3.127523362636566162e-01,3.127227425575256348e-01,3.126929402351379395e-01,3.126631975173950195e-01,3.126334846019744873e-01,3.126037120819091797e-01,3.125738501548767090e-01,3.125472068786621094e-01,3.124859929084777832e-01,3.124200701713562012e-01,3.124678730964660645e-01,3.128350377082824707e-01,3.125897347927093506e-01,3.121674060821533203e-01,3.110897541046142578e-01,3.079611063003540039e-01,3.015879392623901367e-01,2.985364198684692383e-01,2.948303818702697754e-01,2.947146594524383545e-01,2.942821979522705078e-01,2.978745102882385254e-01,2.986303567886352539e-01,3.036850690841674805e-01,3.069542646408081055e-01,3.087925314903259277e-01,3.116609156131744385e-01,3.106690645217895508e-01,3.110932111740112305e-01,3.118580579757690430e-01,3.103050887584686279e-01,2.991069853305816650e-01,3.025809526443481445e-01,3.288283050060272217e-01,3.441926240921020508e-01,3.968317508697509766e-01,4.101044535636901855e-01
4.212109148502349854e-01,3.491267561912536621e-01,3.364065587520599365e-01,2.999933958053588867e-01,2.791695594787597656e-01,2.769929766654968262e-01,2.819473743438720703e-01,2.831128239631652832e-01,2.839964628219604492e-01,2.838872075080871582e-01,2.838470339775085449e-01,2.838447690010070801e-01,2.838281095027923584e-01,2.838107347488403320e-01,2.837965786457061768e-01,2.837586998939514160e-01,2.837192714214324951e-01,2.836897671222686768e-01,2.836646735668182373e-01,2.836303114891052246e-01,2.836032509803771973e-01,2.835813164710998535e-01,2.835592329502105713e-01,2.835367918014526367e-01,2.835153937339782715e-01,2.834938764572143555e-01,2.834721505641937256e-01,2.834503352642059326e-01,2.834287285804748535e-01,2.834071218967437744e-01,2.833853662014007568e-01,2.833636999130249023e-01,2.833419442176818848e-01,2.833203375339508057e-01,2.832984626293182373e-01,2.832770645618438721e-01,2.832553386688232422e-01,2.832337915897369385e-01,2.832118868827819824e-01,2.831903696060180664e-01,2.831688523292541504e-01,2.831472754478454590e-01,2.831257879734039307e-01,2.831040024757385254e-01,2.830823659896850586e-01,2.830607295036315918e-01,2.830390334129333496e-01,2.830174863338470459e-01,2.829959988594055176e-01,2.829745411872863770e-01,2.829572260379791260e-01,2.829222083091735840e-01,2.828656733036041260e-01,2.828515768051147461e-01,2.829762697219848633e-01,2.826020121574401855e-01,2.824557423591613770e-01,2.826777398586273193e-01,2.809447944164276123e-01,2.775633633136749268e-01,2.766882181167602539e-01,2.737665474414825439e-01,2.736040949821472168e-01,2.745916843414306641e-01,2.751681208610534668e-01,2.764222025871276855e-01,2.787783443927764893e-01,2.786812186241149902e-01,2.808336019515991211e-01,2.816866636276245117e-01,2.825390100479125977e-01,2.826213836669921875e-01,2.832075953483581543e-01,2.818701267242431641e-01,2.718217968940734863e-01,2.751222848892211914e-01,3.007397055625915527e-01,3.195648491382598877e-01,3.762989938259124756e-01,3.975800275802612305e-01
4.091761112213134766e-01,3.324912190437316895e-01,3.159791827201843262e-01,2.799500226974487305e-01,2.584232687950134277e-01,2.558322250843048096e-01,2.600261569023132324e-01,2.610195875167846680e-01,2.617926895618438721e-01,2.617074251174926758e-01,2.616667151451110840e-01,2.616445124149322510e-01,2.616249322891235352e-01,2.616090178489685059e-01,2.615927159786224365e-01,2.615752816200256348e-01,2.615594863891601562e-01,2.615442872047424316e-01,2.615267634391784668e-01,2.615092694759368896e-01,2.614929080009460449e-01,2.614771723747253418e-01,2.614609897136688232e-01,2.614445090293884277e-01,2.614283561706542969e-01,2.614118456840515137e-01,2.613952755928039551e-01,2.613789439201354980e-01,2.613621950149536133e-01,2.613456249237060547e-01,2.613292634487152100e-01,2.613128423690795898e-01,2.612963616847991943e-01,2.612799108028411865e-01,2.612634301185607910e-01,2.612468600273132324e-01,2.612302303314208984e-01,2.612139880657196045e-01,2.611973285675048828e-01,2.611809968948364258e-01,2.611643075942993164e-01,2.611481547355651855e-01,2.611316442489624023e-01,2.611153423786163330e-01,2.610986232757568359e-01,2.610823512077331543e-01,2.610657215118408203e-01,2.610494196414947510e-01,2.610329985618591309e-01,2.610164284706115723e-01,2.610047757625579834e-01,2.609845101833343506e-01,2.609611153602600098e-01,2.609636187553405762e-01,2.609614133834838867e-01,2.607812285423278809e-01,2.610958218574523926e-01,2.611479163169860840e-01,2.606335878372192383e-01,2.596565485000610352e-01,2.582428455352783203e-01,2.569525837898254395e-01,2.574300765991210938e-01,2.565436959266662598e-01,2.573226094245910645e-01,2.576930820941925049e-01,2.577590942382812500e-01,2.586587667465209961e-01,2.601198554039001465e-01,2.599205076694488525e-01,2.603793144226074219e-01,2.606214880943298340e-01,2.612031698226928711e-01,2.600496411323547363e-01,2.511982619762420654e-01,2.544367611408233643e-01,2.794629931449890137e-01,3.009958267211914062e-01,3.605856299400329590e-01,3.876335918903350830e-01
3.991097509860992432e-01,3.188915848731994629e-01,2.997267842292785645e-01,2.643875479698181152e-01,2.423045635223388672e-01,2.394170165061950684e-01,2.430774569511413574e-01,2.439679503440856934e-01,2.446593046188354492e-01,2.445957958698272705e-01,2.445634901523590088e-01,2.445482313632965088e-01,2.445338070392608643e-01,2.445198595523834229e-01,2.445053458213806152e-01,2.444912195205688477e-01,2.444773614406585693e-01,2.444639205932617188e-01,2.444504499435424805e-01,2.444370388984680176e-01,2.444244027137756348e-01,2.444115281105041504e-01,2.443986535072326660e-01,2.443861067295074463e-01,2.443730831146240234e-01,2.443600296974182129e-01,2.443470656871795654e-01,2.443341314792633057e-01,2.443212866783142090e-01,2.443084418773651123e-01,2.442956864833831787e-01,2.442825138568878174e-01,2.442696988582611084e-01,2.442567050457000732e-01,2.442438304424285889e-01,2.442310154438018799e-01,2.442180216312408447e-01,2.442050576210021973e-01,2.441920936107635498e-01,2.441793084144592285e-01,2.441666424274444580e-01,2.441535294055938721e-01,2.441406548023223877e-01,2.441279590129852295e-01,2.441149652004241943e-01,2.441020607948303223e-01,2.440891265869140625e-01,2.440764605998992920e-01,2.440635263919830322e-01,2.440505623817443848e-01,2.440395653247833252e-01,2.440253794193267822e-01,2.440046966075897217e-01,2.440077364444732666e-01,2.439565062522888184e-01,2.438221275806427002e-01,2.440005540847778320e-01,2.439913749694824219e-01,2.438219189643859863e-01,2.435092628002166748e-01,2.431558370590209961e-01,2.423509061336517334e-01,2.422449290752410889e-01,2.421636283397674561e-01,2.427064180374145508e-01,2.426096498966217041e-01,2.429499626159667969e-01,2.427606880664825439e-01,2.430069446563720703e-01,2.433341145515441895e-01,2.435613274574279785e-01,2.435681223869323730e-01,2.442744076251983643e-01,2.433227002620697021e-01,2.352203130722045898e-01,2.385327816009521484e-01,2.629339098930358887e-01,2.863684892654418945e-01,3.479809761047363281e-01,3.796825408935546875e-01
3.908085823059082031e-01,3.077778518199920654e-01,2.866272926330566406e-01,2.519676089286804199e-01,2.295318841934204102e-01,2.264046370983123779e-01,2.296705543994903564e-01,2.304604053497314453e-01,2.310820817947387695e-01,2.310275733470916748e-01,2.310005426406860352e-01,2.309898138046264648e-01,2.309793233871459961e-01,2.309690713882446289e-01,2.309586703777313232e-01,2.309485375881195068e-01,2.309383451938629150e-01,2.309277057647705078e-01,2.309173047542572021e-01,2.309066951274871826e-01,2.308964431285858154e-01,2.308860123157501221e-01,2.308757305145263672e-01,2.308653891086578369e-01,2.308548688888549805e-01,2.308444976806640625e-01,2.308342158794403076e-01,2.308238148689270020e-01,2.308132946491241455e-01,2.308031916618347168e-01,2.307926416397094727e-01,2.307823300361633301e-01,2.307721078395843506e-01,2.307615578174591064e-01,2.307512164115905762e-01,2.307408452033996582e-01,2.307304441928863525e-01,2.307200729846954346e-01,2.307097613811492920e-01,2.306996285915374756e-01,2.306890487670898438e-01,2.306787371635437012e-01,2.306683957576751709e-01,2.306578755378723145e-01,2.306475639343261719e-01,2.306372523307800293e-01,2.306269109249114990e-01,2.306167185306549072e-01,2.306064367294311523e-01,2.305960953235626221e-01,2.305864691734313965e-01,2.305756211280822754e-01,2.305671572685241699e-01,2.305556833744049072e-01,2.305326759815216064e-01,2.305304110050201416e-01,2.305848598480224609e-01,2.304698526859283447e-01,2.305520772933959961e-01,2.304775714874267578e-01,2.303897440433502197e-01,2.298707664012908936e-01,2.297216653823852539e-01,2.297055125236511230e-01,2.299047112464904785e-01,2.300269007682800293e-01,2.303857803344726562e-01,2.301885783672332764e-01,2.302761375904083252e-01,2.304300665855407715e-01,2.303370535373687744e-01,2.302839756011962891e-01,2.305853962898254395e-01,2.300394773483276367e-01,2.226131260395050049e-01,2.259206175804138184e-01,2.498085796833038330e-01,2.745916247367858887e-01,3.377276062965393066e-01,3.731986284255981445e-01
3.838098645210266113e-01,2.985773086547851562e-01,2.758287489414215088e-01,2.418443858623504639e-01,2.191891670227050781e-01,2.158566415309906006e-01,2.188121378421783447e-01,2.195135653018951416e-01,2.200798094272613525e-01,2.200321555137634277e-01,2.200092673301696777e-01,2.200006246566772461e-01,2.199920415878295898e-01,2.199837565422058105e-01,2.199752628803253174e-01,2.199666798114776611e-01,2.199582755565643311e-01,2.199496626853942871e-01,2.199411094188690186e-01,2.199325859546661377e-01,2.199240624904632568e-01,2.199156880378723145e-01,2.199068963527679443e-01,2.198985815048217773e-01,2.198899984359741211e-01,2.198816239833831787e-01,2.198729515075683594e-01,2.198645472526550293e-01,2.198559939861297607e-01,2.198476195335388184e-01,2.198391258716583252e-01,2.198306918144226074e-01,2.198221981525421143e-01,2.198134064674377441e-01,2.198050320148468018e-01,2.197965085506439209e-01,2.197881340980529785e-01,2.197796106338500977e-01,2.197709679603576660e-01,2.197625935077667236e-01,2.197540998458862305e-01,2.197457253932952881e-01,2.197371125221252441e-01,2.197287976741790771e-01,2.197202146053314209e-01,2.197118103504180908e-01,2.197031378746032715e-01,2.196948230266571045e-01,2.196861505508422852e-01,2.196778357028961182e-01,2.196696400642395020e-01,2.196610569953918457e-01,2.196522653102874756e-01,2.196442484855651855e-01,2.196322977542877197e-01,2.196303009986877441e-01,2.196113765239715576e-01,2.195729613304138184e-01,2.196205258369445801e-01,2.196270227432250977e-01,2.195705473423004150e-01,2.194533646106719971e-01,2.194062769412994385e-01,2.192137837409973145e-01,2.193275392055511475e-01,2.193754613399505615e-01,2.193445563316345215e-01,2.194836437702178955e-01,2.195585668087005615e-01,2.195062339305877686e-01,2.195282876491546631e-01,2.195025384426116943e-01,2.197553217411041260e-01,2.191951274871826172e-01,2.123330831527709961e-01,2.156761288642883301e-01,2.391557097434997559e-01,2.649251222610473633e-01,3.292272090911865234e-01,3.678064644336700439e-01
3.778366744518280029e-01,2.908432483673095703e-01,2.668061256408691406e-01,2.334578037261962891e-01,2.106576561927795410e-01,2.071476876735687256e-01,2.098513543605804443e-01,2.104750573635101318e-01,2.109926342964172363e-01,2.109506726264953613e-01,2.109307646751403809e-01,2.109237611293792725e-01,2.109165489673614502e-01,2.109095454216003418e-01,2.109023034572601318e-01,2.108953595161437988e-01,2.108882069587707520e-01,2.108810842037200928e-01,2.108740210533142090e-01,2.108668684959411621e-01,2.108597457408905029e-01,2.108526229858398438e-01,2.108454406261444092e-01,2.108384966850280762e-01,2.108315527439117432e-01,2.108243107795715332e-01,2.108171582221984863e-01,2.108100950717926025e-01,2.108029723167419434e-01,2.107958793640136719e-01,2.107889056205749512e-01,2.107818722724914551e-01,2.107747495174407959e-01,2.107675969600677490e-01,2.107605338096618652e-01,2.107535004615783691e-01,2.107463777065277100e-01,2.107395231723785400e-01,2.107324004173278809e-01,2.107253074645996094e-01,2.107181847095489502e-01,2.107111811637878418e-01,2.107039690017700195e-01,2.106969058513641357e-01,2.106899023056030273e-01,2.106826901435852051e-01,2.106758058071136475e-01,2.106688320636749268e-01,2.106616199016571045e-01,2.106545865535736084e-01,2.106474339962005615e-01,2.106405496597290039e-01,2.106338739395141602e-01,2.106259763240814209e-01,2.106191813945770264e-01,2.106105387210845947e-01,2.106021940708160400e-01,2.105968594551086426e-01,2.105884253978729248e-01,2.105770707130432129e-01,2.106015384197235107e-01,2.105243504047393799e-01,2.104948759078979492e-01,2.104957997798919678e-01,2.104624211788177490e-01,2.104432582855224609e-01,2.105286419391632080e-01,2.105123698711395264e-01,2.105180025100708008e-01,2.105160653591156006e-01,2.104848921298980713e-01,2.104636132717132568e-01,2.107470035552978516e-01,2.102909684181213379e-01,2.038750350475311279e-01,2.071976661682128906e-01,2.303366065025329590e-01,2.568489909172058105e-01,3.220598995685577393e-01,3.632443547248840332e-01
3.726795613765716553e-01,2.842502295970916748e-01,2.591607570648193359e-01,2.263984084129333496e-01,2.035061717033386230e-01,1.998412311077117920e-01,2.023385167121887207e-01,2.028936147689819336e-01,2.033697664737701416e-01,2.033325433731079102e-01,2.033149898052215576e-01,2.033088505268096924e-01,2.033030688762664795e-01,2.032970786094665527e-01,2.032910287380218506e-01,2.032849490642547607e-01,2.032791078090667725e-01,2.032729089260101318e-01,2.032669782638549805e-01,2.032608687877655029e-01,2.032552659511566162e-01,2.032489776611328125e-01,2.032429575920104980e-01,2.032370865345001221e-01,2.032310962677001953e-01,2.032251060009002686e-01,2.032188773155212402e-01,2.032131552696228027e-01,2.032071948051452637e-01,2.032012343406677246e-01,2.031950950622558594e-01,2.031891345977783203e-01,2.031829655170440674e-01,2.031771540641784668e-01,2.031713128089904785e-01,2.031650543212890625e-01,2.031591832637786865e-01,2.031532227993011475e-01,2.031474113464355469e-01,2.031413018703460693e-01,2.031352818012237549e-01,2.031292915344238281e-01,2.031232416629791260e-01,2.031174004077911377e-01,2.031114995479583740e-01,2.031052410602569580e-01,2.030996084213256836e-01,2.030935287475585938e-01,2.030876576900482178e-01,2.030816376209259033e-01,2.030757367610931396e-01,2.030695080757141113e-01,2.030637264251708984e-01,2.030578851699829102e-01,2.030516564846038818e-01,2.030460238456726074e-01,2.030397057533264160e-01,2.030316889286041260e-01,2.030269801616668701e-01,2.030328512191772461e-01,2.030208110809326172e-01,2.030260264873504639e-01,2.030125260353088379e-01,2.029991447925567627e-01,2.029767036437988281e-01,2.029749453067779541e-01,2.029593884944915771e-01,2.029742896556854248e-01,2.029685378074645996e-01,2.029693126678466797e-01,2.029553353786468506e-01,2.029265165328979492e-01,2.031601369380950928e-01,2.027933895587921143e-01,1.967608928680419922e-01,2.000883817672729492e-01,2.229210436344146729e-01,2.500038743019104004e-01,3.159333467483520508e-01,3.593325018882751465e-01
3.681830167770385742e-01,2.785646319389343262e-01,2.526052594184875488e-01,2.203785479068756104e-01,1.974306106567382812e-01,1.936292350292205811e-01,1.959542036056518555e-01,1.964492797851562500e-01,1.968898773193359375e-01,1.968567371368408203e-01,1.968410313129425049e-01,1.968360245227813721e-01,1.968308687210083008e-01,1.968255937099456787e-01,1.968207657337188721e-01,1.968154311180114746e-01,1.968103349208831787e-01,1.968052983283996582e-01,1.968001425266265869e-01,1.967948079109191895e-01,1.967896223068237305e-01,1.967849135398864746e-01,1.967796087265014648e-01,1.967744827270507812e-01,1.967691481113433838e-01,1.967642009258270264e-01,1.967589855194091797e-01,1.967538893222808838e-01,1.967488825321197510e-01,1.967437267303466797e-01,1.967384219169616699e-01,1.967333853244781494e-01,1.967284381389617920e-01,1.967231333255767822e-01,1.967181563377380371e-01,1.967130899429321289e-01,1.967080235481262207e-01,1.967028975486755371e-01,1.966975927352905273e-01,1.966924965381622314e-01,1.966875195503234863e-01,1.966821551322937012e-01,1.966773271560668945e-01,1.966721415519714355e-01,1.966669261455535889e-01,1.966617405414581299e-01,1.966566741466522217e-01,1.966515779495239258e-01,1.966464817523956299e-01,1.966415047645568848e-01,1.966363191604614258e-01,1.966312229633331299e-01,1.966262161731719971e-01,1.966210901737213135e-01,1.966158747673034668e-01,1.966106593608856201e-01,1.966052651405334473e-01,1.966001093387603760e-01,1.965941488742828369e-01,1.965907514095306396e-01,1.965863704681396484e-01,1.965807676315307617e-01,1.965765058994293213e-01,1.965725123882293701e-01,1.965652406215667725e-01,1.965597271919250488e-01,1.965551972389221191e-01,1.965500414371490479e-01,1.965439021587371826e-01,1.965387761592864990e-01,1.965337693691253662e-01,1.965040862560272217e-01,1.967138648033142090e-01,1.964175999164581299e-01,1.907092034816741943e-01,1.940342783927917480e-01,2.166042029857635498e-01,2.441301941871643066e-01,3.106350600719451904e-01,3.559402227401733398e-01
3.642283082008361816e-01,2.736121416091918945e-01,2.469255626201629639e-01,2.151872813701629639e-01,1.922084987163543701e-01,1.882869005203247070e-01,1.904664635658264160e-01,1.909085512161254883e-01,1.913186311721801758e-01,1.912883520126342773e-01,1.912744641304016113e-01,1.912699341773986816e-01,1.912657022476196289e-01,1.912613213062286377e-01,1.912567913532257080e-01,1.912524402141571045e-01,1.912478506565093994e-01,1.912432909011840820e-01,1.912389993667602539e-01,1.912345588207244873e-01,1.912301778793334961e-01,1.912255883216857910e-01,1.912210583686828613e-01,1.912168562412261963e-01,1.912123560905456543e-01,1.912080645561218262e-01,1.912035942077636719e-01,1.911992132663726807e-01,1.911948025226593018e-01,1.911902725696563721e-01,1.911859810352325439e-01,1.911815702915191650e-01,1.911769807338714600e-01,1.911725997924804688e-01,1.911681890487670898e-01,1.911637187004089355e-01,1.911593377590179443e-01,1.911548972129821777e-01,1.911505162715911865e-01,1.911461055278778076e-01,1.911417841911315918e-01,1.911373138427734375e-01,1.911329030990600586e-01,1.911283731460571289e-01,1.911239922046661377e-01,1.911196708679199219e-01,1.911151111125946045e-01,1.911108195781707764e-01,1.911063194274902344e-01,1.911019384860992432e-01,1.910974085330963135e-01,1.910930573940277100e-01,1.910886168479919434e-01,1.910840570926666260e-01,1.910798847675323486e-01,1.910754144191741943e-01,1.910710334777832031e-01,1.910664439201354980e-01,1.910618841648101807e-01,1.910573542118072510e-01,1.910535097122192383e-01,1.910489499568939209e-01,1.910445690155029297e-01,1.910404860973358154e-01,1.910369694232940674e-01,1.910318732261657715e-01,1.910279691219329834e-01,1.910234689712524414e-01,1.910185515880584717e-01,1.910136640071868896e-01,1.910088956356048584e-01,1.909825205802917480e-01,1.911724805831909180e-01,1.909326910972595215e-01,1.855037808418273926e-01,1.888235211372375488e-01,2.111597955226898193e-01,2.390362620353698730e-01,3.060069680213928223e-01,3.529700040817260742e-01
3.607217669486999512e-01,2.692632079124450684e-01,2.419597804546356201e-01,2.106666564941406250e-01,1.876747310161590576e-01,1.836436688899993896e-01,1.856962144374847412e-01,1.860910356044769287e-01,1.864744424819946289e-01,1.864471733570098877e-01,1.864344179630279541e-01,1.864304244518280029e-01,1.864266693592071533e-01,1.864227652549743652e-01,1.864190101623535156e-01,1.864148974418640137e-01,1.864112317562103271e-01,1.864074766635894775e-01,1.864033639430999756e-01,1.863996088504791260e-01,1.863957941532135010e-01,1.863918304443359375e-01,1.863879263401031494e-01,1.863839626312255859e-01,1.863802671432495117e-01,1.863763928413391113e-01,1.863723695278167725e-01,1.863685846328735352e-01,1.863646507263183594e-01,1.863609552383422852e-01,1.863570213317871094e-01,1.863531470298767090e-01,1.863492429256439209e-01,1.863456368446350098e-01,1.863415241241455078e-01,1.863376796245574951e-01,1.863338649272918701e-01,1.863299608230590820e-01,1.863261461257934570e-01,1.863222420215606689e-01,1.863185167312622070e-01,1.863145232200622559e-01,1.863105595111846924e-01,1.863067448139190674e-01,1.863029897212982178e-01,1.862990558147430420e-01,1.862952113151550293e-01,1.862914562225341797e-01,1.862874627113342285e-01,1.862837672233581543e-01,1.862800419330596924e-01,1.862760186195373535e-01,1.862722337245941162e-01,1.862682402133941650e-01,1.862644553184509277e-01,1.862605512142181396e-01,1.862567067146301270e-01,1.862528622150421143e-01,1.862490177154541016e-01,1.862451136112213135e-01,1.862414181232452393e-01,1.862373650074005127e-01,1.862336397171020508e-01,1.862298250198364258e-01,1.862259805202484131e-01,1.862221360206604004e-01,1.862182915210723877e-01,1.862144768238067627e-01,1.862105131149291992e-01,1.862065792083740234e-01,1.862021088600158691e-01,1.861790716648101807e-01,1.863525509834289551e-01,1.861604452133178711e-01,1.809755861759185791e-01,1.842899918556213379e-01,2.064188420772552490e-01,2.345698773860931396e-01,3.019188642501831055e-01,3.503375947475433350e-01
3.576368689537048340e-01,2.654597759246826172e-01,2.376323342323303223e-01,2.067411839962005615e-01,1.837366223335266113e-01,1.796096265316009521e-01,1.815574467182159424e-01,1.819107532501220703e-01,1.822710931301116943e-01,1.822459995746612549e-01,1.822338998317718506e-01,1.822307109832763672e-01,1.822270452976226807e-01,1.822236478328704834e-01,1.822204291820526123e-01,1.822168529033660889e-01,1.822133958339691162e-01,1.822101175785064697e-01,1.822066903114318848e-01,1.822033226490020752e-01,1.821998655796051025e-01,1.821964979171752930e-01,1.821930408477783203e-01,1.821896433830261230e-01,1.821864545345306396e-01,1.821827888488769531e-01,1.821795105934143066e-01,1.821760237216949463e-01,1.821727156639099121e-01,1.821692585945129395e-01,1.821658611297607422e-01,1.821624636650085449e-01,1.821590363979339600e-01,1.821556091308593750e-01,1.821523308753967285e-01,1.821489334106445312e-01,1.821451783180236816e-01,1.821420192718505859e-01,1.821385622024536133e-01,1.821352541446685791e-01,1.821319460868835449e-01,1.821284294128417969e-01,1.821249425411224365e-01,1.821216642856597900e-01,1.821181774139404297e-01,1.821148693561553955e-01,1.821115612983703613e-01,1.821080744266510010e-01,1.821047663688659668e-01,1.821013987064361572e-01,1.820979714393615723e-01,1.820946633815765381e-01,1.820911467075347900e-01,1.820880174636840820e-01,1.820843815803527832e-01,1.820809841156005859e-01,1.820777058601379395e-01,1.820742785930633545e-01,1.820708811283111572e-01,1.820674538612365723e-01,1.820639967918395996e-01,1.820605695247650146e-01,1.820572018623352051e-01,1.820538640022277832e-01,1.820504963397979736e-01,1.820471286773681641e-01,1.820436716079711914e-01,1.820403337478637695e-01,1.820368468761444092e-01,1.820336282253265381e-01,1.820294857025146484e-01,1.820084154605865479e-01,1.821673214435577393e-01,1.820154786109924316e-01,1.770403385162353516e-01,1.803429126739501953e-01,2.022824883460998535e-01,2.306688129901885986e-01,2.983112335205078125e-01,3.479942083358764648e-01
3.552452921867370605e-01,2.622935175895690918e-01,2.341422140598297119e-01,2.035849392414093018e-01,1.805841326713562012e-01,1.763862669467926025e-01,1.782712638378143311e-01,1.786165535449981689e-01,1.789568662643432617e-01,1.789325475692749023e-01,1.789217889308929443e-01,1.789187192916870117e-01,1.789156496524810791e-01,1.789126694202423096e-01,1.789096295833587646e-01,1.789066195487976074e-01,1.789035201072692871e-01,1.789005398750305176e-01,1.788976490497589111e-01,1.788944303989410400e-01,1.788913607597351074e-01,1.788884997367858887e-01,1.788852810859680176e-01,1.788823604583740234e-01,1.788793206214904785e-01,1.788762211799621582e-01,1.788733005523681641e-01,1.788702011108398438e-01,1.788671910762786865e-01,1.788642108440399170e-01,1.788610816001892090e-01,1.788580119609832764e-01,1.788550317287445068e-01,1.788521111011505127e-01,1.788490712642669678e-01,1.788458824157714844e-01,1.788429915904998779e-01,1.788398325443267822e-01,1.788369417190551758e-01,1.788339614868164062e-01,1.788310110569000244e-01,1.788278222084045410e-01,1.788249909877777100e-01,1.788218915462493896e-01,1.788187623023986816e-01,1.788156628608703613e-01,1.788128614425659180e-01,1.788097023963928223e-01,1.788067221641540527e-01,1.788036525249481201e-01,1.788007020950317383e-01,1.787977516651153564e-01,1.787945628166198730e-01,1.787916123867034912e-01,1.787886619567871094e-01,1.787856817245483398e-01,1.787825524806976318e-01,1.787796318531036377e-01,1.787765026092529297e-01,1.787734627723693848e-01,1.787705421447753906e-01,1.787674129009246826e-01,1.787643730640411377e-01,1.787614226341247559e-01,1.787583529949188232e-01,1.787553131580352783e-01,1.787523329257965088e-01,1.787494719028472900e-01,1.787463128566741943e-01,1.787432432174682617e-01,1.787396073341369629e-01,1.787207424640655518e-01,1.788687109947204590e-01,1.787452399730682373e-01,1.739439964294433594e-01,1.772520542144775391e-01,1.989187896251678467e-01,2.273616194725036621e-01,2.952046394348144531e-01,3.462707102298736572e-01
3.522576689720153809e-01,2.585255503654479980e-01,2.300029098987579346e-01,1.997258067131042480e-01,1.766573786735534668e-01,1.722865402698516846e-01,1.739261448383331299e-01,1.741946041584014893e-01,1.744945049285888672e-01,1.744742095470428467e-01,1.744646430015563965e-01,1.744618415832519531e-01,1.744594573974609375e-01,1.744566261768341064e-01,1.744540035724639893e-01,1.744513213634490967e-01,1.744488179683685303e-01,1.744461059570312500e-01,1.744431853294372559e-01,1.744408011436462402e-01,1.744380295276641846e-01,1.744355857372283936e-01,1.744327545166015625e-01,1.744302511215209961e-01,1.744276881217956543e-01,1.744248270988464355e-01,1.744222044944763184e-01,1.744195222854614258e-01,1.744167208671569824e-01,1.744143068790435791e-01,1.744115054607391357e-01,1.744088232517242432e-01,1.744062006473541260e-01,1.744035482406616211e-01,1.744009852409362793e-01,1.743983030319213867e-01,1.743958294391632080e-01,1.743929982185363770e-01,1.743904948234558105e-01,1.743879020214080811e-01,1.743851900100708008e-01,1.743825078010559082e-01,1.743797957897186279e-01,1.743773221969604492e-01,1.743744313716888428e-01,1.743717491626739502e-01,1.743692159652709961e-01,1.743664741516113281e-01,1.743638515472412109e-01,1.743611097335815430e-01,1.743586063385009766e-01,1.743559241294860840e-01,1.743532121181488037e-01,1.743505895137786865e-01,1.743479669094085693e-01,1.743453443050384521e-01,1.743427813053131104e-01,1.743401885032653809e-01,1.743374764919281006e-01,1.743347942829132080e-01,1.743320822715759277e-01,1.743294298648834229e-01,1.743268072605133057e-01,1.743242740631103516e-01,1.743214428424835205e-01,1.743189096450805664e-01,1.743164360523223877e-01,1.743136048316955566e-01,1.743109226226806641e-01,1.743083000183105469e-01,1.743052005767822266e-01,1.742871999740600586e-01,1.744301319122314453e-01,1.743086576461791992e-01,1.696799397468566895e-01,1.730750799179077148e-01,1.948006153106689453e-01,2.234539091587066650e-01,2.916891574859619141e-01,3.432702422142028809e-01
