6.294719576835632324e-01,6.180764436721801758e-01,6.700411438941955566e-01,6.732198596000671387e-01,6.753972172737121582e-01,6.645043492317199707e-01,6.810711622238159180e-01,6.906521916389465332e-01,7.004574537277221680e-01,7.080705165863037109e-01,7.182349562644958496e-01,7.279577851295471191e-01,7.367382645606994629e-01,7.457982301712036133e-01,7.533793449401855469e-01,7.599322795867919922e-01,7.644248008728027344e-01,7.677345275878906250e-01,7.691656351089477539e-01,7.706756591796875000e-01,7.714940905570983887e-01,7.719136476516723633e-01,7.720137238502502441e-01,7.720363140106201172e-01,7.720389366149902344e-01,7.720369696617126465e-01,7.720367908477783203e-01,7.720367908477783203e-01,7.720367908477783203e-01,7.720367908477783203e-01,7.720367908477783203e-01,7.720367908477783203e-01,7.720367908477783203e-01,7.720367908477783203e-01,7.720367908477783203e-01,7.720367908477783203e-01,7.720367908477783203e-01,7.720367908477783203e-01,7.720367908477783203e-01,7.720367908477783203e-01,7.720367908477783203e-01,7.720367908477783203e-01,7.720367908477783203e-01,7.720367908477783203e-01,7.720367908477783203e-01,7.720367908477783203e-01,7.720440626144409180e-01,7.720041871070861816e-01,7.724575996398925781e-01,7.705010175704956055e-01,7.682899236679077148e-01,7.630456686019897461e-01,7.422493100166320801e-01,7.373970150947570801e-01,7.222441434860229492e-01,6.991577148437500000e-01,6.402382850646972656e-01,6.221882104873657227e-01,5.870489478111267090e-01,5.683959722518920898e-01,5.645112991333007812e-01,5.566704273223876953e-01,5.462281107902526855e-01,5.435449481010437012e-01,5.421226024627685547e-01,5.459622740745544434e-01,5.507368445396423340e-01,5.564491152763366699e-01,5.752351284027099609e-01,5.770072937011718750e-01,5.882659554481506348e-01,6.176691055297851562e-01,6.563883423805236816e-01,6.642495393753051758e-01,6.878707408905029297e-01,6.880775690078735352e-01,6.902699470520019531e-01,7.395623326301574707e-01,6.754032373428344727e-01,5.319529175758361816e-01
5.832499265670776367e-01,5.974664688110351562e-01,6.265157461166381836e-01,6.184979081153869629e-01,6.427029967308044434e-01,6.533783674240112305e-01,6.836193799972534180e-01,7.020483016967773438e-01,7.175685763359069824e-01,7.329900860786437988e-01,7.462591528892517090e-01,7.605396509170532227e-01,7.759599685668945312e-01,7.889707088470458984e-01,8.008186817169189453e-01,8.106312155723571777e-01,8.174234628677368164e-01,8.213803172111511230e-01,8.253246545791625977e-01,8.276307582855224609e-01,8.288427591323852539e-01,8.294204473495483398e-01,8.296595811843872070e-01,8.297059535980224609e-01,8.297190070152282715e-01,8.297177553176879883e-01,8.297177553176879883e-01,8.297177553176879883e-01,8.297177553176879883e-01,8.297177553176879883e-01,8.297177553176879883e-01,8.297177553176879883e-01,8.297177553176879883e-01,8.297177553176879883e-01,8.297177553176879883e-01,8.297177553176879883e-01,8.297177553176879883e-01,8.297177553176879883e-01,8.297177553176879883e-01,8.297177553176879883e-01,8.297177553176879883e-01,8.297177553176879883e-01,8.297177553176879883e-01,8.297177553176879883e-01,8.297177553176879883e-01,8.297177553176879883e-01,8.297163248062133789e-01,8.297688961029052734e-01,8.299025297164916992e-01,8.289357423782348633e-01,8.242732286453247070e-01,8.114081025123596191e-01,7.872482538223266602e-01,7.728344798088073730e-01,7.418525815010070801e-01,7.000205516815185547e-01,6.198742985725402832e-01,5.603792667388916016e-01,5.183365345001220703e-01,4.957453310489654541e-01,4.662370085716247559e-01,4.385469257831573486e-01,4.181140959262847900e-01,4.121375679969787598e-01,4.108338057994842529e-01,4.146680533885955811e-01,4.249234497547149658e-01,4.388731122016906738e-01,4.731863141059875488e-01,4.853396117687225342e-01,5.207508802413940430e-01,5.602327585220336914e-01,6.136329174041748047e-01,6.595913171768188477e-01,6.761683821678161621e-01,6.740603446960449219e-01,6.932329535484313965e-01,7.065777778625488281e-01,6.349022984504699707e-01,5.749328136444091797e-01
5.793611407279968262e-01,5.978942513465881348e-01,6.476568579673767090e-01,6.181057095527648926e-01,6.510555148124694824e-01,6.738532185554504395e-01,7.070457935333251953e-01,7.296427488327026367e-01,7.496266365051269531e-01,7.680894732475280762e-01,7.862574458122253418e-01,8.025183677673339844e-01,8.185812234878540039e-01,8.338366746902465820e-01,8.456773757934570312e-01,8.548234105110168457e-01,8.610758781433105469e-01,8.666075468063354492e-01,8.694136142730712891e-01,8.715443015098571777e-01,8.727872371673583984e-01,8.733290433883666992e-01,8.735417127609252930e-01,8.735988140106201172e-01,8.736076354980468750e-01,8.736066818237304688e-01,8.736065626144409180e-01,8.736065626144409180e-01,8.736065626144409180e-01,8.736065626144409180e-01,8.736065626144409180e-01,8.736065626144409180e-01,8.736065626144409180e-01,8.736065626144409180e-01,8.736065626144409180e-01,8.736065626144409180e-01,8.736065626144409180e-01,8.736065626144409180e-01,8.736065626144409180e-01,8.736065626144409180e-01,8.736065626144409180e-01,8.736065626144409180e-01,8.736065626144409180e-01,8.736065626144409180e-01,8.736065626144409180e-01,8.736065626144409180e-01,8.736083507537841797e-01,8.736498355865478516e-01,8.735471963882446289e-01,8.720294237136840820e-01,8.668774366378784180e-01,8.533927202224731445e-01,8.335514068603515625e-01,8.161178231239318848e-01,7.729995846748352051e-01,7.191196680068969727e-01,6.115697026252746582e-01,5.384912490844726562e-01,4.799993336200714111e-01,4.443869888782501221e-01,4.027760326862335205e-01,3.697485327720642090e-01,3.540412187576293945e-01,3.457169234752655029e-01,3.436860442161560059e-01,3.466789424419403076e-01,3.590117990970611572e-01,3.831819891929626465e-01,4.102084636688232422e-01,4.375024437904357910e-01,4.909516572952270508e-01,5.425543785095214844e-01,6.180675029754638672e-01,6.699803471565246582e-01,6.934537887573242188e-01,7.045402526855468750e-01,7.205183506011962891e-01,7.288132905960083008e-01,6.682636141777038574e-01,5.976778268814086914e-01
5.913801193237304688e-01,6.108353137969970703e-01,6.344373226165771484e-01,6.220476627349853516e-01,6.494321227073669434e-01,6.730990409851074219e-01,7.123090624809265137e-01,7.339135408401489258e-01,7.546841502189636230e-01,7.749582529067993164e-01,7.927665710449218750e-01,8.097978830337524414e-01,8.246860504150390625e-01,8.407034873962402344e-01,8.530346155166625977e-01,8.617793321609497070e-01,8.694053888320922852e-01,8.738833665847778320e-01,8.775231838226318359e-01,8.793206214904785156e-01,8.806391954421997070e-01,8.814571499824523926e-01,8.816826343536376953e-01,8.817386627197265625e-01,8.817477822303771973e-01,8.817470073699951172e-01,8.817465305328369141e-01,8.817465305328369141e-01,8.817465305328369141e-01,8.817465305328369141e-01,8.817465305328369141e-01,8.817465305328369141e-01,8.817465305328369141e-01,8.817465305328369141e-01,8.817465305328369141e-01,8.817465305328369141e-01,8.817465305328369141e-01,8.817465305328369141e-01,8.817465305328369141e-01,8.817465305328369141e-01,8.817465305328369141e-01,8.817465305328369141e-01,8.817465305328369141e-01,8.817465305328369141e-01,8.817465305328369141e-01,8.817465305328369141e-01,8.817479610443115234e-01,8.818086385726928711e-01,8.823510408401489258e-01,8.811085224151611328e-01,8.742934465408325195e-01,8.612010478973388672e-01,8.450379371643066406e-01,8.249061703681945801e-01,7.880759239196777344e-01,7.230609655380249023e-01,5.945011973381042480e-01,5.143544673919677734e-01,4.605005085468292236e-01,4.143089652061462402e-01,3.704195618629455566e-01,3.396765589714050293e-01,3.213288784027099609e-01,3.151207566261291504e-01,3.116909861564636230e-01,3.138132393360137939e-01,3.300217986106872559e-01,3.532931506633758545e-01,3.779389262199401855e-01,4.136521220207214355e-01,4.692844748497009277e-01,5.264092683792114258e-01,6.141918897628784180e-01,6.711612343788146973e-01,6.825298070907592773e-01,6.965789794921875000e-01,7.199428081512451172e-01,7.205346822738647461e-01,6.680706739425659180e-01,5.809973478317260742e-01
5.757632255554199219e-01,5.904912948608398438e-01,6.338615417480468750e-01,6.274533271789550781e-01,6.458167433738708496e-01,6.684278845787048340e-01,7.070233821868896484e-01,7.298153638839721680e-01,7.524280548095703125e-01,7.728577852249145508e-01,7.932821512222290039e-01,8.114500045776367188e-01,8.284866809844970703e-01,8.422840833663940430e-01,8.558306694030761719e-01,8.657030463218688965e-01,8.726394176483154297e-01,8.775070905685424805e-01,8.805847167968750000e-01,8.830823898315429688e-01,8.842675685882568359e-01,8.850157856941223145e-01,8.853498697280883789e-01,8.853969573974609375e-01,8.854048252105712891e-01,8.854037523269653320e-01,8.854033946990966797e-01,8.854033946990966797e-01,8.854033946990966797e-01,8.854033946990966797e-01,8.854033946990966797e-01,8.854033946990966797e-01,8.854033946990966797e-01,8.854033946990966797e-01,8.854033946990966797e-01,8.854033946990966797e-01,8.854033946990966797e-01,8.854033946990966797e-01,8.854033946990966797e-01,8.854033946990966797e-01,8.854033946990966797e-01,8.854033946990966797e-01,8.854033946990966797e-01,8.854033946990966797e-01,8.854033946990966797e-01,8.854033946990966797e-01,8.854086399078369141e-01,8.854634761810302734e-01,8.859970569610595703e-01,8.855814933776855469e-01,8.783022165298461914e-01,8.665164709091186523e-01,8.511283397674560547e-01,8.242830038070678711e-01,7.866874337196350098e-01,7.181890010833740234e-01,5.702396035194396973e-01,4.788475036621093750e-01,4.188992083072662354e-01,3.791648447513580322e-01,3.387437462806701660e-01,3.091899752616882324e-01,2.931734323501586914e-01,2.870675921440124512e-01,2.832651734352111816e-01,2.855796217918395996e-01,2.996088862419128418e-01,3.192077279090881348e-01,3.387349545955657959e-01,3.914509117603302002e-01,4.445329904556274414e-01,5.063103437423706055e-01,5.949716567993164062e-01,6.685985326766967773e-01,6.852881908416748047e-01,6.921867728233337402e-01,7.170279622077941895e-01,7.188169956207275391e-01,6.825040578842163086e-01,5.893003344535827637e-01
5.853812694549560547e-01,6.091365218162536621e-01,6.506111025810241699e-01,6.513584852218627930e-01,6.737936139106750488e-01,6.968522071838378906e-01,7.318605780601501465e-01,7.532171607017517090e-01,7.746888399124145508e-01,7.934694290161132812e-01,8.120064735412597656e-01,8.292927742004394531e-01,8.436651229858398438e-01,8.571958541870117188e-01,8.684960007667541504e-01,8.787732124328613281e-01,8.858882188796997070e-01,8.903843164443969727e-01,8.931915163993835449e-01,8.950233459472656250e-01,8.964560031890869141e-01,8.971031904220581055e-01,8.973983526229858398e-01,8.974739909172058105e-01,8.974814414978027344e-01,8.974800705909729004e-01,8.974796533584594727e-01,8.974796533584594727e-01,8.974796533584594727e-01,8.974796533584594727e-01,8.974796533584594727e-01,8.974796533584594727e-01,8.974796533584594727e-01,8.974796533584594727e-01,8.974796533584594727e-01,8.974796533584594727e-01,8.974796533584594727e-01,8.974796533584594727e-01,8.974796533584594727e-01,8.974796533584594727e-01,8.974796533584594727e-01,8.974796533584594727e-01,8.974796533584594727e-01,8.974796533584594727e-01,8.974796533584594727e-01,8.974796533584594727e-01,8.974870443344116211e-01,8.975293636322021484e-01,8.979456424713134766e-01,8.977925777435302734e-01,8.915108442306518555e-01,8.800424337387084961e-01,8.647052049636840820e-01,8.408923745155334473e-01,8.075724244117736816e-01,7.418797016143798828e-01,6.039470434188842773e-01,5.135515928268432617e-01,4.513280987739562988e-01,4.020408689975738525e-01,3.615777194499969482e-01,3.272427916526794434e-01,3.119963407516479492e-01,3.057167530059814453e-01,3.023176193237304688e-01,3.033044636249542236e-01,3.156592845916748047e-01,3.355265259742736816e-01,3.588213920593261719e-01,4.128286242485046387e-01,4.638600945472717285e-01,5.198600888252258301e-01,6.080662608146667480e-01,6.711987257003784180e-01,6.956788897514343262e-01,7.121624350547790527e-01,7.367214560508728027e-01,7.318702936172485352e-01,6.910612583160400391e-01,6.000443696975708008e-01
5.859881043434143066e-01,6.085681915283203125e-01,6.532131433486938477e-01,6.542282104492187500e-01,6.774961352348327637e-01,7.013371586799621582e-01,7.378498315811157227e-01,7.591885328292846680e-01,7.801092863082885742e-01,7.990736961364746094e-01,8.174585700035095215e-01,8.348026275634765625e-01,8.496587276458740234e-01,8.628399372100830078e-01,8.746956586837768555e-01,8.841704130172729492e-01,8.913401365280151367e-01,8.960804939270019531e-01,8.991937041282653809e-01,9.009400010108947754e-01,9.020607471466064453e-01,9.028347730636596680e-01,9.030657410621643066e-01,9.031409025192260742e-01,9.031517505645751953e-01,9.031503200531005859e-01,9.031499028205871582e-01,9.031499028205871582e-01,9.031499028205871582e-01,9.031499028205871582e-01,9.031499028205871582e-01,9.031499028205871582e-01,9.031499028205871582e-01,9.031499028205871582e-01,9.031499028205871582e-01,9.031499028205871582e-01,9.031499028205871582e-01,9.031499028205871582e-01,9.031499028205871582e-01,9.031499028205871582e-01,9.031499028205871582e-01,9.031499028205871582e-01,9.031499028205871582e-01,9.031499028205871582e-01,9.031499028205871582e-01,9.031499028205871582e-01,9.031550884246826172e-01,9.031817913055419922e-01,9.036990404129028320e-01,9.034671187400817871e-01,8.980219364166259766e-01,8.880082368850708008e-01,8.737570643424987793e-01,8.518321514129638672e-01,8.177509307861328125e-01,7.498238086700439453e-01,6.160662770271301270e-01,5.194391012191772461e-01,4.526391625404357910e-01,4.073015451431274414e-01,3.639606833457946777e-01,3.283478617668151855e-01,3.126566410064697266e-01,3.062857985496520996e-01,3.027870059013366699e-01,3.050720095634460449e-01,3.141312599182128906e-01,3.286827206611633301e-01,3.506693243980407715e-01,4.040302634239196777e-01,4.510887861251831055e-01,5.125592350959777832e-01,5.891763567924499512e-01,6.631562113761901855e-01,6.856724023818969727e-01,7.173581123352050781e-01,7.465798854827880859e-01,7.421808242797851562e-01,6.990680098533630371e-01,6.046612858772277832e-01
5.889571905136108398e-01,6.137148737907409668e-01,6.569470763206481934e-01,6.574050188064575195e-01,6.812242269515991211e-01,7.053260803222656250e-01,7.418447732925415039e-01,7.632300853729248047e-01,7.838405966758728027e-01,8.024209141731262207e-01,8.205609917640686035e-01,8.372574448585510254e-01,8.524585366249084473e-01,8.655393123626708984e-01,8.768959045410156250e-01,8.865475654602050781e-01,8.936623334884643555e-01,8.983408212661743164e-01,9.015564918518066406e-01,9.035388827323913574e-01,9.046004414558410645e-01,9.052473306655883789e-01,9.055244922637939453e-01,9.055815339088439941e-01,9.055951833724975586e-01,9.055936336517333984e-01,9.055932760238647461e-01,9.055932760238647461e-01,9.055932760238647461e-01,9.055932760238647461e-01,9.055932760238647461e-01,9.055932760238647461e-01,9.055932760238647461e-01,9.055932760238647461e-01,9.055932760238647461e-01,9.055932760238647461e-01,9.055932760238647461e-01,9.055932760238647461e-01,9.055932760238647461e-01,9.055932760238647461e-01,9.055932760238647461e-01,9.055932760238647461e-01,9.055932760238647461e-01,9.055932760238647461e-01,9.055932760238647461e-01,9.055932760238647461e-01,9.055969715118408203e-01,9.056190252304077148e-01,9.060726165771484375e-01,9.059757590293884277e-01,9.007745981216430664e-01,8.906654119491577148e-01,8.768136501312255859e-01,8.552458286285400391e-01,8.209122419357299805e-01,7.545417547225952148e-01,6.196237802505493164e-01,5.229899287223815918e-01,4.536441862583160400e-01,4.088387191295623779e-01,3.661038577556610107e-01,3.300333619117736816e-01,3.137112855911254883e-01,3.070453107357025146e-01,3.047362267971038818e-01,3.064265847206115723e-01,3.137686252593994141e-01,3.283818960189819336e-01,3.506186306476593018e-01,4.030495584011077881e-01,4.351082444190979004e-01,4.949852824211120605e-01,5.775750875473022461e-01,6.469432115554809570e-01,6.808845400810241699e-01,7.048670053482055664e-01,7.451634407043457031e-01,7.343825101852416992e-01,6.979755163192749023e-01,6.046272516250610352e-01
5.884755849838256836e-01,6.139588952064514160e-01,6.563300490379333496e-01,6.571227908134460449e-01,6.807243227958679199e-01,7.049869894981384277e-01,7.413080334663391113e-01,7.627377510070800781e-01,7.834835052490234375e-01,8.020343184471130371e-01,8.197854757308959961e-01,8.366064429283142090e-01,8.516544699668884277e-01,8.648965358734130859e-01,8.764173984527587891e-01,8.860180377960205078e-01,8.930647373199462891e-01,8.978267908096313477e-01,9.010757207870483398e-01,9.031782150268554688e-01,9.043441414833068848e-01,9.049906730651855469e-01,9.052336215972900391e-01,9.052965044975280762e-01,9.053112268447875977e-01,9.053096771240234375e-01,9.053092002868652344e-01,9.053092002868652344e-01,9.053092002868652344e-01,9.053092002868652344e-01,9.053092002868652344e-01,9.053092002868652344e-01,9.053092002868652344e-01,9.053092002868652344e-01,9.053092002868652344e-01,9.053092002868652344e-01,9.053092002868652344e-01,9.053092002868652344e-01,9.053092002868652344e-01,9.053092002868652344e-01,9.053092002868652344e-01,9.053092002868652344e-01,9.053092002868652344e-01,9.053092002868652344e-01,9.053092002868652344e-01,9.053092002868652344e-01,9.053132534027099609e-01,9.053351879119873047e-01,9.058527946472167969e-01,9.058190584182739258e-01,9.004949331283569336e-01,8.912241458892822266e-01,8.767706751823425293e-01,8.543407917022705078e-01,8.205417394638061523e-01,7.538424730300903320e-01,6.198266744613647461e-01,5.235792398452758789e-01,4.590001106262207031e-01,4.069834351539611816e-01,3.638922572135925293e-01,3.301987648010253906e-01,3.136118054389953613e-01,3.065156936645507812e-01,3.041974306106567383e-01,3.070554733276367188e-01,3.108874559402465820e-01,3.247201740741729736e-01,3.452065289020538330e-01,3.821407258510589600e-01,4.239823222160339355e-01,4.839095175266265869e-01,5.612332820892333984e-01,6.282313466072082520e-01,6.602083444595336914e-01,6.987144947052001953e-01,7.313505411148071289e-01,7.310202717781066895e-01,6.958355903625488281e-01,6.035443544387817383e-01
5.885009169578552246e-01,6.139473915100097656e-01,6.565032005310058594e-01,6.572769284248352051e-01,6.807762980461120605e-01,7.049934864044189453e-01,7.413729429244995117e-01,7.627726793289184570e-01,7.835444211959838867e-01,8.021683692932128906e-01,8.199282884597778320e-01,8.364086151123046875e-01,8.515360951423645020e-01,8.648511171340942383e-01,8.763725757598876953e-01,8.859378695487976074e-01,8.930210471153259277e-01,8.977286815643310547e-01,9.010208845138549805e-01,9.031491279602050781e-01,9.043530821800231934e-01,9.050096273422241211e-01,9.052693843841552734e-01,9.053225517272949219e-01,9.053357839584350586e-01,9.053343534469604492e-01,9.053338766098022461e-01,9.053338766098022461e-01,9.053338766098022461e-01,9.053338766098022461e-01,9.053338766098022461e-01,9.053338766098022461e-01,9.053338766098022461e-01,9.053338766098022461e-01,9.053338766098022461e-01,9.053338766098022461e-01,9.053338766098022461e-01,9.053338766098022461e-01,9.053338766098022461e-01,9.053338766098022461e-01,9.053338766098022461e-01,9.053338766098022461e-01,9.053338766098022461e-01,9.053338766098022461e-01,9.053338766098022461e-01,9.053338766098022461e-01,9.053382873535156250e-01,9.053598642349243164e-01,9.058536291122436523e-01,9.057344198226928711e-01,9.003646373748779297e-01,8.909382820129394531e-01,8.775658607482910156e-01,8.564814329147338867e-01,8.229858875274658203e-01,7.536767721176147461e-01,6.267207860946655273e-01,5.224214792251586914e-01,4.588085114955902100e-01,4.078080058097839355e-01,3.659486770629882812e-01,3.308727741241455078e-01,3.136255145072937012e-01,3.057786226272583008e-01,3.057734966278076172e-01,3.076212406158447266e-01,3.119124770164489746e-01,3.204718232154846191e-01,3.488161563873291016e-01,3.691243529319763184e-01,4.136653542518615723e-01,4.796962141990661621e-01,5.234820246696472168e-01,6.161640882492065430e-01,6.396068334579467773e-01,6.875002384185791016e-01,7.224307060241699219e-01,7.258747816085815430e-01,6.885869503021240234e-01,5.994140505790710449e-01
5.884799361228942871e-01,6.139103770256042480e-01,6.564772129058837891e-01,6.572369933128356934e-01,6.807455420494079590e-01,7.049636840820312500e-01,7.413285374641418457e-01,7.627426385879516602e-01,7.835162281990051270e-01,8.021467924118041992e-01,8.199394941329956055e-01,8.364349007606506348e-01,8.513952493667602539e-01,8.647885322570800781e-01,8.763928413391113281e-01,8.858844041824340820e-01,8.929585218429565430e-01,8.977018594741821289e-01,9.009693861007690430e-01,9.031196832656860352e-01,9.043424129486083984e-01,9.050059914588928223e-01,9.052579998970031738e-01,9.053188562393188477e-01,9.053307175636291504e-01,9.053287506103515625e-01,9.053283333778381348e-01,9.053283333778381348e-01,9.053283333778381348e-01,9.053283333778381348e-01,9.053283333778381348e-01,9.053283333778381348e-01,9.053283333778381348e-01,9.053283333778381348e-01,9.053283333778381348e-01,9.053283333778381348e-01,9.053283333778381348e-01,9.053283333778381348e-01,9.053283333778381348e-01,9.053283333778381348e-01,9.053283333778381348e-01,9.053283333778381348e-01,9.053283333778381348e-01,9.053283333778381348e-01,9.053283333778381348e-01,9.053283333778381348e-01,9.053331017494201660e-01,9.053533077239990234e-01,9.058973193168640137e-01,9.056144356727600098e-01,9.007244706153869629e-01,8.909580111503601074e-01,8.771815299987792969e-01,8.565436601638793945e-01,8.230388760566711426e-01,7.584077715873718262e-01,6.269577741622924805e-01,5.265590548515319824e-01,4.601775407791137695e-01,4.131703376770019531e-01,3.645724654197692871e-01,3.325388729572296143e-01,3.122237920761108398e-01,3.055260777473449707e-01,3.052176237106323242e-01,3.074733018875122070e-01,3.115130662918090820e-01,3.264219164848327637e-01,3.405550122261047363e-01,3.621156215667724609e-01,4.115381240844726562e-01,4.659993946552276611e-01,5.342550873756408691e-01,5.771086812019348145e-01,6.308577060699462891e-01,6.755648851394653320e-01,7.197854518890380859e-01,7.214986681938171387e-01,6.794060468673706055e-01,5.982972383499145508e-01
5.884730219841003418e-01,6.138989925384521484e-01,6.564638614654541016e-01,6.572213768959045410e-01,6.807279586791992188e-01,7.049438357353210449e-01,7.413120269775390625e-01,7.627188563346862793e-01,7.834943532943725586e-01,8.021340370178222656e-01,8.199259638786315918e-01,8.364292383193969727e-01,8.513957262039184570e-01,8.647275567054748535e-01,8.763757348060607910e-01,8.859140872955322266e-01,8.929373025894165039e-01,8.976856470108032227e-01,9.009733200073242188e-01,9.031087756156921387e-01,9.043349027633666992e-01,9.050054550170898438e-01,9.052593708038330078e-01,9.053182005882263184e-01,9.053307771682739258e-01,9.053288698196411133e-01,9.053283333778381348e-01,9.053283333778381348e-01,9.053283333778381348e-01,9.053283333778381348e-01,9.053283333778381348e-01,9.053283333778381348e-01,9.053283333778381348e-01,9.053283333778381348e-01,9.053283333778381348e-01,9.053283333778381348e-01,9.053283333778381348e-01,9.053283333778381348e-01,9.053283333778381348e-01,9.053283333778381348e-01,9.053283333778381348e-01,9.053283333778381348e-01,9.053283333778381348e-01,9.053283333778381348e-01,9.053283333778381348e-01,9.053283333778381348e-01,9.053338766098022461e-01,9.053617715835571289e-01,9.058865308761596680e-01,9.057943820953369141e-01,9.005513787269592285e-01,8.915591835975646973e-01,8.781198263168334961e-01,8.582108020782470703e-01,8.250501155853271484e-01,7.570744752883911133e-01,6.328099966049194336e-01,5.358713269233703613e-01,4.694893062114715576e-01,4.208363890647888184e-01,3.721377849578857422e-01,3.308030962944030762e-01,3.156227469444274902e-01,3.068796992301940918e-01,3.071556091308593750e-01,3.097731471061706543e-01,3.158888518810272217e-01,3.292929530143737793e-01,3.445069193840026855e-01,3.675189614295959473e-01,4.156436920166015625e-01,4.738366901874542236e-01,5.206896662712097168e-01,5.828698873519897461e-01,6.053218245506286621e-01,6.629444956779479980e-01,7.131900787353515625e-01,7.142283916473388672e-01,6.789467930793762207e-01,5.898919701576232910e-01
5.884660482406616211e-01,6.138878464698791504e-01,6.564507484436035156e-01,6.572061777114868164e-01,6.807110309600830078e-01,7.049260735511779785e-01,7.412931919097900391e-01,7.627016305923461914e-01,7.834746837615966797e-01,8.021134734153747559e-01,8.199127316474914551e-01,8.364163637161254883e-01,8.513841629028320312e-01,8.647171258926391602e-01,8.763564825057983398e-01,8.859024047851562500e-01,8.929392099380493164e-01,8.976821899414062500e-01,9.009668827056884766e-01,9.031096696853637695e-01,9.043335914611816406e-01,9.050044417381286621e-01,9.052593708038330078e-01,9.053182601928710938e-01,9.053307175636291504e-01,9.053288698196411133e-01,9.053283333778381348e-01,9.053283333778381348e-01,9.053283333778381348e-01,9.053283333778381348e-01,9.053283333778381348e-01,9.053283333778381348e-01,9.053283333778381348e-01,9.053283333778381348e-01,9.053283333778381348e-01,9.053283333778381348e-01,9.053283333778381348e-01,9.053283333778381348e-01,9.053283333778381348e-01,9.053283333778381348e-01,9.053283333778381348e-01,9.053283333778381348e-01,9.053283333778381348e-01,9.053283333778381348e-01,9.053283333778381348e-01,9.053283333778381348e-01,9.053359031677246094e-01,9.053606986999511719e-01,9.058675169944763184e-01,9.057042598724365234e-01,9.006390571594238281e-01,8.911299705505371094e-01,8.794238567352294922e-01,8.598061800003051758e-01,8.299546241760253906e-01,7.668297290802001953e-01,6.376002430915832520e-01,5.452824831008911133e-01,4.864408075809478760e-01,4.217410683631896973e-01,3.751891255378723145e-01,3.332468271255493164e-01,3.209310173988342285e-01,3.075626194477081299e-01,3.053687810897827148e-01,3.140232861042022705e-01,3.220107257366180420e-01,3.363473415374755859e-01,3.414136171340942383e-01,3.757445812225341797e-01,4.134875833988189697e-01,4.925696253776550293e-01,5.293551087379455566e-01,6.029515266418457031e-01,6.055681705474853516e-01,6.365792751312255859e-01,7.036725282669067383e-01,7.182168960571289062e-01,6.783552169799804688e-01,5.895438194274902344e-01
5.884591341018676758e-01,6.138765811920166016e-01,6.564377546310424805e-01,6.571910977363586426e-01,6.806942224502563477e-01,7.049085497856140137e-01,7.412753701210021973e-01,7.626835107803344727e-01,7.834571599960327148e-01,8.020956516265869141e-01,8.198955059051513672e-01,8.364017009735107422e-01,8.513697385787963867e-01,8.647045493125915527e-01,8.763456344604492188e-01,8.858937025070190430e-01,8.929319381713867188e-01,8.976775407791137695e-01,9.009641408920288086e-01,9.031084775924682617e-01,9.043331146240234375e-01,9.050039649009704590e-01,9.052593708038330078e-01,9.053181409835815430e-01,9.053306579589843750e-01,9.053288698196411133e-01,9.053283333778381348e-01,9.053283333778381348e-01,9.053283333778381348e-01,9.053283333778381348e-01,9.053283333778381348e-01,9.053283333778381348e-01,9.053283333778381348e-01,9.053283333778381348e-01,9.053283333778381348e-01,9.053283333778381348e-01,9.053283333778381348e-01,9.053283333778381348e-01,9.053283333778381348e-01,9.053283333778381348e-01,9.053283333778381348e-01,9.053283333778381348e-01,9.053283333778381348e-01,9.053283333778381348e-01,9.053283333778381348e-01,9.053283333778381348e-01,9.053341150283813477e-01,9.053598642349243164e-01,9.056545495986938477e-01,9.057416915893554688e-01,9.010193943977355957e-01,8.924731016159057617e-01,8.822625875473022461e-01,8.642280101776123047e-01,8.360414505004882812e-01,7.696135044097900391e-01,6.384599804878234863e-01,5.486007928848266602e-01,5.014055371284484863e-01,4.389942884445190430e-01,3.810647428035736084e-01,3.433410823345184326e-01,3.212850093841552734e-01,3.135203123092651367e-01,3.057444691658020020e-01,3.126237690448760986e-01,3.222066760063171387e-01,3.407452702522277832e-01,3.499637246131896973e-01,3.795471787452697754e-01,4.410619437694549561e-01,5.057063698768615723e-01,5.553961992263793945e-01,5.850209593772888184e-01,6.347903013229370117e-01,6.515994071960449219e-01,7.014378309249877930e-01,7.169293761253356934e-01,6.877458095550537109e-01,5.847221612930297852e-01
5.884522795677185059e-01,6.138656139373779297e-01,6.564251184463500977e-01,6.571759581565856934e-01,6.806777119636535645e-01,7.048916816711425781e-01,7.412581443786621094e-01,7.626662850379943848e-01,7.834396362304687500e-01,8.020782470703125000e-01,8.198789358139038086e-01,8.363860845565795898e-01,8.513556718826293945e-01,8.646917343139648438e-01,8.763345479965209961e-01,8.858850002288818359e-01,8.929257392883300781e-01,8.976734876632690430e-01,9.009613394737243652e-01,9.031069278717041016e-01,9.043320417404174805e-01,9.050033688545227051e-01,9.052592515945434570e-01,9.053180217742919922e-01,9.053307175636291504e-01,9.053288698196411133e-01,9.053283333778381348e-01,9.053283333778381348e-01,9.053283333778381348e-01,9.053283333778381348e-01,9.053283333778381348e-01,9.053283333778381348e-01,9.053283333778381348e-01,9.053283333778381348e-01,9.053283333778381348e-01,9.053283333778381348e-01,9.053283333778381348e-01,9.053283333778381348e-01,9.053283333778381348e-01,9.053283333778381348e-01,9.053283333778381348e-01,9.053283333778381348e-01,9.053283333778381348e-01,9.053283333778381348e-01,9.053283333778381348e-01,9.053283333778381348e-01,9.053321480751037598e-01,9.053430557250976562e-01,9.055974483489990234e-01,9.057793617248535156e-01,9.017350077629089355e-01,8.945078849792480469e-01,8.843873143196105957e-01,8.684947490692138672e-01,8.435282707214355469e-01,7.749589681625366211e-01,6.692044734954833984e-01,5.660450458526611328e-01,5.320721864700317383e-01,4.665229320526123047e-01,3.983161747455596924e-01,3.532818555831909180e-01,3.252108097076416016e-01,3.167822062969207764e-01,3.058100640773773193e-01,3.169099092483520508e-01,3.312313556671142578e-01,3.429419398307800293e-01,3.485741019248962402e-01,3.897615671157836914e-01,4.531479179859161377e-01,5.399162769317626953e-01,5.713863968849182129e-01,6.174207925796508789e-01,6.510350108146667480e-01,6.854534745216369629e-01,7.056903839111328125e-01,7.184987068176269531e-01,6.856619715690612793e-01,5.886263251304626465e-01
5.884456634521484375e-01,6.138548254966735840e-01,6.564121842384338379e-01,6.571612954139709473e-01,6.806614995002746582e-01,7.048747539520263672e-01,7.412413358688354492e-01,7.626491785049438477e-01,7.834227681159973145e-01,8.020613193511962891e-01,8.198627233505249023e-01,8.363709449768066406e-01,8.513416647911071777e-01,8.646795749664306641e-01,8.763236403465270996e-01,8.858764171600341797e-01,8.929198980331420898e-01,8.976693153381347656e-01,9.009582996368408203e-01,9.031051397323608398e-01,9.043312072753906250e-01,9.050028920173645020e-01,9.052590131759643555e-01,9.053180217742919922e-01,9.053307175636291504e-01,9.053288698196411133e-01,9.053283333778381348e-01,9.053283333778381348e-01,9.053283333778381348e-01,9.053283333778381348e-01,9.053283333778381348e-01,9.053283333778381348e-01,9.053283333778381348e-01,9.053283333778381348e-01,9.053283333778381348e-01,9.053283333778381348e-01,9.053283333778381348e-01,9.053283333778381348e-01,9.053283333778381348e-01,9.053283333778381348e-01,9.053283333778381348e-01,9.053283333778381348e-01,9.053283333778381348e-01,9.053283333778381348e-01,9.053283333778381348e-01,9.053283333778381348e-01,9.053276777267456055e-01,9.053357839584350586e-01,9.056271910667419434e-01,9.060895442962646484e-01,9.021685123443603516e-01,8.973920345306396484e-01,8.871732950210571289e-01,8.775863647460937500e-01,8.509894609451293945e-01,7.885142564773559570e-01,6.959177255630493164e-01,6.020217537879943848e-01,5.664529800415039062e-01,4.907487630844116211e-01,4.346207380294799805e-01,3.679021000862121582e-01,3.456061482429504395e-01,3.326522707939147949e-01,3.176665306091308594e-01,3.295226693153381348e-01,3.322095274925231934e-01,3.480254411697387695e-01,3.585286140441894531e-01,4.024737477302551270e-01,4.553128778934478760e-01,5.624576807022094727e-01,6.180971860885620117e-01,6.281400918960571289e-01,6.586684584617614746e-01,6.996442675590515137e-01,7.328763008117675781e-01,7.227722406387329102e-01,6.983469724655151367e-01,5.968111753463745117e-01
5.884394645690917969e-01,6.138446331024169922e-01,6.564001441001892090e-01,6.571468114852905273e-01,6.806455850601196289e-01,7.048584222793579102e-01,7.412247061729431152e-01,7.626325488090515137e-01,7.834060192108154297e-01,8.020448684692382812e-01,8.198468685150146484e-01,8.363562822341918945e-01,8.513282537460327148e-01,8.646670579910278320e-01,8.763127923011779785e-01,8.858677148818969727e-01,8.929137587547302246e-01,8.976655602455139160e-01,9.009553194046020508e-01,9.031034708023071289e-01,9.043302536010742188e-01,9.050021171569824219e-01,9.052590131759643555e-01,9.053179025650024414e-01,9.053307175636291504e-01,9.053288698196411133e-01,9.053283333778381348e-01,9.053283333778381348e-01,9.053283333778381348e-01,9.053283333778381348e-01,9.053283333778381348e-01,9.053283333778381348e-01,9.053283333778381348e-01,9.053283333778381348e-01,9.053283333778381348e-01,9.053283333778381348e-01,9.053283333778381348e-01,9.053283333778381348e-01,9.053283333778381348e-01,9.053283333778381348e-01,9.053283333778381348e-01,9.053283333778381348e-01,9.053283333778381348e-01,9.053283333778381348e-01,9.053283333778381348e-01,9.053283333778381348e-01,9.053231477737426758e-01,9.053246974945068359e-01,9.056854844093322754e-01,9.062723517417907715e-01,9.036879539489746094e-01,8.980081081390380859e-01,8.936172723770141602e-01,8.829807639122009277e-01,8.582677245140075684e-01,8.084666728973388672e-01,7.250689268112182617e-01,6.637225151062011719e-01,6.037359833717346191e-01,5.454712510108947754e-01,4.725598692893981934e-01,4.027632474899291992e-01,3.563252091407775879e-01,3.465119600296020508e-01,3.352550864219665527e-01,3.337100744247436523e-01,3.432583808898925781e-01,3.455654382705688477e-01,3.799942135810852051e-01,4.250649213790893555e-01,4.668608903884887695e-01,5.380689501762390137e-01,6.560094356536865234e-01,6.733418107032775879e-01,6.718800663948059082e-01,7.054380178451538086e-01,7.469668388366699219e-01,7.372983694076538086e-01,6.993290781974792480e-01,6.088305711746215820e-01
5.884341001510620117e-01,6.138352155685424805e-01,6.563887596130371094e-01,6.571330428123474121e-01,6.806302070617675781e-01,7.048425078392028809e-01,7.412085533142089844e-01,7.626163959503173828e-01,7.833898067474365234e-01,8.020285367965698242e-01,8.198315501213073730e-01,8.363417387008666992e-01,8.513150215148925781e-01,8.646551370620727539e-01,8.763024806976318359e-01,8.858593702316284180e-01,8.929078578948974609e-01,8.976615071296691895e-01,9.009525775909423828e-01,9.031016230583190918e-01,9.043291807174682617e-01,9.050018787384033203e-01,9.052588939666748047e-01,9.053179025650024414e-01,9.053307771682739258e-01,9.053288698196411133e-01,9.053283333778381348e-01,9.053283333778381348e-01,9.053283333778381348e-01,9.053283333778381348e-01,9.053283333778381348e-01,9.053283333778381348e-01,9.053283333778381348e-01,9.053283333778381348e-01,9.053283333778381348e-01,9.053283333778381348e-01,9.053283333778381348e-01,9.053283333778381348e-01,9.053283333778381348e-01,9.053283333778381348e-01,9.053283333778381348e-01,9.053283333778381348e-01,9.053283333778381348e-01,9.053283333778381348e-01,9.053283333778381348e-01,9.053283333778381348e-01,9.053221344947814941e-01,9.053275585174560547e-01,9.058780074119567871e-01,9.068733453750610352e-01,9.038445353507995605e-01,8.999954462051391602e-01,8.990681171417236328e-01,8.904497623443603516e-01,8.693696260452270508e-01,8.319777846336364746e-01,7.615597248077392578e-01,7.217056751251220703e-01,6.707774400711059570e-01,6.042242646217346191e-01,4.985538721084594727e-01,4.370257556438446045e-01,3.857150673866271973e-01,3.726513385772705078e-01,3.453643918037414551e-01,3.492439985275268555e-01,3.494279384613037109e-01,3.692707419395446777e-01,3.917766809463500977e-01,4.306527078151702881e-01,4.822647869586944580e-01,5.640295147895812988e-01,6.479060649871826172e-01,7.010253667831420898e-01,6.817725300788879395e-01,7.153736352920532227e-01,7.485781908035278320e-01,7.443277835845947266e-01,7.046716809272766113e-01,6.152453422546386719e-01
5.884290933609008789e-01,6.138268709182739258e-01,6.563788652420043945e-01,6.571209430694580078e-01,6.806160807609558105e-01,7.048274874687194824e-01,7.411931157112121582e-01,7.626007795333862305e-01,7.833739519119262695e-01,8.020129203796386719e-01,8.198163509368896484e-01,8.363279104232788086e-01,8.513022661209106445e-01,8.646437525749206543e-01,8.762923479080200195e-01,8.858512639999389648e-01,8.929022550582885742e-01,8.976577520370483398e-01,9.009497165679931641e-01,9.031001329421997070e-01,9.043283462524414062e-01,9.050012826919555664e-01,9.052588939666748047e-01,9.053179025650024414e-01,9.053307771682739258e-01,9.053288698196411133e-01,9.053283333778381348e-01,9.053283333778381348e-01,9.053283333778381348e-01,9.053283333778381348e-01,9.053283333778381348e-01,9.053283333778381348e-01,9.053283333778381348e-01,9.053283333778381348e-01,9.053283333778381348e-01,9.053283333778381348e-01,9.053283333778381348e-01,9.053283333778381348e-01,9.053283333778381348e-01,9.053283333778381348e-01,9.053283333778381348e-01,9.053283333778381348e-01,9.053283333778381348e-01,9.053283333778381348e-01,9.053283333778381348e-01,9.053283333778381348e-01,9.053251147270202637e-01,9.053192138671875000e-01,9.058822393417358398e-01,9.064913988113403320e-01,9.028574228286743164e-01,9.015856981277465820e-01,9.029166698455810547e-01,8.956360220909118652e-01,8.799293041229248047e-01,8.540654778480529785e-01,8.104948997497558594e-01,7.687088251113891602e-01,7.306555509567260742e-01,6.467391252517700195e-01,5.362330079078674316e-01,4.624506831169128418e-01,4.169203042984008789e-01,3.909984529018402100e-01,3.705282211303710938e-01,3.553640842437744141e-01,3.544831275939941406e-01,3.620184659957885742e-01,4.142026901245117188e-01,4.445889592170715332e-01,4.922314584255218506e-01,5.670626163482666016e-01,6.508358716964721680e-01,6.984413862228393555e-01,7.160046100616455078e-01,7.244445681571960449e-01,7.538247108459472656e-01,7.417194843292236328e-01,7.036913633346557617e-01,6.135451793670654297e-01
5.884245634078979492e-01,6.138193607330322266e-01,6.563695669174194336e-01,6.571102142333984375e-01,6.806036233901977539e-01,7.048144340515136719e-01,7.411792278289794922e-01,7.625862360000610352e-01,7.833589911460876465e-01,8.019978404045104980e-01,8.198020458221435547e-01,8.363146185874938965e-01,8.512898683547973633e-01,8.646326065063476562e-01,8.762823343276977539e-01,8.858432769775390625e-01,8.928965330123901367e-01,8.976540565490722656e-01,9.009470939636230469e-01,9.030987620353698730e-01,9.043276309967041016e-01,9.050009250640869141e-01,9.052587747573852539e-01,9.053179025650024414e-01,9.053307771682739258e-01,9.053288698196411133e-01,9.053283333778381348e-01,9.053283333778381348e-01,9.053283333778381348e-01,9.053283333778381348e-01,9.053283333778381348e-01,9.053283333778381348e-01,9.053283333778381348e-01,9.053283333778381348e-01,9.053283333778381348e-01,9.053283333778381348e-01,9.053283333778381348e-01,9.053283333778381348e-01,9.053283333778381348e-01,9.053283333778381348e-01,9.053283333778381348e-01,9.053283333778381348e-01,9.053283333778381348e-01,9.053283333778381348e-01,9.053283333778381348e-01,9.053283333778381348e-01,9.053292274475097656e-01,9.053089618682861328e-01,9.057980179786682129e-01,9.058638811111450195e-01,9.033461213111877441e-01,9.034289121627807617e-01,9.054914712905883789e-01,8.991888165473937988e-01,8.919587135314941406e-01,8.745049834251403809e-01,8.337261676788330078e-01,8.010185956954956055e-01,7.586706280708312988e-01,6.991686820983886719e-01,5.818256139755249023e-01,4.932996928691864014e-01,4.476391971111297607e-01,4.071553945541381836e-01,4.060780405998229980e-01,3.582554757595062256e-01,3.584867417812347412e-01,3.766396343708038330e-01,4.243462979793548584e-01,4.380967020988464355e-01,5.018672347068786621e-01,5.859966278076171875e-01,6.533927321434020996e-01,6.936352252960205078e-01,7.186911106109619141e-01,7.402550578117370605e-01,7.478376030921936035e-01,7.457159757614135742e-01,7.034591436386108398e-01,6.125209927558898926e-01
5.884202122688293457e-01,6.138122081756591797e-01,6.563609242439270020e-01,6.571001410484313965e-01,6.805927157402038574e-01,7.048029303550720215e-01,7.411670684814453125e-01,7.625734806060791016e-01,7.833455801010131836e-01,8.019839525222778320e-01,8.197885751724243164e-01,8.363015651702880859e-01,8.512780666351318359e-01,8.646219968795776367e-01,8.762730360031127930e-01,8.858356475830078125e-01,8.928911685943603516e-01,8.976505994796752930e-01,9.009444117546081543e-01,9.030971527099609375e-01,9.043266773223876953e-01,9.050005078315734863e-01,9.052586555480957031e-01,9.053179025650024414e-01,9.053307771682739258e-01,9.053288698196411133e-01,9.053283333778381348e-01,9.053283333778381348e-01,9.053283333778381348e-01,9.053283333778381348e-01,9.053283333778381348e-01,9.053283333778381348e-01,9.053283333778381348e-01,9.053283333778381348e-01,9.053283333778381348e-01,9.053283333778381348e-01,9.053283333778381348e-01,9.053283333778381348e-01,9.053283333778381348e-01,9.053283333778381348e-01,9.053283333778381348e-01,9.053283333778381348e-01,9.053283333778381348e-01,9.053283333778381348e-01,9.053283333778381348e-01,9.053283333778381348e-01,9.053250551223754883e-01,9.053003191947937012e-01,9.056479930877685547e-01,9.054049253463745117e-01,9.044288396835327148e-01,9.054135084152221680e-01,9.072407484054565430e-01,9.021434187889099121e-01,8.938452601432800293e-01,8.803048133850097656e-01,8.530602455139160156e-01,8.303492069244384766e-01,7.935373783111572266e-01,7.408646345138549805e-01,6.355499029159545898e-01,5.278047919273376465e-01,4.724412560462951660e-01,4.176826477050781250e-01,3.920686244964599609e-01,3.836435675621032715e-01,3.664978742599487305e-01,3.921591937541961670e-01,4.217099249362945557e-01,4.544413983821868896e-01,5.154940485954284668e-01,5.920915007591247559e-01,6.556171774864196777e-01,7.057135701179504395e-01,7.257370948791503906e-01,7.356578111648559570e-01,7.587307095527648926e-01,7.539908289909362793e-01,7.097343802452087402e-01,6.101779341697692871e-01
5.884155035018920898e-01,6.138048171997070312e-01,6.563527584075927734e-01,6.570911407470703125e-01,6.805825233459472656e-01,7.047922611236572266e-01,7.411560416221618652e-01,7.625623941421508789e-01,7.833340167999267578e-01,8.019717931747436523e-01,8.197765350341796875e-01,8.362900018692016602e-01,8.512669801712036133e-01,8.646119832992553711e-01,8.762642145156860352e-01,8.858286142349243164e-01,8.928862810134887695e-01,8.976473212242126465e-01,9.009419083595275879e-01,9.030956029891967773e-01,9.043258428573608398e-01,9.050000905990600586e-01,9.052585363388061523e-01,9.053179025650024414e-01,9.053307771682739258e-01,9.053288698196411133e-01,9.053283333778381348e-01,9.053283333778381348e-01,9.053283333778381348e-01,9.053283333778381348e-01,9.053283333778381348e-01,9.053283333778381348e-01,9.053283333778381348e-01,9.053283333778381348e-01,9.053283333778381348e-01,9.053283333778381348e-01,9.053283333778381348e-01,9.053283333778381348e-01,9.053283333778381348e-01,9.053283333778381348e-01,9.053283333778381348e-01,9.053283333778381348e-01,9.053283333778381348e-01,9.053283333778381348e-01,9.053283333778381348e-01,9.053283333778381348e-01,9.053227305412292480e-01,9.053037762641906738e-01,9.053496122360229492e-01,9.055110216140747070e-01,9.052462577819824219e-01,9.064751267433166504e-01,9.076150059700012207e-01,9.025866389274597168e-01,8.975466489791870117e-01,8.826119899749755859e-01,8.748029470443725586e-01,8.422322273254394531e-01,8.181752562522888184e-01,7.548269033432006836e-01,6.578087806701660156e-01,5.469748973846435547e-01,4.834543168544769287e-01,4.368047714233398438e-01,3.980965614318847656e-01,4.050458073616027832e-01,3.962037861347198486e-01,3.961744308471679688e-01,4.090218245983123779e-01,4.743304848670959473e-01,5.341808795928955078e-01,6.020001769065856934e-01,6.672151088714599609e-01,7.244918346405029297e-01,7.349617481231689453e-01,7.418957948684692383e-01,7.632999420166015625e-01,7.607266306877136230e-01,7.139292955398559570e-01,6.143661141395568848e-01
5.884101986885070801e-01,6.137967705726623535e-01,6.563442349433898926e-01,6.570810079574584961e-01,6.805719733238220215e-01,7.047818899154663086e-01,7.411456704139709473e-01,7.625519037246704102e-01,7.833234071731567383e-01,8.019613027572631836e-01,8.197660446166992188e-01,8.362797498703002930e-01,8.512569665908813477e-01,8.646026849746704102e-01,8.762557506561279297e-01,8.858219981193542480e-01,8.928813934326171875e-01,8.976441621780395508e-01,9.009397029876708984e-01,9.030944108963012695e-01,9.043250083923339844e-01,9.049996137619018555e-01,9.052584171295166016e-01,9.053179025650024414e-01,9.053307771682739258e-01,9.053288698196411133e-01,9.053283333778381348e-01,9.053283333778381348e-01,9.053283333778381348e-01,9.053283333778381348e-01,9.053283333778381348e-01,9.053283333778381348e-01,9.053283333778381348e-01,9.053283333778381348e-01,9.053283333778381348e-01,9.053283333778381348e-01,9.053283333778381348e-01,9.053283333778381348e-01,9.053283333778381348e-01,9.053283333778381348e-01,9.053283333778381348e-01,9.053283333778381348e-01,9.053283333778381348e-01,9.053283333778381348e-01,9.053283333778381348e-01,9.053283333778381348e-01,9.053274989128112793e-01,9.052945375442504883e-01,9.052475690841674805e-01,9.056473970413208008e-01,9.057978391647338867e-01,9.065823554992675781e-01,9.057970046997070312e-01,9.049622416496276855e-01,8.987684249877929688e-01,8.855588436126708984e-01,8.767222762107849121e-01,8.535782098770141602e-01,8.296723961830139160e-01,7.847087979316711426e-01,6.724217534065246582e-01,5.666423439979553223e-01,5.000954270362854004e-01,4.499820470809936523e-01,4.084888100624084473e-01,4.088090062141418457e-01,4.134795665740966797e-01,3.995116055011749268e-01,4.245737791061401367e-01,5.034114122390747070e-01,5.747326016426086426e-01,6.195492148399353027e-01,6.995772719383239746e-01,7.470142841339111328e-01,7.450893521308898926e-01,7.533136606216430664e-01,7.776768803596496582e-01,7.665694952011108398e-01,7.182814478874206543e-01,6.141180396080017090e-01
5.884048342704772949e-01,6.137881875038146973e-01,6.563344001770019531e-01,6.570700407028198242e-01,6.805606484413146973e-01,7.047704458236694336e-01,7.411347627639770508e-01,7.625414133071899414e-01,7.833135128021240234e-01,8.019509315490722656e-01,8.197560310363769531e-01,8.362702131271362305e-01,8.512476086616516113e-01,8.645938634872436523e-01,8.762478828430175781e-01,8.858155012130737305e-01,8.928761482238769531e-01,8.976399898529052734e-01,9.009364843368530273e-01,9.030916690826416016e-01,9.043227434158325195e-01,9.049974679946899414e-01,9.052566289901733398e-01,9.053159356117248535e-01,9.053288698196411133e-01,9.053270220756530762e-01,9.053264856338500977e-01,9.053264856338500977e-01,9.053264856338500977e-01,9.053264856338500977e-01,9.053264856338500977e-01,9.053264856338500977e-01,9.053264856338500977e-01,9.053264856338500977e-01,9.053264260292053223e-01,9.053264260292053223e-01,9.053263664245605469e-01,9.053264260292053223e-01,9.053263664245605469e-01,9.053263664245605469e-01,9.053263664245605469e-01,9.053263664245605469e-01,9.053262472152709961e-01,9.053262472152709961e-01,9.053262472152709961e-01,9.053262472152709961e-01,9.053237438201904297e-01,9.053038358688354492e-01,9.052780866622924805e-01,9.054288864135742188e-01,9.058041572570800781e-01,9.057739973068237305e-01,9.056171178817749023e-01,9.057637453079223633e-01,9.003081321716308594e-01,8.908555507659912109e-01,8.820732831954956055e-01,8.598277568817138672e-01,8.312025666236877441e-01,7.823047041893005371e-01,6.773115396499633789e-01,5.608643889427185059e-01,4.934922754764556885e-01,4.632743000984191895e-01,4.194480776786804199e-01,4.373226463794708252e-01,4.346677660942077637e-01,4.311224520206451416e-01,4.591521620750427246e-01,5.362703800201416016e-01,6.140213608741760254e-01,6.618037819862365723e-01,7.285962700843811035e-01,7.619298696517944336e-01,7.619447112083435059e-01,7.691332101821899414e-01,7.873597145080566406e-01,7.695772647857666016e-01,7.211309671401977539e-01,6.152799725532531738e-01
5.883989930152893066e-01,6.137785315513610840e-01,6.563233137130737305e-01,6.570568680763244629e-01,6.805452704429626465e-01,7.047541141510009766e-01,7.411183714866638184e-01,7.625250816345214844e-01,7.832969427108764648e-01,8.019347190856933594e-01,8.197407126426696777e-01,8.362548351287841797e-01,8.512322902679443359e-01,8.645796775817871094e-01,8.762348890304565430e-01,8.858036994934082031e-01,8.928658962249755859e-01,8.976315259933471680e-01,9.009283185005187988e-01,9.030839800834655762e-01,9.043152332305908203e-01,9.049903154373168945e-01,9.052499532699584961e-01,9.053096771240234375e-01,9.053227901458740234e-01,9.053210020065307617e-01,9.053205251693725586e-01,9.053205251693725586e-01,9.053205847740173340e-01,9.053205847740173340e-01,9.053205847740173340e-01,9.053206443786621094e-01,9.053206443786621094e-01,9.053207635879516602e-01,9.053207635879516602e-01,9.053207635879516602e-01,9.053208827972412109e-01,9.053209424018859863e-01,9.053209424018859863e-01,9.053209424018859863e-01,9.053210616111755371e-01,9.053211212158203125e-01,9.053211212158203125e-01,9.053211212158203125e-01,9.053212404251098633e-01,9.053212404251098633e-01,9.053215980529785156e-01,9.053126573562622070e-01,9.053239226341247559e-01,9.053747653961181641e-01,9.055480957031250000e-01,9.054642319679260254e-01,9.055240750312805176e-01,9.058427810668945312e-01,9.021302461624145508e-01,8.929830789566040039e-01,8.794687390327453613e-01,8.602429628372192383e-01,8.293953537940979004e-01,7.825102210044860840e-01,6.859415173530578613e-01,5.690314173698425293e-01,4.951637983322143555e-01,4.606274366378784180e-01,4.552025794982910156e-01,4.366811811923980713e-01,4.260213971138000488e-01,4.528234601020812988e-01,5.092493295669555664e-01,5.948946475982666016e-01,6.371570825576782227e-01,7.163869738578796387e-01,7.581758499145507812e-01,7.776055335998535156e-01,7.738969326019287109e-01,7.827962636947631836e-01,7.949158549308776855e-01,7.735354900360107422e-01,7.218284606933593750e-01,6.158895492553710938e-01
5.883882641792297363e-01,6.137648820877075195e-01,6.563072800636291504e-01,6.570429801940917969e-01,6.805317401885986328e-01,7.047393321990966797e-01,7.411051392555236816e-01,7.625174522399902344e-01,7.832963466644287109e-01,8.019421100616455078e-01,8.197585344314575195e-01,8.362863063812255859e-01,8.512829542160034180e-01,8.646473884582519531e-01,8.763045072555541992e-01,8.858631849288940430e-01,8.929134607315063477e-01,8.976703882217407227e-01,9.009686708450317383e-01,9.031347036361694336e-01,9.043724536895751953e-01,9.050531387329101562e-01,9.053155183792114258e-01,9.053769111633300781e-01,9.053903818130493164e-01,9.053887128829956055e-01,9.053885936737060547e-01,9.053888320922851562e-01,9.053890705108642578e-01,9.053894281387329102e-01,9.053896665573120117e-01,9.053899049758911133e-01,9.053901433944702148e-01,9.053905010223388672e-01,9.053907394409179688e-01,9.053911566734313965e-01,9.053912758827209473e-01,9.053915143013000488e-01,9.053918123245239258e-01,9.053920507431030273e-01,9.053922891616821289e-01,9.053925871849060059e-01,9.053927659988403320e-01,9.053931236267089844e-01,9.053934812545776367e-01,9.053937196731567383e-01,9.053940773010253906e-01,9.053902626037597656e-01,9.053616523742675781e-01,9.054398536682128906e-01,9.052802920341491699e-01,9.052256345748901367e-01,9.052611589431762695e-01,9.064199924468994141e-01,9.038335084915161133e-01,8.963763713836669922e-01,8.799164295196533203e-01,8.679075837135314941e-01,8.284252882003784180e-01,7.760390639305114746e-01,6.889622211456298828e-01,5.632326006889343262e-01,5.010437965393066406e-01,4.707693159580230713e-01,4.729294478893280029e-01,4.343114793300628662e-01,4.480477273464202881e-01,4.999808073043823242e-01,5.727348327636718750e-01,6.178198456764221191e-01,6.951613426208496094e-01,7.537744045257568359e-01,7.839283943176269531e-01,7.943300008773803711e-01,7.969591617584228516e-01,7.948924899101257324e-01,7.952587604522705078e-01,7.754883766174316406e-01,7.208580374717712402e-01,6.166983246803283691e-01
5.883949398994445801e-01,6.137734651565551758e-01,6.563140153884887695e-01,6.570609807968139648e-01,6.805604100227355957e-01,7.048008441925048828e-01,7.412180900573730469e-01,7.626785635948181152e-01,7.834838628768920898e-01,8.021420240402221680e-01,8.199604749679565430e-01,8.364858031272888184e-01,8.514600992202758789e-01,8.647926449775695801e-01,8.764213919639587402e-01,8.859448432922363281e-01,8.929834365844726562e-01,8.977724909782409668e-01,9.010932445526123047e-01,9.032582044601440430e-01,9.044927954673767090e-01,9.051686525344848633e-01,9.054247140884399414e-01,9.054827690124511719e-01,9.054937362670898438e-01,9.054912328720092773e-01,9.054898023605346680e-01,9.054889678955078125e-01,9.054881334304809570e-01,9.054871797561645508e-01,9.054863452911376953e-01,9.054855108261108398e-01,9.054846763610839844e-01,9.054837226867675781e-01,9.054828882217407227e-01,9.054820537567138672e-01,9.054811000823974609e-01,9.054803252220153809e-01,9.054794311523437500e-01,9.054785966873168945e-01,9.054777622222900391e-01,9.054768681526184082e-01,9.054759740829467773e-01,9.054751396179199219e-01,9.054743051528930664e-01,9.054733514785766602e-01,9.054733514785766602e-01,9.054709672927856445e-01,9.054663181304931641e-01,9.054553508758544922e-01,9.054396152496337891e-01,9.054880142211914062e-01,9.055049419403076172e-01,9.065250158309936523e-01,9.042243957519531250e-01,8.947192430496215820e-01,8.814855217933654785e-01,8.673220872879028320e-01,8.289761543273925781e-01,7.790402173995971680e-01,6.988776922225952148e-01,5.762214660644531250e-01,5.096008777618408203e-01,4.922109544277191162e-01,4.810788929462432861e-01,4.560739398002624512e-01,4.838914573192596436e-01,5.296885967254638672e-01,6.288476586341857910e-01,6.766818761825561523e-01,7.458491325378417969e-01,7.858836054801940918e-01,8.049576878547668457e-01,8.178737759590148926e-01,8.076632022857666016e-01,7.994572520256042480e-01,7.976861596107482910e-01,7.757166624069213867e-01,7.230312824249267578e-01,6.168257594108581543e-01
5.885775089263916016e-01,6.139508485794067383e-01,6.565674543380737305e-01,6.573173403739929199e-01,6.808092594146728516e-01,7.049657702445983887e-01,7.413064241409301758e-01,7.626910209655761719e-01,7.833569645881652832e-01,8.018845319747924805e-01,8.195856809616088867e-01,8.359761834144592285e-01,8.508598804473876953e-01,8.641107678413391113e-01,8.756405711174011230e-01,8.851382136344909668e-01,8.922111988067626953e-01,8.969810009002685547e-01,9.002738595008850098e-01,9.024296402931213379e-01,9.036750793457031250e-01,9.043313860893249512e-01,9.045727252960205078e-01,9.046295881271362305e-01,9.046416282653808594e-01,9.046393036842346191e-01,9.046378731727600098e-01,9.046370387077331543e-01,9.046361446380615234e-01,9.046351909637451172e-01,9.046342372894287109e-01,9.046332836151123047e-01,9.046324491500854492e-01,9.046316146850585938e-01,9.046306610107421875e-01,9.046298265457153320e-01,9.046288728713989258e-01,9.046279788017272949e-01,9.046271443367004395e-01,9.046260118484497070e-01,9.046251773834228516e-01,9.046243429183959961e-01,9.046232700347900391e-01,9.046225547790527344e-01,9.046214818954467773e-01,9.046207666397094727e-01,9.046200513839721680e-01,9.046177268028259277e-01,9.046141505241394043e-01,9.046172499656677246e-01,9.046134948730468750e-01,9.046361446380615234e-01,9.051201343536376953e-01,9.060926437377929688e-01,9.027878046035766602e-01,8.956354856491088867e-01,8.842010498046875000e-01,8.659663200378417969e-01,8.336986899375915527e-01,7.881234884262084961e-01,6.926147341728210449e-01,5.954102873802185059e-01,5.464935302734375000e-01,5.097544789314270020e-01,4.863648116588592529e-01,4.997615218162536621e-01,5.308352112770080566e-01,6.103942990303039551e-01,6.455957889556884766e-01,7.390489578247070312e-01,7.759486436843872070e-01,8.043727278709411621e-01,8.206259012222290039e-01,8.320826292037963867e-01,8.174939155578613281e-01,8.032733798027038574e-01,7.997734546661376953e-01,7.735474109649658203e-01,7.218270301818847656e-01,6.166384220123291016e-01
5.889348983764648438e-01,6.138235330581665039e-01,6.562410593032836914e-01,6.566764712333679199e-01,6.799240708351135254e-01,7.037628889083862305e-01,7.398908138275146484e-01,7.610044479370117188e-01,7.815121412277221680e-01,7.999091744422912598e-01,8.175224065780639648e-01,8.339127302169799805e-01,8.489226102828979492e-01,8.623847365379333496e-01,8.741683959960937500e-01,8.838951587677001953e-01,8.910559415817260742e-01,8.958870172500610352e-01,8.992757797241210938e-01,9.014959335327148438e-01,9.027299880981445312e-01,9.033838510513305664e-01,9.036418199539184570e-01,9.037145972251892090e-01,9.037275314331054688e-01,9.037255048751831055e-01,9.037239551544189453e-01,9.037227630615234375e-01,9.037218093872070312e-01,9.037207365036010742e-01,9.037197232246398926e-01,9.037186503410339355e-01,9.037175774574279785e-01,9.037165045738220215e-01,9.037153124809265137e-01,9.037143588066101074e-01,9.037133455276489258e-01,9.037123322486877441e-01,9.037111997604370117e-01,9.037101268768310547e-01,9.037089347839355469e-01,9.037079811096191406e-01,9.037070274353027344e-01,9.037059545516967773e-01,9.037047624588012695e-01,9.037036895751953125e-01,9.037029147148132324e-01,9.037014842033386230e-01,9.037002325057983398e-01,9.036977291107177734e-01,9.036972522735595703e-01,9.037200212478637695e-01,9.042901992797851562e-01,9.046221971511840820e-01,9.008073210716247559e-01,8.953506350517272949e-01,8.872138261795043945e-01,8.649514913558959961e-01,8.413079977035522461e-01,7.966353893280029297e-01,7.166209220886230469e-01,6.166034936904907227e-01,5.713305473327636719e-01,5.226635336875915527e-01,5.152890682220458984e-01,5.393855571746826172e-01,5.942747592926025391e-01,6.420691013336181641e-01,7.021921277046203613e-01,7.680157423019409180e-01,8.076640367507934570e-01,8.236589431762695312e-01,8.401716947555541992e-01,8.421630859375000000e-01,8.193854093551635742e-01,8.043287992477416992e-01,7.985543012619018555e-01,7.741532325744628906e-01,7.212817072868347168e-01,6.147029995918273926e-01
5.881909728050231934e-01,6.121510267257690430e-01,6.544500589370727539e-01,6.547904014587402344e-01,6.775816679000854492e-01,7.009668350219726562e-01,7.370859384536743164e-01,7.582453489303588867e-01,7.788017988204956055e-01,7.971984148025512695e-01,8.147945404052734375e-01,8.312969207763671875e-01,8.464374542236328125e-01,8.599834442138671875e-01,8.718594908714294434e-01,8.816277980804443359e-01,8.889312744140625000e-01,8.940090537071228027e-01,8.974869251251220703e-01,8.997217416763305664e-01,9.009763002395629883e-01,9.016548991203308105e-01,9.019182920455932617e-01,9.019806385040283203e-01,9.019874334335327148e-01,9.019803404808044434e-01,9.019737839698791504e-01,9.019677639007568359e-01,9.019616842269897461e-01,9.019554853439331055e-01,9.019495248794555664e-01,9.019433259963989258e-01,9.019373655319213867e-01,9.019311070442199707e-01,9.019250869750976562e-01,9.019190073013305664e-01,9.019131660461425781e-01,9.019069075584411621e-01,9.019008874893188477e-01,9.018948078155517578e-01,9.018887281417846680e-01,9.018827676773071289e-01,9.018765687942504883e-01,9.018704891204833984e-01,9.018645286560058594e-01,9.018583297729492188e-01,9.018525481224060059e-01,9.018463492393493652e-01,9.018403291702270508e-01,9.018342494964599609e-01,9.018332958221435547e-01,9.018335342407226562e-01,9.023655652999877930e-01,9.022337198257446289e-01,8.998216390609741211e-01,8.950754404067993164e-01,8.874989748001098633e-01,8.647699356079101562e-01,8.482202887535095215e-01,8.089098930358886719e-01,7.237721681594848633e-01,6.311947703361511230e-01,5.871962308883666992e-01,5.476173162460327148e-01,5.353620052337646484e-01,5.802867412567138672e-01,6.455248594284057617e-01,6.785426139831542969e-01,7.491547465324401855e-01,7.967547178268432617e-01,8.241766691207885742e-01,8.399697542190551758e-01,8.493657112121582031e-01,8.462994098663330078e-01,8.228879570960998535e-01,8.059277534484863281e-01,7.988166213035583496e-01,7.721340060234069824e-01,7.198099493980407715e-01,6.131297945976257324e-01
5.862549543380737305e-01,6.094363331794738770e-01,6.514796018600463867e-01,6.515439748764038086e-01,6.740757822990417480e-01,6.969117522239685059e-01,7.324773073196411133e-01,7.531203031539916992e-01,7.730047702789306641e-01,7.909480333328247070e-01,8.082780838012695312e-01,8.245589733123779297e-01,8.395534753799438477e-01,8.531520366668701172e-01,8.651050329208374023e-01,8.749618530273437500e-01,8.823378086090087891e-01,8.874378204345703125e-01,8.910179138183593750e-01,8.932573795318603516e-01,8.945038318634033203e-01,8.952063918113708496e-01,8.954707384109497070e-01,8.955255746841430664e-01,8.955242633819580078e-01,8.955131769180297852e-01,8.955034017562866211e-01,8.954943418502807617e-01,8.954852819442749023e-01,8.954759836196899414e-01,8.954669237136840820e-01,8.954578042030334473e-01,8.954486846923828125e-01,8.954395651817321777e-01,8.954305052757263184e-01,8.954213857650756836e-01,8.954124450683593750e-01,8.954032659530639648e-01,8.953941464424133301e-01,8.953851461410522461e-01,8.953758478164672852e-01,8.953669071197509766e-01,8.953577876091003418e-01,8.953486680984497070e-01,8.953397274017333984e-01,8.953306674957275391e-01,8.953216075897216797e-01,8.953124284744262695e-01,8.953034281730651855e-01,8.952943086624145508e-01,8.952816724777221680e-01,8.952649831771850586e-01,8.956471681594848633e-01,8.955022096633911133e-01,8.942941427230834961e-01,8.909105062484741211e-01,8.812042474746704102e-01,8.604480028152465820e-01,8.407173156738281250e-01,7.991224527359008789e-01,7.355536222457885742e-01,6.448121666908264160e-01,5.871454477310180664e-01,5.647282004356384277e-01,5.643472671508789062e-01,6.331756114959716797e-01,6.528251767158508301e-01,7.248825430870056152e-01,7.658178806304931641e-01,8.077579736709594727e-01,8.300652503967285156e-01,8.458756208419799805e-01,8.509074449539184570e-01,8.445608615875244141e-01,8.196164965629577637e-01,8.000788688659667969e-01,7.941006422042846680e-01,7.685008049011230469e-01,7.156233191490173340e-01,6.079255938529968262e-01
5.823474526405334473e-01,6.035622358322143555e-01,6.450689435005187988e-01,6.443612575531005859e-01,6.657202243804931641e-01,6.876931190490722656e-01,7.224062085151672363e-01,7.425892353057861328e-01,7.618004083633422852e-01,7.788740396499633789e-01,7.956079244613647461e-01,8.115681409835815430e-01,8.266268372535705566e-01,8.405219316482543945e-01,8.527933359146118164e-01,8.630757331848144531e-01,8.709467649459838867e-01,8.763777017593383789e-01,8.801466226577758789e-01,8.825250864028930664e-01,8.838634490966796875e-01,8.845189213752746582e-01,8.847212195396423340e-01,8.847390413284301758e-01,8.847285509109497070e-01,8.847057819366455078e-01,8.846850395202636719e-01,8.846648931503295898e-01,8.846445083618164062e-01,8.846243619918823242e-01,8.846039772033691406e-01,8.845837116241455078e-01,8.845637440681457520e-01,8.845432996749877930e-01,8.845232725143432617e-01,8.845031261444091797e-01,8.844828605651855469e-01,8.844628334045410156e-01,8.844426870346069336e-01,8.844223618507385254e-01,8.844021558761596680e-01,8.843820691108703613e-01,8.843617439270019531e-01,8.843418359756469727e-01,8.843215107917785645e-01,8.843014836311340332e-01,8.842812776565551758e-01,8.842611312866210938e-01,8.842411041259765625e-01,8.842208385467529297e-01,8.841947317123413086e-01,8.841572999954223633e-01,8.842774033546447754e-01,8.847432136535644531e-01,8.841392397880554199e-01,8.806802034378051758e-01,8.707374930381774902e-01,8.518859148025512695e-01,8.303630948066711426e-01,7.857543230056762695e-01,7.437747120857238770e-01,6.500147581100463867e-01,5.753995180130004883e-01,5.693574547767639160e-01,5.913099646568298340e-01,6.335210204124450684e-01,6.649691462516784668e-01,7.301806211471557617e-01,7.849227190017700195e-01,8.070379495620727539e-01,8.332059383392333984e-01,8.444819450378417969e-01,8.436758518218994141e-01,8.363407850265502930e-01,8.096368312835693359e-01,7.924709320068359375e-01,7.861255407333374023e-01,7.610231637954711914e-01,7.075702548027038574e-01,6.019598245620727539e-01
5.752029418945312500e-01,5.937514305114746094e-01,6.341874599456787109e-01,6.314074397087097168e-01,6.507640480995178223e-01,6.714974641799926758e-01,7.052966356277465820e-01,7.246521711349487305e-01,7.431014776229858398e-01,7.594747543334960938e-01,7.753034830093383789e-01,7.904897928237915039e-01,8.051480054855346680e-01,8.185927271842956543e-01,8.304763436317443848e-01,8.404313325881958008e-01,8.479106426239013672e-01,8.532862663269042969e-01,8.570470213890075684e-01,8.593972921371459961e-01,8.606375455856323242e-01,8.611872196197509766e-01,8.613213300704956055e-01,8.613253235816955566e-01,8.612934350967407227e-01,8.612542152404785156e-01,8.612170219421386719e-01,8.611798882484436035e-01,8.611429929733276367e-01,8.611060976982116699e-01,8.610692024230957031e-01,8.610321283340454102e-01,8.609952926635742188e-01,8.609580993652343750e-01,8.609212040901184082e-01,8.608843684196472168e-01,8.608474135398864746e-01,8.608104586601257324e-01,8.607735037803649902e-01,8.607366085052490234e-01,8.606996536254882812e-01,8.606628179550170898e-01,8.606259822845458984e-01,8.605889678001403809e-01,8.605523109436035156e-01,8.605153560638427734e-01,8.604786396026611328e-01,8.604415059089660645e-01,8.604046702384948730e-01,8.603678941726684570e-01,8.603289723396301270e-01,8.602446317672729492e-01,8.602346181869506836e-01,8.614919185638427734e-01,8.615767955780029297e-01,8.570889234542846680e-01,8.459507226943969727e-01,8.347999453544616699e-01,8.034801483154296875e-01,7.646608352661132812e-01,7.158894538879394531e-01,6.291679143905639648e-01,5.588409900665283203e-01,5.570100545883178711e-01,5.864775180816650391e-01,6.159775257110595703e-01,6.783823966979980469e-01,7.232840061187744141e-01,7.701517343521118164e-01,7.960685491561889648e-01,8.152287006378173828e-01,8.252744674682617188e-01,8.235350847244262695e-01,8.161476850509643555e-01,7.876201868057250977e-01,7.700330018997192383e-01,7.676910161972045898e-01,7.444424629211425781e-01,6.928474307060241699e-01,5.924692749977111816e-01
5.642399191856384277e-01,5.783783793449401855e-01,6.170499920845031738e-01,6.110098361968994141e-01,6.274167895317077637e-01,6.464130282402038574e-01,6.783348321914672852e-01,6.956849694252014160e-01,7.117321491241455078e-01,7.257431745529174805e-01,7.394036054611206055e-01,7.528240680694580078e-01,7.661411762237548828e-01,7.786078453063964844e-01,7.895387411117553711e-01,7.988281846046447754e-01,8.062297105789184570e-01,8.115659356117248535e-01,8.152978420257568359e-01,8.176012635231018066e-01,8.186838030815124512e-01,8.189585208892822266e-01,8.189814090728759766e-01,8.189564943313598633e-01,8.189078569412231445e-01,8.188471794128417969e-01,8.187878131866455078e-01,8.187291622161865234e-01,8.186701536178588867e-01,8.186113834381103516e-01,8.185527324676513672e-01,8.184937834739685059e-01,8.184350728988647461e-01,8.183760643005371094e-01,8.183173537254333496e-01,8.182587623596191406e-01,8.181998729705810547e-01,8.181409835815429688e-01,8.180824518203735352e-01,8.180236220359802246e-01,8.179649114608764648e-01,8.179061412811279297e-01,8.178473114967346191e-01,8.177887797355651855e-01,8.177300691604614258e-01,8.176713585853576660e-01,8.176127076148986816e-01,8.175538778305053711e-01,8.174953460693359375e-01,8.174368143081665039e-01,8.173728585243225098e-01,8.172748684883117676e-01,8.172252178192138672e-01,8.186399936676025391e-01,8.191515207290649414e-01,8.123732805252075195e-01,8.025684356689453125e-01,7.937338352203369141e-01,7.557580471038818359e-01,7.211259603500366211e-01,6.803157329559326172e-01,5.905585885047912598e-01,5.454074740409851074e-01,5.438191890716552734e-01,5.566155910491943359e-01,6.075074672698974609e-01,6.425399184226989746e-01,6.926066279411315918e-01,7.299221158027648926e-01,7.578893899917602539e-01,7.789845466613769531e-01,7.865185737609863281e-01,7.864270210266113281e-01,7.752457857131958008e-01,7.482587099075317383e-01,7.337706685066223145e-01,7.348830699920654297e-01,7.137571573257446289e-01,6.687947511672973633e-01,5.797353982925415039e-01
5.497257113456726074e-01,5.539392232894897461e-01,5.888147950172424316e-01,5.787625908851623535e-01,5.919243097305297852e-01,6.082149744033813477e-01,6.378270387649536133e-01,6.524360179901123047e-01,6.663261055946350098e-01,6.780731081962585449e-01,6.894942522048950195e-01,7.006306052207946777e-01,7.116285562515258789e-01,7.215053439140319824e-01,7.303627133369445801e-01,7.380266189575195312e-01,7.437773346900939941e-01,7.477792501449584961e-01,7.504890561103820801e-01,7.519859075546264648e-01,7.524151206016540527e-01,7.524816989898681641e-01,7.524569034576416016e-01,7.523940801620483398e-01,7.523263692855834961e-01,7.522413730621337891e-01,7.521588802337646484e-01,7.520765662193298340e-01,7.519943714141845703e-01,7.519119381904602051e-01,7.518298625946044922e-01,7.517473697662353516e-01,7.516651153564453125e-01,7.515829801559448242e-01,7.515007257461547852e-01,7.514185905456542969e-01,7.513363361358642578e-01,7.512540221214294434e-01,7.511720657348632812e-01,7.510899901390075684e-01,7.510076761245727539e-01,7.509256601333618164e-01,7.508434057235717773e-01,7.507613897323608398e-01,7.506793737411499023e-01,7.505971193313598633e-01,7.505150437355041504e-01,7.504330873489379883e-01,7.503509521484375000e-01,7.502689361572265625e-01,7.501908540725708008e-01,7.500859498977661133e-01,7.500333786010742188e-01,7.517892122268676758e-01,7.507084608078002930e-01,7.435905933380126953e-01,7.365302443504333496e-01,7.293586730957031250e-01,6.873311996459960938e-01,6.610658168792724609e-01,6.165792942047119141e-01,5.453183054924011230e-01,5.134871602058410645e-01,5.139986276626586914e-01,5.225859880447387695e-01,5.628823041915893555e-01,6.107544898986816406e-01,6.382027268409729004e-01,6.741762161254882812e-01,6.996412873268127441e-01,7.150456905364990234e-01,7.196694612503051758e-01,7.205508947372436523e-01,7.134968042373657227e-01,6.836653351783752441e-01,6.730661988258361816e-01,6.819702386856079102e-01,6.630978584289550781e-01,6.338014602661132812e-01,5.564967393875122070e-01
5.325053334236145020e-01,5.236890316009521484e-01,5.544981360435485840e-01,5.385856032371520996e-01,5.464476943016052246e-01,5.593022108078002930e-01,5.835220217704772949e-01,5.946941375732421875e-01,6.051689982414245605e-01,6.132997870445251465e-01,6.213203072547912598e-01,6.292464733123779297e-01,6.369121074676513672e-01,6.437619924545288086e-01,6.499357223510742188e-01,6.547454595565795898e-01,6.579780578613281250e-01,6.604096889495849609e-01,6.619791388511657715e-01,6.628202199935913086e-01,6.630386710166931152e-01,6.630011200904846191e-01,6.628987789154052734e-01,6.628154516220092773e-01,6.627336740493774414e-01,6.626435518264770508e-01,6.625556945800781250e-01,6.624681353569030762e-01,6.623805761337280273e-01,6.622931361198425293e-01,6.622056961059570312e-01,6.621181964874267578e-01,6.620308160781860352e-01,6.619434356689453125e-01,6.618561744689941406e-01,6.617686748504638672e-01,6.616814136505126953e-01,6.615940332412719727e-01,6.615067720413208008e-01,6.614194512367248535e-01,6.613320708274841309e-01,6.612449288368225098e-01,6.611577272415161133e-01,6.610704660415649414e-01,6.609833240509033203e-01,6.608961820602416992e-01,6.608090400695800781e-01,6.607218384742736816e-01,6.606346368789672852e-01,6.605474352836608887e-01,6.604627370834350586e-01,6.603528857231140137e-01,6.601498126983642578e-01,6.619226932525634766e-01,6.593343019485473633e-01,6.540319323539733887e-01,6.461781859397888184e-01,6.399025917053222656e-01,6.006973981857299805e-01,5.852288603782653809e-01,5.454133749008178711e-01,4.861365854740142822e-01,4.714558720588684082e-01,4.632942378520965576e-01,4.775611758232116699e-01,5.127496719360351562e-01,5.589020848274230957e-01,5.755467414855957031e-01,6.000892519950866699e-01,6.213354468345642090e-01,6.312297582626342773e-01,6.379623413085937500e-01,6.369700431823730469e-01,6.305437088012695312e-01,6.036809682846069336e-01,5.962350368499755859e-01,6.116132736206054688e-01,5.968430042266845703e-01,5.880082845687866211e-01,5.268782377243041992e-01
5.115485191345214844e-01,4.893334805965423584e-01,5.141246914863586426e-01,4.908661246299743652e-01,4.924271404743194580e-01,5.010089278221130371e-01,5.196063518524169922e-01,5.275493264198303223e-01,5.347112417221069336e-01,5.395527482032775879e-01,5.444221496582031250e-01,5.495228171348571777e-01,5.544975399971008301e-01,5.588374137878417969e-01,5.624894499778747559e-01,5.651979446411132812e-01,5.674998164176940918e-01,5.691142082214355469e-01,5.702069997787475586e-01,5.707066059112548828e-01,5.708097815513610840e-01,5.707312226295471191e-01,5.705885291099548340e-01,5.705198645591735840e-01,5.704231858253479004e-01,5.703345537185668945e-01,5.702474713325500488e-01,5.701606273651123047e-01,5.700736641883850098e-01,5.699868202209472656e-01,5.699001550674438477e-01,5.698134303092956543e-01,5.697265267372131348e-01,5.696398019790649414e-01,5.695529580116271973e-01,5.694661140441894531e-01,5.693796277046203613e-01,5.692929029464721680e-01,5.692063570022583008e-01,5.691197514533996582e-01,5.690331459045410156e-01,5.689465403556823730e-01,5.688600540161132812e-01,5.687735080718994141e-01,5.686869621276855469e-01,5.686005353927612305e-01,5.685141086578369141e-01,5.684278011322021484e-01,5.683413147926330566e-01,5.682548284530639648e-01,5.681731700897216797e-01,5.680593848228454590e-01,5.678543448448181152e-01,5.690668821334838867e-01,5.668925642967224121e-01,5.644863843917846680e-01,5.597928166389465332e-01,5.515468716621398926e-01,5.231627225875854492e-01,5.035913586616516113e-01,4.732782840728759766e-01,4.428942799568176270e-01,4.273621439933776855e-01,4.236444830894470215e-01,4.339025020599365234e-01,4.636788368225097656e-01,4.885196089744567871e-01,5.059815645217895508e-01,5.264627933502197266e-01,5.407398939132690430e-01,5.460755825042724609e-01,5.499907135963439941e-01,5.521301031112670898e-01,5.455471873283386230e-01,5.215719342231750488e-01,5.174540877342224121e-01,5.384321808815002441e-01,5.280870199203491211e-01,5.396914482116699219e-01,4.965202212333679199e-01
4.905615150928497314e-01,4.556727409362792969e-01,4.712969958782196045e-01,4.408676922321319580e-01,4.361952841281890869e-01,4.405651688575744629e-01,4.539868831634521484e-01,4.580774903297424316e-01,4.623991549015045166e-01,4.647279381752014160e-01,4.672771692276000977e-01,4.700879454612731934e-01,4.728595018386840820e-01,4.754889905452728271e-01,4.777975082397460938e-01,4.795230627059936523e-01,4.808015823364257812e-01,4.817705154418945312e-01,4.823758900165557861e-01,4.826405346393585205e-01,4.826918542385101318e-01,4.826846420764923096e-01,4.826061129570007324e-01,4.825059175491333008e-01,4.824229478836059570e-01,4.823491275310516357e-01,4.822760522365570068e-01,4.822031259536743164e-01,4.821301698684692383e-01,4.820574522018432617e-01,4.819846451282501221e-01,4.819117784500122070e-01,4.818389415740966797e-01,4.817661643028259277e-01,4.816932678222656250e-01,4.816206097602844238e-01,4.815477430820465088e-01,4.814752638339996338e-01,4.814025759696960449e-01,4.813298285007476807e-01,4.812573194503784180e-01,4.811845123767852783e-01,4.811120033264160156e-01,4.810394346714019775e-01,4.809670448303222656e-01,4.808944165706634521e-01,4.808218479156494141e-01,4.807494282722473145e-01,4.806770980358123779e-01,4.806046187877655029e-01,4.805344641208648682e-01,4.804434776306152344e-01,4.802304208278656006e-01,4.806739091873168945e-01,4.801668524742126465e-01,4.784388840198516846e-01,4.772990942001342773e-01,4.705255329608917236e-01,4.530033767223358154e-01,4.349668622016906738e-01,4.107694029808044434e-01,4.019443094730377197e-01,3.819538354873657227e-01,3.814129829406738281e-01,3.936738073825836182e-01,4.066213965415954590e-01,4.255524575710296631e-01,4.404293000698089600e-01,4.526972770690917969e-01,4.604158103466033936e-01,4.705381989479064941e-01,4.712423384189605713e-01,4.740298688411712646e-01,4.692913293838500977e-01,4.496788084506988525e-01,4.482474625110626221e-01,4.718440473079681396e-01,4.688145816326141357e-01,4.950099587440490723e-01,4.691000580787658691e-01
4.694038331508636475e-01,4.224048852920532227e-01,4.285266697406768799e-01,3.950422108173370361e-01,3.840748965740203857e-01,3.856422901153564453e-01,3.960555791854858398e-01,3.989934325218200684e-01,4.020237922668457031e-01,4.032185077667236328e-01,4.044310450553894043e-01,4.056451320648193359e-01,4.066676795482635498e-01,4.076142609119415283e-01,4.084124267101287842e-01,4.090009331703186035e-01,4.096069037914276123e-01,4.101007878780364990e-01,4.103136658668518066e-01,4.103579521179199219e-01,4.103674888610839844e-01,4.102703034877777100e-01,4.101989567279815674e-01,4.101265668869018555e-01,4.100635945796966553e-01,4.100048243999481201e-01,4.099469482898712158e-01,4.098891019821166992e-01,4.098313152790069580e-01,4.097737073898315430e-01,4.097161293029785156e-01,4.096584618091583252e-01,4.096007645130157471e-01,4.095431864261627197e-01,4.094854891300201416e-01,4.094278216361999512e-01,4.093702733516693115e-01,4.093126058578491211e-01,4.092550575733184814e-01,4.091975688934326172e-01,4.091401398181915283e-01,4.090826809406280518e-01,4.090251028537750244e-01,4.089677929878234863e-01,4.089103341102600098e-01,4.088528752326965332e-01,4.087954163551330566e-01,4.087380468845367432e-01,4.086808860301971436e-01,4.086234569549560547e-01,4.085667729377746582e-01,4.085014462471008301e-01,4.083309769630432129e-01,4.083420932292938232e-01,4.088870584964752197e-01,4.088779687881469727e-01,4.076072871685028076e-01,4.035134613513946533e-01,3.963193297386169434e-01,3.790476024150848389e-01,3.673541545867919922e-01,3.580658137798309326e-01,3.484455347061157227e-01,3.471504151821136475e-01,3.559761941432952881e-01,3.615530729293823242e-01,3.744661808013916016e-01,3.830047845840454102e-01,3.920492231845855713e-01,3.982354402542114258e-01,4.014490246772766113e-01,4.028771519660949707e-01,4.044455885887145996e-01,4.015445709228515625e-01,3.855863809585571289e-01,3.876911997795104980e-01,4.135206937789916992e-01,4.177262187004089355e-01,4.560284316539764404e-01,4.460649192333221436e-01
4.513872861862182617e-01,3.938154876232147217e-01,3.929793238639831543e-01,3.572870492935180664e-01,3.413583934307098389e-01,3.406512141227722168e-01,3.480997383594512939e-01,3.498193621635437012e-01,3.515127301216125488e-01,3.519308865070343018e-01,3.524473905563354492e-01,3.529142737388610840e-01,3.533961772918701172e-01,3.538342714309692383e-01,3.541299104690551758e-01,3.542259335517883301e-01,3.543011546134948730e-01,3.541767001152038574e-01,3.540226519107818604e-01,3.539634644985198975e-01,3.539422750473022461e-01,3.539077937602996826e-01,3.538534045219421387e-01,3.537998199462890625e-01,3.537588119506835938e-01,3.537171483039855957e-01,3.536758720874786377e-01,3.536345362663269043e-01,3.535934686660766602e-01,3.535521924495697021e-01,3.535113334655761719e-01,3.534701466560363770e-01,3.534289002418518066e-01,3.533880114555358887e-01,3.533467650413513184e-01,3.533058166503906250e-01,3.532645702362060547e-01,3.532236516475677490e-01,3.531825840473175049e-01,3.531415760517120361e-01,3.531003594398498535e-01,3.530595898628234863e-01,3.530186116695404053e-01,3.529777228832244873e-01,3.529365956783294678e-01,3.528956174850463867e-01,3.528546690940856934e-01,3.528139591217041016e-01,3.527731299400329590e-01,3.527319729328155518e-01,3.526911735534667969e-01,3.526546955108642578e-01,3.525606989860534668e-01,3.524247407913208008e-01,3.528204858303070068e-01,3.528522849082946777e-01,3.517023622989654541e-01,3.494057059288024902e-01,3.473437428474426270e-01,3.348892927169799805e-01,3.279682397842407227e-01,3.267346024513244629e-01,3.179245293140411377e-01,3.181475400924682617e-01,3.206242918968200684e-01,3.300122022628784180e-01,3.320230841636657715e-01,3.401574790477752686e-01,3.442820906639099121e-01,3.477239608764648438e-01,3.492387533187866211e-01,3.500848412513732910e-01,3.518291115760803223e-01,3.494423031806945801e-01,3.362674415111541748e-01,3.391853570938110352e-01,3.653376102447509766e-01,3.756960034370422363e-01,4.224528968334197998e-01,4.258226454257965088e-01
4.349655508995056152e-01,3.689419627189636230e-01,3.612734079360961914e-01,3.251626789569854736e-01,3.061277270317077637e-01,3.047549426555633545e-01,3.108597397804260254e-01,3.122493624687194824e-01,3.134065866470336914e-01,3.134217262268066406e-01,3.134073913097381592e-01,3.133974075317382812e-01,3.134722113609313965e-01,3.135630488395690918e-01,3.135939240455627441e-01,3.136092424392700195e-01,3.135697841644287109e-01,3.135179281234741211e-01,3.135347664356231689e-01,3.135202527046203613e-01,3.134626746177673340e-01,3.134174942970275879e-01,3.133834004402160645e-01,3.133548498153686523e-01,3.133239746093750000e-01,3.132943511009216309e-01,3.132644295692443848e-01,3.132343888282775879e-01,3.132043778896331787e-01,3.131745457649230957e-01,3.131446838378906250e-01,3.131149411201477051e-01,3.130850791931152344e-01,3.130552172660827637e-01,3.130254149436950684e-01,3.129958510398864746e-01,3.129657506942749023e-01,3.129358887672424316e-01,3.129062950611114502e-01,3.128764331340789795e-01,3.128466010093688965e-01,3.128168582916259766e-01,3.127869963645935059e-01,3.127571344375610352e-01,3.127275705337524414e-01,3.126977980136871338e-01,3.126680254936218262e-01,3.126384913921356201e-01,3.126087188720703125e-01,3.125790953636169434e-01,3.125493526458740234e-01,3.125316500663757324e-01,3.124784529209136963e-01,3.124313950538635254e-01,3.126498162746429443e-01,3.125479519367218018e-01,3.117827177047729492e-01,3.123811483383178711e-01,3.108077645301818848e-01,3.042519390583038330e-01,2.985928952693939209e-01,2.975143790245056152e-01,2.932568788528442383e-01,2.950974702835083008e-01,2.982497215270996094e-01,2.971959114074707031e-01,3.034504055976867676e-01,3.048860430717468262e-01,3.084467053413391113e-01,3.094162046909332275e-01,3.110845983028411865e-01,3.113044500350952148e-01,3.120407760143280029e-01,3.102943301200866699e-01,2.992439270019531250e-01,3.026035726070404053e-01,3.288319706916809082e-01,3.441974818706512451e-01,3.968353569507598877e-01,4.101063609123229980e-01
4.212123155593872070e-01,3.491287827491760254e-01,3.364090919494628906e-01,2.999957203865051270e-01,2.791718244552612305e-01,2.769954204559326172e-01,2.819500863552093506e-01,2.831153869628906250e-01,2.839990556240081787e-01,2.838899493217468262e-01,2.838500738143920898e-01,2.838477492332458496e-01,2.838312089443206787e-01,2.838137149810791016e-01,2.837993502616882324e-01,2.837614715099334717e-01,2.837221026420593262e-01,2.836927175521850586e-01,2.836677432060241699e-01,2.836331725120544434e-01,2.836064100265502930e-01,2.835848331451416016e-01,2.835624217987060547e-01,2.835397720336914062e-01,2.835186719894409180e-01,2.834970653057098389e-01,2.834754586219787598e-01,2.834538221359252930e-01,2.834319472312927246e-01,2.834103107452392578e-01,2.833885848522186279e-01,2.833670973777770996e-01,2.833454608917236328e-01,2.833237648010253906e-01,2.833020091056823730e-01,2.832802534103393555e-01,2.832588553428649902e-01,2.832373976707458496e-01,2.832156419754028320e-01,2.831939458847045898e-01,2.831724882125854492e-01,2.831509113311767578e-01,2.831292748451232910e-01,2.831075787544250488e-01,2.830860614776611328e-01,2.830644845962524414e-01,2.830432057380676270e-01,2.830214500427246094e-01,2.829999625682830811e-01,2.829782366752624512e-01,2.829568386077880859e-01,2.829395532608032227e-01,2.829113006591796875e-01,2.828354835510253906e-01,2.829794287681579590e-01,2.826167941093444824e-01,2.822532951831817627e-01,2.830632627010345459e-01,2.822666764259338379e-01,2.791855335235595703e-01,2.775230109691619873e-01,2.740303874015808105e-01,2.734330296516418457e-01,2.738157510757446289e-01,2.749453485012054443e-01,2.759798765182495117e-01,2.782107591629028320e-01,2.796840369701385498e-01,2.804014682769775391e-01,2.822241783142089844e-01,2.822111546993255615e-01,2.825631499290466309e-01,2.833273708820343018e-01,2.817378640174865723e-01,2.718726098537445068e-01,2.751389145851135254e-01,3.007460832595825195e-01,3.195682168006896973e-01,3.763019144535064697e-01,3.975817561149597168e-01
4.091774225234985352e-01,3.324928879737854004e-01,3.159813880920410156e-01,2.799521088600158691e-01,2.584252059459686279e-01,2.558345496654510498e-01,2.600282728672027588e-01,2.610219120979309082e-01,2.617949545383453369e-01,2.617098987102508545e-01,2.616692781448364258e-01,2.616469860076904297e-01,2.616272568702697754e-01,2.616115212440490723e-01,2.615950703620910645e-01,2.615777254104614258e-01,2.615620195865631104e-01,2.615467309951782227e-01,2.615291476249694824e-01,2.615119218826293945e-01,2.614952921867370605e-01,2.614798545837402344e-01,2.614634931087493896e-01,2.614473104476928711e-01,2.614310085773468018e-01,2.614146769046783447e-01,2.613978385925292969e-01,2.613815069198608398e-01,2.613650560379028320e-01,2.613484859466552734e-01,2.613320350646972656e-01,2.613155841827392578e-01,2.612990140914916992e-01,2.612826824188232422e-01,2.612662315368652344e-01,2.612496614456176758e-01,2.612332999706268311e-01,2.612167596817016602e-01,2.612003386020660400e-01,2.611837983131408691e-01,2.611675262451171875e-01,2.611508965492248535e-01,2.611346840858459473e-01,2.611182928085327148e-01,2.611016035079956055e-01,2.610853314399719238e-01,2.610690593719482422e-01,2.610524594783782959e-01,2.610360980033874512e-01,2.610195875167846680e-01,2.610034048557281494e-01,2.609902918338775635e-01,2.609710097312927246e-01,2.609466910362243652e-01,2.609147429466247559e-01,2.608633935451507568e-01,2.609823942184448242e-01,2.610909938812255859e-01,2.606699168682098389e-01,2.603882253170013428e-01,2.585944533348083496e-01,2.572330832481384277e-01,2.565986514091491699e-01,2.567592263221740723e-01,2.566711902618408203e-01,2.574121952056884766e-01,2.587772607803344727e-01,2.587416470050811768e-01,2.602148354053497314e-01,2.601081132888793945e-01,2.607728838920593262e-01,2.605735659599304199e-01,2.611085772514343262e-01,2.601546049118041992e-01,2.511619329452514648e-01,2.544554173946380615e-01,2.794640660285949707e-01,3.009991645812988281e-01,3.605879545211791992e-01,3.876347541809082031e-01
3.991109430789947510e-01,3.188931941986083984e-01,2.997286915779113770e-01,2.643893659114837646e-01,2.423065304756164551e-01,2.394188344478607178e-01,2.430791556835174561e-01,2.439696788787841797e-01,2.446610927581787109e-01,2.445977926254272461e-01,2.445653676986694336e-01,2.445503473281860352e-01,2.445357739925384521e-01,2.445219457149505615e-01,2.445075511932373047e-01,2.444930374622344971e-01,2.444795072078704834e-01,2.444662153720855713e-01,2.444526553153991699e-01,2.444394230842590332e-01,2.444264888763427734e-01,2.444137930870056152e-01,2.444008588790893555e-01,2.443881034851074219e-01,2.443754076957702637e-01,2.443622648715972900e-01,2.443495392799377441e-01,2.443365454673767090e-01,2.443236112594604492e-01,2.443107068538665771e-01,2.442975938320159912e-01,2.442849278450012207e-01,2.442720234394073486e-01,2.442593574523925781e-01,2.442463040351867676e-01,2.442333996295928955e-01,2.442205548286437988e-01,2.442076504230499268e-01,2.441946864128112793e-01,2.441817522048950195e-01,2.441688776016235352e-01,2.441560029983520508e-01,2.441430985927581787e-01,2.441303431987762451e-01,2.441175580024719238e-01,2.441048026084899902e-01,2.440918087959289551e-01,2.440789043903350830e-01,2.440661191940307617e-01,2.440530657768249512e-01,2.440404295921325684e-01,2.440292239189147949e-01,2.440168559551239014e-01,2.439945936203002930e-01,2.439731657505035400e-01,2.439525425434112549e-01,2.439886629581451416e-01,2.438432574272155762e-01,2.439985871315002441e-01,2.437588572502136230e-01,2.431530654430389404e-01,2.423764765262603760e-01,2.425196766853332520e-01,2.416221201419830322e-01,2.429758012294769287e-01,2.424356937408447266e-01,2.426920533180236816e-01,2.431294918060302734e-01,2.433330714702606201e-01,2.435609400272369385e-01,2.435668110847473145e-01,2.438666820526123047e-01,2.442163825035095215e-01,2.432871758937835693e-01,2.352263331413269043e-01,2.385407090187072754e-01,2.629371881484985352e-01,2.863704562187194824e-01,3.479831218719482422e-01,3.796837329864501953e-01
3.908095955848693848e-01,3.077791333198547363e-01,2.866287529468536377e-01,2.519689798355102539e-01,2.295334041118621826e-01,2.264061272144317627e-01,2.296721339225769043e-01,2.304621636867523193e-01,2.310838997364044189e-01,2.310291826725006104e-01,2.310023009777069092e-01,2.309915721416473389e-01,2.309812009334564209e-01,2.309708297252655029e-01,2.309606075286865234e-01,2.309504151344299316e-01,2.309399247169494629e-01,2.309295535087585449e-01,2.309188842773437500e-01,2.309084832668304443e-01,2.308982908725738525e-01,2.308878898620605469e-01,2.308776080608367920e-01,2.308669388294219971e-01,2.308566272258758545e-01,2.308464050292968750e-01,2.308361232280731201e-01,2.308256626129150391e-01,2.308154106140136719e-01,2.308051884174346924e-01,2.307949066162109375e-01,2.307843863964080811e-01,2.307738363742828369e-01,2.307634651660919189e-01,2.307531535625457764e-01,2.307429313659667969e-01,2.307326495647430420e-01,2.307221591472625732e-01,2.307119965553283691e-01,2.307015955448150635e-01,2.306910455226898193e-01,2.306809425354003906e-01,2.306705713272094727e-01,2.306600511074066162e-01,2.306498289108276367e-01,2.306395173072814941e-01,2.306292355060577393e-01,2.306185066699981689e-01,2.306088507175445557e-01,2.305982410907745361e-01,2.305879294872283936e-01,2.305777370929718018e-01,2.305693030357360840e-01,2.305563986301422119e-01,2.305419743061065674e-01,2.305344045162200928e-01,2.305412590503692627e-01,2.304492294788360596e-01,2.305394709110260010e-01,2.305145263671875000e-01,2.303786277770996094e-01,2.298142313957214355e-01,2.296396791934967041e-01,2.297895848751068115e-01,2.298331856727600098e-01,2.303008735179901123e-01,2.302744090557098389e-01,2.303085625171661377e-01,2.303095161914825439e-01,2.303823530673980713e-01,2.303408980369567871e-01,2.302373349666595459e-01,2.307204306125640869e-01,2.300441563129425049e-01,2.225985527038574219e-01,2.259158194065093994e-01,2.498106360435485840e-01,2.745941877365112305e-01,3.377293050289154053e-01,3.731997013092041016e-01
3.838107585906982422e-01,2.985783219337463379e-01,2.758300304412841797e-01,2.418454587459564209e-01,2.191906273365020752e-01,2.158580422401428223e-01,2.188135087490081787e-01,2.195150852203369141e-01,2.200814187526702881e-01,2.200336456298828125e-01,2.200106382369995117e-01,2.200022935867309570e-01,2.199938297271728516e-01,2.199853658676147461e-01,2.199766635894775391e-01,2.199681103229522705e-01,2.199597358703613281e-01,2.199512422084808350e-01,2.199426591396331787e-01,2.199341654777526855e-01,2.199256420135498047e-01,2.199171781539916992e-01,2.199086248874664307e-01,2.199001610279083252e-01,2.198917269706726074e-01,2.198832929134368896e-01,2.198747992515563965e-01,2.198662757873535156e-01,2.198578119277954102e-01,2.198493182659149170e-01,2.198406755924224854e-01,2.198323905467987061e-01,2.198237776756286621e-01,2.198152542114257812e-01,2.198068499565124512e-01,2.197982668876647949e-01,2.197897732257843018e-01,2.197813391685485840e-01,2.197726368904113770e-01,2.197642326354980469e-01,2.197558879852294922e-01,2.197475135326385498e-01,2.197389900684356689e-01,2.197305560111999512e-01,2.197221219539642334e-01,2.197135984897613525e-01,2.197053134441375732e-01,2.196967303752899170e-01,2.196881771087646484e-01,2.196798026561737061e-01,2.196712493896484375e-01,2.196628153324127197e-01,2.196552157402038574e-01,2.196462154388427734e-01,2.196345031261444092e-01,2.196377515792846680e-01,2.196106314659118652e-01,2.195570468902587891e-01,2.196348905563354492e-01,2.196235656738281250e-01,2.195629775524139404e-01,2.195077240467071533e-01,2.193624675273895264e-01,2.191781401634216309e-01,2.194412052631378174e-01,2.192967236042022705e-01,2.194570899009704590e-01,2.195519804954528809e-01,2.195092439651489258e-01,2.195616066455841064e-01,2.195626497268676758e-01,2.194454073905944824e-01,2.197573781013488770e-01,2.191984653472900391e-01,2.123501300811767578e-01,2.156733870506286621e-01,2.391569614410400391e-01,2.649267613887786865e-01,3.292287886142730713e-01,3.678073585033416748e-01
3.778375089168548584e-01,2.908443808555603027e-01,2.668073773384094238e-01,2.334589064121246338e-01,2.106588184833526611e-01,2.071489691734313965e-01,2.098528742790222168e-01,2.104764878749847412e-01,2.109940052032470703e-01,2.109519839286804199e-01,2.109318673610687256e-01,2.109250426292419434e-01,2.109177708625793457e-01,2.109108865261077881e-01,2.109036743640899658e-01,2.108967304229736328e-01,2.108895182609558105e-01,2.108824253082275391e-01,2.108753323554992676e-01,2.108682692050933838e-01,2.108611464500427246e-01,2.108541429042816162e-01,2.108471393585205078e-01,2.108398675918579102e-01,2.108328044414520264e-01,2.108256220817565918e-01,2.108187079429626465e-01,2.108116745948791504e-01,2.108044922351837158e-01,2.107975184917449951e-01,2.107903361320495605e-01,2.107835114002227783e-01,2.107764482498168945e-01,2.107692062854766846e-01,2.107620835304260254e-01,2.107550203800201416e-01,2.107479870319366455e-01,2.107407748699188232e-01,2.107338905334472656e-01,2.107268273830413818e-01,2.107197344303131104e-01,2.107127308845520020e-01,2.107055485248565674e-01,2.106984257698059082e-01,2.106916308403015137e-01,2.106842994689941406e-01,2.106775343418121338e-01,2.106704711914062500e-01,2.106633484363555908e-01,2.106562256813049316e-01,2.106491625308990479e-01,2.106422781944274902e-01,2.106353640556335449e-01,2.106283307075500488e-01,2.106218338012695312e-01,2.106123864650726318e-01,2.106049060821533203e-01,2.105969190597534180e-01,2.105877399444580078e-01,2.105807065963745117e-01,2.106015980243682861e-01,2.105118930339813232e-01,2.105058133602142334e-01,2.104964554309844971e-01,2.104171514511108398e-01,2.105438113212585449e-01,2.105193138122558594e-01,2.105199396610260010e-01,2.105384469032287598e-01,2.104901373386383057e-01,2.104990482330322266e-01,2.104823291301727295e-01,2.107400894165039062e-01,2.102934122085571289e-01,2.038689553737640381e-01,2.072030901908874512e-01,2.303381860256195068e-01,2.568506598472595215e-01,3.220614790916442871e-01,3.632450699806213379e-01
