6.294721364974975586e-01,6.180767416954040527e-01,6.700414419174194336e-01,6.732201576232910156e-01,6.753976941108703613e-01,6.645047068595886230e-01,6.810716390609741211e-01,6.906527280807495117e-01,7.004579305648803711e-01,7.080708742141723633e-01,7.182353138923645020e-01,7.279580831527709961e-01,7.367385029792785645e-01,7.457982897758483887e-01,7.533794641494750977e-01,7.599323987960815430e-01,7.644248008728027344e-01,7.677344679832458496e-01,7.691656351089477539e-01,7.706756591796875000e-01,7.714940905570983887e-01,7.719136476516723633e-01,7.720137238502502441e-01,7.720362544059753418e-01,7.720389366149902344e-01,7.720369696617126465e-01,7.720367908477783203e-01,7.720367908477783203e-01,7.720367908477783203e-01,7.720367908477783203e-01,7.720367908477783203e-01,7.720367908477783203e-01,7.720367908477783203e-01,7.720367908477783203e-01,7.720367908477783203e-01,7.720367908477783203e-01,7.720367908477783203e-01,7.720367908477783203e-01,7.720367908477783203e-01,7.720367908477783203e-01,7.720367908477783203e-01,7.720367908477783203e-01,7.720367908477783203e-01,7.720367908477783203e-01,7.720367908477783203e-01,7.720367908477783203e-01,7.720444202423095703e-01,7.720054388046264648e-01,7.723984718322753906e-01,7.707109451293945312e-01,7.685015201568603516e-01,7.638303041458129883e-01,7.430037856101989746e-01,7.380756735801696777e-01,7.220440506935119629e-01,6.988968253135681152e-01,6.413143873214721680e-01,6.196290850639343262e-01,5.868828892707824707e-01,5.655086636543273926e-01,5.629401206970214844e-01,5.535912513732910156e-01,5.434767007827758789e-01,5.405933856964111328e-01,5.396068096160888672e-01,5.414132475852966309e-01,5.462262034416198730e-01,5.514190793037414551e-01,5.659274458885192871e-01,5.744496583938598633e-01,5.838501453399658203e-01,6.067430973052978516e-01,6.452575922012329102e-01,6.545811891555786133e-01,6.775997877120971680e-01,6.844922900199890137e-01,6.878797411918640137e-01,7.381457090377807617e-01,6.728975772857666016e-01,5.316604375839233398e-01
5.832503437995910645e-01,5.974671244621276855e-01,6.265165209770202637e-01,6.184989213943481445e-01,6.427038908004760742e-01,6.533792614936828613e-01,6.836202740669250488e-01,7.020490169525146484e-01,7.175691723823547363e-01,7.329907417297363281e-01,7.462596297264099121e-01,7.605400085449218750e-01,7.759602069854736328e-01,7.889709472656250000e-01,8.008189201354980469e-01,8.106313943862915039e-01,8.174234628677368164e-01,8.213803768157958984e-01,8.253246545791625977e-01,8.276306390762329102e-01,8.288428187370300293e-01,8.294205665588378906e-01,8.296595811843872070e-01,8.297058939933776855e-01,8.297190070152282715e-01,8.297177553176879883e-01,8.297177553176879883e-01,8.297177553176879883e-01,8.297177553176879883e-01,8.297177553176879883e-01,8.297177553176879883e-01,8.297177553176879883e-01,8.297177553176879883e-01,8.297177553176879883e-01,8.297177553176879883e-01,8.297177553176879883e-01,8.297177553176879883e-01,8.297177553176879883e-01,8.297177553176879883e-01,8.297177553176879883e-01,8.297177553176879883e-01,8.297177553176879883e-01,8.297177553176879883e-01,8.297177553176879883e-01,8.297177553176879883e-01,8.297177553176879883e-01,8.297164440155029297e-01,8.297662734985351562e-01,8.298408985137939453e-01,8.291349411010742188e-01,8.245614171028137207e-01,8.122341632843017578e-01,7.882497310638427734e-01,7.738963365554809570e-01,7.418874502182006836e-01,7.006496787071228027e-01,6.232586503028869629e-01,5.566074252128601074e-01,5.148627161979675293e-01,4.933103322982788086e-01,4.638475775718688965e-01,4.328688085079193115e-01,4.127581715583801270e-01,4.061158895492553711e-01,4.049429297447204590e-01,4.067436456680297852e-01,4.147634804248809814e-01,4.264172017574310303e-01,4.558664858341217041e-01,4.707717895507812500e-01,5.104213356971740723e-01,5.447248816490173340e-01,5.898758172988891602e-01,6.406360268592834473e-01,6.627175211906433105e-01,6.646488308906555176e-01,6.836041212081909180e-01,7.022206187248229980e-01,6.301161050796508789e-01,5.734280943870544434e-01
5.793617367744445801e-01,5.978950858116149902e-01,6.476578116416931152e-01,6.181069612503051758e-01,6.510567665100097656e-01,6.738543510437011719e-01,7.070468068122863770e-01,7.296438217163085938e-01,7.496276497840881348e-01,7.680902481079101562e-01,7.862582206726074219e-01,8.025188446044921875e-01,8.185814619064331055e-01,8.338369131088256836e-01,8.456774950027465820e-01,8.548234701156616211e-01,8.610759973526000977e-01,8.666076660156250000e-01,8.694136738777160645e-01,8.715443015098571777e-01,8.727872967720031738e-01,8.733290433883666992e-01,8.735418319702148438e-01,8.735988140106201172e-01,8.736076354980468750e-01,8.736066818237304688e-01,8.736065626144409180e-01,8.736065626144409180e-01,8.736065626144409180e-01,8.736065626144409180e-01,8.736065626144409180e-01,8.736065626144409180e-01,8.736065626144409180e-01,8.736065626144409180e-01,8.736065626144409180e-01,8.736065626144409180e-01,8.736065626144409180e-01,8.736065626144409180e-01,8.736065626144409180e-01,8.736065626144409180e-01,8.736065626144409180e-01,8.736065626144409180e-01,8.736065626144409180e-01,8.736065626144409180e-01,8.736065626144409180e-01,8.736065626144409180e-01,8.736093044281005859e-01,8.736587166786193848e-01,8.736068010330200195e-01,8.723879456520080566e-01,8.672934770584106445e-01,8.544325232505798340e-01,8.345793485641479492e-01,8.162721991539001465e-01,7.732657194137573242e-01,7.218027114868164062e-01,6.147798299789428711e-01,5.394135117530822754e-01,4.798068702220916748e-01,4.405059814453125000e-01,3.990343809127807617e-01,3.651425838470458984e-01,3.478666841983795166e-01,3.387834429740905762e-01,3.363586068153381348e-01,3.376582860946655273e-01,3.459665775299072266e-01,3.668586909770965576e-01,3.914668560028076172e-01,4.184277057647705078e-01,4.717284440994262695e-01,5.161088109016418457e-01,5.821639895439147949e-01,6.457698941230773926e-01,6.823065280914306641e-01,6.874234080314636230e-01,7.087366580963134766e-01,7.232744693756103516e-01,6.640610694885253906e-01,5.934081077575683594e-01
5.913807749748229980e-01,6.108363270759582520e-01,6.344384551048278809e-01,6.220487952232360840e-01,6.494335532188415527e-01,6.731003522872924805e-01,7.123102545738220215e-01,7.339148521423339844e-01,7.546849846839904785e-01,7.749592065811157227e-01,7.927672863006591797e-01,8.097984790802001953e-01,8.246865272521972656e-01,8.407038450241088867e-01,8.530346751213073730e-01,8.617793321609497070e-01,8.694054484367370605e-01,8.738834261894226074e-01,8.775231242179870605e-01,8.793206214904785156e-01,8.806392550468444824e-01,8.814571499824523926e-01,8.816826343536376953e-01,8.817386627197265625e-01,8.817477822303771973e-01,8.817470073699951172e-01,8.817465305328369141e-01,8.817465305328369141e-01,8.817465305328369141e-01,8.817465305328369141e-01,8.817465305328369141e-01,8.817465305328369141e-01,8.817465305328369141e-01,8.817465305328369141e-01,8.817465305328369141e-01,8.817465305328369141e-01,8.817465305328369141e-01,8.817465305328369141e-01,8.817465305328369141e-01,8.817465305328369141e-01,8.817465305328369141e-01,8.817465305328369141e-01,8.817465305328369141e-01,8.817465305328369141e-01,8.817465305328369141e-01,8.817465305328369141e-01,8.817509412765502930e-01,8.818076252937316895e-01,8.824516534805297852e-01,8.814657926559448242e-01,8.745148777961730957e-01,8.626663088798522949e-01,8.469840884208679199e-01,8.256275653839111328e-01,7.905979156494140625e-01,7.230106592178344727e-01,6.060533523559570312e-01,5.169290900230407715e-01,4.611463248729705811e-01,4.104856550693511963e-01,3.696096539497375488e-01,3.350663185119628906e-01,3.161373138427734375e-01,3.077200055122375488e-01,3.043752312660217285e-01,3.038463294506072998e-01,3.151821792125701904e-01,3.367250561714172363e-01,3.568650782108306885e-01,3.931325674057006836e-01,4.439429342746734619e-01,4.941497445106506348e-01,5.711761713027954102e-01,6.368019580841064453e-01,6.625170707702636719e-01,6.792225241661071777e-01,7.098985314369201660e-01,7.129504680633544922e-01,6.601811051368713379e-01,5.754303932189941406e-01
5.757638812065124512e-01,5.904925465583801270e-01,6.338627934455871582e-01,6.274548768997192383e-01,6.458182334899902344e-01,6.684293746948242188e-01,7.070249319076538086e-01,7.298165559768676758e-01,7.524292469024658203e-01,7.728587388992309570e-01,7.932828664779663086e-01,8.114506006240844727e-01,8.284870386123657227e-01,8.422843217849731445e-01,8.558309078216552734e-01,8.657031059265136719e-01,8.726392984390258789e-01,8.775071501731872559e-01,8.805847764015197754e-01,8.830823898315429688e-01,8.842675089836120605e-01,8.850157856941223145e-01,8.853498697280883789e-01,8.853969573974609375e-01,8.854047060012817383e-01,8.854037523269653320e-01,8.854033946990966797e-01,8.854033946990966797e-01,8.854033946990966797e-01,8.854033946990966797e-01,8.854033946990966797e-01,8.854033946990966797e-01,8.854033946990966797e-01,8.854033946990966797e-01,8.854033946990966797e-01,8.854033946990966797e-01,8.854033946990966797e-01,8.854033946990966797e-01,8.854033946990966797e-01,8.854033946990966797e-01,8.854033946990966797e-01,8.854033946990966797e-01,8.854033946990966797e-01,8.854033946990966797e-01,8.854033946990966797e-01,8.854033946990966797e-01,8.854076862335205078e-01,8.854712247848510742e-01,8.860043287277221680e-01,8.859387636184692383e-01,8.788001537322998047e-01,8.687317371368408203e-01,8.537124395370483398e-01,8.257682323455810547e-01,7.905445098876953125e-01,7.247166037559509277e-01,5.816982984542846680e-01,4.847611784934997559e-01,4.192810654640197754e-01,3.755993843078613281e-01,3.335477411746978760e-01,3.055990338325500488e-01,2.880330681800842285e-01,2.795957326889038086e-01,2.755205631256103516e-01,2.760020196437835693e-01,2.853446006774902344e-01,2.996429800987243652e-01,3.163537979125976562e-01,3.675461411476135254e-01,4.116556644439697266e-01,4.705802500247955322e-01,5.491646528244018555e-01,6.314254999160766602e-01,6.466229557991027832e-01,6.742413043975830078e-01,7.078496217727661133e-01,7.070846557617187500e-01,6.712442040443420410e-01,5.832348465919494629e-01
5.853820443153381348e-01,6.091378927230834961e-01,6.506124734878540039e-01,6.513600945472717285e-01,6.737952828407287598e-01,6.968537569046020508e-01,7.318622469902038574e-01,7.532184720039367676e-01,7.746899724006652832e-01,7.934705018997192383e-01,8.120073080062866211e-01,8.292933702468872070e-01,8.436655998229980469e-01,8.571964502334594727e-01,8.684960603713989258e-01,8.787734508514404297e-01,8.858884572982788086e-01,8.903844356536865234e-01,8.931915760040283203e-01,8.950234055519104004e-01,8.964561223983764648e-01,8.971031904220581055e-01,8.973984122276306152e-01,8.974739909172058105e-01,8.974814414978027344e-01,8.974800109863281250e-01,8.974796533584594727e-01,8.974796533584594727e-01,8.974796533584594727e-01,8.974796533584594727e-01,8.974796533584594727e-01,8.974796533584594727e-01,8.974796533584594727e-01,8.974796533584594727e-01,8.974796533584594727e-01,8.974796533584594727e-01,8.974796533584594727e-01,8.974796533584594727e-01,8.974796533584594727e-01,8.974796533584594727e-01,8.974796533584594727e-01,8.974796533584594727e-01,8.974796533584594727e-01,8.974796533584594727e-01,8.974796533584594727e-01,8.974796533584594727e-01,8.974881172180175781e-01,8.975223302841186523e-01,8.979517221450805664e-01,8.978533744812011719e-01,8.925236463546752930e-01,8.823590278625488281e-01,8.676012754440307617e-01,8.433259129524230957e-01,8.101412057876586914e-01,7.481368184089660645e-01,6.224244236946105957e-01,5.229365229606628418e-01,4.563683271408081055e-01,3.975719213485717773e-01,3.612083494663238525e-01,3.263865709304809570e-01,3.069343566894531250e-01,2.974950373172760010e-01,2.943294644355773926e-01,2.946861684322357178e-01,3.009853363037109375e-01,3.168209195137023926e-01,3.391803503036499023e-01,3.876037001609802246e-01,4.217663109302520752e-01,4.763607382774353027e-01,5.622991323471069336e-01,6.264761686325073242e-01,6.616336107254028320e-01,6.865716576576232910e-01,7.247427105903625488e-01,7.146095037460327148e-01,6.803253889083862305e-01,5.948982834815979004e-01
5.859888792037963867e-01,6.085693240165710449e-01,6.532145142555236816e-01,6.542298793792724609e-01,6.774977445602416992e-01,7.013387680053710938e-01,7.378514409065246582e-01,7.591898441314697266e-01,7.801104784011840820e-01,7.990748882293701172e-01,8.174595236778259277e-01,8.348035216331481934e-01,8.496592044830322266e-01,8.628402948379516602e-01,8.746960163116455078e-01,8.841706514358520508e-01,8.913401365280151367e-01,8.960806131362915039e-01,8.991936445236206055e-01,9.009400606155395508e-01,9.020608663558959961e-01,9.028347730636596680e-01,9.030658006668090820e-01,9.031409025192260742e-01,9.031517505645751953e-01,9.031503200531005859e-01,9.031499028205871582e-01,9.031499028205871582e-01,9.031499028205871582e-01,9.031499028205871582e-01,9.031499028205871582e-01,9.031499028205871582e-01,9.031499028205871582e-01,9.031499028205871582e-01,9.031499028205871582e-01,9.031499028205871582e-01,9.031499028205871582e-01,9.031499028205871582e-01,9.031499028205871582e-01,9.031499028205871582e-01,9.031499028205871582e-01,9.031499028205871582e-01,9.031499028205871582e-01,9.031499028205871582e-01,9.031499028205871582e-01,9.031499028205871582e-01,9.031512141227722168e-01,9.031875133514404297e-01,9.036575555801391602e-01,9.038672447204589844e-01,8.989827632904052734e-01,8.920029401779174805e-01,8.768552541732788086e-01,8.567118644714355469e-01,8.218748569488525391e-01,7.596305608749389648e-01,6.503921151161193848e-01,5.246861577033996582e-01,4.575054645538330078e-01,4.079882502555847168e-01,3.628841638565063477e-01,3.251795768737792969e-01,3.079351186752319336e-01,2.992887496948242188e-01,2.945550978183746338e-01,2.955223619937896729e-01,2.984362840652465820e-01,3.088032007217407227e-01,3.336976468563079834e-01,3.720375895500183105e-01,4.115963578224182129e-01,4.658440053462982178e-01,5.400528907775878906e-01,6.119604110717773438e-01,6.521773934364318848e-01,6.923198699951171875e-01,7.241681218147277832e-01,7.235561609268188477e-01,6.901862621307373047e-01,5.985009670257568359e-01
5.889579057693481445e-01,6.137163043022155762e-01,6.569485068321228027e-01,6.574067473411560059e-01,6.812260150909423828e-01,7.053278684616088867e-01,7.418465614318847656e-01,7.632315158843994141e-01,7.838418483734130859e-01,8.024220466613769531e-01,8.205620050430297852e-01,8.372582197189331055e-01,8.524594306945800781e-01,8.655397891998291016e-01,8.768962621688842773e-01,8.865479230880737305e-01,8.936626911163330078e-01,8.983410596847534180e-01,9.015567302703857422e-01,9.035390019416809082e-01,9.046005010604858398e-01,9.052472710609436035e-01,9.055244922637939453e-01,9.055815339088439941e-01,9.055951833724975586e-01,9.055936932563781738e-01,9.055932760238647461e-01,9.055932760238647461e-01,9.055932760238647461e-01,9.055932760238647461e-01,9.055932760238647461e-01,9.055932760238647461e-01,9.055932760238647461e-01,9.055932760238647461e-01,9.055932760238647461e-01,9.055932760238647461e-01,9.055932760238647461e-01,9.055932760238647461e-01,9.055932760238647461e-01,9.055932760238647461e-01,9.055932760238647461e-01,9.055932760238647461e-01,9.055932760238647461e-01,9.055932760238647461e-01,9.055932760238647461e-01,9.055932760238647461e-01,9.055908918380737305e-01,9.055989980697631836e-01,9.058953523635864258e-01,9.062647819519042969e-01,9.027849435806274414e-01,8.940863609313964844e-01,8.815847635269165039e-01,8.601940870285034180e-01,8.267605900764465332e-01,7.651954293251037598e-01,6.509527564048767090e-01,5.424950718879699707e-01,4.582926630973815918e-01,4.113973379135131836e-01,3.707495629787445068e-01,3.285068869590759277e-01,3.095093965530395508e-01,2.988503873348236084e-01,2.965280413627624512e-01,2.960740923881530762e-01,2.974817156791687012e-01,3.058675527572631836e-01,3.285419940948486328e-01,3.606523573398590088e-01,4.037951529026031494e-01,4.613251388072967529e-01,5.100119709968566895e-01,5.968674421310424805e-01,6.374573707580566406e-01,6.811277866363525391e-01,7.200443744659423828e-01,7.212473750114440918e-01,6.886635422706604004e-01,5.978544354438781738e-01
5.884764790534973145e-01,6.139602661132812500e-01,6.563315391540527344e-01,6.571245789527893066e-01,6.807260513305664062e-01,7.049888372421264648e-01,7.413096427917480469e-01,7.627391219139099121e-01,7.834849357604980469e-01,8.020357489585876465e-01,8.197864294052124023e-01,8.366073369979858398e-01,8.516552448272705078e-01,8.648970723152160645e-01,8.764179348945617676e-01,8.860183954238891602e-01,8.930649757385253906e-01,8.978269696235656738e-01,9.010759592056274414e-01,9.031782150268554688e-01,9.043441414833068848e-01,9.049906730651855469e-01,9.052336215972900391e-01,9.052965641021728516e-01,9.053112268447875977e-01,9.053096771240234375e-01,9.053092002868652344e-01,9.053092002868652344e-01,9.053092002868652344e-01,9.053092002868652344e-01,9.053092002868652344e-01,9.053092002868652344e-01,9.053092002868652344e-01,9.053092002868652344e-01,9.053092002868652344e-01,9.053092002868652344e-01,9.053092002868652344e-01,9.053092002868652344e-01,9.053092002868652344e-01,9.053092002868652344e-01,9.053092002868652344e-01,9.053092002868652344e-01,9.053092002868652344e-01,9.053092002868652344e-01,9.053092002868652344e-01,9.053092002868652344e-01,9.053043127059936523e-01,9.053225517272949219e-01,9.058105945587158203e-01,9.067209959030151367e-01,9.023073911666870117e-01,8.970717191696166992e-01,8.817913532257080078e-01,8.607846498489379883e-01,8.280076980590820312e-01,7.711259126663208008e-01,6.682449579238891602e-01,5.496565103530883789e-01,4.791985154151916504e-01,4.090374708175659180e-01,3.623643815517425537e-01,3.323107361793518066e-01,3.127024471759796143e-01,3.005664944648742676e-01,2.960923314094543457e-01,2.951868176460266113e-01,2.966506481170654297e-01,3.049435615539550781e-01,3.194893598556518555e-01,3.426419496536254883e-01,3.957290351390838623e-01,4.394267797470092773e-01,5.016677379608154297e-01,5.707457661628723145e-01,6.237391233444213867e-01,6.622308492660522461e-01,7.127978801727294922e-01,7.197985053062438965e-01,6.836808919906616211e-01,5.963526368141174316e-01
5.885016918182373047e-01,6.139488220214843750e-01,6.565045118331909180e-01,6.572784781455993652e-01,6.807781457901000977e-01,7.049953937530517578e-01,7.413746714591979980e-01,7.627742886543273926e-01,7.835458517074584961e-01,8.021697998046875000e-01,8.199294209480285645e-01,8.364096879959106445e-01,8.515368700027465820e-01,8.648518919944763184e-01,8.763732910156250000e-01,8.859381079673767090e-01,8.930213451385498047e-01,8.977288603782653809e-01,9.010210633277893066e-01,9.031491279602050781e-01,9.043531417846679688e-01,9.050096869468688965e-01,9.052693843841552734e-01,9.053225517272949219e-01,9.053357839584350586e-01,9.053343534469604492e-01,9.053338766098022461e-01,9.053338766098022461e-01,9.053338766098022461e-01,9.053338766098022461e-01,9.053338766098022461e-01,9.053338766098022461e-01,9.053338766098022461e-01,9.053338766098022461e-01,9.053338766098022461e-01,9.053338766098022461e-01,9.053338766098022461e-01,9.053338766098022461e-01,9.053338766098022461e-01,9.053338766098022461e-01,9.053338766098022461e-01,9.053338766098022461e-01,9.053338766098022461e-01,9.053338766098022461e-01,9.053338766098022461e-01,9.053338766098022461e-01,9.053305983543395996e-01,9.053208827972412109e-01,9.057314395904541016e-01,9.057856202125549316e-01,9.027388095855712891e-01,8.960034847259521484e-01,8.856670856475830078e-01,8.671339750289916992e-01,8.354933261871337891e-01,7.725759744644165039e-01,6.848287582397460938e-01,5.438234210014343262e-01,4.717419445514678955e-01,4.162960946559906006e-01,3.766013085842132568e-01,3.364280462265014648e-01,3.078851699829101562e-01,2.971419692039489746e-01,2.965458631515502930e-01,2.947551012039184570e-01,2.960937023162841797e-01,3.029829263687133789e-01,3.186452090740203857e-01,3.368025422096252441e-01,3.864054083824157715e-01,4.174439311027526855e-01,4.675836563110351562e-01,5.565236210823059082e-01,6.028315424919128418e-01,6.479807496070861816e-01,6.976594328880310059e-01,7.112285494804382324e-01,6.744024157524108887e-01,5.868996381759643555e-01
5.884807705879211426e-01,6.139118671417236328e-01,6.564787030220031738e-01,6.572388410568237305e-01,6.807475686073303223e-01,7.049655914306640625e-01,7.413303852081298828e-01,7.627443075180053711e-01,7.835179567337036133e-01,8.021484613418579102e-01,8.199408054351806641e-01,8.364360928535461426e-01,8.513960838317871094e-01,8.647893667221069336e-01,8.763935565948486328e-01,8.858848810195922852e-01,8.929588794708251953e-01,8.977020978927612305e-01,9.009696245193481445e-01,9.031198620796203613e-01,9.043424129486083984e-01,9.050060510635375977e-01,9.052580595016479492e-01,9.053189158439636230e-01,9.053307175636291504e-01,9.053287506103515625e-01,9.053283333778381348e-01,9.053283333778381348e-01,9.053283333778381348e-01,9.053283333778381348e-01,9.053283333778381348e-01,9.053283333778381348e-01,9.053283333778381348e-01,9.053283333778381348e-01,9.053283333778381348e-01,9.053283333778381348e-01,9.053283333778381348e-01,9.053283333778381348e-01,9.053283333778381348e-01,9.053283333778381348e-01,9.053283333778381348e-01,9.053283333778381348e-01,9.053283333778381348e-01,9.053283333778381348e-01,9.053283333778381348e-01,9.053283333778381348e-01,9.053281545639038086e-01,9.053399562835693359e-01,9.058504104614257812e-01,9.059764146804809570e-01,9.037474393844604492e-01,8.958644270896911621e-01,8.839678764343261719e-01,8.648939132690429688e-01,8.378971219062805176e-01,7.926067113876342773e-01,6.879363656044006348e-01,5.550441145896911621e-01,4.783866405487060547e-01,4.312729835510253906e-01,3.765205740928649902e-01,3.383319675922393799e-01,3.152009844779968262e-01,3.035788536071777344e-01,2.948045730590820312e-01,2.932330965995788574e-01,2.962112426757812500e-01,3.015818595886230469e-01,3.113704025745391846e-01,3.382593989372253418e-01,3.650742769241333008e-01,4.054630994796752930e-01,4.723868072032928467e-01,5.288823246955871582e-01,5.805389881134033203e-01,6.322021484375000000e-01,6.925700306892395020e-01,6.992816329002380371e-01,6.643891930580139160e-01,5.905432105064392090e-01
5.884738564491271973e-01,6.139004230499267578e-01,6.564655303955078125e-01,6.572232246398925781e-01,6.807299256324768066e-01,7.049458026885986328e-01,7.413140535354614258e-01,7.627207040786743164e-01,7.834960818290710449e-01,8.021357655525207520e-01,8.199274539947509766e-01,8.364304304122924805e-01,8.513966798782348633e-01,8.647283911705017090e-01,8.763764500617980957e-01,8.859145641326904297e-01,8.929377198219299316e-01,8.976860046386718750e-01,9.009734392166137695e-01,9.031088352203369141e-01,9.043350219726562500e-01,9.050055146217346191e-01,9.052593708038330078e-01,9.053182601928710938e-01,9.053307771682739258e-01,9.053288698196411133e-01,9.053283333778381348e-01,9.053283333778381348e-01,9.053283333778381348e-01,9.053283333778381348e-01,9.053283333778381348e-01,9.053283333778381348e-01,9.053283333778381348e-01,9.053283333778381348e-01,9.053283333778381348e-01,9.053283333778381348e-01,9.053283333778381348e-01,9.053283333778381348e-01,9.053283333778381348e-01,9.053283333778381348e-01,9.053283333778381348e-01,9.053283333778381348e-01,9.053283333778381348e-01,9.053283333778381348e-01,9.053283333778381348e-01,9.053283333778381348e-01,9.053292274475097656e-01,9.053289890289306641e-01,9.057406187057495117e-01,9.059492945671081543e-01,9.035792350769042969e-01,8.976977467536926270e-01,8.879205584526062012e-01,8.676362633705139160e-01,8.430458307266235352e-01,7.874684333801269531e-01,7.005119323730468750e-01,5.743491053581237793e-01,5.048648118972778320e-01,4.296916127204895020e-01,3.864817619323730469e-01,3.440684676170349121e-01,3.190133869647979736e-01,3.019790053367614746e-01,2.937546372413635254e-01,2.964198887348175049e-01,2.991574406623840332e-01,2.985527515411376953e-01,3.134101033210754395e-01,3.321980834007263184e-01,3.609625697135925293e-01,4.026477336883544922e-01,4.690502285957336426e-01,5.060638189315795898e-01,5.581421852111816406e-01,6.245009303092956543e-01,6.797086000442504883e-01,6.862310171127319336e-01,6.670560836791992188e-01,5.839797854423522949e-01
5.884669423103332520e-01,6.138892173767089844e-01,6.564524769783020020e-01,6.572080850601196289e-01,6.807129979133605957e-01,7.049279808998107910e-01,7.412950992584228516e-01,7.627035379409790039e-01,7.834765315055847168e-01,8.021152019500732422e-01,8.199142217636108398e-01,8.364176750183105469e-01,8.513852953910827637e-01,8.647181391716003418e-01,8.763573169708251953e-01,8.859030008316040039e-01,8.929396867752075195e-01,8.976823091506958008e-01,9.009670019149780273e-01,9.031099081039428711e-01,9.043337106704711914e-01,9.050044417381286621e-01,9.052593708038330078e-01,9.053182601928710938e-01,9.053307175636291504e-01,9.053288698196411133e-01,9.053283333778381348e-01,9.053283333778381348e-01,9.053283333778381348e-01,9.053283333778381348e-01,9.053283333778381348e-01,9.053283333778381348e-01,9.053283333778381348e-01,9.053283333778381348e-01,9.053283333778381348e-01,9.053283333778381348e-01,9.053283333778381348e-01,9.053283333778381348e-01,9.053283333778381348e-01,9.053283333778381348e-01,9.053283333778381348e-01,9.053283333778381348e-01,9.053283333778381348e-01,9.053283333778381348e-01,9.053283333778381348e-01,9.053283333778381348e-01,9.053380489349365234e-01,9.053427577018737793e-01,9.055046439170837402e-01,9.061001539230346680e-01,9.025466442108154297e-01,8.968788981437683105e-01,8.857317566871643066e-01,8.656232357025146484e-01,8.504557609558105469e-01,7.994511127471923828e-01,7.121162414550781250e-01,5.854079723358154297e-01,5.076976418495178223e-01,4.396250247955322266e-01,3.767015337944030762e-01,3.594804406166076660e-01,3.225115835666656494e-01,3.069290518760681152e-01,2.949596643447875977e-01,2.984077930450439453e-01,3.009597659111022949e-01,3.005279004573822021e-01,3.120676875114440918e-01,3.278784751892089844e-01,3.519175648689270020e-01,4.044777154922485352e-01,4.528825879096984863e-01,5.162345767021179199e-01,5.548241138458251953e-01,5.999624729156494141e-01,6.680889725685119629e-01,6.891806721687316895e-01,6.638821363449096680e-01,5.801431536674499512e-01
5.884600281715393066e-01,6.138780713081359863e-01,6.564394235610961914e-01,6.571929454803466797e-01,6.806963682174682617e-01,7.049108743667602539e-01,7.412775158882141113e-01,7.626855373382568359e-01,7.834590673446655273e-01,8.020973205566406250e-01,8.198971748352050781e-01,8.364029526710510254e-01,8.513708114624023438e-01,8.647055029869079590e-01,8.763464689254760742e-01,8.858942985534667969e-01,8.929324150085449219e-01,8.976778984069824219e-01,9.009643793106079102e-01,9.031084775924682617e-01,9.043329954147338867e-01,9.050040245056152344e-01,9.052593708038330078e-01,9.053181409835815430e-01,9.053306579589843750e-01,9.053288698196411133e-01,9.053283333778381348e-01,9.053283333778381348e-01,9.053283333778381348e-01,9.053283333778381348e-01,9.053283333778381348e-01,9.053283333778381348e-01,9.053283333778381348e-01,9.053283333778381348e-01,9.053283333778381348e-01,9.053283333778381348e-01,9.053283333778381348e-01,9.053283333778381348e-01,9.053283333778381348e-01,9.053283333778381348e-01,9.053283333778381348e-01,9.053283333778381348e-01,9.053283333778381348e-01,9.053283333778381348e-01,9.053283333778381348e-01,9.053283333778381348e-01,9.053397178649902344e-01,9.053159952163696289e-01,9.053898453712463379e-01,9.052854180335998535e-01,9.043560028076171875e-01,8.979342579841613770e-01,8.870946168899536133e-01,8.769990801811218262e-01,8.521112203598022461e-01,8.011059165000915527e-01,7.026253938674926758e-01,5.849411487579345703e-01,5.181874036788940430e-01,4.712916314601898193e-01,4.136000275611877441e-01,3.569912612438201904e-01,3.205987811088562012e-01,3.119953274726867676e-01,3.055746257305145264e-01,2.983978390693664551e-01,3.027953803539276123e-01,3.126626908779144287e-01,3.181483745574951172e-01,3.300085663795471191e-01,3.656208813190460205e-01,4.010185003280639648e-01,4.570302665233612061e-01,5.033277869224548340e-01,5.700263977050781250e-01,6.028101444244384766e-01,6.488937139511108398e-01,6.860873103141784668e-01,6.704394817352294922e-01,5.733914971351623535e-01
5.884531736373901367e-01,6.138671040534973145e-01,6.564266681671142578e-01,6.571778655052185059e-01,6.806797385215759277e-01,7.048937082290649414e-01,7.412601709365844727e-01,7.626682519912719727e-01,7.834417819976806641e-01,8.020800352096557617e-01,8.198807239532470703e-01,8.363876938819885254e-01,8.513568639755249023e-01,8.646928071975708008e-01,8.763355016708374023e-01,8.858858346939086914e-01,8.929263353347778320e-01,8.976736068725585938e-01,9.009615182876586914e-01,9.031070470809936523e-01,9.043321609497070312e-01,9.050034284591674805e-01,9.052591323852539062e-01,9.053180217742919922e-01,9.053307175636291504e-01,9.053288698196411133e-01,9.053283333778381348e-01,9.053283333778381348e-01,9.053283333778381348e-01,9.053283333778381348e-01,9.053283333778381348e-01,9.053283333778381348e-01,9.053283333778381348e-01,9.053283333778381348e-01,9.053283333778381348e-01,9.053283333778381348e-01,9.053283333778381348e-01,9.053283333778381348e-01,9.053283333778381348e-01,9.053283333778381348e-01,9.053283333778381348e-01,9.053283333778381348e-01,9.053283333778381348e-01,9.053283333778381348e-01,9.053283333778381348e-01,9.053283333778381348e-01,9.053238630294799805e-01,9.053392410278320312e-01,9.053072929382324219e-01,9.052491188049316406e-01,9.042978286743164062e-01,8.973692655563354492e-01,8.852868080139160156e-01,8.777473568916320801e-01,8.503381013870239258e-01,8.101056814193725586e-01,7.381594181060791016e-01,5.892788171768188477e-01,5.509068369865417480e-01,4.772689342498779297e-01,4.256387352943420410e-01,3.620574176311492920e-01,3.420090675354003906e-01,3.236746788024902344e-01,3.130099773406982422e-01,2.997334897518157959e-01,3.133400082588195801e-01,3.228597044944763184e-01,3.235723078250885010e-01,3.229232430458068848e-01,3.727625608444213867e-01,4.183643758296966553e-01,4.613663852214813232e-01,5.084262490272521973e-01,5.592792630195617676e-01,6.119724512100219727e-01,6.443670988082885742e-01,6.714534759521484375e-01,6.569877266883850098e-01,5.798929333686828613e-01
5.884464979171752930e-01,6.138561964035034180e-01,6.564138531684875488e-01,6.571630239486694336e-01,6.806634664535522461e-01,7.048768401145935059e-01,7.412432432174682617e-01,7.626513242721557617e-01,7.834246754646301270e-01,8.020631074905395508e-01,8.198644518852233887e-01,8.363726139068603516e-01,8.513430356979370117e-01,8.646805286407470703e-01,8.763245940208435059e-01,8.858771324157714844e-01,8.929203748703002930e-01,8.976696133613586426e-01,9.009585380554199219e-01,9.031052589416503906e-01,9.043312072753906250e-01,9.050028920173645020e-01,9.052590131759643555e-01,9.053180217742919922e-01,9.053307175636291504e-01,9.053288698196411133e-01,9.053283333778381348e-01,9.053283333778381348e-01,9.053283333778381348e-01,9.053283333778381348e-01,9.053283333778381348e-01,9.053283333778381348e-01,9.053283333778381348e-01,9.053283333778381348e-01,9.053283333778381348e-01,9.053283333778381348e-01,9.053283333778381348e-01,9.053283333778381348e-01,9.053283333778381348e-01,9.053283333778381348e-01,9.053283333778381348e-01,9.053283333778381348e-01,9.053283333778381348e-01,9.053283333778381348e-01,9.053283333778381348e-01,9.053283333778381348e-01,9.053242206573486328e-01,9.053277969360351562e-01,9.052382707595825195e-01,9.061985015869140625e-01,9.053019285202026367e-01,8.991885185241699219e-01,8.940221071243286133e-01,8.831857442855834961e-01,8.568863272666931152e-01,8.126800060272216797e-01,7.305333018302917480e-01,6.446079611778259277e-01,5.584419369697570801e-01,5.270037651062011719e-01,4.478740990161895752e-01,3.923563063144683838e-01,3.549792170524597168e-01,3.409302830696105957e-01,3.224601745605468750e-01,3.207308650016784668e-01,3.323895931243896484e-01,3.272779285907745361e-01,3.317518532276153564e-01,3.379508256912231445e-01,3.716948926448822021e-01,4.197661578655242920e-01,4.741637110710144043e-01,5.254477858543395996e-01,5.500803589820861816e-01,6.099209189414978027e-01,6.635581254959106445e-01,6.714035868644714355e-01,6.585254669189453125e-01,5.815970301628112793e-01
5.884404778480529785e-01,6.138459444046020508e-01,6.564016342163085938e-01,6.571485996246337891e-01,6.806474924087524414e-01,7.048605680465698242e-01,7.412265539169311523e-01,7.626344561576843262e-01,7.834078073501586914e-01,8.020467162132263184e-01,8.198485374450683594e-01,8.363578915596008301e-01,8.513297438621520996e-01,8.646683692932128906e-01,8.763139247894287109e-01,8.858685493469238281e-01,8.929144144058227539e-01,8.976658582687377930e-01,9.009556770324707031e-01,9.031035304069519043e-01,9.043302536010742188e-01,9.050022363662719727e-01,9.052590727806091309e-01,9.053180217742919922e-01,9.053307175636291504e-01,9.053288698196411133e-01,9.053283333778381348e-01,9.053283333778381348e-01,9.053283333778381348e-01,9.053283333778381348e-01,9.053283333778381348e-01,9.053283333778381348e-01,9.053283333778381348e-01,9.053283333778381348e-01,9.053283333778381348e-01,9.053283333778381348e-01,9.053283333778381348e-01,9.053283333778381348e-01,9.053283333778381348e-01,9.053283333778381348e-01,9.053283333778381348e-01,9.053283333778381348e-01,9.053283333778381348e-01,9.053283333778381348e-01,9.053283333778381348e-01,9.053283333778381348e-01,9.053230285644531250e-01,9.053299427032470703e-01,9.053741693496704102e-01,9.066717624664306641e-01,9.047438502311706543e-01,8.997297286987304688e-01,8.937675356864929199e-01,8.893900513648986816e-01,8.663092851638793945e-01,8.339877724647521973e-01,7.568534016609191895e-01,6.808109879493713379e-01,6.204055547714233398e-01,5.617117881774902344e-01,4.844233691692352295e-01,4.270046055316925049e-01,3.791396617889404297e-01,3.541969358921051025e-01,3.373994231224060059e-01,3.387269675731658936e-01,3.459097743034362793e-01,3.437527418136596680e-01,3.451616168022155762e-01,3.692006468772888184e-01,3.709591925144195557e-01,4.123971462249755859e-01,5.074749588966369629e-01,5.458161830902099609e-01,5.465693473815917969e-01,6.134366989135742188e-01,6.774888634681701660e-01,6.763265132904052734e-01,6.559824347496032715e-01,5.885351300239562988e-01
5.884348750114440918e-01,6.138365268707275391e-01,6.563903093338012695e-01,6.571349501609802246e-01,6.806320548057556152e-01,7.048444151878356934e-01,7.412105798721313477e-01,7.626184225082397461e-01,7.833917140960693359e-01,8.020304441452026367e-01,8.198332786560058594e-01,8.363432884216308594e-01,8.513164520263671875e-01,8.646564483642578125e-01,8.763036131858825684e-01,8.858603239059448242e-01,8.929084539413452148e-01,8.976619243621826172e-01,9.009528160095214844e-01,9.031019210815429688e-01,9.043292999267578125e-01,9.050019383430480957e-01,9.052588939666748047e-01,9.053179025650024414e-01,9.053307175636291504e-01,9.053288698196411133e-01,9.053283333778381348e-01,9.053283333778381348e-01,9.053283333778381348e-01,9.053283333778381348e-01,9.053283333778381348e-01,9.053283333778381348e-01,9.053283333778381348e-01,9.053283333778381348e-01,9.053283333778381348e-01,9.053283333778381348e-01,9.053283333778381348e-01,9.053283333778381348e-01,9.053283333778381348e-01,9.053283333778381348e-01,9.053283333778381348e-01,9.053283333778381348e-01,9.053283333778381348e-01,9.053283333778381348e-01,9.053283333778381348e-01,9.053283333778381348e-01,9.053316116333007812e-01,9.053300619125366211e-01,9.057635068893432617e-01,9.064514636993408203e-01,9.046678543090820312e-01,9.020807743072509766e-01,8.985640406608581543e-01,8.958495855331420898e-01,8.793966770172119141e-01,8.481162786483764648e-01,7.840631008148193359e-01,7.306065559387207031e-01,6.998679637908935547e-01,6.225972771644592285e-01,5.289989113807678223e-01,4.464761316776275635e-01,4.106012284755706787e-01,3.708667159080505371e-01,3.755002617835998535e-01,3.538901805877685547e-01,3.850468397140502930e-01,3.665552139282226562e-01,3.706106543540954590e-01,3.917275071144104004e-01,3.889130949974060059e-01,4.261566102504730225e-01,4.981748461723327637e-01,5.744013786315917969e-01,5.652981996536254883e-01,6.125015616416931152e-01,6.689783930778503418e-01,6.865955591201782227e-01,6.606063842773437500e-01,5.898961424827575684e-01
5.884300470352172852e-01,6.138282418251037598e-01,6.563802361488342285e-01,6.571226716041564941e-01,6.806179881095886230e-01,7.048296928405761719e-01,7.411950230598449707e-01,7.626026868820190430e-01,7.833757400512695312e-01,8.020148873329162598e-01,8.198182582855224609e-01,8.363294601440429688e-01,8.513036370277404785e-01,8.646448850631713867e-01,8.762933015823364258e-01,8.858521580696105957e-01,8.929027915000915527e-01,8.976582288742065430e-01,9.009500741958618164e-01,9.031003713607788086e-01,9.043284654617309570e-01,9.050014019012451172e-01,9.052588939666748047e-01,9.053179025650024414e-01,9.053307175636291504e-01,9.053288698196411133e-01,9.053283333778381348e-01,9.053283333778381348e-01,9.053283333778381348e-01,9.053283333778381348e-01,9.053283333778381348e-01,9.053283333778381348e-01,9.053283333778381348e-01,9.053283333778381348e-01,9.053283333778381348e-01,9.053283333778381348e-01,9.053283333778381348e-01,9.053283333778381348e-01,9.053283333778381348e-01,9.053283333778381348e-01,9.053283333778381348e-01,9.053283333778381348e-01,9.053283333778381348e-01,9.053283333778381348e-01,9.053283333778381348e-01,9.053283333778381348e-01,9.053297042846679688e-01,9.053354859352111816e-01,9.057722091674804688e-01,9.058176279067993164e-01,9.042528867721557617e-01,9.009623527526855469e-01,9.022638201713562012e-01,8.979921340942382812e-01,8.897657990455627441e-01,8.726236224174499512e-01,8.208743333816528320e-01,7.875119447708129883e-01,7.221186757087707520e-01,6.789894104003906250e-01,5.752316713333129883e-01,5.039285421371459961e-01,4.450609683990478516e-01,4.175681471824645996e-01,4.110307693481445312e-01,3.743897080421447754e-01,4.163600504398345947e-01,3.804914653301239014e-01,3.964639902114868164e-01,3.979022502899169922e-01,4.144866168498992920e-01,4.504338204860687256e-01,5.005267262458801270e-01,5.815526247024536133e-01,6.081500053405761719e-01,6.081426143646240234e-01,6.796103119850158691e-01,6.869801878929138184e-01,6.658749580383300781e-01,5.884081125259399414e-01
5.884254574775695801e-01,6.138207912445068359e-01,6.563712358474731445e-01,6.571120023727416992e-01,6.806055307388305664e-01,7.048164606094360352e-01,7.411811351776123047e-01,7.625882625579833984e-01,7.833609580993652344e-01,8.019996881484985352e-01,8.198040723800659180e-01,8.363159894943237305e-01,8.512914180755615234e-01,8.646339178085327148e-01,8.762836456298828125e-01,8.858442902565002441e-01,8.928973674774169922e-01,8.976544737815856934e-01,9.009474515914916992e-01,9.030988812446594238e-01,9.043276309967041016e-01,9.050009846687316895e-01,9.052587747573852539e-01,9.053179025650024414e-01,9.053307771682739258e-01,9.053288698196411133e-01,9.053283333778381348e-01,9.053283333778381348e-01,9.053283333778381348e-01,9.053283333778381348e-01,9.053283333778381348e-01,9.053283333778381348e-01,9.053283333778381348e-01,9.053283333778381348e-01,9.053283333778381348e-01,9.053283333778381348e-01,9.053283333778381348e-01,9.053283333778381348e-01,9.053283333778381348e-01,9.053283333778381348e-01,9.053283333778381348e-01,9.053283333778381348e-01,9.053283333778381348e-01,9.053283333778381348e-01,9.053283333778381348e-01,9.053283333778381348e-01,9.053282737731933594e-01,9.053293466567993164e-01,9.056668281555175781e-01,9.057302474975585938e-01,9.048070907592773438e-01,9.035907983779907227e-01,9.046108722686767578e-01,9.010705947875976562e-01,8.952077627182006836e-01,8.785977959632873535e-01,8.476477861404418945e-01,8.077644109725952148e-01,7.754078507423400879e-01,7.247051000595092773e-01,6.382756829261779785e-01,5.436100959777832031e-01,4.823423326015472412e-01,4.305932819843292236e-01,4.238185286521911621e-01,4.204767942428588867e-01,4.146314263343811035e-01,4.243531227111816406e-01,4.064847528934478760e-01,4.298920333385467529e-01,4.255259335041046143e-01,4.715430736541748047e-01,5.246745347976684570e-01,5.981163382530212402e-01,6.165230870246887207e-01,6.389902830123901367e-01,6.864433884620666504e-01,7.013372182846069336e-01,6.657391190528869629e-01,5.916105508804321289e-01
5.884210467338562012e-01,6.138136386871337891e-01,6.563624739646911621e-01,6.571022272109985352e-01,6.805945634841918945e-01,7.048048973083496094e-01,7.411691546440124512e-01,7.625752687454223633e-01,7.833476066589355469e-01,8.019858598709106445e-01,8.197902441024780273e-01,8.363033533096313477e-01,8.512794971466064453e-01,8.646231889724731445e-01,8.762741088867187500e-01,8.858367204666137695e-01,8.928917646408081055e-01,8.976509571075439453e-01,9.009447097778320312e-01,9.030972719192504883e-01,9.043266773223876953e-01,9.050004482269287109e-01,9.052587747573852539e-01,9.053179025650024414e-01,9.053307175636291504e-01,9.053288698196411133e-01,9.053283333778381348e-01,9.053283333778381348e-01,9.053283333778381348e-01,9.053283333778381348e-01,9.053283333778381348e-01,9.053283333778381348e-01,9.053283333778381348e-01,9.053283333778381348e-01,9.053283333778381348e-01,9.053283333778381348e-01,9.053283333778381348e-01,9.053283333778381348e-01,9.053283333778381348e-01,9.053283333778381348e-01,9.053283333778381348e-01,9.053283333778381348e-01,9.053283333778381348e-01,9.053283333778381348e-01,9.053283333778381348e-01,9.053283333778381348e-01,9.053227901458740234e-01,9.053086042404174805e-01,9.053324460983276367e-01,9.057714939117431641e-01,9.048763513565063477e-01,9.053627848625183105e-01,9.063639044761657715e-01,9.033327102661132812e-01,8.978078961372375488e-01,8.825477361679077148e-01,8.719838857650756836e-01,8.317234516143798828e-01,8.059598207473754883e-01,7.479425668716430664e-01,6.808091402053833008e-01,5.718410015106201172e-01,5.174010992050170898e-01,4.547200500965118408e-01,4.424043893814086914e-01,4.487754404544830322e-01,4.340692758560180664e-01,4.391952157020568848e-01,4.374740719795227051e-01,4.438654780387878418e-01,4.418136775493621826e-01,5.152875781059265137e-01,5.306133031845092773e-01,6.118555068969726562e-01,6.222799420356750488e-01,6.544299125671386719e-01,6.966001391410827637e-01,7.055485248565673828e-01,6.744980216026306152e-01,5.905899405479431152e-01
5.884164571762084961e-01,6.138063073158264160e-01,6.563544869422912598e-01,6.570929884910583496e-01,6.805842518806457520e-01,7.047941684722900391e-01,7.411581873893737793e-01,7.625643014907836914e-01,7.833359241485595703e-01,8.019738197326660156e-01,8.197783231735229492e-01,8.362915515899658203e-01,8.512682914733886719e-01,8.646131753921508789e-01,8.762654066085815430e-01,8.858294486999511719e-01,8.928868770599365234e-01,8.976476192474365234e-01,9.009423255920410156e-01,9.030958414077758789e-01,9.043259024620056152e-01,9.050000905990600586e-01,9.052586555480957031e-01,9.053179025650024414e-01,9.053307175636291504e-01,9.053288698196411133e-01,9.053283333778381348e-01,9.053283333778381348e-01,9.053283333778381348e-01,9.053283333778381348e-01,9.053283333778381348e-01,9.053283333778381348e-01,9.053283333778381348e-01,9.053283333778381348e-01,9.053283333778381348e-01,9.053283333778381348e-01,9.053283333778381348e-01,9.053283333778381348e-01,9.053283333778381348e-01,9.053283333778381348e-01,9.053283333778381348e-01,9.053283333778381348e-01,9.053283333778381348e-01,9.053283333778381348e-01,9.053283333778381348e-01,9.053283333778381348e-01,9.053276777267456055e-01,9.052955508232116699e-01,9.052706956863403320e-01,9.056326746940612793e-01,9.058667421340942383e-01,9.063380956649780273e-01,9.066110849380493164e-01,9.063373208045959473e-01,8.966801762580871582e-01,8.874825239181518555e-01,8.725733160972595215e-01,8.543665409088134766e-01,8.214104771614074707e-01,7.875726222991943359e-01,7.047205567359924316e-01,5.854234695434570312e-01,5.199036598205566406e-01,4.645503759384155273e-01,4.561142921447753906e-01,4.701824784278869629e-01,4.731608033180236816e-01,4.345563054084777832e-01,4.464644491672515869e-01,4.341257512569427490e-01,4.705744683742523193e-01,5.198286771774291992e-01,5.675631761550903320e-01,6.134670972824096680e-01,6.465255618095397949e-01,6.732789278030395508e-01,7.051555514335632324e-01,7.144035696983337402e-01,6.830625534057617188e-01,5.991325974464416504e-01
5.884112119674682617e-01,6.137983202934265137e-01,6.563459038734436035e-01,6.570830345153808594e-01,6.805740594863891602e-01,7.047837972640991211e-01,7.411476373672485352e-01,7.625539302825927734e-01,7.833254337310791016e-01,8.019630908966064453e-01,8.197678327560424805e-01,8.362813591957092285e-01,8.512582778930664062e-01,8.646040558815002441e-01,8.762569427490234375e-01,8.858228921890258789e-01,8.928819298744201660e-01,8.976446390151977539e-01,9.009400010108947754e-01,9.030944705009460449e-01,9.043250679969787598e-01,9.049996733665466309e-01,9.052584767341613770e-01,9.053179025650024414e-01,9.053307771682739258e-01,9.053288698196411133e-01,9.053283333778381348e-01,9.053283333778381348e-01,9.053283333778381348e-01,9.053283333778381348e-01,9.053283333778381348e-01,9.053283333778381348e-01,9.053283333778381348e-01,9.053283333778381348e-01,9.053283333778381348e-01,9.053283333778381348e-01,9.053283333778381348e-01,9.053283333778381348e-01,9.053283333778381348e-01,9.053283333778381348e-01,9.053283333778381348e-01,9.053283333778381348e-01,9.053283333778381348e-01,9.053283333778381348e-01,9.053283333778381348e-01,9.053283333778381348e-01,9.053250551223754883e-01,9.053056240081787109e-01,9.052477478981018066e-01,9.053264856338500977e-01,9.060693979263305664e-01,9.058167934417724609e-01,9.066874980926513672e-01,9.062620997428894043e-01,9.011526107788085938e-01,8.929175734519958496e-01,8.815116286277770996e-01,8.558188676834106445e-01,8.383035063743591309e-01,7.942765951156616211e-01,7.155616879463195801e-01,6.123558282852172852e-01,5.240205526351928711e-01,4.958504140377044678e-01,4.662502110004425049e-01,4.808779954910278320e-01,4.696262478828430176e-01,4.719022810459136963e-01,4.458419680595397949e-01,4.437087178230285645e-01,5.077424645423889160e-01,5.478820800781250000e-01,5.980395078659057617e-01,6.366146206855773926e-01,6.656389236450195312e-01,6.853490471839904785e-01,7.215000391006469727e-01,7.241976261138916016e-01,6.945994496345520020e-01,6.002873778343200684e-01
5.884057283401489258e-01,6.137896180152893066e-01,6.563363075256347656e-01,6.570718288421630859e-01,6.805627346038818359e-01,7.047723531723022461e-01,7.411370277404785156e-01,7.625433206558227539e-01,7.833155393600463867e-01,8.019530773162841797e-01,8.197578787803649902e-01,8.362717628479003906e-01,8.512490987777709961e-01,8.645952939987182617e-01,8.762490749359130859e-01,8.858162760734558105e-01,8.928767442703247070e-01,8.976404070854187012e-01,9.009366035461425781e-01,9.030918478965759277e-01,9.043228626251220703e-01,9.049975872039794922e-01,9.052566289901733398e-01,9.053159356117248535e-01,9.053289294242858887e-01,9.053270220756530762e-01,9.053265452384948730e-01,9.053264856338500977e-01,9.053264856338500977e-01,9.053264856338500977e-01,9.053264856338500977e-01,9.053264856338500977e-01,9.053264856338500977e-01,9.053264260292053223e-01,9.053264260292053223e-01,9.053263664245605469e-01,9.053263664245605469e-01,9.053264260292053223e-01,9.053263664245605469e-01,9.053263664245605469e-01,9.053263664245605469e-01,9.053263664245605469e-01,9.053262472152709961e-01,9.053262472152709961e-01,9.053262472152709961e-01,9.053262472152709961e-01,9.053261280059814453e-01,9.053161144256591797e-01,9.053151607513427734e-01,9.053249359130859375e-01,9.055983424186706543e-01,9.059971570968627930e-01,9.060546159744262695e-01,9.059909582138061523e-01,9.031606316566467285e-01,8.956332206726074219e-01,8.809301853179931641e-01,8.637322783470153809e-01,8.408855795860290527e-01,7.942980527877807617e-01,7.396662235260009766e-01,6.233895421028137207e-01,5.282756686210632324e-01,5.111988782882690430e-01,4.683242440223693848e-01,4.725820124149322510e-01,4.990680217742919922e-01,5.053705573081970215e-01,4.366480708122253418e-01,4.738320708274841309e-01,5.301837325096130371e-01,5.811144709587097168e-01,6.014866828918457031e-01,6.712928414344787598e-01,6.871789693832397461e-01,7.021782398223876953e-01,7.306519150733947754e-01,7.430558204650878906e-01,7.030093073844909668e-01,6.048554182052612305e-01
5.883999466896057129e-01,6.137800216674804688e-01,6.563250422477722168e-01,6.570587158203125000e-01,6.805472373962402344e-01,7.047561407089233398e-01,7.411203384399414062e-01,7.625272274017333984e-01,7.832990884780883789e-01,8.019367456436157227e-01,8.197426199913024902e-01,8.362566232681274414e-01,8.512339591979980469e-01,8.645808696746826172e-01,8.762360811233520508e-01,8.858047127723693848e-01,8.928664326667785645e-01,8.976320624351501465e-01,9.009286165237426758e-01,9.030840992927551270e-01,9.043153524398803711e-01,9.049903154373168945e-01,9.052499532699584961e-01,9.053096771240234375e-01,9.053227305412292480e-01,9.053209424018859863e-01,9.053205251693725586e-01,9.053205251693725586e-01,9.053205251693725586e-01,9.053205847740173340e-01,9.053206443786621094e-01,9.053206443786621094e-01,9.053206443786621094e-01,9.053207635879516602e-01,9.053207635879516602e-01,9.053207635879516602e-01,9.053208827972412109e-01,9.053208827972412109e-01,9.053208827972412109e-01,9.053209424018859863e-01,9.053210020065307617e-01,9.053211212158203125e-01,9.053211212158203125e-01,9.053211212158203125e-01,9.053212404251098633e-01,9.053212404251098633e-01,9.053212404251098633e-01,9.053169488906860352e-01,9.052801728248596191e-01,9.053801298141479492e-01,9.052485823631286621e-01,9.054104685783386230e-01,9.054000377655029297e-01,9.061214923858642578e-01,9.048864841461181641e-01,8.975908756256103516e-01,8.825046420097351074e-01,8.732346296310424805e-01,8.405109643936157227e-01,8.002430200576782227e-01,7.371256947517395020e-01,6.026664972305297852e-01,5.202982425689697266e-01,5.247068405151367188e-01,5.017797350883483887e-01,4.684848785400390625e-01,5.005196332931518555e-01,4.666763246059417725e-01,4.698823392391204834e-01,5.081563591957092285e-01,5.753078460693359375e-01,5.993928909301757812e-01,6.469438076019287109e-01,6.989803910255432129e-01,7.066029310226440430e-01,7.210948467254638672e-01,7.571576833724975586e-01,7.548539638519287109e-01,7.076977491378784180e-01,6.093735098838806152e-01
5.883891582489013672e-01,6.137663722038269043e-01,6.563090085983276367e-01,6.570450067520141602e-01,6.805337667465209961e-01,7.047414779663085938e-01,7.411072254180908203e-01,7.625194191932678223e-01,7.832986116409301758e-01,8.019441366195678711e-01,8.197605013847351074e-01,8.362879753112792969e-01,8.512848615646362305e-01,8.646489381790161133e-01,8.763056993484497070e-01,8.858640193939208984e-01,8.929140567779541016e-01,8.976708650588989258e-01,9.009689092636108398e-01,9.031349420547485352e-01,9.043725728988647461e-01,9.050533771514892578e-01,9.053156971931457520e-01,9.053769111633300781e-01,9.053903818130493164e-01,9.053887128829956055e-01,9.053885936737060547e-01,9.053889513015747070e-01,9.053891897201538086e-01,9.053894281387329102e-01,9.053896665573120117e-01,9.053899049758911133e-01,9.053901433944702148e-01,9.053905010223388672e-01,9.053906798362731934e-01,9.053911566734313965e-01,9.053913354873657227e-01,9.053914546966552734e-01,9.053918123245239258e-01,9.053921103477478027e-01,9.053922891616821289e-01,9.053926467895507812e-01,9.053928852081298828e-01,9.053931236267089844e-01,9.053933620452880859e-01,9.053937196731567383e-01,9.053947329521179199e-01,9.053931236267089844e-01,9.053872823715209961e-01,9.053497314453125000e-01,9.054136872291564941e-01,9.052925109863281250e-01,9.051703810691833496e-01,9.057291746139526367e-01,9.061979651451110840e-01,8.961530327796936035e-01,8.833262920379638672e-01,8.726893067359924316e-01,8.374900817871093750e-01,8.083097934722900391e-01,7.352476716041564941e-01,5.941773056983947754e-01,5.225259661674499512e-01,5.100092887878417969e-01,4.979141056537628174e-01,4.882505238056182861e-01,4.862473309040069580e-01,4.857178628444671631e-01,5.108845233917236328e-01,5.472676753997802734e-01,6.175210475921630859e-01,6.386516690254211426e-01,7.013783454895019531e-01,7.194815874099731445e-01,7.356864213943481445e-01,7.457247972488403320e-01,7.680779695510864258e-01,7.587064504623413086e-01,7.105562090873718262e-01,6.114200949668884277e-01
5.883958935737609863e-01,6.137749552726745605e-01,6.563157439231872559e-01,6.570627689361572266e-01,6.805624961853027344e-01,7.048030495643615723e-01,7.412200570106506348e-01,7.626807689666748047e-01,7.834860086441040039e-01,8.021442890167236328e-01,8.199624419212341309e-01,8.364874124526977539e-01,8.514617681503295898e-01,8.647938966751098633e-01,8.764225840568542480e-01,8.859457969665527344e-01,8.929841518402099609e-01,8.977730274200439453e-01,9.010934829711914062e-01,9.032582640647888184e-01,9.044927954673767090e-01,9.051686525344848633e-01,9.054245948791503906e-01,9.054826498031616211e-01,9.054937362670898438e-01,9.054911136627197266e-01,9.054898023605346680e-01,9.054888486862182617e-01,9.054880738258361816e-01,9.054871201515197754e-01,9.054862260818481445e-01,9.054855108261108398e-01,9.054845571517944336e-01,9.054836630821228027e-01,9.054828882217407227e-01,9.054819941520690918e-01,9.054811000823974609e-01,9.054801464080810547e-01,9.054794311523437500e-01,9.054784774780273438e-01,9.054776430130004883e-01,9.054766893386840820e-01,9.054758548736572266e-01,9.054749011993408203e-01,9.054741859436035156e-01,9.054732322692871094e-01,9.054726958274841309e-01,9.054711461067199707e-01,9.054663181304931641e-01,9.054657816886901855e-01,9.054462909698486328e-01,9.054528474807739258e-01,9.055783748626708984e-01,9.067156314849853516e-01,9.053631424903869629e-01,8.990843892097473145e-01,8.864110708236694336e-01,8.713463544845581055e-01,8.390756845474243164e-01,7.997522354125976562e-01,7.357746958732604980e-01,6.097879409790039062e-01,5.438325405120849609e-01,4.979796409606933594e-01,4.882403314113616943e-01,5.159695744514465332e-01,4.799345731735229492e-01,4.914621412754058838e-01,5.411073565483093262e-01,6.107630729675292969e-01,6.264757513999938965e-01,6.952830553054809570e-01,7.347609400749206543e-01,7.436847090721130371e-01,7.458766698837280273e-01,7.633759975433349609e-01,7.775497436523437500e-01,7.610718011856079102e-01,7.156422734260559082e-01,6.119436025619506836e-01
5.885784626007080078e-01,6.139522194862365723e-01,6.565689444541931152e-01,6.573191285133361816e-01,6.808111667633056641e-01,7.049679160118103027e-01,7.413083910942077637e-01,7.626931667327880859e-01,7.833591699600219727e-01,8.018865585327148438e-01,8.195875287055969238e-01,8.359777927398681641e-01,8.508614301681518555e-01,8.641121983528137207e-01,8.756417036056518555e-01,8.851390480995178223e-01,8.922117948532104492e-01,8.969814181327819824e-01,9.002740383148193359e-01,9.024298191070556641e-01,9.036751389503479004e-01,9.043314456939697266e-01,9.045726060867309570e-01,9.046295881271362305e-01,9.046416282653808594e-01,9.046393036842346191e-01,9.046378135681152344e-01,9.046369791030883789e-01,9.046360254287719727e-01,9.046350717544555664e-01,9.046342372894287109e-01,9.046332836151123047e-01,9.046324491500854492e-01,9.046315550804138184e-01,9.046305418014526367e-01,9.046295881271362305e-01,9.046287536621093750e-01,9.046277403831481934e-01,9.046269059181213379e-01,9.046258926391601562e-01,9.046250581741333008e-01,9.046243429183959961e-01,9.046232700347900391e-01,9.046224355697631836e-01,9.046213626861572266e-01,9.046204090118408203e-01,9.046196937561035156e-01,9.046189785003662109e-01,9.046162366867065430e-01,9.046109914779663086e-01,9.046170711517333984e-01,9.046248197555541992e-01,9.047428369522094727e-01,9.058946371078491211e-01,9.031150341033935547e-01,8.974233865737915039e-01,8.875203132629394531e-01,8.700002431869506836e-01,8.447042107582092285e-01,8.049120903015136719e-01,7.376240491867065430e-01,6.210562586784362793e-01,5.592234730720520020e-01,4.961027801036834717e-01,5.017401576042175293e-01,5.080590248107910156e-01,4.854811728000640869e-01,5.240288376808166504e-01,5.874119997024536133e-01,6.346881389617919922e-01,6.601109504699707031e-01,7.240381836891174316e-01,7.572644352912902832e-01,7.713176012039184570e-01,7.744457721710205078e-01,7.765880227088928223e-01,7.816534042358398438e-01,7.647903561592102051e-01,7.153485417366027832e-01,6.129916906356811523e-01
5.889357328414916992e-01,6.138250827789306641e-01,6.562427878379821777e-01,6.566783189773559570e-01,6.799258589744567871e-01,7.037650346755981445e-01,7.398928403854370117e-01,7.610067129135131836e-01,7.815139889717102051e-01,7.999111413955688477e-01,8.175241947174072266e-01,8.339142799377441406e-01,8.489241600036621094e-01,8.623858094215393066e-01,8.741694688796997070e-01,8.838961124420166016e-01,8.910563588142395020e-01,8.958872556686401367e-01,8.992760181427001953e-01,9.014961123466491699e-01,9.027297496795654297e-01,9.033837914466857910e-01,9.036415815353393555e-01,9.037145376205444336e-01,9.037274122238159180e-01,9.037252664566040039e-01,9.037237167358398438e-01,9.037225842475891113e-01,9.037216901779174805e-01,9.037204980850219727e-01,9.037196040153503418e-01,9.037184715270996094e-01,9.037173390388488770e-01,9.037164449691772461e-01,9.037153720855712891e-01,9.037142395973205566e-01,9.037131667137145996e-01,9.037120342254638672e-01,9.037109613418579102e-01,9.037098884582519531e-01,9.037088751792907715e-01,9.037077426910400391e-01,9.037069082260131836e-01,9.037057161331176758e-01,9.037046432495117188e-01,9.037036299705505371e-01,9.037026166915893555e-01,9.037015438079833984e-01,9.037003517150878906e-01,9.036990404129028320e-01,9.037041664123535156e-01,9.037116765975952148e-01,9.040791988372802734e-01,9.042485952377319336e-01,9.028230905532836914e-01,8.964576721191406250e-01,8.868662118911743164e-01,8.711131811141967773e-01,8.492643833160400391e-01,8.174795508384704590e-01,7.295237183570861816e-01,6.255347132682800293e-01,5.577192902565002441e-01,5.147565007209777832e-01,5.217229127883911133e-01,5.095097422599792480e-01,5.184299349784851074e-01,5.591111779212951660e-01,6.213696599006652832e-01,6.469971537590026855e-01,7.138785123825073242e-01,7.530201673507690430e-01,7.720880508422851562e-01,7.931823730468750000e-01,7.862862348556518555e-01,7.831305861473083496e-01,7.853301763534545898e-01,7.659608125686645508e-01,7.166152596473693848e-01,6.128336787223815918e-01
5.881918668746948242e-01,6.121522784233093262e-01,6.544513702392578125e-01,6.547920703887939453e-01,6.775835752487182617e-01,7.009688019752502441e-01,7.370880246162414551e-01,7.582473754882812500e-01,7.788037061691284180e-01,7.972002029418945312e-01,8.147963881492614746e-01,8.312986493110656738e-01,8.464387059211730957e-01,8.599845170974731445e-01,8.718602657318115234e-01,8.816282749176025391e-01,8.889316320419311523e-01,8.940089941024780273e-01,8.974868059158325195e-01,8.997213840484619141e-01,9.009758234024047852e-01,9.016543030738830566e-01,9.019178748130798340e-01,9.019799828529357910e-01,9.019869565963745117e-01,9.019796848297119141e-01,9.019732475280761719e-01,9.019670486450195312e-01,9.019610285758972168e-01,9.019548892974853516e-01,9.019488096237182617e-01,9.019426107406616211e-01,9.019367694854736328e-01,9.019305706024169922e-01,9.019244909286499023e-01,9.019185304641723633e-01,9.019124507904052734e-01,9.019062519073486328e-01,9.019001722335815430e-01,9.018941521644592285e-01,9.018880724906921387e-01,9.018820524215698242e-01,9.018758535385131836e-01,9.018698334693908691e-01,9.018638730049133301e-01,9.018577337265014648e-01,9.018516540527343750e-01,9.018455743789672852e-01,9.018395543098449707e-01,9.018336534500122070e-01,9.018255472183227539e-01,9.018358588218688965e-01,9.022108316421508789e-01,9.019230604171752930e-01,9.011483192443847656e-01,8.964003324508666992e-01,8.872724175453186035e-01,8.688957095146179199e-01,8.479282855987548828e-01,8.112332820892333984e-01,7.441329956054687500e-01,6.221215724945068359e-01,5.594350695610046387e-01,5.331848859786987305e-01,5.221914649009704590e-01,5.190858244895935059e-01,5.532118082046508789e-01,6.117405891418457031e-01,6.372367739677429199e-01,6.963307261466979980e-01,7.416577339172363281e-01,7.677975893020629883e-01,7.840737104415893555e-01,8.057765960693359375e-01,7.979725599288940430e-01,7.869665622711181641e-01,7.873901128768920898e-01,7.652530670166015625e-01,7.167312502861022949e-01,6.126624345779418945e-01
5.862557291984558105e-01,6.094377040863037109e-01,6.514810323715209961e-01,6.515456438064575195e-01,6.740772128105163574e-01,6.969131827354431152e-01,7.324789762496948242e-01,7.531219720840454102e-01,7.730062007904052734e-01,7.909495830535888672e-01,8.082794547080993652e-01,8.245601654052734375e-01,8.395544290542602539e-01,8.531527519226074219e-01,8.651054501533508301e-01,8.749619722366333008e-01,8.823376297950744629e-01,8.874374628067016602e-01,8.910174965858459473e-01,8.932565450668334961e-01,8.945032358169555664e-01,8.952054977416992188e-01,8.954699039459228516e-01,8.955247402191162109e-01,8.955234289169311523e-01,8.955122232437133789e-01,8.955025076866149902e-01,8.954932689666748047e-01,8.954842686653137207e-01,8.954749107360839844e-01,8.954660296440124512e-01,8.954570293426513672e-01,8.954477310180664062e-01,8.954385519027709961e-01,8.954295516014099121e-01,8.954203128814697266e-01,8.954113721847534180e-01,8.954021930694580078e-01,8.953931331634521484e-01,8.953840732574462891e-01,8.953749537467956543e-01,8.953658342361450195e-01,8.953565955162048340e-01,8.953475952148437500e-01,8.953385353088378906e-01,8.953293561935424805e-01,8.953204154968261719e-01,8.953111767768859863e-01,8.953021764755249023e-01,8.952931165695190430e-01,8.952809572219848633e-01,8.952779769897460938e-01,8.953843712806701660e-01,8.957805633544921875e-01,8.948193788528442383e-01,8.911523222923278809e-01,8.820152282714843750e-01,8.624913692474365234e-01,8.426899909973144531e-01,8.028417825698852539e-01,7.421627044677734375e-01,6.208043098449707031e-01,5.659657716751098633e-01,5.442247390747070312e-01,5.166782140731811523e-01,5.251882672309875488e-01,5.717431902885437012e-01,6.248247623443603516e-01,6.492184400558471680e-01,7.147027254104614258e-01,7.626342177391052246e-01,7.696436643600463867e-01,7.968522310256958008e-01,8.119299411773681641e-01,7.959946393966674805e-01,7.848237752914428711e-01,7.852182388305664062e-01,7.637958526611328125e-01,7.135878801345825195e-01,6.073490381240844727e-01
5.823478102684020996e-01,6.035628914833068848e-01,6.450699567794799805e-01,6.443624496459960938e-01,6.657212376594543457e-01,6.876943111419677734e-01,7.224072813987731934e-01,7.425901889801025391e-01,7.618011236190795898e-01,7.788747549057006836e-01,7.956088185310363770e-01,8.115684986114501953e-01,8.266273736953735352e-01,8.405221700668334961e-01,8.527929782867431641e-01,8.630755543708801270e-01,8.709459304809570312e-01,8.763766288757324219e-01,8.801454305648803711e-01,8.825237751007080078e-01,8.838617801666259766e-01,8.845173120498657227e-01,8.847193717956542969e-01,8.847373127937316895e-01,8.847266435623168945e-01,8.847037553787231445e-01,8.846828937530517578e-01,8.846625685691833496e-01,8.846425414085388184e-01,8.846220970153808594e-01,8.846019506454467773e-01,8.845816850662231445e-01,8.845614194869995117e-01,8.845412731170654297e-01,8.845208883285522461e-01,8.845006227493286133e-01,8.844804763793945312e-01,8.844603300094604492e-01,8.844401836395263672e-01,8.844199776649475098e-01,8.843997716903686523e-01,8.843794465065002441e-01,8.843593597412109375e-01,8.843390345573425293e-01,8.843190073966979980e-01,8.842988610267639160e-01,8.842784762382507324e-01,8.842585086822509766e-01,8.842383027076721191e-01,8.842180967330932617e-01,8.841965198516845703e-01,8.841483592987060547e-01,8.841019272804260254e-01,8.849610090255737305e-01,8.847916722297668457e-01,8.803490996360778809e-01,8.705251216888427734e-01,8.562546968460083008e-01,8.332130908966064453e-01,7.927353382110595703e-01,7.280210256576538086e-01,6.256653070449829102e-01,5.529262423515319824e-01,5.251998901367187500e-01,5.120263695716857910e-01,5.347386002540588379e-01,5.894436240196228027e-01,6.221830248832702637e-01,6.743916869163513184e-01,7.240365147590637207e-01,7.536585330963134766e-01,7.746467590332031250e-01,8.014984726905822754e-01,8.093491792678833008e-01,7.864714264869689941e-01,7.786129713058471680e-01,7.771043777465820312e-01,7.581627368927001953e-01,7.064142823219299316e-01,6.018809676170349121e-01
5.752029418945312500e-01,5.937517285346984863e-01,6.341876983642578125e-01,6.314076781272888184e-01,6.507643461227416992e-01,6.714978814125061035e-01,7.052968740463256836e-01,7.246524095535278320e-01,7.431016564369201660e-01,7.594745755195617676e-01,7.753033041954040527e-01,7.904891967773437500e-01,8.051474094390869141e-01,8.185915946960449219e-01,8.304750919342041016e-01,8.404291868209838867e-01,8.479082584381103516e-01,8.532835245132446289e-01,8.570441007614135742e-01,8.593943715095520020e-01,8.606342077255249023e-01,8.611839413642883301e-01,8.613176345825195312e-01,8.613219261169433594e-01,8.612897992134094238e-01,8.612505197525024414e-01,8.612131476402282715e-01,8.611761927604675293e-01,8.611391186714172363e-01,8.611021041870117188e-01,8.610650300979614258e-01,8.610278964042663574e-01,8.609910011291503906e-01,8.609540462493896484e-01,8.609169125556945801e-01,8.608799576759338379e-01,8.608428835868835449e-01,8.608060479164123535e-01,8.607690334320068359e-01,8.607321977615356445e-01,8.606952428817749023e-01,8.606582283973693848e-01,8.606212139129638672e-01,8.605842590332031250e-01,8.605474233627319336e-01,8.605103492736816406e-01,8.604736328125000000e-01,8.604366183280944824e-01,8.603996038436889648e-01,8.603628873825073242e-01,8.603222370147705078e-01,8.602608442306518555e-01,8.602485656738281250e-01,8.610410094261169434e-01,8.615597486495971680e-01,8.562195301055908203e-01,8.457906246185302734e-01,8.354548215866088867e-01,8.062491416931152344e-01,7.630258798599243164e-01,7.057064771652221680e-01,6.079670786857604980e-01,5.473195314407348633e-01,5.087682604789733887e-01,5.123073458671569824e-01,5.369763374328613281e-01,5.782985091209411621e-01,6.106877326965332031e-01,6.717372536659240723e-01,7.114903330802917480e-01,7.344971895217895508e-01,7.641758918762207031e-01,7.875493764877319336e-01,7.902440428733825684e-01,7.688975930213928223e-01,7.568575143814086914e-01,7.613793015480041504e-01,7.426971793174743652e-01,6.924076080322265625e-01,5.920616388320922852e-01
5.642393827438354492e-01,5.783775448799133301e-01,6.170491576194763184e-01,6.110091805458068848e-01,6.274160146713256836e-01,6.464120149612426758e-01,6.783336400985717773e-01,6.956837177276611328e-01,7.117307186126708984e-01,7.257412672042846680e-01,7.394015789031982422e-01,7.528220415115356445e-01,7.661391496658325195e-01,7.786055803298950195e-01,7.895357012748718262e-01,7.988247871398925781e-01,8.062256574630737305e-01,8.115617036819458008e-01,8.152931928634643555e-01,8.175964355468750000e-01,8.186784982681274414e-01,8.189529776573181152e-01,8.189755678176879883e-01,8.189507126808166504e-01,8.189018964767456055e-01,8.188412189483642578e-01,8.187817335128784180e-01,8.187227249145507812e-01,8.186640739440917969e-01,8.186050057411193848e-01,8.185461163520812988e-01,8.184871673583984375e-01,8.184283375740051270e-01,8.183694481849670410e-01,8.183104991912841797e-01,8.182517290115356445e-01,8.181929588317871094e-01,8.181339502334594727e-01,8.180751800537109375e-01,8.180163502693176270e-01,8.179576396942138672e-01,8.178987503051757812e-01,8.178398013114929199e-01,8.177810311317443848e-01,8.177223205566406250e-01,8.176635503768920898e-01,8.176047205924987793e-01,8.175461292266845703e-01,8.174872994422912598e-01,8.174284696578979492e-01,8.173701167106628418e-01,8.172957897186279297e-01,8.172818422317504883e-01,8.186303973197937012e-01,8.187859058380126953e-01,8.123483657836914062e-01,8.041635155677795410e-01,7.945107221603393555e-01,7.587629556655883789e-01,7.187896370887756348e-01,6.616290211677551270e-01,5.695092678070068359e-01,5.209034681320190430e-01,4.876265525817871094e-01,4.972358047962188721e-01,5.302894711494445801e-01,5.430811643600463867e-01,5.918446183204650879e-01,6.468122005462646484e-01,6.753469109535217285e-01,7.054204344749450684e-01,7.366262078285217285e-01,7.536707520484924316e-01,7.491275072097778320e-01,7.321705818176269531e-01,7.225639224052429199e-01,7.306005954742431641e-01,7.115411758422851562e-01,6.686826348304748535e-01,5.796545147895812988e-01
5.497246980667114258e-01,5.539374351501464844e-01,5.888130068778991699e-01,5.787605047225952148e-01,5.919222235679626465e-01,6.082131862640380859e-01,6.378247737884521484e-01,6.524332761764526367e-01,6.663233041763305664e-01,6.780697107315063477e-01,6.894905567169189453e-01,7.006267309188842773e-01,7.116242647171020508e-01,7.215005755424499512e-01,7.303578257560729980e-01,7.380208969116210938e-01,7.437709569931030273e-01,7.477723360061645508e-01,7.504818439483642578e-01,7.519779205322265625e-01,7.524070739746093750e-01,7.524735927581787109e-01,7.524485588073730469e-01,7.523857951164245605e-01,7.523177862167358398e-01,7.522327899932861328e-01,7.521500587463378906e-01,7.520674467086791992e-01,7.519851922988891602e-01,7.519027590751647949e-01,7.518202066421508789e-01,7.517379522323608398e-01,7.516555786132812500e-01,7.515733242034912109e-01,7.514909505844116211e-01,7.514086365699768066e-01,7.513263225555419922e-01,7.512439489364624023e-01,7.511619329452514648e-01,7.510794401168823242e-01,7.509972453117370605e-01,7.509149312973022461e-01,7.508325576782226562e-01,7.507505416870117188e-01,7.506679296493530273e-01,7.505860328674316406e-01,7.505037784576416016e-01,7.504216432571411133e-01,7.503394484519958496e-01,7.502572536468505859e-01,7.501758337020874023e-01,7.500775456428527832e-01,7.499245405197143555e-01,7.516429424285888672e-01,7.501822710037231445e-01,7.428846359252929688e-01,7.359989881515502930e-01,7.291016578674316406e-01,6.889722347259521484e-01,6.568562388420104980e-01,6.033837795257568359e-01,5.347170829772949219e-01,4.825685322284698486e-01,4.685854911804199219e-01,4.716876149177551270e-01,4.939746260643005371e-01,5.179809927940368652e-01,5.575530529022216797e-01,5.937747955322265625e-01,6.254295110702514648e-01,6.546534895896911621e-01,6.807956695556640625e-01,6.911252737045288086e-01,6.920223236083984375e-01,6.677697896957397461e-01,6.647472381591796875e-01,6.797143220901489258e-01,6.622194051742553711e-01,6.338023543357849121e-01,5.563917160034179688e-01
5.325039029121398926e-01,5.236868262290954590e-01,5.544956922531127930e-01,5.385823249816894531e-01,5.464442968368530273e-01,5.592983961105346680e-01,5.835177898406982422e-01,5.946897268295288086e-01,6.051642894744873047e-01,6.132947206497192383e-01,6.213146448135375977e-01,6.292408108711242676e-01,6.369059085845947266e-01,6.437557339668273926e-01,6.499292850494384766e-01,6.547377109527587891e-01,6.579697728157043457e-01,6.604011058807373047e-01,6.619703769683837891e-01,6.628112196922302246e-01,6.630294322967529297e-01,6.629917621612548828e-01,6.628895401954650879e-01,6.628058552742004395e-01,6.627241969108581543e-01,6.626337170600891113e-01,6.625456809997558594e-01,6.624580621719360352e-01,6.623703241348266602e-01,6.622827053070068359e-01,6.621950864791870117e-01,6.621074080467224121e-01,6.620199680328369141e-01,6.619324684143066406e-01,6.618449687957763672e-01,6.617575883865356445e-01,6.616699695587158203e-01,6.615824103355407715e-01,6.614949703216552734e-01,6.614077091217041016e-01,6.613202691078186035e-01,6.612328886985778809e-01,6.611454486846923828e-01,6.610580682754516602e-01,6.609706282615661621e-01,6.608834266662597656e-01,6.607964038848876953e-01,6.607089042663574219e-01,6.606217026710510254e-01,6.605344414710998535e-01,6.604502201080322266e-01,6.603485345840454102e-01,6.602007150650024414e-01,6.617671251296997070e-01,6.595415472984313965e-01,6.545828580856323242e-01,6.459997296333312988e-01,6.397633552551269531e-01,6.019909381866455078e-01,5.799781680107116699e-01,5.378907918930053711e-01,4.804374575614929199e-01,4.391565620899200439e-01,4.318060874938964844e-01,4.365507662296295166e-01,4.405007660388946533e-01,4.952040910720825195e-01,5.137413144111633301e-01,5.378167629241943359e-01,5.601932406425476074e-01,5.871347784996032715e-01,6.037181615829467773e-01,6.111538410186767578e-01,6.148658990859985352e-01,5.923972725868225098e-01,5.906607508659362793e-01,6.090533733367919922e-01,5.966293215751647949e-01,5.877048969268798828e-01,5.270078182220458984e-01
5.115466713905334473e-01,4.893307387828826904e-01,5.141213536262512207e-01,4.908623099327087402e-01,4.924229681491851807e-01,5.010041594505310059e-01,5.196012854576110840e-01,5.275441408157348633e-01,5.347053408622741699e-01,5.395464897155761719e-01,5.444156527519226074e-01,5.495161414146423340e-01,5.544902682304382324e-01,5.588297843933105469e-01,5.624810457229614258e-01,5.651894807815551758e-01,5.674909949302673340e-01,5.691052079200744629e-01,5.701977014541625977e-01,5.706970691680908203e-01,5.708000063896179199e-01,5.707215070724487305e-01,5.705787539482116699e-01,5.705099105834960938e-01,5.704130530357360840e-01,5.703244209289550781e-01,5.702369213104248047e-01,5.701500177383422852e-01,5.700629949569702148e-01,5.699758529663085938e-01,5.698888301849365234e-01,5.698020458221435547e-01,5.697152018547058105e-01,5.696282982826232910e-01,5.695414543151855469e-01,5.694546103477478027e-01,5.693678259849548340e-01,5.692810416221618652e-01,5.691942572593688965e-01,5.691074132919311523e-01,5.690206885337829590e-01,5.689339637756347656e-01,5.688472986221313477e-01,5.687607526779174805e-01,5.686740875244140625e-01,5.685875415802001953e-01,5.685009360313415527e-01,5.684143304824829102e-01,5.683277249336242676e-01,5.682413578033447266e-01,5.681564807891845703e-01,5.680440068244934082e-01,5.678332448005676270e-01,5.690996646881103516e-01,5.669363141059875488e-01,5.643452405929565430e-01,5.591973066329956055e-01,5.516906380653381348e-01,5.222029089927673340e-01,5.027980208396911621e-01,4.678779840469360352e-01,4.356754124164581299e-01,4.050456285476684570e-01,4.040131270885467529e-01,4.071036577224731445e-01,4.139474630355834961e-01,4.383639395236968994e-01,4.569768607616424561e-01,4.761792719364166260e-01,4.945271015167236328e-01,5.143972039222717285e-01,5.249889492988586426e-01,5.361952781677246094e-01,5.313637852668762207e-01,5.128209590911865234e-01,5.139982104301452637e-01,5.358946919441223145e-01,5.280652046203613281e-01,5.396578311920166016e-01,4.965163767337799072e-01
4.905594587326049805e-01,4.556694626808166504e-01,4.712933301925659180e-01,4.408637583255767822e-01,4.361907243728637695e-01,4.405599534511566162e-01,4.539812803268432617e-01,4.580714404582977295e-01,4.623931646347045898e-01,4.647216796875000000e-01,4.672706723213195801e-01,4.700814783573150635e-01,4.728528261184692383e-01,4.754821062088012695e-01,4.777903854846954346e-01,4.795154035091400146e-01,4.807935655117034912e-01,4.817623794078826904e-01,4.823674261569976807e-01,4.826318621635437012e-01,4.826832413673400879e-01,4.826758503913879395e-01,4.825972318649291992e-01,4.824968278408050537e-01,4.824137687683105469e-01,4.823397099971771240e-01,4.822667241096496582e-01,4.821935296058654785e-01,4.821206033229827881e-01,4.820476174354553223e-01,4.819746911525726318e-01,4.819017350673675537e-01,4.818286895751953125e-01,4.817557930946350098e-01,4.816830158233642578e-01,4.816101789474487305e-01,4.815373718738555908e-01,4.814645051956176758e-01,4.813918471336364746e-01,4.813189208507537842e-01,4.812461137771606445e-01,4.811735451221466064e-01,4.811008870601654053e-01,4.810279607772827148e-01,4.809555113315582275e-01,4.808826744556427002e-01,4.808101654052734375e-01,4.807375967502593994e-01,4.806652367115020752e-01,4.805926084518432617e-01,4.805207848548889160e-01,4.804340302944183350e-01,4.802234470844268799e-01,4.806425869464874268e-01,4.801631569862365723e-01,4.783909320831298828e-01,4.768469035625457764e-01,4.709070026874542236e-01,4.527707397937774658e-01,4.351487457752227783e-01,4.103127121925354004e-01,3.982538580894470215e-01,3.671936392784118652e-01,3.666822910308837891e-01,3.685255348682403564e-01,3.789834678173065186e-01,3.886458575725555420e-01,4.092710614204406738e-01,4.243445992469787598e-01,4.344958662986755371e-01,4.493268728256225586e-01,4.520466327667236328e-01,4.619774222373962402e-01,4.596036970615386963e-01,4.454002678394317627e-01,4.455206394195556641e-01,4.710881412029266357e-01,4.680558741092681885e-01,4.949540197849273682e-01,4.690578579902648926e-01
4.694015979766845703e-01,4.224018454551696777e-01,4.285227358341217041e-01,3.950384259223937988e-01,3.840703964233398438e-01,3.856377005577087402e-01,3.960506319999694824e-01,3.989885449409484863e-01,4.020184576511383057e-01,4.032127261161804199e-01,4.044252038002014160e-01,4.056391716003417969e-01,4.066613018512725830e-01,4.076077044010162354e-01,4.084057807922363281e-01,4.089941978454589844e-01,4.096002578735351562e-01,4.100939631462097168e-01,4.103064537048339844e-01,4.103506803512573242e-01,4.103599190711975098e-01,4.102626442909240723e-01,4.101913571357727051e-01,4.101187288761138916e-01,4.100558459758758545e-01,4.099971354007720947e-01,4.099388718605041504e-01,4.098809957504272461e-01,4.098231494426727295e-01,4.097653627395629883e-01,4.097077250480651855e-01,4.096497893333435059e-01,4.095922112464904785e-01,4.095343351364135742e-01,4.094766974449157715e-01,4.094189405441284180e-01,4.093614518642425537e-01,4.093037843704223633e-01,4.092460274696350098e-01,4.091884791851043701e-01,4.091308712959289551e-01,4.090734124183654785e-01,4.090156257152557373e-01,4.089581370353698730e-01,4.089007377624511719e-01,4.088432192802429199e-01,4.087857604026794434e-01,4.087283015251159668e-01,4.086708724498748779e-01,4.086133837699890137e-01,4.085560441017150879e-01,4.084912538528442383e-01,4.083221852779388428e-01,4.083374440670013428e-01,4.088844954967498779e-01,4.088553786277770996e-01,4.073204398155212402e-01,4.034450054168701172e-01,3.965823054313659668e-01,3.781909942626953125e-01,3.653030991554260254e-01,3.555530309677124023e-01,3.414124846458435059e-01,3.339427113533020020e-01,3.417103290557861328e-01,3.458147048950195312e-01,3.500726222991943359e-01,3.641336560249328613e-01,3.761415481567382812e-01,3.817506134510040283e-01,3.885526061058044434e-01,3.952184617519378662e-01,3.959271609783172607e-01,3.962872326374053955e-01,3.827331662178039551e-01,3.852105140686035156e-01,4.125172495841979980e-01,4.174719154834747314e-01,4.559814333915710449e-01,4.460379481315612793e-01
4.513853788375854492e-01,3.938125073909759521e-01,3.929757475852966309e-01,3.572835326194763184e-01,3.413543701171875000e-01,3.406469821929931641e-01,3.480950593948364258e-01,3.498148024082183838e-01,3.515077829360961914e-01,3.519260287284851074e-01,3.524423241615295410e-01,3.529092669486999512e-01,3.533909022808074951e-01,3.538289666175842285e-01,3.541243672370910645e-01,3.542203605175018311e-01,3.542955517768859863e-01,3.541710078716278076e-01,3.540168106555938721e-01,3.539574742317199707e-01,3.539362251758575439e-01,3.539019227027893066e-01,3.538472652435302734e-01,3.537937700748443604e-01,3.537527322769165039e-01,3.537109494209289551e-01,3.536695241928100586e-01,3.536281883716583252e-01,3.535870313644409180e-01,3.535460233688354492e-01,3.535047769546508789e-01,3.534635305404663086e-01,3.534222543239593506e-01,3.533812165260314941e-01,3.533400297164916992e-01,3.532989025115966797e-01,3.532578349113464355e-01,3.532167077064514160e-01,3.531755805015563965e-01,3.531343638896942139e-01,3.530933260917663574e-01,3.530525267124176025e-01,3.530111312866210938e-01,3.529702425003051758e-01,3.529292941093444824e-01,3.528882861137390137e-01,3.528471589088439941e-01,3.528062999248504639e-01,3.527654409408569336e-01,3.527243435382843018e-01,3.526836037635803223e-01,3.526468276977539062e-01,3.525524735450744629e-01,3.524153828620910645e-01,3.528187274932861328e-01,3.528409004211425781e-01,3.514918386936187744e-01,3.494040369987487793e-01,3.477057814598083496e-01,3.350601196289062500e-01,3.278281688690185547e-01,3.267254233360290527e-01,3.158895075321197510e-01,3.097967505455017090e-01,3.126855790615081787e-01,3.191295266151428223e-01,3.170647621154785156e-01,3.292968869209289551e-01,3.356517255306243896e-01,3.385782241821289062e-01,3.390191197395324707e-01,3.463758826255798340e-01,3.477942347526550293e-01,3.472669124603271484e-01,3.344933986663818359e-01,3.382391929626464844e-01,3.647781312465667725e-01,3.752536475658416748e-01,4.222684204578399658e-01,4.257594048976898193e-01
4.349636733531951904e-01,3.689391016960144043e-01,3.612700998783111572e-01,3.251593708992004395e-01,3.061242699623107910e-01,3.047515153884887695e-01,3.108560144901275635e-01,3.122453987598419189e-01,3.134025633335113525e-01,3.134176731109619141e-01,3.134029805660247803e-01,3.133929967880249023e-01,3.134679496288299561e-01,3.135588169097900391e-01,3.135895133018493652e-01,3.136048913002014160e-01,3.135652542114257812e-01,3.135134279727935791e-01,3.135300874710083008e-01,3.135156035423278809e-01,3.134579062461853027e-01,3.134127855300903320e-01,3.133786916732788086e-01,3.133501410484313965e-01,3.133191466331481934e-01,3.132894337177276611e-01,3.132593035697937012e-01,3.132294416427612305e-01,3.131996095180511475e-01,3.131695985794067383e-01,3.131396770477294922e-01,3.131099939346313477e-01,3.130799233913421631e-01,3.130500018596649170e-01,3.130201995372772217e-01,3.129902780055999756e-01,3.129605054855346680e-01,3.129305839538574219e-01,3.129006326198577881e-01,3.128707110881805420e-01,3.128410577774047852e-01,3.128111362457275391e-01,3.127813041210174561e-01,3.127514123916625977e-01,3.127217888832092285e-01,3.126919269561767578e-01,3.126622140407562256e-01,3.126323521137237549e-01,3.126026391983032227e-01,3.125728964805603027e-01,3.125433921813964844e-01,3.125255703926086426e-01,3.124721050262451172e-01,3.124244809150695801e-01,3.126483559608459473e-01,3.125375509262084961e-01,3.116662502288818359e-01,3.122162818908691406e-01,3.105613291263580322e-01,3.038243353366851807e-01,2.981370091438293457e-01,2.977163493633270264e-01,2.912679314613342285e-01,2.900694906711578369e-01,2.927524447441101074e-01,2.940738201141357422e-01,2.968317270278930664e-01,2.996260523796081543e-01,3.022038340568542480e-01,3.035389482975006104e-01,3.065117001533508301e-01,3.076591491699218750e-01,3.104885220527648926e-01,3.088830709457397461e-01,2.979339659214019775e-01,3.020473718643188477e-01,3.284516334533691406e-01,3.441631495952606201e-01,3.966590464115142822e-01,4.100459218025207520e-01
4.212106466293334961e-01,3.491263985633850098e-01,3.364061117172241211e-01,2.999929189682006836e-01,2.791689038276672363e-01,2.769924402236938477e-01,2.819469273090362549e-01,2.831122279167175293e-01,2.839956879615783691e-01,2.838866412639617920e-01,2.838467955589294434e-01,2.838442623615264893e-01,2.838276028633117676e-01,2.838101983070373535e-01,2.837957739830017090e-01,2.837580740451812744e-01,2.837185859680175781e-01,2.836891412734985352e-01,2.836641073226928711e-01,2.836294174194335938e-01,2.836027443408966064e-01,2.835808694362640381e-01,2.835586071014404297e-01,2.835360169410705566e-01,2.835149168968200684e-01,2.834931015968322754e-01,2.834717333316802979e-01,2.834497690200805664e-01,2.834280729293823242e-01,2.834062576293945312e-01,2.833847403526306152e-01,2.833629846572875977e-01,2.833411991596221924e-01,2.833196520805358887e-01,2.832980155944824219e-01,2.832763791084289551e-01,2.832545638084411621e-01,2.832329869270324707e-01,2.832112610340118408e-01,2.831897139549255371e-01,2.831681966781616211e-01,2.831465303897857666e-01,2.831248044967651367e-01,2.831034064292907715e-01,2.830815911293029785e-01,2.830598950386047363e-01,2.830382883548736572e-01,2.830167412757873535e-01,2.829950451850891113e-01,2.829736173152923584e-01,2.829519510269165039e-01,2.829346060752868652e-01,2.829064130783081055e-01,2.828300893306732178e-01,2.829816937446594238e-01,2.826074957847595215e-01,2.822048962116241455e-01,2.830086350440979004e-01,2.822719216346740723e-01,2.791889905929565430e-01,2.778495848178863525e-01,2.750715613365173340e-01,2.729923129081726074e-01,2.722684144973754883e-01,2.721413969993591309e-01,2.729377746582031250e-01,2.745212614536285400e-01,2.768884003162384033e-01,2.770987153053283691e-01,2.792437970638275146e-01,2.804873585700988770e-01,2.805650532245635986e-01,2.817587256431579590e-01,2.810918092727661133e-01,2.713014185428619385e-01,2.749551832675933838e-01,3.006901741027832031e-01,3.194351792335510254e-01,3.763087987899780273e-01,3.975312113761901855e-01
4.091759920120239258e-01,3.324909210205078125e-01,3.159788250923156738e-01,2.799496054649353027e-01,2.584227919578552246e-01,2.558318376541137695e-01,2.600256800651550293e-01,2.610191106796264648e-01,2.617921829223632812e-01,2.617070078849792480e-01,2.616662979125976562e-01,2.616439461708068848e-01,2.616243362426757812e-01,2.616086006164550781e-01,2.615922689437866211e-01,2.615748643875122070e-01,2.615589797496795654e-01,2.615436315536499023e-01,2.615264058113098145e-01,2.615087628364562988e-01,2.614922523498535156e-01,2.614768147468566895e-01,2.614604830741882324e-01,2.614440321922302246e-01,2.614279389381408691e-01,2.614112496376037598e-01,2.613946795463562012e-01,2.613783478736877441e-01,2.613617181777954102e-01,2.613450884819030762e-01,2.613287270069122314e-01,2.613121867179870605e-01,2.612957954406738281e-01,2.612792551517486572e-01,2.612627744674682617e-01,2.612463831901550293e-01,2.612295150756835938e-01,2.612132430076599121e-01,2.611968517303466797e-01,2.611803412437438965e-01,2.611638903617858887e-01,2.611474692821502686e-01,2.611310184001922607e-01,2.611146569252014160e-01,2.610980570316314697e-01,2.610817849636077881e-01,2.610651254653930664e-01,2.610487937927246094e-01,2.610323429107666016e-01,2.610157132148742676e-01,2.609994411468505859e-01,2.609864175319671631e-01,2.609671354293823242e-01,2.609423995018005371e-01,2.609140276908874512e-01,2.608522772789001465e-01,2.609499692916870117e-01,2.610199451446533203e-01,2.606115341186523438e-01,2.602491378784179688e-01,2.583687901496887207e-01,2.571195363998413086e-01,2.562596797943115234e-01,2.560173273086547852e-01,2.554063200950622559e-01,2.563465833663940430e-01,2.573705315589904785e-01,2.573348283767700195e-01,2.587299942970275879e-01,2.590039372444152832e-01,2.596389055252075195e-01,2.593787908554077148e-01,2.604640722274780273e-01,2.594909667968750000e-01,2.508689165115356445e-01,2.540995478630065918e-01,2.794089913368225098e-01,3.009887337684631348e-01,3.605350852012634277e-01,3.876628875732421875e-01
3.991095721721649170e-01,3.188912272453308105e-01,2.997264266014099121e-01,2.643873691558837891e-01,2.423042654991149902e-01,2.394166588783264160e-01,2.430770397186279297e-01,2.439674735069274902e-01,2.446586787700653076e-01,2.445952594280242920e-01,2.445629835128784180e-01,2.445479035377502441e-01,2.445333600044250488e-01,2.445194721221923828e-01,2.445048391819000244e-01,2.444905936717987061e-01,2.444767951965332031e-01,2.444634437561035156e-01,2.444499135017395020e-01,2.444367408752441406e-01,2.444239556789398193e-01,2.444110810756683350e-01,2.443982064723968506e-01,2.443856894969940186e-01,2.443726360797882080e-01,2.443596422672271729e-01,2.443467080593109131e-01,2.443337142467498779e-01,2.443208694458007812e-01,2.443079948425292969e-01,2.442951500415802002e-01,2.442820966243743896e-01,2.442692518234252930e-01,2.442562580108642578e-01,2.442433536052703857e-01,2.442306280136108398e-01,2.442176342010498047e-01,2.442044615745544434e-01,2.441915571689605713e-01,2.441787421703338623e-01,2.441660463809967041e-01,2.441529631614685059e-01,2.441401779651641846e-01,2.441273033618927002e-01,2.441145181655883789e-01,2.441014051437377930e-01,2.440887689590454102e-01,2.440758645534515381e-01,2.440627813339233398e-01,2.440499365329742432e-01,2.440370321273803711e-01,2.440259754657745361e-01,2.440135478973388672e-01,2.439911961555480957e-01,2.439711093902587891e-01,2.439509630203247070e-01,2.439819872379302979e-01,2.438489198684692383e-01,2.439790070056915283e-01,2.438115775585174561e-01,2.432103455066680908e-01,2.423562407493591309e-01,2.426254749298095703e-01,2.417762875556945801e-01,2.423408925533294678e-01,2.418714761734008789e-01,2.421641647815704346e-01,2.421634793281555176e-01,2.431670725345611572e-01,2.431561052799224854e-01,2.433218359947204590e-01,2.434535920619964600e-01,2.436375617980957031e-01,2.430979907512664795e-01,2.350673377513885498e-01,2.384868860244750977e-01,2.628240585327148438e-01,2.864136099815368652e-01,3.479856550693511963e-01,3.796706795692443848e-01
3.908083438873291016e-01,3.077776432037353516e-01,2.866268754005432129e-01,2.519673407077789307e-01,2.295315861701965332e-01,2.264042198657989502e-01,2.296702563762664795e-01,2.304601371288299561e-01,2.310817241668701172e-01,2.310271561145782471e-01,2.310001254081726074e-01,2.309894263744354248e-01,2.309789955615997314e-01,2.309688925743103027e-01,2.309582531452178955e-01,2.309482097625732422e-01,2.309378385543823242e-01,2.309272885322570801e-01,2.309167981147766113e-01,2.309062778949737549e-01,2.308960258960723877e-01,2.308856248855590820e-01,2.308754026889801025e-01,2.308649122714996338e-01,2.308545112609863281e-01,2.308440506458282471e-01,2.308337986469268799e-01,2.308233976364135742e-01,2.308129370212554932e-01,2.308026552200317383e-01,2.307921648025512695e-01,2.307818233966827393e-01,2.307715713977813721e-01,2.307611107826232910e-01,2.307506203651428223e-01,2.307403087615966797e-01,2.307299375534057617e-01,2.307197451591491699e-01,2.307093739509582520e-01,2.306990325450897217e-01,2.306886315345764160e-01,2.306783795356750488e-01,2.306678891181945801e-01,2.306574881076812744e-01,2.306470274925231934e-01,2.306368649005889893e-01,2.306264340877532959e-01,2.306160926818847656e-01,2.306057810783386230e-01,2.305954396724700928e-01,2.305851280689239502e-01,2.305749058723449707e-01,2.305664718151092529e-01,2.305535972118377686e-01,2.305390536785125732e-01,2.305314838886260986e-01,2.305366098880767822e-01,2.304317653179168701e-01,2.305380403995513916e-01,2.305022180080413818e-01,2.302263379096984863e-01,2.297488749027252197e-01,2.297855615615844727e-01,2.296090126037597656e-01,2.297473847866058350e-01,2.301913201808929443e-01,2.300238311290740967e-01,2.300703525543212891e-01,2.300698161125183105e-01,2.300957441329956055e-01,2.302068173885345459e-01,2.302930355072021484e-01,2.306111752986907959e-01,2.299565970897674561e-01,2.225244045257568359e-01,2.258943915367126465e-01,2.497998178005218506e-01,2.745466232299804688e-01,3.377444744110107422e-01,3.732110857963562012e-01
3.838096857070922852e-01,2.985769510269165039e-01,2.758284211158752441e-01,2.418442368507385254e-01,2.191889286041259766e-01,2.158564627170562744e-01,2.188118100166320801e-01,2.195132672786712646e-01,2.200796306133270264e-01,2.200319766998291016e-01,2.200087606906890869e-01,2.200004458427429199e-01,2.199917435646057129e-01,2.199835479259490967e-01,2.199748754501342773e-01,2.199663817882537842e-01,2.199578583240509033e-01,2.199493646621704102e-01,2.199406325817108154e-01,2.199322879314422607e-01,2.199237048625946045e-01,2.199152708053588867e-01,2.199067175388336182e-01,2.198982834815979004e-01,2.198897898197174072e-01,2.198811769485473633e-01,2.198725640773773193e-01,2.198641002178192139e-01,2.198556959629058838e-01,2.198472321033477783e-01,2.198387682437896729e-01,2.198301851749420166e-01,2.198218405246734619e-01,2.198131978511810303e-01,2.198044955730438232e-01,2.197960913181304932e-01,2.197877168655395508e-01,2.197791039943695068e-01,2.197708189487457275e-01,2.197622358798980713e-01,2.197538316249847412e-01,2.197450697422027588e-01,2.197367846965789795e-01,2.197284400463104248e-01,2.197197973728179932e-01,2.197113633155822754e-01,2.197026908397674561e-01,2.196943163871765137e-01,2.196858525276184082e-01,2.196774482727050781e-01,2.196687459945678711e-01,2.196603119373321533e-01,2.196527123451232910e-01,2.196439206600189209e-01,2.196323573589324951e-01,2.196349501609802246e-01,2.196119725704193115e-01,2.195562124252319336e-01,2.196334898471832275e-01,2.196176052093505859e-01,2.195624709129333496e-01,2.195190489292144775e-01,2.193624973297119141e-01,2.191855609416961670e-01,2.194340229034423828e-01,2.192589640617370605e-01,2.194767296314239502e-01,2.195129096508026123e-01,2.193883061408996582e-01,2.194163501262664795e-01,2.194942831993103027e-01,2.193776965141296387e-01,2.197537422180175781e-01,2.191988825798034668e-01,2.123425304889678955e-01,2.156876623630523682e-01,2.391815185546875000e-01,2.649261355400085449e-01,3.292271494865417480e-01,3.677950501441955566e-01
3.778364956378936768e-01,2.908429801464080811e-01,2.668058276176452637e-01,2.334575355052947998e-01,2.106573879718780518e-01,2.071474790573120117e-01,2.098512947559356689e-01,2.104748189449310303e-01,2.109923362731933594e-01,2.109504640102386475e-01,2.109304964542388916e-01,2.109234631061553955e-01,2.109164297580718994e-01,2.109093368053436279e-01,2.109020054340362549e-01,2.108950018882751465e-01,2.108879089355468750e-01,2.108807563781738281e-01,2.108737528324127197e-01,2.108664512634277344e-01,2.108593285083770752e-01,2.108524739742279053e-01,2.108450829982757568e-01,2.108381688594818115e-01,2.108311653137207031e-01,2.108239531517028809e-01,2.108168303966522217e-01,2.108098268508911133e-01,2.108027040958404541e-01,2.107957005500793457e-01,2.107885777950286865e-01,2.107814848423004150e-01,2.107743322849273682e-01,2.107671499252319336e-01,2.107603251934051514e-01,2.107530832290649414e-01,2.107459902763366699e-01,2.107390761375427246e-01,2.107320427894592285e-01,2.107249200344085693e-01,2.107177674770355225e-01,2.107107341289520264e-01,2.107035517692565918e-01,2.106965780258178711e-01,2.106896042823791504e-01,2.106824815273284912e-01,2.106755971908569336e-01,2.106683552265167236e-01,2.106613218784332275e-01,2.106541395187377930e-01,2.106470763683319092e-01,2.106400132179260254e-01,2.106334269046783447e-01,2.106259763240814209e-01,2.106198072433471680e-01,2.106112241744995117e-01,2.106037437915802002e-01,2.105903923511505127e-01,2.105843126773834229e-01,2.105765342712402344e-01,2.105935215950012207e-01,2.105073630809783936e-01,2.105045914649963379e-01,2.104935646057128906e-01,2.103931009769439697e-01,2.105374634265899658e-01,2.105071842670440674e-01,2.104973495006561279e-01,2.105004191398620605e-01,2.104456722736358643e-01,2.104392349720001221e-01,2.104744315147399902e-01,2.107159197330474854e-01,2.102861702442169189e-01,2.038668990135192871e-01,2.071844637393951416e-01,2.303308248519897461e-01,2.568560838699340820e-01,3.220639526844024658e-01,3.632488250732421875e-01
