5.913810133934020996e-01,6.108366250991821289e-01,6.344389915466308594e-01,6.220493316650390625e-01,6.494340300559997559e-01,6.731009483337402344e-01,7.123106718063354492e-01,7.339152097702026367e-01,7.546855211257934570e-01,7.749595642089843750e-01,7.927676439285278320e-01,8.097988367080688477e-01,8.246868848800659180e-01,8.407043218612670898e-01,8.530348539352416992e-01,8.617794513702392578e-01,8.694055080413818359e-01,8.738836050033569336e-01,8.775231242179870605e-01,8.793207406997680664e-01,8.806393146514892578e-01,8.814571499824523926e-01,8.816826343536376953e-01,8.817386627197265625e-01,8.817477226257324219e-01,8.817470073699951172e-01,8.817465305328369141e-01,8.817465305328369141e-01,8.817465305328369141e-01,8.817465305328369141e-01,8.817465305328369141e-01,8.817465305328369141e-01,8.817465305328369141e-01,8.817465305328369141e-01,8.817465305328369141e-01,8.817465305328369141e-01,8.817465305328369141e-01,8.817465305328369141e-01,8.817465305328369141e-01,8.817465305328369141e-01,8.817465305328369141e-01,8.817465305328369141e-01,8.817465305328369141e-01,8.817465305328369141e-01,8.817465305328369141e-01,8.817465305328369141e-01,8.817390203475952148e-01,8.817856311798095703e-01,8.823959231376647949e-01,8.825751543045043945e-01,8.779381513595581055e-01,8.713444471359252930e-01,8.586767911911010742e-01,8.357632160186767578e-01,8.104019165039062500e-01,7.504134178161621094e-01,6.789751052856445312e-01,5.561582446098327637e-01,4.815563559532165527e-01,4.193981587886810303e-01,3.752160668373107910e-01,3.397283554077148438e-01,3.141173720359802246e-01,2.981446981430053711e-01,2.929881215095520020e-01,2.905376553535461426e-01,2.918040156364440918e-01,3.029376566410064697e-01,3.212208747863769531e-01,3.425064682960510254e-01,3.740676641464233398e-01,4.265922904014587402e-01,4.785812199115753174e-01,5.476235747337341309e-01,5.968784093856811523e-01,6.290407776832580566e-01,6.733487844467163086e-01,6.847082972526550293e-01,6.418344974517822266e-01,5.672301054000854492e-01
5.757641792297363281e-01,5.904928445816040039e-01,6.338632702827453613e-01,6.274554133415222168e-01,6.458187103271484375e-01,6.684298515319824219e-01,7.070255875587463379e-01,7.298170924186706543e-01,7.524298429489135742e-01,7.728592157363891602e-01,7.932833433151245117e-01,8.114509582519531250e-01,8.284874558448791504e-01,8.422845602035522461e-01,8.558310866355895996e-01,8.657032847404479980e-01,8.726394772529602051e-01,8.775070905685424805e-01,8.805847167968750000e-01,8.830823898315429688e-01,8.842675685882568359e-01,8.850158452987670898e-01,8.853498697280883789e-01,8.853968381881713867e-01,8.854048252105712891e-01,8.854037523269653320e-01,8.854033946990966797e-01,8.854033946990966797e-01,8.854033946990966797e-01,8.854033946990966797e-01,8.854033946990966797e-01,8.854033946990966797e-01,8.854033946990966797e-01,8.854033946990966797e-01,8.854033946990966797e-01,8.854033946990966797e-01,8.854033946990966797e-01,8.854033946990966797e-01,8.854033946990966797e-01,8.854033946990966797e-01,8.854033946990966797e-01,8.854033946990966797e-01,8.854033946990966797e-01,8.854033946990966797e-01,8.854033946990966797e-01,8.854033946990966797e-01,8.854037523269653320e-01,8.854209184646606445e-01,8.860197067260742188e-01,8.863300085067749023e-01,8.832416534423828125e-01,8.763578534126281738e-01,8.656969666481018066e-01,8.406282067298889160e-01,8.147196769714355469e-01,7.669731974601745605e-01,6.704382896423339844e-01,5.318141579627990723e-01,4.467207491397857666e-01,3.896296322345733643e-01,3.437906503677368164e-01,3.194400370121002197e-01,2.878839969635009766e-01,2.710560560226440430e-01,2.647497653961181641e-01,2.619689404964447021e-01,2.616293132305145264e-01,2.711862623691558838e-01,2.882929444313049316e-01,3.070228695869445801e-01,3.459269404411315918e-01,3.962676823139190674e-01,4.546639323234558105e-01,5.314313769340515137e-01,5.779346823692321777e-01,6.229467988014221191e-01,6.681027412414550781e-01,6.832062602043151855e-01,6.526805162429809570e-01,5.740684270858764648e-01
5.853822231292724609e-01,6.091380119323730469e-01,6.506128311157226562e-01,6.513603925704956055e-01,6.737957000732421875e-01,6.968542337417602539e-01,7.318626642227172852e-01,7.532188892364501953e-01,7.746905088424682617e-01,7.934709787368774414e-01,8.120076060295104980e-01,8.292937278747558594e-01,8.436658382415771484e-01,8.571966290473937988e-01,8.684964776039123535e-01,8.787736892700195312e-01,8.858885765075683594e-01,8.903844356536865234e-01,8.931915760040283203e-01,8.950234055519104004e-01,8.964561223983764648e-01,8.971031904220581055e-01,8.973984122276306152e-01,8.974739909172058105e-01,8.974814414978027344e-01,8.974800705909729004e-01,8.974796533584594727e-01,8.974796533584594727e-01,8.974796533584594727e-01,8.974796533584594727e-01,8.974796533584594727e-01,8.974796533584594727e-01,8.974796533584594727e-01,8.974796533584594727e-01,8.974796533584594727e-01,8.974796533584594727e-01,8.974796533584594727e-01,8.974796533584594727e-01,8.974796533584594727e-01,8.974796533584594727e-01,8.974796533584594727e-01,8.974796533584594727e-01,8.974796533584594727e-01,8.974796533584594727e-01,8.974796533584594727e-01,8.974796533584594727e-01,8.974772095680236816e-01,8.974788784980773926e-01,8.978539705276489258e-01,8.979977369308471680e-01,8.969198465347290039e-01,8.914659023284912109e-01,8.799836635589599609e-01,8.591206073760986328e-01,8.354469537734985352e-01,7.918043136596679688e-01,7.104181647300720215e-01,5.771220326423645020e-01,4.858553707599639893e-01,4.258371889591217041e-01,3.740550279617309570e-01,3.417189717292785645e-01,3.078919053077697754e-01,2.915359735488891602e-01,2.819369733333587646e-01,2.793810963630676270e-01,2.799063324928283691e-01,2.887032032012939453e-01,3.016496002674102783e-01,3.210186362266540527e-01,3.677122592926025391e-01,4.149385094642639160e-01,4.686014652252197266e-01,5.333136916160583496e-01,5.963894128799438477e-01,6.355091929435729980e-01,6.839579939842224121e-01,6.896241903305053711e-01,6.659535169601440430e-01,5.815054178237915039e-01
5.859890580177307129e-01,6.085696220397949219e-01,6.532148122787475586e-01,6.542303562164306641e-01,6.774982810020446777e-01,7.013391256332397461e-01,7.378519773483276367e-01,7.591902017593383789e-01,7.801108360290527344e-01,7.990751862525939941e-01,8.174598217010498047e-01,8.348038792610168457e-01,8.496594429016113281e-01,8.628406524658203125e-01,8.746962547302246094e-01,8.841708302497863770e-01,8.913401961326599121e-01,8.960806727409362793e-01,8.991937637329101562e-01,9.009400606155395508e-01,9.020608067512512207e-01,9.028347730636596680e-01,9.030658006668090820e-01,9.031409025192260742e-01,9.031517505645751953e-01,9.031503200531005859e-01,9.031499028205871582e-01,9.031499028205871582e-01,9.031499028205871582e-01,9.031499028205871582e-01,9.031499028205871582e-01,9.031499028205871582e-01,9.031499028205871582e-01,9.031499028205871582e-01,9.031499028205871582e-01,9.031499028205871582e-01,9.031499028205871582e-01,9.031499028205871582e-01,9.031499028205871582e-01,9.031499028205871582e-01,9.031499028205871582e-01,9.031499028205871582e-01,9.031499028205871582e-01,9.031499028205871582e-01,9.031499028205871582e-01,9.031499028205871582e-01,9.031438827514648438e-01,9.031373858451843262e-01,9.032549858093261719e-01,9.038702249526977539e-01,9.031533002853393555e-01,8.989583253860473633e-01,8.882919549942016602e-01,8.700691461563110352e-01,8.464584350585937500e-01,8.031929731369018555e-01,7.411140799522399902e-01,5.933823585510253906e-01,4.996113479137420654e-01,4.275586307048797607e-01,3.801833391189575195e-01,3.428888320922851562e-01,3.097777962684631348e-01,2.919111847877502441e-01,2.822835445404052734e-01,2.794601917266845703e-01,2.804391980171203613e-01,2.858181893825531006e-01,2.979731261730194092e-01,3.187654614448547363e-01,3.624456226825714111e-01,3.981793522834777832e-01,4.486360847949981689e-01,5.238361954689025879e-01,5.841573476791381836e-01,6.258915662765502930e-01,6.834382414817810059e-01,6.986509561538696289e-01,6.674237251281738281e-01,5.816286802291870117e-01
5.889580845832824707e-01,6.137165427207946777e-01,6.569487452507019043e-01,6.574071645736694336e-01,6.812263727188110352e-01,7.053282856941223145e-01,7.418467998504638672e-01,7.632318735122680664e-01,7.838420867919921875e-01,8.024224638938903809e-01,8.205622434616088867e-01,8.372584581375122070e-01,8.524596095085144043e-01,8.655399680137634277e-01,8.768963813781738281e-01,8.865481615066528320e-01,8.936626911163330078e-01,8.983411788940429688e-01,9.015567302703857422e-01,9.035389423370361328e-01,9.046005010604858398e-01,9.052473306655883789e-01,9.055244922637939453e-01,9.055815339088439941e-01,9.055951833724975586e-01,9.055936932563781738e-01,9.055932760238647461e-01,9.055932760238647461e-01,9.055932760238647461e-01,9.055932760238647461e-01,9.055932760238647461e-01,9.055932760238647461e-01,9.055932760238647461e-01,9.055932760238647461e-01,9.055932760238647461e-01,9.055932760238647461e-01,9.055932760238647461e-01,9.055932760238647461e-01,9.055932760238647461e-01,9.055932760238647461e-01,9.055932760238647461e-01,9.055932760238647461e-01,9.055932760238647461e-01,9.055932760238647461e-01,9.055932760238647461e-01,9.055932760238647461e-01,9.055912494659423828e-01,9.055658578872680664e-01,9.055622816085815430e-01,9.064505100250244141e-01,9.063295722007751465e-01,9.018368721008300781e-01,8.915003538131713867e-01,8.764650821685791016e-01,8.515584468841552734e-01,8.116877675056457520e-01,7.439458966255187988e-01,6.101576089859008789e-01,5.027981400489807129e-01,4.361510574817657471e-01,3.839007019996643066e-01,3.447623848915100098e-01,3.131136894226074219e-01,2.916248440742492676e-01,2.845936715602874756e-01,2.808056473731994629e-01,2.820168733596801758e-01,2.836734950542449951e-01,2.942147254943847656e-01,3.132379055023193359e-01,3.554836511611938477e-01,3.844592869281768799e-01,4.380585253238677979e-01,5.116021037101745605e-01,5.555825233459472656e-01,6.195178031921386719e-01,6.735211610794067383e-01,6.896035671234130859e-01,6.611701250076293945e-01,5.811936259269714355e-01
5.884765982627868652e-01,6.139603853225708008e-01,6.563317775726318359e-01,6.571247577667236328e-01,6.807263493537902832e-01,7.049890756607055664e-01,7.413101196289062500e-01,7.627395391464233398e-01,7.834851741790771484e-01,8.020358681678771973e-01,8.197869062423706055e-01,8.366075158119201660e-01,8.516553640365600586e-01,8.648972511291503906e-01,8.764181137084960938e-01,8.860186338424682617e-01,8.930650949478149414e-01,8.978270292282104492e-01,9.010759592056274414e-01,9.031780958175659180e-01,9.043442010879516602e-01,9.049906730651855469e-01,9.052337408065795898e-01,9.052965044975280762e-01,9.053112268447875977e-01,9.053096771240234375e-01,9.053092002868652344e-01,9.053092002868652344e-01,9.053092002868652344e-01,9.053092002868652344e-01,9.053092002868652344e-01,9.053092002868652344e-01,9.053092002868652344e-01,9.053092002868652344e-01,9.053092002868652344e-01,9.053092002868652344e-01,9.053092002868652344e-01,9.053092002868652344e-01,9.053092002868652344e-01,9.053092002868652344e-01,9.053092002868652344e-01,9.053092002868652344e-01,9.053092002868652344e-01,9.053092002868652344e-01,9.053092002868652344e-01,9.053092002868652344e-01,9.053063392639160156e-01,9.052916765213012695e-01,9.052903652191162109e-01,9.058540463447570801e-01,9.061454534530639648e-01,9.009127020835876465e-01,8.909805417060852051e-01,8.771339654922485352e-01,8.512479066848754883e-01,8.110069632530212402e-01,7.517507076263427734e-01,6.176383495330810547e-01,5.059580802917480469e-01,4.421991407871246338e-01,3.906717002391815186e-01,3.420249819755554199e-01,3.104549646377563477e-01,2.935361266136169434e-01,2.849767506122589111e-01,2.824659943580627441e-01,2.828653454780578613e-01,2.818090617656707764e-01,2.894582152366638184e-01,3.081258237361907959e-01,3.397830128669738770e-01,3.703609108924865723e-01,4.366487562656402588e-01,4.752525687217712402e-01,5.384038686752319336e-01,6.069882512092590332e-01,6.695247292518615723e-01,6.801645755767822266e-01,6.510991454124450684e-01,5.834125876426696777e-01
5.885018706321716309e-01,6.139490008354187012e-01,6.565048098564147949e-01,6.572787761688232422e-01,6.807783246040344238e-01,7.049956321716308594e-01,7.413750886917114258e-01,7.627745866775512695e-01,7.835460901260375977e-01,8.021701574325561523e-01,8.199298381805419922e-01,8.364099264144897461e-01,8.515371084213256836e-01,8.648519515991210938e-01,8.763731718063354492e-01,8.859382867813110352e-01,8.930213451385498047e-01,8.977289199829101562e-01,9.010210037231445312e-01,9.031491279602050781e-01,9.043530821800231934e-01,9.050096869468688965e-01,9.052692651748657227e-01,9.053225517272949219e-01,9.053358435630798340e-01,9.053342938423156738e-01,9.053338766098022461e-01,9.053338766098022461e-01,9.053338766098022461e-01,9.053338766098022461e-01,9.053338766098022461e-01,9.053338766098022461e-01,9.053338766098022461e-01,9.053338766098022461e-01,9.053338766098022461e-01,9.053338766098022461e-01,9.053338766098022461e-01,9.053338766098022461e-01,9.053338766098022461e-01,9.053338766098022461e-01,9.053338766098022461e-01,9.053338766098022461e-01,9.053338766098022461e-01,9.053338766098022461e-01,9.053338766098022461e-01,9.053338766098022461e-01,9.053338766098022461e-01,9.053303599357604980e-01,9.053765535354614258e-01,9.058461785316467285e-01,9.060226678848266602e-01,9.013131856918334961e-01,8.916115164756774902e-01,8.769391775131225586e-01,8.541776537895202637e-01,8.159142136573791504e-01,7.529359459877014160e-01,6.168506145477294922e-01,5.140598416328430176e-01,4.466503262519836426e-01,3.906914591789245605e-01,3.451150059700012207e-01,3.131306767463684082e-01,2.934411168098449707e-01,2.865676581859588623e-01,2.814976572990417480e-01,2.807940244674682617e-01,2.802259922027587891e-01,2.841300964355468750e-01,3.044651150703430176e-01,3.201300799846649170e-01,3.580868840217590332e-01,4.190583527088165283e-01,4.623665809631347656e-01,5.195723772048950195e-01,5.864437818527221680e-01,6.480855345726013184e-01,6.712536215782165527e-01,6.525589227676391602e-01,5.750524997711181641e-01
5.884808301925659180e-01,6.139118671417236328e-01,6.564788222312927246e-01,6.572390794754028320e-01,6.807476282119750977e-01,7.049658298492431641e-01,7.413306236267089844e-01,7.627444863319396973e-01,7.835182547569274902e-01,8.021486997604370117e-01,8.199411034584045410e-01,8.364361524581909180e-01,8.513963818550109863e-01,8.647893667221069336e-01,8.763935565948486328e-01,8.858848810195922852e-01,8.929588794708251953e-01,8.977020978927612305e-01,9.009696245193481445e-01,9.031198620796203613e-01,9.043424725532531738e-01,9.050059914588928223e-01,9.052580595016479492e-01,9.053189158439636230e-01,9.053307175636291504e-01,9.053287506103515625e-01,9.053283333778381348e-01,9.053283333778381348e-01,9.053283333778381348e-01,9.053283333778381348e-01,9.053283333778381348e-01,9.053283333778381348e-01,9.053283333778381348e-01,9.053283333778381348e-01,9.053283333778381348e-01,9.053283333778381348e-01,9.053283333778381348e-01,9.053283333778381348e-01,9.053283333778381348e-01,9.053283333778381348e-01,9.053283333778381348e-01,9.053283333778381348e-01,9.053283333778381348e-01,9.053283333778381348e-01,9.053283333778381348e-01,9.053283333778381348e-01,9.053285121917724609e-01,9.053315520286560059e-01,9.053319692611694336e-01,9.058400392532348633e-01,9.057106971740722656e-01,9.007098674774169922e-01,8.916472196578979492e-01,8.765162825584411621e-01,8.569554090499877930e-01,8.206809759140014648e-01,7.520349025726318359e-01,6.333327293395996094e-01,5.211425423622131348e-01,4.432469308376312256e-01,3.941989839076995850e-01,3.510025143623352051e-01,3.165456950664520264e-01,2.953206896781921387e-01,2.874729037284851074e-01,2.818832397460937500e-01,2.813852429389953613e-01,2.892716526985168457e-01,2.867080569267272949e-01,2.957763671875000000e-01,3.120067119598388672e-01,3.560132980346679688e-01,3.981913030147552490e-01,4.436680376529693604e-01,4.904341101646423340e-01,5.622449517250061035e-01,6.341461539268493652e-01,6.565636992454528809e-01,6.476206779479980469e-01,5.681355595588684082e-01
5.884739756584167480e-01,6.139005422592163086e-01,6.564657092094421387e-01,6.572233438491821289e-01,6.807299852371215820e-01,7.049458026885986328e-01,7.413140535354614258e-01,7.627208232879638672e-01,7.834962606430053711e-01,8.021359443664550781e-01,8.199276924133300781e-01,8.364307880401611328e-01,8.513967394828796387e-01,8.647286295890808105e-01,8.763766288757324219e-01,8.859146833419799805e-01,8.929377794265747070e-01,8.976860046386718750e-01,9.009734392166137695e-01,9.031088352203369141e-01,9.043350219726562500e-01,9.050054550170898438e-01,9.052593708038330078e-01,9.053182601928710938e-01,9.053307771682739258e-01,9.053288698196411133e-01,9.053283333778381348e-01,9.053283333778381348e-01,9.053283333778381348e-01,9.053283333778381348e-01,9.053283333778381348e-01,9.053283333778381348e-01,9.053283333778381348e-01,9.053283333778381348e-01,9.053283333778381348e-01,9.053283333778381348e-01,9.053283333778381348e-01,9.053283333778381348e-01,9.053283333778381348e-01,9.053283333778381348e-01,9.053283333778381348e-01,9.053283333778381348e-01,9.053283333778381348e-01,9.053283333778381348e-01,9.053283333778381348e-01,9.053283333778381348e-01,9.053292274475097656e-01,9.053333997726440430e-01,9.053605794906616211e-01,9.057106971740722656e-01,9.058902263641357422e-01,9.011246562004089355e-01,8.930855393409729004e-01,8.801907300949096680e-01,8.603053689002990723e-01,8.242661952972412109e-01,7.551904320716857910e-01,6.295988559722900391e-01,5.268700122833251953e-01,4.475561976432800293e-01,4.052385985851287842e-01,3.609064817428588867e-01,3.177944123744964600e-01,3.069473803043365479e-01,2.896973788738250732e-01,2.897294759750366211e-01,2.963755428791046143e-01,2.902449369430541992e-01,2.934498786926269531e-01,2.879047095775604248e-01,3.153442144393920898e-01,3.442837297916412354e-01,3.835384547710418701e-01,4.243387877941131592e-01,4.744544923305511475e-01,5.376557707786560059e-01,6.125766634941101074e-01,6.433587670326232910e-01,6.310687065124511719e-01,5.558717846870422363e-01
5.884669423103332520e-01,6.138892173767089844e-01,6.564525365829467773e-01,6.572079658508300781e-01,6.807129979133605957e-01,7.049281001091003418e-01,7.412950992584228516e-01,7.627035975456237793e-01,7.834767103195190430e-01,8.021154403686523438e-01,8.199144005775451660e-01,8.364177942276000977e-01,8.513854742050170898e-01,8.647181987762451172e-01,8.763574361801147461e-01,8.859029412269592285e-01,8.929398059844970703e-01,8.976823091506958008e-01,9.009671211242675781e-01,9.031099081039428711e-01,9.043337106704711914e-01,9.050044417381286621e-01,9.052593708038330078e-01,9.053182005882263184e-01,9.053307175636291504e-01,9.053288698196411133e-01,9.053283333778381348e-01,9.053283333778381348e-01,9.053283333778381348e-01,9.053283333778381348e-01,9.053283333778381348e-01,9.053283333778381348e-01,9.053283333778381348e-01,9.053283333778381348e-01,9.053283333778381348e-01,9.053283333778381348e-01,9.053283333778381348e-01,9.053283333778381348e-01,9.053283333778381348e-01,9.053283333778381348e-01,9.053283333778381348e-01,9.053283333778381348e-01,9.053283333778381348e-01,9.053283333778381348e-01,9.053283333778381348e-01,9.053283333778381348e-01,9.053286314010620117e-01,9.053311347961425781e-01,9.053448438644409180e-01,9.056550860404968262e-01,9.059711098670959473e-01,9.018101096153259277e-01,8.941756486892700195e-01,8.827987909317016602e-01,8.631099462509155273e-01,8.266117572784423828e-01,7.640327811241149902e-01,6.306775212287902832e-01,5.433414578437805176e-01,4.811707139015197754e-01,4.124776422977447510e-01,3.637946546077728271e-01,3.311476111412048340e-01,3.217167556285858154e-01,2.925596833229064941e-01,2.977264523506164551e-01,3.069543838500976562e-01,3.015681505203247070e-01,2.969552874565124512e-01,2.985823750495910645e-01,3.093271851539611816e-01,3.432998061180114746e-01,3.679758906364440918e-01,4.108541607856750488e-01,4.512090682983398438e-01,5.062267184257507324e-01,5.871331691741943359e-01,6.178340315818786621e-01,6.156690120697021484e-01,5.492579340934753418e-01
5.884600281715393066e-01,6.138780713081359863e-01,6.564393639564514160e-01,6.571928858757019043e-01,6.806962490081787109e-01,7.049107551574707031e-01,7.412775754928588867e-01,7.626856565475463867e-01,7.834591865539550781e-01,8.020974993705749512e-01,8.198971748352050781e-01,8.364032506942749023e-01,8.513708114624023438e-01,8.647055625915527344e-01,8.763464689254760742e-01,8.858942985534667969e-01,8.929324746131896973e-01,8.976778984069824219e-01,9.009643793106079102e-01,9.031085968017578125e-01,9.043329954147338867e-01,9.050039649009704590e-01,9.052593111991882324e-01,9.053181409835815430e-01,9.053306579589843750e-01,9.053288102149963379e-01,9.053283333778381348e-01,9.053283333778381348e-01,9.053283333778381348e-01,9.053283333778381348e-01,9.053283333778381348e-01,9.053283333778381348e-01,9.053283333778381348e-01,9.053283333778381348e-01,9.053283333778381348e-01,9.053283333778381348e-01,9.053283333778381348e-01,9.053283333778381348e-01,9.053283333778381348e-01,9.053283333778381348e-01,9.053283333778381348e-01,9.053283333778381348e-01,9.053283333778381348e-01,9.053283333778381348e-01,9.053283333778381348e-01,9.053283333778381348e-01,9.053285121917724609e-01,9.053273200988769531e-01,9.053409099578857422e-01,9.057086110115051270e-01,9.062002301216125488e-01,9.024393558502197266e-01,8.962786197662353516e-01,8.874733448028564453e-01,8.694864511489868164e-01,8.400970697402954102e-01,7.737419009208679199e-01,6.563127040863037109e-01,5.630195140838623047e-01,5.038933753967285156e-01,4.339491426944732666e-01,3.798451423645019531e-01,3.566197156906127930e-01,3.349276781082153320e-01,3.163190484046936035e-01,3.070905506610870361e-01,3.337330520153045654e-01,3.286245465278625488e-01,3.128790855407714844e-01,3.182644844055175781e-01,3.080692291259765625e-01,3.355259895324707031e-01,3.683688044548034668e-01,4.038292169570922852e-01,4.215510487556457520e-01,4.819168448448181152e-01,5.700794458389282227e-01,5.968335270881652832e-01,6.011582016944885254e-01,5.416631698608398438e-01
5.884531140327453613e-01,6.138669252395629883e-01,6.564264297485351562e-01,6.571778059005737305e-01,6.806797385215759277e-01,7.048936486244201660e-01,7.412601709365844727e-01,7.626682519912719727e-01,7.834417223930358887e-01,8.020800352096557617e-01,8.198807835578918457e-01,8.363876938819885254e-01,8.513569831848144531e-01,8.646928668022155762e-01,8.763355612754821777e-01,8.858858346939086914e-01,8.929263353347778320e-01,8.976735472679138184e-01,9.009614586830139160e-01,9.031070470809936523e-01,9.043321609497070312e-01,9.050034284591674805e-01,9.052591919898986816e-01,9.053180217742919922e-01,9.053307175636291504e-01,9.053288698196411133e-01,9.053283333778381348e-01,9.053283333778381348e-01,9.053283333778381348e-01,9.053283333778381348e-01,9.053283333778381348e-01,9.053283333778381348e-01,9.053283333778381348e-01,9.053283333778381348e-01,9.053283333778381348e-01,9.053283333778381348e-01,9.053283333778381348e-01,9.053283333778381348e-01,9.053283333778381348e-01,9.053283333778381348e-01,9.053283333778381348e-01,9.053283333778381348e-01,9.053283333778381348e-01,9.053283333778381348e-01,9.053283333778381348e-01,9.053283333778381348e-01,9.053283333778381348e-01,9.053227901458740234e-01,9.053258895874023438e-01,9.056646823883056641e-01,9.061154127120971680e-01,9.033688902854919434e-01,8.982951045036315918e-01,8.900676965713500977e-01,8.785350322723388672e-01,8.503875732421875000e-01,7.860806584358215332e-01,6.932340264320373535e-01,5.966077446937561035e-01,5.376667976379394531e-01,4.603654444217681885e-01,4.285720586776733398e-01,3.823087811470031738e-01,3.448617756366729736e-01,3.450884222984313965e-01,3.375690877437591553e-01,3.724941611289978027e-01,3.527334928512573242e-01,3.528190553188323975e-01,3.205316960811614990e-01,3.298299908638000488e-01,3.342012763023376465e-01,3.805126845836639404e-01,3.836133778095245361e-01,4.031509757041931152e-01,4.687508046627044678e-01,5.508868694305419922e-01,5.795292258262634277e-01,5.861930847167968750e-01,5.344857573509216309e-01
5.884464383125305176e-01,6.138561367988586426e-01,6.564137935638427734e-01,6.571630239486694336e-01,6.806633472442626953e-01,7.048767805099487305e-01,7.412432432174682617e-01,7.626512050628662109e-01,7.834246158599853516e-01,8.020631670951843262e-01,8.198643922805786133e-01,8.363726139068603516e-01,8.513430356979370117e-01,8.646806478500366211e-01,8.763245940208435059e-01,8.858771324157714844e-01,8.929203748703002930e-01,8.976696729660034180e-01,9.009585380554199219e-01,9.031051993370056152e-01,9.043312072753906250e-01,9.050030112266540527e-01,9.052590131759643555e-01,9.053180217742919922e-01,9.053307175636291504e-01,9.053288698196411133e-01,9.053283333778381348e-01,9.053283333778381348e-01,9.053283333778381348e-01,9.053283333778381348e-01,9.053283333778381348e-01,9.053283333778381348e-01,9.053283333778381348e-01,9.053283333778381348e-01,9.053283333778381348e-01,9.053283333778381348e-01,9.053283333778381348e-01,9.053283333778381348e-01,9.053283333778381348e-01,9.053283333778381348e-01,9.053283333778381348e-01,9.053283333778381348e-01,9.053283333778381348e-01,9.053283333778381348e-01,9.053283333778381348e-01,9.053283333778381348e-01,9.053283333778381348e-01,9.053217768669128418e-01,9.053243398666381836e-01,9.058070182800292969e-01,9.067683219909667969e-01,9.043959379196166992e-01,9.008675813674926758e-01,8.951982259750366211e-01,8.834723234176635742e-01,8.613611459732055664e-01,8.062864542007446289e-01,7.385858893394470215e-01,6.527731418609619141e-01,6.007854938507080078e-01,5.193674564361572266e-01,4.554071724414825439e-01,4.037421941757202148e-01,3.748067021369934082e-01,3.893415331840515137e-01,3.853511810302734375e-01,3.929867148399353027e-01,3.992310166358947754e-01,3.858583569526672363e-01,3.501408696174621582e-01,3.437743782997131348e-01,3.561115264892578125e-01,3.829403221607208252e-01,3.872475028038024902e-01,3.949866890907287598e-01,4.512224197387695312e-01,5.308852791786193848e-01,5.679284334182739258e-01,5.676957368850708008e-01,5.262794494628906250e-01
5.884403586387634277e-01,6.138457655906677246e-01,6.564014554023742676e-01,6.571483612060546875e-01,6.806473135948181152e-01,7.048603892326354980e-01,7.412264347076416016e-01,7.626343965530395508e-01,7.834078073501586914e-01,8.020466566085815430e-01,8.198485970497131348e-01,8.363578319549560547e-01,8.513298034667968750e-01,8.646682500839233398e-01,8.763138651847839355e-01,8.858685493469238281e-01,8.929144144058227539e-01,8.976657390594482422e-01,9.009556770324707031e-01,9.031035304069519043e-01,9.043303728103637695e-01,9.050022363662719727e-01,9.052591323852539062e-01,9.053180217742919922e-01,9.053307175636291504e-01,9.053288698196411133e-01,9.053283333778381348e-01,9.053283333778381348e-01,9.053283333778381348e-01,9.053283333778381348e-01,9.053283333778381348e-01,9.053283333778381348e-01,9.053283333778381348e-01,9.053283333778381348e-01,9.053283333778381348e-01,9.053283333778381348e-01,9.053283333778381348e-01,9.053283333778381348e-01,9.053283333778381348e-01,9.053283333778381348e-01,9.053283333778381348e-01,9.053283333778381348e-01,9.053283333778381348e-01,9.053283333778381348e-01,9.053283333778381348e-01,9.053283333778381348e-01,9.053283333778381348e-01,9.053249359130859375e-01,9.053142070770263672e-01,9.057921171188354492e-01,9.065461158752441406e-01,9.039413928985595703e-01,9.015235900878906250e-01,9.016394615173339844e-01,8.913937807083129883e-01,8.715610504150390625e-01,8.307981491088867188e-01,7.792063951492309570e-01,7.222494482994079590e-01,6.494476199150085449e-01,5.684460401535034180e-01,4.912668764591217041e-01,4.442414641380310059e-01,4.175130724906921387e-01,4.306910932064056396e-01,4.229385852813720703e-01,4.390418231487274170e-01,4.472170770168304443e-01,4.225763678550720215e-01,4.060116410255432129e-01,3.714755773544311523e-01,3.860857188701629639e-01,3.813564479351043701e-01,4.007276892662048340e-01,4.003413021564483643e-01,4.325859546661376953e-01,5.249531865119934082e-01,5.590756535530090332e-01,5.609522461891174316e-01,5.207289457321166992e-01
5.884346961975097656e-01,6.138362884521484375e-01,6.563900709152221680e-01,6.571346521377563477e-01,6.806318163871765137e-01,7.048444747924804688e-01,7.412102818489074707e-01,7.626181840896606445e-01,7.833914756774902344e-01,8.020303249359130859e-01,8.198332786560058594e-01,8.363432288169860840e-01,8.513164520263671875e-01,8.646564483642578125e-01,8.763036727905273438e-01,8.858603239059448242e-01,8.929084539413452148e-01,8.976618051528930664e-01,9.009528756141662598e-01,9.031019210815429688e-01,9.043292999267578125e-01,9.050018787384033203e-01,9.052588939666748047e-01,9.053179025650024414e-01,9.053307175636291504e-01,9.053288698196411133e-01,9.053283333778381348e-01,9.053283333778381348e-01,9.053283333778381348e-01,9.053283333778381348e-01,9.053283333778381348e-01,9.053283333778381348e-01,9.053283333778381348e-01,9.053283333778381348e-01,9.053283333778381348e-01,9.053283333778381348e-01,9.053283333778381348e-01,9.053283333778381348e-01,9.053283333778381348e-01,9.053283333778381348e-01,9.053283333778381348e-01,9.053283333778381348e-01,9.053283333778381348e-01,9.053283333778381348e-01,9.053283333778381348e-01,9.053283333778381348e-01,9.053283333778381348e-01,9.053292870521545410e-01,9.053124189376831055e-01,9.057426452636718750e-01,9.059638977050781250e-01,9.042313098907470703e-01,9.027605652809143066e-01,9.038010239601135254e-01,8.954073190689086914e-01,8.830543756484985352e-01,8.579510450363159180e-01,8.111345767974853516e-01,7.526203393936157227e-01,6.933084130287170410e-01,6.172174215316772461e-01,5.363060832023620605e-01,4.956513941287994385e-01,4.649721384048461914e-01,4.586583673954010010e-01,4.529193043708801270e-01,5.156643986701965332e-01,4.790490567684173584e-01,4.807039499282836914e-01,4.372240900993347168e-01,4.075724482536315918e-01,3.911973834037780762e-01,4.130755066871643066e-01,4.080459773540496826e-01,4.045028686523437500e-01,4.411872029304504395e-01,5.158348083496093750e-01,5.582315325736999512e-01,5.540220737457275391e-01,5.205171704292297363e-01
5.884298682212829590e-01,6.138279438018798828e-01,6.563800573348999023e-01,6.571224927902221680e-01,6.806176900863647461e-01,7.048295140266418457e-01,7.411948442459106445e-01,7.626023292541503906e-01,7.833756208419799805e-01,8.020147085189819336e-01,8.198181390762329102e-01,8.363293409347534180e-01,8.513033986091613770e-01,8.646447658538818359e-01,8.762934207916259766e-01,8.858520388603210449e-01,8.929027318954467773e-01,8.976582288742065430e-01,9.009500145912170410e-01,9.031003713607788086e-01,9.043284654617309570e-01,9.050014019012451172e-01,9.052587747573852539e-01,9.053179025650024414e-01,9.053307771682739258e-01,9.053288698196411133e-01,9.053283333778381348e-01,9.053283333778381348e-01,9.053283333778381348e-01,9.053283333778381348e-01,9.053283333778381348e-01,9.053283333778381348e-01,9.053283333778381348e-01,9.053283333778381348e-01,9.053283333778381348e-01,9.053283333778381348e-01,9.053283333778381348e-01,9.053283333778381348e-01,9.053283333778381348e-01,9.053283333778381348e-01,9.053283333778381348e-01,9.053283333778381348e-01,9.053283333778381348e-01,9.053283333778381348e-01,9.053283333778381348e-01,9.053283333778381348e-01,9.053283333778381348e-01,9.053249359130859375e-01,9.053007364273071289e-01,9.056211709976196289e-01,9.056479334831237793e-01,9.046835899353027344e-01,9.060111641883850098e-01,9.066028594970703125e-01,8.989713191986083984e-01,8.887408971786499023e-01,8.678900003433227539e-01,8.317396640777587891e-01,7.891454100608825684e-01,7.411422133445739746e-01,6.664963960647583008e-01,5.745488405227661133e-01,5.408193469047546387e-01,5.039670467376708984e-01,4.807476103305816650e-01,4.928984940052032471e-01,5.388507843017578125e-01,5.400437116622924805e-01,5.140003561973571777e-01,4.755716323852539062e-01,4.477944374084472656e-01,4.294525980949401855e-01,4.334642291069030762e-01,4.201368093490600586e-01,4.229791164398193359e-01,4.555375576019287109e-01,5.234958529472351074e-01,5.448883175849914551e-01,5.567985177040100098e-01,5.223205089569091797e-01
5.884253978729248047e-01,6.138206124305725098e-01,6.563710570335388184e-01,6.571119427680969238e-01,6.806053519248962402e-01,7.048161029815673828e-01,7.411808967590332031e-01,7.625879049301147461e-01,7.833607196807861328e-01,8.019994497299194336e-01,8.198036551475524902e-01,8.363157510757446289e-01,8.512914180755615234e-01,8.646339178085327148e-01,8.762834072113037109e-01,8.858442902565002441e-01,8.928971886634826660e-01,8.976544737815856934e-01,9.009474515914916992e-01,9.030988812446594238e-01,9.043276309967041016e-01,9.050009250640869141e-01,9.052587747573852539e-01,9.053179025650024414e-01,9.053307175636291504e-01,9.053288698196411133e-01,9.053283333778381348e-01,9.053283333778381348e-01,9.053283333778381348e-01,9.053283333778381348e-01,9.053283333778381348e-01,9.053283333778381348e-01,9.053283333778381348e-01,9.053283333778381348e-01,9.053283333778381348e-01,9.053283333778381348e-01,9.053283333778381348e-01,9.053283333778381348e-01,9.053283333778381348e-01,9.053283333778381348e-01,9.053283333778381348e-01,9.053283333778381348e-01,9.053283333778381348e-01,9.053283333778381348e-01,9.053283333778381348e-01,9.053283333778381348e-01,9.053283333778381348e-01,9.053223729133605957e-01,9.052969813346862793e-01,9.053441286087036133e-01,9.055391550064086914e-01,9.050353765487670898e-01,9.067389965057373047e-01,9.077128171920776367e-01,9.011008739471435547e-01,8.898805379867553711e-01,8.746359944343566895e-01,8.488297462463378906e-01,8.238830566406250000e-01,7.705019712448120117e-01,6.999751329421997070e-01,5.895965099334716797e-01,5.553200244903564453e-01,5.276007652282714844e-01,5.069926381111145020e-01,5.312321782112121582e-01,5.631546378135681152e-01,6.017891764640808105e-01,5.444280505180358887e-01,5.092437267303466797e-01,4.686426520347595215e-01,4.714179933071136475e-01,4.402336478233337402e-01,4.384545683860778809e-01,4.421183466911315918e-01,4.708736538887023926e-01,5.380079150199890137e-01,5.586628913879394531e-01,5.619978308677673340e-01,5.185083150863647461e-01
5.884209871292114258e-01,6.138135194778442383e-01,6.563623547554016113e-01,6.571019291877746582e-01,6.805944442749023438e-01,7.048047184944152832e-01,7.411689162254333496e-01,7.625752091407775879e-01,7.833473086357116699e-01,8.019856214523315430e-01,8.197900652885437012e-01,8.363029956817626953e-01,8.512792587280273438e-01,8.646230697631835938e-01,8.762742280960083008e-01,8.858366012573242188e-01,8.928917050361633301e-01,8.976508975028991699e-01,9.009447097778320312e-01,9.030972719192504883e-01,9.043266773223876953e-01,9.050004482269287109e-01,9.052586555480957031e-01,9.053179025650024414e-01,9.053307771682739258e-01,9.053288698196411133e-01,9.053283333778381348e-01,9.053283333778381348e-01,9.053283333778381348e-01,9.053283333778381348e-01,9.053283333778381348e-01,9.053283333778381348e-01,9.053283333778381348e-01,9.053283333778381348e-01,9.053283333778381348e-01,9.053283333778381348e-01,9.053283333778381348e-01,9.053283333778381348e-01,9.053283333778381348e-01,9.053283333778381348e-01,9.053283333778381348e-01,9.053283333778381348e-01,9.053283333778381348e-01,9.053283333778381348e-01,9.053283333778381348e-01,9.053283333778381348e-01,9.053283333778381348e-01,9.053274393081665039e-01,9.052944183349609375e-01,9.052232503890991211e-01,9.055788516998291016e-01,9.060086607933044434e-01,9.070302248001098633e-01,9.069802761077880859e-01,9.043400883674621582e-01,8.970335721969604492e-01,8.804782629013061523e-01,8.554116487503051758e-01,8.306312561035156250e-01,7.919508218765258789e-01,7.264552116394042969e-01,6.187868714332580566e-01,5.677944421768188477e-01,5.449362397193908691e-01,5.297930836677551270e-01,5.347863435745239258e-01,5.867027044296264648e-01,6.165326833724975586e-01,5.897381305694580078e-01,5.193811655044555664e-01,4.943294227123260498e-01,4.809050261974334717e-01,4.427720606327056885e-01,4.615236520767211914e-01,4.575829505920410156e-01,4.943972826004028320e-01,5.399584770202636719e-01,5.712557435035705566e-01,5.723994374275207520e-01,5.260106921195983887e-01
5.884162783622741699e-01,6.138061881065368652e-01,6.563544273376464844e-01,6.570928096771240234e-01,6.805840730667114258e-01,7.047938108444213867e-01,7.411578893661499023e-01,7.625639438629150391e-01,7.833356261253356934e-01,8.019734621047973633e-01,8.197780847549438477e-01,8.362911343574523926e-01,8.512681722640991211e-01,8.646130561828613281e-01,8.762651681900024414e-01,8.858294486999511719e-01,8.928868174552917480e-01,8.976476192474365234e-01,9.009423255920410156e-01,9.030957818031311035e-01,9.043259024620056152e-01,9.050000905990600586e-01,9.052585959434509277e-01,9.053179025650024414e-01,9.053307771682739258e-01,9.053288698196411133e-01,9.053283333778381348e-01,9.053283333778381348e-01,9.053283333778381348e-01,9.053283333778381348e-01,9.053283333778381348e-01,9.053283333778381348e-01,9.053283333778381348e-01,9.053283333778381348e-01,9.053283333778381348e-01,9.053283333778381348e-01,9.053283333778381348e-01,9.053283333778381348e-01,9.053283333778381348e-01,9.053283333778381348e-01,9.053283333778381348e-01,9.053283333778381348e-01,9.053283333778381348e-01,9.053283333778381348e-01,9.053283333778381348e-01,9.053283333778381348e-01,9.053283333778381348e-01,9.053257703781127930e-01,9.053017497062683105e-01,9.052522182464599609e-01,9.053262472152709961e-01,9.057459235191345215e-01,9.059847593307495117e-01,9.059564471244812012e-01,9.053443670272827148e-01,8.990010619163513184e-01,8.830354809761047363e-01,8.648211956024169922e-01,8.433573246002197266e-01,7.984025478363037109e-01,7.515022754669189453e-01,6.409019827842712402e-01,5.855213999748229980e-01,5.506286621093750000e-01,5.449749827384948730e-01,5.608786940574645996e-01,5.994091033935546875e-01,6.325255632400512695e-01,5.963789820671081543e-01,5.367084741592407227e-01,5.164611935615539551e-01,4.799247682094573975e-01,4.502107799053192139e-01,4.772997796535491943e-01,4.980816543102264404e-01,5.045868754386901855e-01,5.630050897598266602e-01,5.878658890724182129e-01,5.817757248878479004e-01,5.323232412338256836e-01
5.884111523628234863e-01,6.137982606887817383e-01,6.563459634780883789e-01,6.570829153060913086e-01,6.805738806724548340e-01,7.047837376594543457e-01,7.411475181579589844e-01,7.625536918640136719e-01,7.833250761032104492e-01,8.019628524780273438e-01,8.197675943374633789e-01,8.362810611724853516e-01,8.512581586837768555e-01,8.646039962768554688e-01,8.762567639350891113e-01,8.858227729797363281e-01,8.928819894790649414e-01,8.976445198059082031e-01,9.009399414062500000e-01,9.030944705009460449e-01,9.043250679969787598e-01,9.049997329711914062e-01,9.052584171295166016e-01,9.053179025650024414e-01,9.053307771682739258e-01,9.053288698196411133e-01,9.053283333778381348e-01,9.053283333778381348e-01,9.053283333778381348e-01,9.053283333778381348e-01,9.053283333778381348e-01,9.053283333778381348e-01,9.053283333778381348e-01,9.053283333778381348e-01,9.053283333778381348e-01,9.053283333778381348e-01,9.053283333778381348e-01,9.053283333778381348e-01,9.053283333778381348e-01,9.053283333778381348e-01,9.053283333778381348e-01,9.053283333778381348e-01,9.053283333778381348e-01,9.053283333778381348e-01,9.053283333778381348e-01,9.053283333778381348e-01,9.053283333778381348e-01,9.053285121917724609e-01,9.053193330764770508e-01,9.053280353546142578e-01,9.053955078125000000e-01,9.055151939392089844e-01,9.058327674865722656e-01,9.067679047584533691e-01,9.067424535751342773e-01,9.000929594039916992e-01,8.856328725814819336e-01,8.716130256652832031e-01,8.460199832916259766e-01,8.065208196640014648e-01,7.621709108352661133e-01,6.628364324569702148e-01,5.915246009826660156e-01,5.507864952087402344e-01,5.570224523544311523e-01,5.833981037139892578e-01,6.133696436882019043e-01,6.113175153732299805e-01,5.810320377349853516e-01,5.626091361045837402e-01,5.266325473785400391e-01,4.882245957851409912e-01,4.759169816970825195e-01,4.909681975841522217e-01,4.970309734344482422e-01,5.183156132698059082e-01,5.875209569931030273e-01,6.009979844093322754e-01,5.967157483100891113e-01,5.411392450332641602e-01
5.884057283401489258e-01,6.137896180152893066e-01,6.563361883163452148e-01,6.570717692375183105e-01,6.805626153945922852e-01,7.047723531723022461e-01,7.411369085311889648e-01,7.625433206558227539e-01,7.833153009414672852e-01,8.019527792930603027e-01,8.197575807571411133e-01,8.362717628479003906e-01,8.512489795684814453e-01,8.645951747894287109e-01,8.762488365173339844e-01,8.858162164688110352e-01,8.928766250610351562e-01,8.976403474807739258e-01,9.009364843368530273e-01,9.030917286872863770e-01,9.043228030204772949e-01,9.049974679946899414e-01,9.052566289901733398e-01,9.053159952163696289e-01,9.053288698196411133e-01,9.053269624710083008e-01,9.053264856338500977e-01,9.053264856338500977e-01,9.053264856338500977e-01,9.053264856338500977e-01,9.053264856338500977e-01,9.053264260292053223e-01,9.053264856338500977e-01,9.053264260292053223e-01,9.053264260292053223e-01,9.053264260292053223e-01,9.053264260292053223e-01,9.053263664245605469e-01,9.053263664245605469e-01,9.053263664245605469e-01,9.053263664245605469e-01,9.053263664245605469e-01,9.053262472152709961e-01,9.053262472152709961e-01,9.053262472152709961e-01,9.053262472152709961e-01,9.053262472152709961e-01,9.053263664245605469e-01,9.053214192390441895e-01,9.052881002426147461e-01,9.053395986557006836e-01,9.052451252937316895e-01,9.050663709640502930e-01,9.058843851089477539e-01,9.063413143157958984e-01,8.999196887016296387e-01,8.877807259559631348e-01,8.750159144401550293e-01,8.489897847175598145e-01,8.148984909057617188e-01,7.780454158782958984e-01,6.726951599121093750e-01,6.012560129165649414e-01,5.594118833541870117e-01,5.622929930686950684e-01,5.959635972976684570e-01,6.289876699447631836e-01,6.254807710647583008e-01,5.808767080307006836e-01,5.529812574386596680e-01,5.250120162963867188e-01,4.886916279792785645e-01,4.977568089962005615e-01,5.165936946868896484e-01,4.968808591365814209e-01,5.473772883415222168e-01,5.977546572685241699e-01,6.195032596588134766e-01,6.071912050247192383e-01,5.535882115364074707e-01
5.884000062942504883e-01,6.137800812721252441e-01,6.563249826431274414e-01,6.570587754249572754e-01,6.805472970008850098e-01,7.047560214996337891e-01,7.411202192306518555e-01,7.625271081924438477e-01,7.832988500595092773e-01,8.019366264343261719e-01,8.197423219680786133e-01,8.362563848495483398e-01,8.512337207794189453e-01,8.645807504653930664e-01,8.762360215187072754e-01,8.858045935630798340e-01,8.928663730621337891e-01,8.976320028305053711e-01,9.009284973144531250e-01,9.030840992927551270e-01,9.043152928352355957e-01,9.049903154373168945e-01,9.052500128746032715e-01,9.053096771240234375e-01,9.053227901458740234e-01,9.053210020065307617e-01,9.053205251693725586e-01,9.053205251693725586e-01,9.053205847740173340e-01,9.053205847740173340e-01,9.053206443786621094e-01,9.053206443786621094e-01,9.053206443786621094e-01,9.053207635879516602e-01,9.053207635879516602e-01,9.053207635879516602e-01,9.053208827972412109e-01,9.053209424018859863e-01,9.053208827972412109e-01,9.053209424018859863e-01,9.053210616111755371e-01,9.053211212158203125e-01,9.053211212158203125e-01,9.053211212158203125e-01,9.053212404251098633e-01,9.053212404251098633e-01,9.053212404251098633e-01,9.053221940994262695e-01,9.053211212158203125e-01,9.053173661231994629e-01,9.053047895431518555e-01,9.052754640579223633e-01,9.053604602813720703e-01,9.060388803482055664e-01,9.059605598449707031e-01,9.003580212593078613e-01,8.894622325897216797e-01,8.751572370529174805e-01,8.517831563949584961e-01,8.208639621734619141e-01,7.812964916229248047e-01,6.877837181091308594e-01,6.041955947875976562e-01,5.767498016357421875e-01,5.694024562835693359e-01,6.142297387123107910e-01,6.359012722969055176e-01,6.241254806518554688e-01,5.933958888053894043e-01,5.504078865051269531e-01,5.285377502441406250e-01,4.967684745788574219e-01,5.147964358329772949e-01,5.299384593963623047e-01,5.234121680259704590e-01,5.721034407615661621e-01,6.156082749366760254e-01,6.367017030715942383e-01,6.261421442031860352e-01,5.622384548187255859e-01
5.883891582489013672e-01,6.137664318084716797e-01,6.563089489936828613e-01,6.570450067520141602e-01,6.805338263511657715e-01,7.047414183616638184e-01,7.411072850227355957e-01,7.625193595886230469e-01,7.832984924316406250e-01,8.019441366195678711e-01,8.197603821754455566e-01,8.362878561019897461e-01,8.512846231460571289e-01,8.646488189697265625e-01,8.763054609298706055e-01,8.858639001846313477e-01,8.929139375686645508e-01,8.976708650588989258e-01,9.009689688682556152e-01,9.031348824501037598e-01,9.043725132942199707e-01,9.050533771514892578e-01,9.053156375885009766e-01,9.053769111633300781e-01,9.053903222084045410e-01,9.053887128829956055e-01,9.053885936737060547e-01,9.053889513015747070e-01,9.053891897201538086e-01,9.053894281387329102e-01,9.053896665573120117e-01,9.053899645805358887e-01,9.053902029991149902e-01,9.053905010223388672e-01,9.053907394409179688e-01,9.053911566734313965e-01,9.053913354873657227e-01,9.053914546966552734e-01,9.053918123245239258e-01,9.053922295570373535e-01,9.053922891616821289e-01,9.053925871849060059e-01,9.053928852081298828e-01,9.053932428359985352e-01,9.053934216499328613e-01,9.053937196731567383e-01,9.053940176963806152e-01,9.053943753242492676e-01,9.053934216499328613e-01,9.053897261619567871e-01,9.053915739059448242e-01,9.053946733474731445e-01,9.053827524185180664e-01,9.059907197952270508e-01,9.056441783905029297e-01,9.000046253204345703e-01,8.893314003944396973e-01,8.752197027206420898e-01,8.524283766746520996e-01,8.256212472915649414e-01,7.844467163085937500e-01,6.952138543128967285e-01,6.008397340774536133e-01,5.863918066024780273e-01,5.938531160354614258e-01,6.216995120048522949e-01,6.425952911376953125e-01,6.424217224121093750e-01,5.906155109405517578e-01,5.656732916831970215e-01,5.253788232803344727e-01,5.247981548309326172e-01,5.383124947547912598e-01,5.356262922286987305e-01,5.680204629898071289e-01,5.973703861236572266e-01,6.339420080184936523e-01,6.496109366416931152e-01,6.372505426406860352e-01,5.701780915260314941e-01
5.883958935737609863e-01,6.137748956680297852e-01,6.563156843185424805e-01,6.570628285408020020e-01,6.805626153945922852e-01,7.048030495643615723e-01,7.412200570106506348e-01,7.626807689666748047e-01,7.834859490394592285e-01,8.021442890167236328e-01,8.199622631072998047e-01,8.364875316619873047e-01,8.514614701271057129e-01,8.647938966751098633e-01,8.764225840568542480e-01,8.859456777572631836e-01,8.929840326309204102e-01,8.977730274200439453e-01,9.010934233665466309e-01,9.032582044601440430e-01,9.044927358627319336e-01,9.051686525344848633e-01,9.054245948791503906e-01,9.054826498031616211e-01,9.054936170578002930e-01,9.054910540580749512e-01,9.054898023605346680e-01,9.054888486862182617e-01,9.054880142211914062e-01,9.054870605468750000e-01,9.054862260818481445e-01,9.054853916168212891e-01,9.054843783378601074e-01,9.054836630821228027e-01,9.054828286170959473e-01,9.054819941520690918e-01,9.054809808731079102e-01,9.054802060127258301e-01,9.054793119430541992e-01,9.054784774780273438e-01,9.054775238037109375e-01,9.054766297340393066e-01,9.054757356643676758e-01,9.054749011993408203e-01,9.054740071296691895e-01,9.054731726646423340e-01,9.054722189903259277e-01,9.054716825485229492e-01,9.054707288742065430e-01,9.054692983627319336e-01,9.054672718048095703e-01,9.054709672927856445e-01,9.054917097091674805e-01,9.059985876083374023e-01,9.058041572570800781e-01,9.002792239189147949e-01,8.894149065017700195e-01,8.752506971359252930e-01,8.531229496002197266e-01,8.290947675704956055e-01,7.901369333267211914e-01,6.958442926406860352e-01,6.063647270202636719e-01,5.920816063880920410e-01,6.082251667976379395e-01,6.351399421691894531e-01,6.626946926116943359e-01,6.557037234306335449e-01,5.848620533943176270e-01,5.640112161636352539e-01,5.429860353469848633e-01,5.486210584640502930e-01,5.715051293373107910e-01,5.595498085021972656e-01,5.811294913291931152e-01,6.124342083930969238e-01,6.502561569213867188e-01,6.616007685661315918e-01,6.526401638984680176e-01,5.753352642059326172e-01
5.885784626007080078e-01,6.139522194862365723e-01,6.565690040588378906e-01,6.573193669319152832e-01,6.808112859725952148e-01,7.049679756164550781e-01,7.413085103034973145e-01,7.626931667327880859e-01,7.833591103553771973e-01,8.018865585327148438e-01,8.195874691009521484e-01,8.359777331352233887e-01,8.508611321449279785e-01,8.641120195388793945e-01,8.756416440010070801e-01,8.851389288902282715e-01,8.922116756439208984e-01,8.969813585281372070e-01,9.002740979194641113e-01,9.024296998977661133e-01,9.036750793457031250e-01,9.043313264846801758e-01,9.045724868774414062e-01,9.046294689178466797e-01,9.046416282653808594e-01,9.046392440795898438e-01,9.046377539634704590e-01,9.046369194984436035e-01,9.046360254287719727e-01,9.046349525451660156e-01,9.046341180801391602e-01,9.046332836151123047e-01,9.046323299407958984e-01,9.046314954757690430e-01,9.046305418014526367e-01,9.046296477317810059e-01,9.046286344528198242e-01,9.046277999877929688e-01,9.046267867088317871e-01,9.046257734298706055e-01,9.046249389648437500e-01,9.046241044998168945e-01,9.046230912208557129e-01,9.046223163604736328e-01,9.046212434768676758e-01,9.046204686164855957e-01,9.046195745468139648e-01,9.046186208724975586e-01,9.046177864074707031e-01,9.046168327331542969e-01,9.046162366867065430e-01,9.046198725700378418e-01,9.046425819396972656e-01,9.051818847656250000e-01,9.050104618072509766e-01,8.994109034538269043e-01,8.884732127189636230e-01,8.739953041076660156e-01,8.521047830581665039e-01,8.292607665061950684e-01,7.913966178894042969e-01,6.950672864913940430e-01,6.080180406570434570e-01,5.954017043113708496e-01,6.027119755744934082e-01,6.478400230407714844e-01,6.653807163238525391e-01,6.482638716697692871e-01,6.027795672416687012e-01,5.598412156105041504e-01,5.583264231681823730e-01,5.542635917663574219e-01,5.887225270271301270e-01,5.919126272201538086e-01,6.127345561981201172e-01,6.318842172622680664e-01,6.654574871063232422e-01,6.778954863548278809e-01,6.636219024658203125e-01,5.766622424125671387e-01
5.889358520507812500e-01,6.138252019882202148e-01,6.562428474426269531e-01,6.566784381866455078e-01,6.799260973930358887e-01,7.037650942802429199e-01,7.398929595947265625e-01,7.610067129135131836e-01,7.815140485763549805e-01,7.999111413955688477e-01,8.175241947174072266e-01,8.339141607284545898e-01,8.489240407943725586e-01,8.623857498168945312e-01,8.741695880889892578e-01,8.838961720466613770e-01,8.910562992095947266e-01,8.958871364593505859e-01,8.992760181427001953e-01,9.014959335327148438e-01,9.027298688888549805e-01,9.033838510513305664e-01,9.036414623260498047e-01,9.037145376205444336e-01,9.037274122238159180e-01,9.037251472473144531e-01,9.037237167358398438e-01,9.037225842475891113e-01,9.037215113639831543e-01,9.037203788757324219e-01,9.037194252014160156e-01,9.037184119224548340e-01,9.037173986434936523e-01,9.037162065505981445e-01,9.037151336669921875e-01,9.037142395973205566e-01,9.037131071090698242e-01,9.037119746208190918e-01,9.037109613418579102e-01,9.037098288536071777e-01,9.037088155746459961e-01,9.037077426910400391e-01,9.037066698074340820e-01,9.037057161331176758e-01,9.037044644355773926e-01,9.037035703659057617e-01,9.037024974822998047e-01,9.037014245986938477e-01,9.037003517150878906e-01,9.036992788314819336e-01,9.036983847618103027e-01,9.037050604820251465e-01,9.037284255027770996e-01,9.042396545410156250e-01,9.041019678115844727e-01,8.985300660133361816e-01,8.877555727958679199e-01,8.735665082931518555e-01,8.523284196853637695e-01,8.312621116638183594e-01,7.933453321456909180e-01,6.939542889595031738e-01,6.227912902832031250e-01,5.995810627937316895e-01,6.120877265930175781e-01,6.521615982055664062e-01,6.712104082107543945e-01,6.430830955505371094e-01,6.047998070716857910e-01,5.656957626342773438e-01,5.703467726707458496e-01,5.742322802543640137e-01,5.984503030776977539e-01,6.310374736785888672e-01,6.269813776016235352e-01,6.421034932136535645e-01,6.761341094970703125e-01,6.875452399253845215e-01,6.683250069618225098e-01,5.810625553131103516e-01
5.881919860839843750e-01,6.121524572372436523e-01,6.544516682624816895e-01,6.547923088073730469e-01,6.775838136672973633e-01,7.009689211845397949e-01,7.370880842208862305e-01,7.582474946975708008e-01,7.788038253784179688e-01,7.972003221511840820e-01,8.147964477539062500e-01,8.312985897064208984e-01,8.464386463165283203e-01,8.599843978881835938e-01,8.718601465225219727e-01,8.816281557083129883e-01,8.889315128326416016e-01,8.940089941024780273e-01,8.974868059158325195e-01,8.997212648391723633e-01,9.009757041931152344e-01,9.016543626785278320e-01,9.019176363945007324e-01,9.019798040390014648e-01,9.019866585731506348e-01,9.019796252250671387e-01,9.019730687141418457e-01,9.019668698310852051e-01,9.019608497619628906e-01,9.019545316696166992e-01,9.019485116004943848e-01,9.019424915313720703e-01,9.019362926483154297e-01,9.019303321838378906e-01,9.019241333007812500e-01,9.019180536270141602e-01,9.019119739532470703e-01,9.019058942794799805e-01,9.018998146057128906e-01,9.018937349319458008e-01,9.018877148628234863e-01,9.018814563751220703e-01,9.018754363059997559e-01,9.018692970275878906e-01,9.018633365631103516e-01,9.018572568893432617e-01,9.018511772155761719e-01,9.018451571464538574e-01,9.018391370773315430e-01,9.018329381942749023e-01,9.018268585205078125e-01,9.018279314041137695e-01,9.018418788909912109e-01,9.022723436355590820e-01,9.022247791290283203e-01,8.967422246932983398e-01,8.867713212966918945e-01,8.726481199264526367e-01,8.508349657058715820e-01,8.296491503715515137e-01,7.888221740722656250e-01,6.864901185035705566e-01,6.219530701637268066e-01,5.976701974868774414e-01,6.120773553848266602e-01,6.582037210464477539e-01,6.686050891876220703e-01,6.362472772598266602e-01,5.954929590225219727e-01,5.597786903381347656e-01,5.903460979461669922e-01,6.100236773490905762e-01,6.155694127082824707e-01,6.286630034446716309e-01,6.434857249259948730e-01,6.598316431045532227e-01,6.820883750915527344e-01,6.966282725334167480e-01,6.736482381820678711e-01,5.831008553504943848e-01
5.862559080123901367e-01,6.094378829002380371e-01,6.514813303947448730e-01,6.515459418296813965e-01,6.740776896476745605e-01,6.969135403633117676e-01,7.324792146682739258e-01,7.531221508979797363e-01,7.730064392089843750e-01,7.909495830535888672e-01,8.082795739173889160e-01,8.245601654052734375e-01,8.395543098449707031e-01,8.531527519226074219e-01,8.651052713394165039e-01,8.749617338180541992e-01,8.823373913764953613e-01,8.874372839927673340e-01,8.910171985626220703e-01,8.932563066482543945e-01,8.945028781890869141e-01,8.952052593231201172e-01,8.954696655273437500e-01,8.955242633819580078e-01,8.955230116844177246e-01,8.955118656158447266e-01,8.955022692680358887e-01,8.954930305480957031e-01,8.954838514328002930e-01,8.954746723175048828e-01,8.954656124114990234e-01,8.954564332962036133e-01,8.954472541809082031e-01,8.954381942749023438e-01,8.954290151596069336e-01,8.954198956489562988e-01,8.954107761383056641e-01,8.954015970230102539e-01,8.953924775123596191e-01,8.953834772109985352e-01,8.953743577003479004e-01,8.953652381896972656e-01,8.953560590744018555e-01,8.953469991683959961e-01,8.953380584716796875e-01,8.953289389610290527e-01,8.953197002410888672e-01,8.953105807304382324e-01,8.953014612197875977e-01,8.952925205230712891e-01,8.952833414077758789e-01,8.952778577804565430e-01,8.952850103378295898e-01,8.956996798515319824e-01,8.956506252288818359e-01,8.903405070304870605e-01,8.809676170349121094e-01,8.670823574066162109e-01,8.455439805984497070e-01,8.222229480743408203e-01,7.794162034988403320e-01,6.842479705810546875e-01,6.139744520187377930e-01,5.933789610862731934e-01,6.126771569252014160e-01,6.464830040931701660e-01,6.667861342430114746e-01,6.251176595687866211e-01,5.839916467666625977e-01,5.602452158927917480e-01,5.962342023849487305e-01,6.148589253425598145e-01,6.377618908882141113e-01,6.539350748062133789e-01,6.540631651878356934e-01,6.642978191375732422e-01,7.004792690277099609e-01,7.064706087112426758e-01,6.731214523315429688e-01,5.798123478889465332e-01
5.823481082916259766e-01,6.035633087158203125e-01,6.450703740119934082e-01,6.443627476692199707e-01,6.657216548919677734e-01,6.876946687698364258e-01,7.224075794219970703e-01,7.425904870033264160e-01,7.618014812469482422e-01,7.788751125335693359e-01,7.956088781356811523e-01,8.115686178207397461e-01,8.266274929046630859e-01,8.405220508575439453e-01,8.527929782867431641e-01,8.630752563476562500e-01,8.709458112716674805e-01,8.763763308525085449e-01,8.801450729370117188e-01,8.825234174728393555e-01,8.838612437248229980e-01,8.845166563987731934e-01,8.847187757492065430e-01,8.847366571426391602e-01,8.847258090972900391e-01,8.847031593322753906e-01,8.846821188926696777e-01,8.846618533134460449e-01,8.846417069435119629e-01,8.846213817596435547e-01,8.846010565757751465e-01,8.845806121826171875e-01,8.845605254173278809e-01,8.845402002334594727e-01,8.845200538635253906e-01,8.844995498657226562e-01,8.844794034957885742e-01,8.844591975212097168e-01,8.844388723373413086e-01,8.844186067581176758e-01,8.843984603881835938e-01,8.843783140182495117e-01,8.843578696250915527e-01,8.843376636505126953e-01,8.843176364898681641e-01,8.842974901199340820e-01,8.842772245407104492e-01,8.842569589614868164e-01,8.842366933822631836e-01,8.842166662216186523e-01,8.841964006423950195e-01,8.841758966445922852e-01,8.841632008552551270e-01,8.846677541732788086e-01,8.845486640930175781e-01,8.794079422950744629e-01,8.706555366516113281e-01,8.569683432579040527e-01,8.359020352363586426e-01,8.079953789710998535e-01,7.675331830978393555e-01,6.711921691894531250e-01,6.002431511878967285e-01,5.878976583480834961e-01,6.140869855880737305e-01,6.269311904907226562e-01,6.332048773765563965e-01,6.168767809867858887e-01,5.662599802017211914e-01,5.666798353195190430e-01,5.932525396347045898e-01,6.233705878257751465e-01,6.357761621475219727e-01,6.560393571853637695e-01,6.517038345336914062e-01,6.639631390571594238e-01,6.985553503036499023e-01,7.078207731246948242e-01,6.698263287544250488e-01,5.771024227142333984e-01
5.752032995223999023e-01,5.937522649765014648e-01,6.341883540153503418e-01,6.314083933830261230e-01,6.507649421691894531e-01,6.714985966682434082e-01,7.052974700927734375e-01,7.246528863906860352e-01,7.431023716926574707e-01,7.594752907752990723e-01,7.753036022186279297e-01,7.904895544052124023e-01,8.051476478576660156e-01,8.185914754867553711e-01,8.304749727249145508e-01,8.404290676116943359e-01,8.479080200195312500e-01,8.532829284667968750e-01,8.570436835289001465e-01,8.593935966491699219e-01,8.606335520744323730e-01,8.611830472946166992e-01,8.613166809082031250e-01,8.613207340240478516e-01,8.612887859344482422e-01,8.612493872642517090e-01,8.612119555473327637e-01,8.611748218536376953e-01,8.611378669738769531e-01,8.611008524894714355e-01,8.610634803771972656e-01,8.610265851020812988e-01,8.609894514083862305e-01,8.609524965286254883e-01,8.609153032302856445e-01,8.608782291412353516e-01,8.608411550521850586e-01,8.608042001724243164e-01,8.607670664787292480e-01,8.607300519943237305e-01,8.606928586959838867e-01,8.606560230255126953e-01,8.606189489364624023e-01,8.605819344520568848e-01,8.605450391769409180e-01,8.605079054832458496e-01,8.604710102081298828e-01,8.604340553283691406e-01,8.603971004486083984e-01,8.603600263595581055e-01,8.603230714797973633e-01,8.602820634841918945e-01,8.602558374404907227e-01,8.610158562660217285e-01,8.608940839767456055e-01,8.556945919990539551e-01,8.464843034744262695e-01,8.349010944366455078e-01,8.106638193130493164e-01,7.802072763442993164e-01,7.364664673805236816e-01,6.367006897926330566e-01,5.759600996971130371e-01,5.743222236633300781e-01,5.972468852996826172e-01,6.070817708969116211e-01,6.115239262580871582e-01,5.728431344032287598e-01,5.379778146743774414e-01,5.714491009712219238e-01,5.981108546257019043e-01,6.123430728912353516e-01,6.270136833190917969e-01,6.463217735290527344e-01,6.366735696792602539e-01,6.552976369857788086e-01,6.970229744911193848e-01,6.980689764022827148e-01,6.589977741241455078e-01,5.706965923309326172e-01
5.642400979995727539e-01,5.783784389495849609e-01,6.170501112937927246e-01,6.110101938247680664e-01,6.274169683456420898e-01,6.464130282402038574e-01,6.783347129821777344e-01,6.956847906112670898e-01,7.117315530776977539e-01,7.257420420646667480e-01,7.394023537635803223e-01,7.528226375579833984e-01,7.661395668983459473e-01,7.786058187484741211e-01,7.895357608795166016e-01,7.988247275352478027e-01,8.062255382537841797e-01,8.115614652633666992e-01,8.152925968170166016e-01,8.175956010818481445e-01,8.186775445938110352e-01,8.189518451690673828e-01,8.189744353294372559e-01,8.189493417739868164e-01,8.189003467559814453e-01,8.188397884368896484e-01,8.187802433967590332e-01,8.187211751937866211e-01,8.186622858047485352e-01,8.186032176017761230e-01,8.185439705848693848e-01,8.184850215911865234e-01,8.184260129928588867e-01,8.183671236038208008e-01,8.183079957962036133e-01,8.182492256164550781e-01,8.181902766227722168e-01,8.181312084197998047e-01,8.180723190307617188e-01,8.180134296417236328e-01,8.179544210433959961e-01,8.178954124450683594e-01,8.178366422653198242e-01,8.177775740623474121e-01,8.177187442779541016e-01,8.176599740982055664e-01,8.176010251045227051e-01,8.175421953201293945e-01,8.174833059310913086e-01,8.174244165420532227e-01,8.173655271530151367e-01,8.172999620437622070e-01,8.172444105148315430e-01,8.184310197830200195e-01,8.183510303497314453e-01,8.117544054985046387e-01,8.031030893325805664e-01,7.919192314147949219e-01,7.637709379196166992e-01,7.376239895820617676e-01,6.900122761726379395e-01,5.926735997200012207e-01,5.526770949363708496e-01,5.536361932754516602e-01,5.688353776931762695e-01,5.746712684631347656e-01,5.858958959579467773e-01,5.085575580596923828e-01,5.146228671073913574e-01,5.468474626541137695e-01,5.831293463706970215e-01,5.885686874389648438e-01,6.123945116996765137e-01,6.214009523391723633e-01,6.183796525001525879e-01,6.357039213180541992e-01,6.796389222145080566e-01,6.657487750053405762e-01,6.393256783485412598e-01,5.610883235931396484e-01
5.497255921363830566e-01,5.539387464523315430e-01,5.888143181800842285e-01,5.787620544433593750e-01,5.919237732887268066e-01,6.082146763801574707e-01,6.378263831138610840e-01,6.524345874786376953e-01,6.663246750831604004e-01,6.780709028244018555e-01,6.894917488098144531e-01,7.006276845932006836e-01,7.116251587867736816e-01,7.215011119842529297e-01,7.303581833839416504e-01,7.380209565162658691e-01,7.437708973884582520e-01,7.477721571922302246e-01,7.504814863204956055e-01,7.519770860671997070e-01,7.524061203002929688e-01,7.524725794792175293e-01,7.524473667144775391e-01,7.523844838142395020e-01,7.523161172866821289e-01,7.522312402725219727e-01,7.521482110023498535e-01,7.520655393600463867e-01,7.519831061363220215e-01,7.519006729125976562e-01,7.518179416656494141e-01,7.517355680465698242e-01,7.516528367996215820e-01,7.515706419944763184e-01,7.514879703521728516e-01,7.514055371284484863e-01,7.513230443000793457e-01,7.512404918670654297e-01,7.511579990386962891e-01,7.510757446289062500e-01,7.509931325912475586e-01,7.509108781814575195e-01,7.508284449577331543e-01,7.507461309432983398e-01,7.506635189056396484e-01,7.505813837051391602e-01,7.504990100860595703e-01,7.504167556762695312e-01,7.503342628479003906e-01,7.502520084381103516e-01,7.501697540283203125e-01,7.500783205032348633e-01,7.499731183052062988e-01,7.515002489089965820e-01,7.503106594085693359e-01,7.431397438049316406e-01,7.348018884658813477e-01,7.265548110008239746e-01,6.927987933158874512e-01,6.712474822998046875e-01,6.177777051925659180e-01,5.416694283485412598e-01,5.145787000656127930e-01,5.209951400756835938e-01,5.102639198303222656e-01,5.281894803047180176e-01,5.287950634956359863e-01,4.798574447631835938e-01,4.867679774761199951e-01,5.247277021408081055e-01,5.324583649635314941e-01,5.627329945564270020e-01,5.686603784561157227e-01,5.775808095932006836e-01,5.722380876541137695e-01,5.975913405418395996e-01,6.373023986816406250e-01,6.249344348907470703e-01,6.062566637992858887e-01,5.407658815383911133e-01
5.325048565864562988e-01,5.236883759498596191e-01,5.544974207878112793e-01,5.385842919349670410e-01,5.464464426040649414e-01,5.593004226684570312e-01,5.835199356079101562e-01,5.946918725967407227e-01,6.051662564277648926e-01,6.132964491844177246e-01,6.213165521621704102e-01,6.292424201965332031e-01,6.369072198867797852e-01,6.437568664550781250e-01,6.499304771423339844e-01,6.547384858131408691e-01,6.579704284667968750e-01,6.604015827178955078e-01,6.619704961776733398e-01,6.628110408782958984e-01,6.630293130874633789e-01,6.629913449287414551e-01,6.628889441490173340e-01,6.628051996231079102e-01,6.627231836318969727e-01,6.626327037811279297e-01,6.625444889068603516e-01,6.624566316604614258e-01,6.623687744140625000e-01,6.622812151908874512e-01,6.621932983398437500e-01,6.621057987213134766e-01,6.620179414749145508e-01,6.619302034378051758e-01,6.618425250053405762e-01,6.617549657821655273e-01,6.616672873497009277e-01,6.615796685218811035e-01,6.614919900894165039e-01,6.614044904708862305e-01,6.613169908523559570e-01,6.612293124198913574e-01,6.611418128013610840e-01,6.610542535781860352e-01,6.609667539596557617e-01,6.608793735504150391e-01,6.607920527458190918e-01,6.607044935226440430e-01,6.606171131134033203e-01,6.605296134948730469e-01,6.604423522949218750e-01,6.603449583053588867e-01,6.601959466934204102e-01,6.617953777313232422e-01,6.596457958221435547e-01,6.540640592575073242e-01,6.448941230773925781e-01,6.377747058868408203e-01,6.068104505538940430e-01,5.923593044281005859e-01,5.466091632843017578e-01,4.904728233814239502e-01,4.746961891651153564e-01,4.741813540458679199e-01,4.660679697990417480e-01,4.821258783340454102e-01,4.783404469490051270e-01,4.402119517326354980e-01,4.629664421081542969e-01,4.749654531478881836e-01,4.880667030811309814e-01,5.082927942276000977e-01,5.171270966529846191e-01,5.293293595314025879e-01,5.227962732315063477e-01,5.397324562072753906e-01,5.718648433685302734e-01,5.700052380561828613e-01,5.627067089080810547e-01,5.149344801902770996e-01
5.115476846694946289e-01,4.893324375152587891e-01,5.141234397888183594e-01,4.908645451068878174e-01,4.924253225326538086e-01,5.010066032409667969e-01,5.196038484573364258e-01,5.275466442108154297e-01,5.347077250480651855e-01,5.395488142967224121e-01,5.444179773330688477e-01,5.495182275772094727e-01,5.544919371604919434e-01,5.588313937187194824e-01,5.624823570251464844e-01,5.651907920837402344e-01,5.674920678138732910e-01,5.691059231758117676e-01,5.701982378959655762e-01,5.706976056098937988e-01,5.708002448081970215e-01,5.707216262817382812e-01,5.705787539482116699e-01,5.705097913742065430e-01,5.704126358032226562e-01,5.703239440917968750e-01,5.702363252639770508e-01,5.701492428779602051e-01,5.700621604919433594e-01,5.699748396873474121e-01,5.698877573013305664e-01,5.698007345199584961e-01,5.697135925292968750e-01,5.696266889572143555e-01,5.695394873619079590e-01,5.694526433944702148e-01,5.693656802177429199e-01,5.692787170410156250e-01,5.691918134689331055e-01,5.691048502922058105e-01,5.690180063247680664e-01,5.689309835433959961e-01,5.688442587852478027e-01,5.687573552131652832e-01,5.686705708503723145e-01,5.685839653015136719e-01,5.684973001480102539e-01,5.684105157852172852e-01,5.683236718177795410e-01,5.682372450828552246e-01,5.681505203247070312e-01,5.680425167083740234e-01,5.678371191024780273e-01,5.691395401954650879e-01,5.669773221015930176e-01,5.637342333793640137e-01,5.574408173561096191e-01,5.511723160743713379e-01,5.248367786407470703e-01,5.085687041282653809e-01,4.689788222312927246e-01,4.454137980937957764e-01,4.330507516860961914e-01,4.244732856750488281e-01,4.348923861980438232e-01,4.295904636383056641e-01,4.201019704341888428e-01,4.037577807903289795e-01,4.245658218860626221e-01,4.211568534374237061e-01,4.458130598068237305e-01,4.569436907768249512e-01,4.593193233013153076e-01,4.710150659084320068e-01,4.655084013938903809e-01,4.777802228927612305e-01,5.040251612663269043e-01,5.056529045104980469e-01,5.220865011215209961e-01,4.877754449844360352e-01
4.905607402324676514e-01,4.556715190410614014e-01,4.712954461574554443e-01,4.408661723136901855e-01,4.361933469772338867e-01,4.405626356601715088e-01,4.539839923381805420e-01,4.580742716789245605e-01,4.623957276344299316e-01,4.647242724895477295e-01,4.672733545303344727e-01,4.700838625431060791e-01,4.728551208972930908e-01,4.754840731620788574e-01,4.777923822402954102e-01,4.795173108577728271e-01,4.807952046394348145e-01,4.817638993263244629e-01,4.823685586452484131e-01,4.826329946517944336e-01,4.826842248439788818e-01,4.826767444610595703e-01,4.825978279113769531e-01,4.824975132942199707e-01,4.824142158031463623e-01,4.823401868343353271e-01,4.822669029235839844e-01,4.821937084197998047e-01,4.821206033229827881e-01,4.820477068424224854e-01,4.819743037223815918e-01,4.819013476371765137e-01,4.818282723426818848e-01,4.817551374435424805e-01,4.816823005676269531e-01,4.816092550754547119e-01,4.815362095832824707e-01,4.814633429050445557e-01,4.813904166221618652e-01,4.813174009323120117e-01,4.812444746494293213e-01,4.811716079711914062e-01,4.810987412929534912e-01,4.810259342193603516e-01,4.809533357620239258e-01,4.808806180953979492e-01,4.808078110218048096e-01,4.807351827621459961e-01,4.806624352931976318e-01,4.805897474288940430e-01,4.805171191692352295e-01,4.804309904575347900e-01,4.802220463752746582e-01,4.807786047458648682e-01,4.799961149692535400e-01,4.779672622680664062e-01,4.753844439983367920e-01,4.717522859573364258e-01,4.543082416057586670e-01,4.391826987266540527e-01,4.126026034355163574e-01,4.116525948047637939e-01,3.874486684799194336e-01,3.832612037658691406e-01,3.889930844306945801e-01,3.920100629329681396e-01,3.708747029304504395e-01,3.791095912456512451e-01,3.819809556007385254e-01,3.795909583568572998e-01,3.936544060707092285e-01,4.032840728759765625e-01,4.067273139953613281e-01,4.158945381641387939e-01,4.126521050930023193e-01,4.184692203998565674e-01,4.497956931591033936e-01,4.495742321014404297e-01,4.825543463230133057e-01,4.625428915023803711e-01
4.694029390811920166e-01,4.224036931991577148e-01,4.285252690315246582e-01,3.950407803058624268e-01,3.840729594230651855e-01,3.856402933597564697e-01,3.960533142089843750e-01,3.989910483360290527e-01,4.020208716392517090e-01,4.032152593135833740e-01,4.044276177883148193e-01,4.056415259838104248e-01,4.066634476184844971e-01,4.076099097728729248e-01,4.084076881408691406e-01,4.089961349964141846e-01,4.096021056175231934e-01,4.100956618785858154e-01,4.103081822395324707e-01,4.103522598743438721e-01,4.103613495826721191e-01,4.102638661861419678e-01,4.101926088333129883e-01,4.101198017597198486e-01,4.100567102432250977e-01,4.099977314472198486e-01,4.099395573139190674e-01,4.098817706108093262e-01,4.098236858844757080e-01,4.097657203674316406e-01,4.097079038619995117e-01,4.096500277519226074e-01,4.095922708511352539e-01,4.095344245433807373e-01,4.094765484333038330e-01,4.094187617301940918e-01,4.093608856201171875e-01,4.093031585216522217e-01,4.092453718185424805e-01,4.091877341270446777e-01,4.091300964355468750e-01,4.090723991394042969e-01,4.090148210525512695e-01,4.089570343494415283e-01,4.088997244834899902e-01,4.088418483734130859e-01,4.087844491004943848e-01,4.087268114089965820e-01,4.086693227291107178e-01,4.086118340492248535e-01,4.085542857646942139e-01,4.084893763065338135e-01,4.083193540573120117e-01,4.084715247154235840e-01,4.085897505283355713e-01,4.084359705448150635e-01,4.062023162841796875e-01,4.036406874656677246e-01,3.950112462043762207e-01,3.780176639556884766e-01,3.656173050403594971e-01,3.655667006969451904e-01,3.518306016921997070e-01,3.449211716651916504e-01,3.536947667598724365e-01,3.480780124664306641e-01,3.410848379135131836e-01,3.474679887294769287e-01,3.449555635452270508e-01,3.416092395782470703e-01,3.573559522628784180e-01,3.605874478816986084e-01,3.642901182174682617e-01,3.697782754898071289e-01,3.598577976226806641e-01,3.647967875003814697e-01,3.949750959873199463e-01,4.044805169105529785e-01,4.463485479354858398e-01,4.410691559314727783e-01
4.513867795467376709e-01,3.938146531581878662e-01,3.929780721664428711e-01,3.572857975959777832e-01,3.413567245006561279e-01,3.406493365764617920e-01,3.480975627899169922e-01,3.498172760009765625e-01,3.515103459358215332e-01,3.519282937049865723e-01,3.524446785449981689e-01,3.529115021228790283e-01,3.533932268619537354e-01,3.538310527801513672e-01,3.541265428066253662e-01,3.542222976684570312e-01,3.542972207069396973e-01,3.541727066040039062e-01,3.540184795856475830e-01,3.539590835571289062e-01,3.539378643035888672e-01,3.539035320281982422e-01,3.538488149642944336e-01,3.537953495979309082e-01,3.537541329860687256e-01,3.537121713161468506e-01,3.536706268787384033e-01,3.536293506622314453e-01,3.535879552364349365e-01,3.535468578338623047e-01,3.535054922103881836e-01,3.534644246101379395e-01,3.534229993820190430e-01,3.533816933631896973e-01,3.533406257629394531e-01,3.532992601394653320e-01,3.532580435276031494e-01,3.532168865203857422e-01,3.531757593154907227e-01,3.531345725059509277e-01,3.530935645103454590e-01,3.530523180961608887e-01,3.530111312866210938e-01,3.529701828956604004e-01,3.529289960861206055e-01,3.528879880905151367e-01,3.528469204902648926e-01,3.528057336807250977e-01,3.527647554874420166e-01,3.527236580848693848e-01,3.526828885078430176e-01,3.526462316513061523e-01,3.525511026382446289e-01,3.525288105010986328e-01,3.526357412338256836e-01,3.527180552482604980e-01,3.513028025627136230e-01,3.496564328670501709e-01,3.462735414505004883e-01,3.339674770832061768e-01,3.285052478313446045e-01,3.318511843681335449e-01,3.235644698143005371e-01,3.177440166473388672e-01,3.190547823905944824e-01,3.181863725185394287e-01,3.139978647232055664e-01,3.205769062042236328e-01,3.150243461132049561e-01,3.165026903152465820e-01,3.138754367828369141e-01,3.241353034973144531e-01,3.294732570648193359e-01,3.313374221324920654e-01,3.193663060665130615e-01,3.267085850238800049e-01,3.531859517097473145e-01,3.653900921344757080e-01,4.143685996532440186e-01,4.222686886787414551e-01
4.349650144577026367e-01,3.689410090446472168e-01,3.612722158432006836e-01,3.251614570617675781e-01,3.061264753341674805e-01,3.047537207603454590e-01,3.108580708503723145e-01,3.122475743293762207e-01,3.134047985076904297e-01,3.134198188781738281e-01,3.134051561355590820e-01,3.133952021598815918e-01,3.134701251983642578e-01,3.135607242584228516e-01,3.135913610458374023e-01,3.136067092418670654e-01,3.135671019554138184e-01,3.135151565074920654e-01,3.135319650173187256e-01,3.135172128677368164e-01,3.134595751762390137e-01,3.134141564369201660e-01,3.133802115917205811e-01,3.133515119552612305e-01,3.133206367492675781e-01,3.132905364036560059e-01,3.132606148719787598e-01,3.132307529449462891e-01,3.132006227970123291e-01,3.131707310676574707e-01,3.131408393383026123e-01,3.131109178066253662e-01,3.130808472633361816e-01,3.130509257316589355e-01,3.130210638046264648e-01,3.129910528659820557e-01,3.129611015319824219e-01,3.129312396049499512e-01,3.129012584686279297e-01,3.128712475299835205e-01,3.128415346145629883e-01,3.128116130828857422e-01,3.127816915512084961e-01,3.127517700195312500e-01,3.127220273017883301e-01,3.126921653747558594e-01,3.126623034477233887e-01,3.126325607299804688e-01,3.126028180122375488e-01,3.125729858875274658e-01,3.125431835651397705e-01,3.125256299972534180e-01,3.124721050262451172e-01,3.124725222587585449e-01,3.125580251216888428e-01,3.124579191207885742e-01,3.115729093551635742e-01,3.117868602275848389e-01,3.092456459999084473e-01,3.025881052017211914e-01,2.986493706703186035e-01,2.993641495704650879e-01,2.948710024356842041e-01,2.969436049461364746e-01,2.958887815475463867e-01,2.931583523750305176e-01,2.926012873649597168e-01,2.899909019470214844e-01,2.909636199474334717e-01,2.922083139419555664e-01,2.931804358959197998e-01,2.931734323501586914e-01,3.001043498516082764e-01,2.975540161132812500e-01,2.887954115867614746e-01,2.944748401641845703e-01,3.211509585380554199e-01,3.385366201400756836e-01,3.920262455940246582e-01,4.070158600807189941e-01
4.212117791175842285e-01,3.491279482841491699e-01,3.364082574844360352e-01,2.999948859214782715e-01,2.791710495948791504e-01,2.769944071769714355e-01,2.819487452507019043e-01,2.831142544746398926e-01,2.839978039264678955e-01,2.838886678218841553e-01,2.838485240936279297e-01,2.838461101055145264e-01,2.838293612003326416e-01,2.838118672370910645e-01,2.837974727153778076e-01,2.837596535682678223e-01,2.837202548980712891e-01,2.836906909942626953e-01,2.836657762527465820e-01,2.836310565471649170e-01,2.836042046546936035e-01,2.835825085639953613e-01,2.835600376129150391e-01,2.835374474525451660e-01,2.835161089897155762e-01,2.834944725036621094e-01,2.834727168083190918e-01,2.834509611129760742e-01,2.834292650222778320e-01,2.834076583385467529e-01,2.833859920501708984e-01,2.833639979362487793e-01,2.833423614501953125e-01,2.833206057548522949e-01,2.832989096641540527e-01,2.832772731781005859e-01,2.832554876804351807e-01,2.832339406013488770e-01,2.832120060920715332e-01,2.831905484199523926e-01,2.831687331199645996e-01,2.831472754478454590e-01,2.831254005432128906e-01,2.831037044525146484e-01,2.830822467803955078e-01,2.830605506896972656e-01,2.830387949943542480e-01,2.830172777175903320e-01,2.829955816268920898e-01,2.829738855361938477e-01,2.829522788524627686e-01,2.829350233078002930e-01,2.829064428806304932e-01,2.828487753868103027e-01,2.829660177230834961e-01,2.826648950576782227e-01,2.823051810264587402e-01,2.828071713447570801e-01,2.817239761352539062e-01,2.787573337554931641e-01,2.774330973625183105e-01,2.749494314193725586e-01,2.743899524211883545e-01,2.751922607421875000e-01,2.739776372909545898e-01,2.734529078006744385e-01,2.726287841796875000e-01,2.726509571075439453e-01,2.715515196323394775e-01,2.724926471710205078e-01,2.714070975780487061e-01,2.728322744369506836e-01,2.734977602958679199e-01,2.746139168739318848e-01,2.656853199005126953e-01,2.709500193595886230e-01,2.960360646247863770e-01,3.161315321922302246e-01,3.733604252338409424e-01,3.954069018363952637e-01
4.091769754886627197e-01,3.324924111366271973e-01,3.159807026386260986e-01,2.799513936042785645e-01,2.584246993064880371e-01,2.558337152004241943e-01,2.600275874137878418e-01,2.610209584236145020e-01,2.617940604686737061e-01,2.617087662220001221e-01,2.616683244705200195e-01,2.616457343101501465e-01,2.616259157657623291e-01,2.616102397441864014e-01,2.615938186645507812e-01,2.615763545036315918e-01,2.615605592727661133e-01,2.615451812744140625e-01,2.615279555320739746e-01,2.615101933479309082e-01,2.614937424659729004e-01,2.614781260490417480e-01,2.614617943763732910e-01,2.614454030990600586e-01,2.614291310310363770e-01,2.614126205444335938e-01,2.613959610462188721e-01,2.613794803619384766e-01,2.613628506660461426e-01,2.613462805747985840e-01,2.613298296928405762e-01,2.613131701946258545e-01,2.612966895103454590e-01,2.612801790237426758e-01,2.612637877464294434e-01,2.612472772598266602e-01,2.612307965755462646e-01,2.612142562866210938e-01,2.611976861953735352e-01,2.611812949180603027e-01,2.611646950244903564e-01,2.611482441425323486e-01,2.611317634582519531e-01,2.611154019832611084e-01,2.610987126827239990e-01,2.610822916030883789e-01,2.610659003257751465e-01,2.610495090484619141e-01,2.610329985618591309e-01,2.610164284706115723e-01,2.610000669956207275e-01,2.609870433807373047e-01,2.609675526618957520e-01,2.609459161758422852e-01,2.609142661094665527e-01,2.608636617660522461e-01,2.608747184276580811e-01,2.609080374240875244e-01,2.604039907455444336e-01,2.599731087684631348e-01,2.580333352088928223e-01,2.569121718406677246e-01,2.568040490150451660e-01,2.579914331436157227e-01,2.567505240440368652e-01,2.565609812736511230e-01,2.548456490039825439e-01,2.546054124832153320e-01,2.553473114967346191e-01,2.559691071510314941e-01,2.554099261760711670e-01,2.551276087760925293e-01,2.557153701782226562e-01,2.544911801815032959e-01,2.474326491355895996e-01,2.498016655445098877e-01,2.768442630767822266e-01,2.988120317459106445e-01,3.584679961204528809e-01,3.861643075942993164e-01
3.991105556488037109e-01,3.188927769660949707e-01,2.997283041477203369e-01,2.643889188766479492e-01,2.423058450222015381e-01,2.394184768199920654e-01,2.430786192417144775e-01,2.439691722393035889e-01,2.446603775024414062e-01,2.445970475673675537e-01,2.445643842220306396e-01,2.445495724678039551e-01,2.445348501205444336e-01,2.445210218429565430e-01,2.445064485073089600e-01,2.444919049739837646e-01,2.444782853126525879e-01,2.444649636745452881e-01,2.444514334201812744e-01,2.444379925727844238e-01,2.444253265857696533e-01,2.444123029708862305e-01,2.443997263908386230e-01,2.443866431713104248e-01,2.443738877773284912e-01,2.443609237670898438e-01,2.443478107452392578e-01,2.443350553512573242e-01,2.443220019340515137e-01,2.443090975284576416e-01,2.442959249019622803e-01,2.442830502986907959e-01,2.442702651023864746e-01,2.442572414875030518e-01,2.442444562911987305e-01,2.442315220832824707e-01,2.442185878753662109e-01,2.442054152488708496e-01,2.441926598548889160e-01,2.441796660423278809e-01,2.441670298576354980e-01,2.441539168357849121e-01,2.441410422325134277e-01,2.441279590129852295e-01,2.441151142120361328e-01,2.441021800041198730e-01,2.440894544124603271e-01,2.440765798091888428e-01,2.440635561943054199e-01,2.440505921840667725e-01,2.440378069877624512e-01,2.440264523029327393e-01,2.440140247344970703e-01,2.439934611320495605e-01,2.439714670181274414e-01,2.439752817153930664e-01,2.439730763435363770e-01,2.438797354698181152e-01,2.439469695091247559e-01,2.438443601131439209e-01,2.428773343563079834e-01,2.420112490653991699e-01,2.423940598964691162e-01,2.423021495342254639e-01,2.430024445056915283e-01,2.426821887493133545e-01,2.418903112411499023e-01,2.410672307014465332e-01,2.419314384460449219e-01,2.410284876823425293e-01,2.411915361881256104e-01,2.408919632434844971e-01,2.407988607883453369e-01,2.405060529708862305e-01,2.330016493797302246e-01,2.362537086009979248e-01,2.603436708450317383e-01,2.848794460296630859e-01,3.464331030845642090e-01,3.786039352416992188e-01
3.908094465732574463e-01,3.077790439128875732e-01,2.866283655166625977e-01,2.519687414169311523e-01,2.295329570770263672e-01,2.264054417610168457e-01,2.296717464923858643e-01,2.304615378379821777e-01,2.310831546783447266e-01,2.310286760330200195e-01,2.310016155242919922e-01,2.309908270835876465e-01,2.309803962707519531e-01,2.309701144695281982e-01,2.309598326683044434e-01,2.309494614601135254e-01,2.309390306472778320e-01,2.309286594390869141e-01,2.309182882308959961e-01,2.309074997901916504e-01,2.308973371982574463e-01,2.308869361877441406e-01,2.308765053749084473e-01,2.308660745620727539e-01,2.308555543422698975e-01,2.308452725410461426e-01,2.308349311351776123e-01,2.308245301246643066e-01,2.308140695095062256e-01,2.308037281036376953e-01,2.307932078838348389e-01,2.307828664779663086e-01,2.307726144790649414e-01,2.307620942592620850e-01,2.307517826557159424e-01,2.307414710521697998e-01,2.307309806346893311e-01,2.307203114032745361e-01,2.307102084159851074e-01,2.306999564170837402e-01,2.306893765926361084e-01,2.306791543960571289e-01,2.306687533855438232e-01,2.306582629680633545e-01,2.306480109691619873e-01,2.306376695632934570e-01,2.306272387504577637e-01,2.306168675422668457e-01,2.306064367294311523e-01,2.305963039398193359e-01,2.305856943130493164e-01,2.305757105350494385e-01,2.305668294429779053e-01,2.305544614791870117e-01,2.305369675159454346e-01,2.305263578891754150e-01,2.305072247982025146e-01,2.304496467113494873e-01,2.304949760437011719e-01,2.304624021053314209e-01,2.301670610904693604e-01,2.297319471836090088e-01,2.296481430530548096e-01,2.297666072845458984e-01,2.301027774810791016e-01,2.302021980285644531e-01,2.298775315284729004e-01,2.296461164951324463e-01,2.291308343410491943e-01,2.294046878814697266e-01,2.294228076934814453e-01,2.295118868350982666e-01,2.297165691852569580e-01,2.289734184741973877e-01,2.214259207248687744e-01,2.249933779239654541e-01,2.485848665237426758e-01,2.731389701366424561e-01,3.366856575012207031e-01,3.724977374076843262e-01
3.838104605674743652e-01,2.985779643058776855e-01,2.758296728134155273e-01,2.418453693389892578e-01,2.191902697086334229e-01,2.158578038215637207e-01,2.188132703304290771e-01,2.195146381855010986e-01,2.200808525085449219e-01,2.200332581996917725e-01,2.200102210044860840e-01,2.200016975402832031e-01,2.199932038784027100e-01,2.199846804141998291e-01,2.199759483337402344e-01,2.199676334857940674e-01,2.199590206146240234e-01,2.199505269527435303e-01,2.199419438838958740e-01,2.199334204196929932e-01,2.199248969554901123e-01,2.199164628982543945e-01,2.199076414108276367e-01,2.198992967605590820e-01,2.198907434940338135e-01,2.198823988437652588e-01,2.198736667633056641e-01,2.198650538921356201e-01,2.198568284511566162e-01,2.198482155799865723e-01,2.198396623134613037e-01,2.198311388492584229e-01,2.198226749897003174e-01,2.198140323162078857e-01,2.198056280612945557e-01,2.197971045970916748e-01,2.197888195514678955e-01,2.197800576686859131e-01,2.197714745998382568e-01,2.197628915309906006e-01,2.197544574737548828e-01,2.197461426258087158e-01,2.197374701499938965e-01,2.197290658950805664e-01,2.197206914424896240e-01,2.197119891643524170e-01,2.197035551071166992e-01,2.196950912475585938e-01,2.196865975856781006e-01,2.196781635284423828e-01,2.196696102619171143e-01,2.196610569953918457e-01,2.196536958217620850e-01,2.196451127529144287e-01,2.196323871612548828e-01,2.196303009986877441e-01,2.196237444877624512e-01,2.195761203765869141e-01,2.196338474750518799e-01,2.196466624736785889e-01,2.195409536361694336e-01,2.193872332572937012e-01,2.193328142166137695e-01,2.192189097404479980e-01,2.194438278675079346e-01,2.194079756736755371e-01,2.196676731109619141e-01,2.194546759128570557e-01,2.192107737064361572e-01,2.190587222576141357e-01,2.190546095371246338e-01,2.189273536205291748e-01,2.194109857082366943e-01,2.188248038291931152e-01,2.121019959449768066e-01,2.153621613979339600e-01,2.388341724872589111e-01,2.645273208618164062e-01,3.286280632019042969e-01,3.673723340034484863e-01
3.778373003005981445e-01,2.908440232276916504e-01,2.668070793151855469e-01,2.334587275981903076e-01,2.106584310531616211e-01,2.071487605571746826e-01,2.098525464534759521e-01,2.104761302471160889e-01,2.109935879707336426e-01,2.109516561031341553e-01,2.109314501285552979e-01,2.109245955944061279e-01,2.109173238277435303e-01,2.109104692935943604e-01,2.109030783176422119e-01,2.108962237834930420e-01,2.108891010284423828e-01,2.108819484710693359e-01,2.108748555183410645e-01,2.108677327632904053e-01,2.108606100082397461e-01,2.108532786369323730e-01,2.108462154865264893e-01,2.108391225337982178e-01,2.108320891857147217e-01,2.108249664306640625e-01,2.108179628849029541e-01,2.108107507228851318e-01,2.108036875724792480e-01,2.107965350151062012e-01,2.107895612716674805e-01,2.107825279235839844e-01,2.107754945755004883e-01,2.107682526111602783e-01,2.107610702514648438e-01,2.107540965080261230e-01,2.107469439506530762e-01,2.107400894165039062e-01,2.107328176498413086e-01,2.107256650924682617e-01,2.107184827327728271e-01,2.107115387916564941e-01,2.107043862342834473e-01,2.106974422931671143e-01,2.106903493404388428e-01,2.106831371784210205e-01,2.106762230396270752e-01,2.106691300868988037e-01,2.106620669364929199e-01,2.106548249721527100e-01,2.106477618217468262e-01,2.106407582759857178e-01,2.106343507766723633e-01,2.106267809867858887e-01,2.106191515922546387e-01,2.106140255928039551e-01,2.106023728847503662e-01,2.105751037597656250e-01,2.105896770954132080e-01,2.105849087238311768e-01,2.105660140514373779e-01,2.104949951171875000e-01,2.104985117912292480e-01,2.104590237140655518e-01,2.104010879993438721e-01,2.105338573455810547e-01,2.104975879192352295e-01,2.104635834693908691e-01,2.104476094245910645e-01,2.103782594203948975e-01,2.102634012699127197e-01,2.103859484195709229e-01,2.105692625045776367e-01,2.100736498832702637e-01,2.036430835723876953e-01,2.069759368896484375e-01,2.301308810710906982e-01,2.567315101623535156e-01,3.220615983009338379e-01,3.630878925323486328e-01
3.726802170276641846e-01,2.842510342597961426e-01,2.591617703437805176e-01,2.263992428779602051e-01,2.035070359706878662e-01,1.998422145843505859e-01,2.023392915725708008e-01,2.028943896293640137e-01,2.033705711364746094e-01,2.033333778381347656e-01,2.033157050609588623e-01,2.033098042011260986e-01,2.033039629459381104e-01,2.032978534698486328e-01,2.032918632030487061e-01,2.032858431339263916e-01,2.032797932624816895e-01,2.032737433910369873e-01,2.032675445079803467e-01,2.032618224620819092e-01,2.032558321952819824e-01,2.032496631145477295e-01,2.032435536384582520e-01,2.032377123832702637e-01,2.032316923141479492e-01,2.032257914543151855e-01,2.032196223735809326e-01,2.032138407230377197e-01,2.032077908515930176e-01,2.032019197940826416e-01,2.031957507133483887e-01,2.031897008419036865e-01,2.031835615634918213e-01,2.031777799129486084e-01,2.031717300415039062e-01,2.031657099723815918e-01,2.031596899032592773e-01,2.031536996364593506e-01,2.031477689743041992e-01,2.031417787075042725e-01,2.031357884407043457e-01,2.031299471855163574e-01,2.031237483024597168e-01,2.031179368495941162e-01,2.031118869781494141e-01,2.031058669090270996e-01,2.030996680259704590e-01,2.030940055847167969e-01,2.030879557132720947e-01,2.030818760395050049e-01,2.030758559703826904e-01,2.030699551105499268e-01,2.030641436576843262e-01,2.030583322048187256e-01,2.030523121356964111e-01,2.030464410781860352e-01,2.030386924743652344e-01,2.030317783355712891e-01,2.030352652072906494e-01,2.030312418937683105e-01,2.030311524868011475e-01,2.030205130577087402e-01,2.030013799667358398e-01,2.029843628406524658e-01,2.029813826084136963e-01,2.029855549335479736e-01,2.029886245727539062e-01,2.030099928379058838e-01,2.029735147953033447e-01,2.029422521591186523e-01,2.029317617416381836e-01,2.028789818286895752e-01,2.031155526638031006e-01,2.027308344841003418e-01,1.967399716377258301e-01,1.999767720699310303e-01,2.228182554244995117e-01,2.499555051326751709e-01,3.158205747604370117e-01,3.592870235443115234e-01
3.681837022304534912e-01,2.785654664039611816e-01,2.526060342788696289e-01,2.203793227672576904e-01,1.974312067031860352e-01,1.936300396919250488e-01,1.959551572799682617e-01,1.964500844478607178e-01,1.968907713890075684e-01,1.968573927879333496e-01,1.968418061733245850e-01,1.968370079994201660e-01,1.968315243721008301e-01,1.968263685703277588e-01,1.968213021755218506e-01,1.968162357807159424e-01,1.968111991882324219e-01,1.968059241771697998e-01,1.968008279800415039e-01,1.967956423759460449e-01,1.967903971672058105e-01,1.967852413654327393e-01,1.967800855636596680e-01,1.967749297618865967e-01,1.967699229717254639e-01,1.967649459838867188e-01,1.967597603797912598e-01,1.967544853687286377e-01,1.967494189739227295e-01,1.967443525791168213e-01,1.967391073703765869e-01,1.967339217662811279e-01,1.967289447784423828e-01,1.967236697673797607e-01,1.967185139656066895e-01,1.967135965824127197e-01,1.967085003852844238e-01,1.967031955718994141e-01,1.966980397701263428e-01,1.966929435729980469e-01,1.966878771781921387e-01,1.966826021671295166e-01,1.966777145862579346e-01,1.966725885868072510e-01,1.966674029827117920e-01,1.966623365879058838e-01,1.966571509838104248e-01,1.966520249843597412e-01,1.966468393802642822e-01,1.966418027877807617e-01,1.966366767883300781e-01,1.966316699981689453e-01,1.966265439987182617e-01,1.966214179992675781e-01,1.966161131858825684e-01,1.966110765933990479e-01,1.966057121753692627e-01,1.965998411178588867e-01,1.965952217578887939e-01,1.965924799442291260e-01,1.965858936309814453e-01,1.965809464454650879e-01,1.965778768062591553e-01,1.965700387954711914e-01,1.965640187263488770e-01,1.965600550174713135e-01,1.965572834014892578e-01,1.965480744838714600e-01,1.965476870536804199e-01,1.965413093566894531e-01,1.965441107749938965e-01,1.964956223964691162e-01,1.967025995254516602e-01,1.963999271392822266e-01,1.906772553920745850e-01,1.940084695816040039e-01,2.165667414665222168e-01,2.441065907478332520e-01,3.106500208377838135e-01,3.559312820434570312e-01
3.642288744449615479e-01,2.736127376556396484e-01,2.469265460968017578e-01,2.151881158351898193e-01,1.922093629837036133e-01,1.882877051830291748e-01,1.904673576354980469e-01,1.909094452857971191e-01,1.913194060325622559e-01,1.912892758846282959e-01,1.912752389907836914e-01,1.912706196308135986e-01,1.912663280963897705e-01,1.912619471549987793e-01,1.912573277950286865e-01,1.912529170513153076e-01,1.912488043308258057e-01,1.912440657615661621e-01,1.912397742271423340e-01,1.912352144718170166e-01,1.912309229373931885e-01,1.912263035774230957e-01,1.912217438220977783e-01,1.912174522876739502e-01,1.912131011486053467e-01,1.912086308002471924e-01,1.912041604518890381e-01,1.911999583244323730e-01,1.911953687667846680e-01,1.911908090114593506e-01,1.911864280700683594e-01,1.911820471286773682e-01,1.911775469779968262e-01,1.911731064319610596e-01,1.911686360836029053e-01,1.911643445491790771e-01,1.911598742008209229e-01,1.911553740501403809e-01,1.911508440971374512e-01,1.911465227603912354e-01,1.911421418190002441e-01,1.911377012729644775e-01,1.911332905292510986e-01,1.911289095878601074e-01,1.911243796348571777e-01,1.911200582981109619e-01,1.911155283451080322e-01,1.911110579967498779e-01,1.911067962646484375e-01,1.911022961139678955e-01,1.910979151725769043e-01,1.910932958126068115e-01,1.910890638828277588e-01,1.910845339298248291e-01,1.910803318023681641e-01,1.910757422447204590e-01,1.910710632801055908e-01,1.910665929317474365e-01,1.910621225833892822e-01,1.910578906536102295e-01,1.910536289215087891e-01,1.910491287708282471e-01,1.910451054573059082e-01,1.910410821437835693e-01,1.910360157489776611e-01,1.910319030284881592e-01,1.910285353660583496e-01,1.910232305526733398e-01,1.910187900066375732e-01,1.910157203674316406e-01,1.910096108913421631e-01,1.909829378128051758e-01,1.911762058734893799e-01,1.909346878528594971e-01,1.855101287364959717e-01,1.888262331485748291e-01,2.111515700817108154e-01,2.390287220478057861e-01,3.059895932674407959e-01,3.529691696166992188e-01
