5.884654521942138672e-01,6.138871312141418457e-01,6.564502716064453125e-01,6.572054624557495117e-01,6.807102560997009277e-01,7.049245834350585938e-01,7.412911653518676758e-01,7.626987695693969727e-01,7.834717035293579102e-01,8.021092414855957031e-01,8.199077844619750977e-01,8.364121913909912109e-01,8.513786792755126953e-01,8.647119998931884766e-01,8.763518333435058594e-01,8.858984112739562988e-01,8.929351568222045898e-01,8.976795673370361328e-01,9.009655714035034180e-01,9.031092524528503418e-01,9.043334722518920898e-01,9.050041437149047852e-01,9.052593111991882324e-01,9.053181409835815430e-01,9.053306579589843750e-01,9.053288698196411133e-01,9.053283333778381348e-01,9.053283333778381348e-01,9.053283333778381348e-01,9.053283333778381348e-01,9.053283333778381348e-01,9.053283333778381348e-01,9.053283333778381348e-01,9.053283333778381348e-01,9.053283333778381348e-01,9.053283333778381348e-01,9.053283333778381348e-01,9.053283333778381348e-01,9.053283333778381348e-01,9.053283333778381348e-01,9.053283333778381348e-01,9.053283333778381348e-01,9.053283333778381348e-01,9.053283333778381348e-01,9.053283333778381348e-01,9.053283333778381348e-01,9.053283333778381348e-01,9.053292274475097656e-01,9.053289294242858887e-01,9.052979946136474609e-01,9.056825637817382812e-01,9.068994522094726562e-01,9.049538373947143555e-01,9.013267755508422852e-01,8.951765298843383789e-01,8.807634115219116211e-01,8.461709022521972656e-01,7.941981554031372070e-01,6.985429525375366211e-01,6.130239963531494141e-01,5.058326721191406250e-01,4.489599466323852539e-01,3.951866626739501953e-01,3.692471385002136230e-01,3.437162339687347412e-01,3.319913148880004883e-01,3.432614803314208984e-01,3.639651536941528320e-01,3.629132807254791260e-01,3.545636832714080811e-01,3.167095482349395752e-01,3.150157332420349121e-01,3.282312154769897461e-01,3.477731347084045410e-01,3.416993021965026855e-01,3.734213411808013916e-01,4.480982422828674316e-01,4.849631786346435547e-01,5.083937644958496094e-01,4.907096624374389648e-01
5.884585380554199219e-01,6.138760447502136230e-01,6.564373970031738281e-01,6.571905016899108887e-01,6.806936860084533691e-01,7.049076557159423828e-01,7.412741184234619141e-01,7.626816034317016602e-01,7.834546566009521484e-01,8.020923137664794922e-01,8.198918104171752930e-01,8.363974690437316895e-01,8.513652086257934570e-01,8.646999597549438477e-01,8.763413429260253906e-01,8.858900070190429688e-01,8.929293751716613770e-01,8.976755142211914062e-01,9.009628295898437500e-01,9.031077623367309570e-01,9.043325185775756836e-01,9.050037860870361328e-01,9.052592515945434570e-01,9.053181409835815430e-01,9.053307175636291504e-01,9.053288698196411133e-01,9.053283333778381348e-01,9.053283333778381348e-01,9.053283333778381348e-01,9.053283333778381348e-01,9.053283333778381348e-01,9.053283333778381348e-01,9.053283333778381348e-01,9.053283333778381348e-01,9.053283333778381348e-01,9.053283333778381348e-01,9.053283333778381348e-01,9.053283333778381348e-01,9.053283333778381348e-01,9.053283333778381348e-01,9.053283333778381348e-01,9.053283333778381348e-01,9.053283333778381348e-01,9.053283333778381348e-01,9.053283333778381348e-01,9.053283333778381348e-01,9.053283333778381348e-01,9.053286314010620117e-01,9.053261280059814453e-01,9.053131341934204102e-01,9.057850837707519531e-01,9.059495925903320312e-01,9.047801494598388672e-01,9.005833864212036133e-01,8.970335721969604492e-01,8.857023715972900391e-01,8.579465150833129883e-01,8.228919506072998047e-01,7.433454990386962891e-01,6.526710987091064453e-01,5.467581748962402344e-01,4.737997651100158691e-01,4.230023026466369629e-01,3.975770473480224609e-01,3.719599545001983643e-01,3.673487901687622070e-01,3.931739926338195801e-01,4.070298373699188232e-01,4.042828977108001709e-01,3.891403079032897949e-01,3.620646595954895020e-01,3.179001212120056152e-01,3.478859663009643555e-01,3.584244549274444580e-01,3.442014157772064209e-01,3.511941730976104736e-01,4.180436730384826660e-01,4.554313719272613525e-01,4.957527816295623779e-01,4.642204642295837402e-01
5.884518623352050781e-01,6.138653755187988281e-01,6.564246416091918945e-01,6.571757793426513672e-01,6.806774735450744629e-01,7.048909068107604980e-01,7.412573695182800293e-01,7.626649141311645508e-01,7.834377884864807129e-01,8.020755052566528320e-01,8.198759555816650391e-01,8.363828659057617188e-01,8.513518571853637695e-01,8.646880388259887695e-01,8.763308525085449219e-01,8.858817815780639648e-01,8.929236531257629395e-01,8.976718187332153320e-01,9.009600877761840820e-01,9.031060934066772461e-01,9.043316841125488281e-01,9.050031900405883789e-01,9.052591323852539062e-01,9.053180217742919922e-01,9.053307175636291504e-01,9.053288698196411133e-01,9.053283333778381348e-01,9.053283333778381348e-01,9.053283333778381348e-01,9.053283333778381348e-01,9.053283333778381348e-01,9.053283333778381348e-01,9.053283333778381348e-01,9.053283333778381348e-01,9.053283333778381348e-01,9.053283333778381348e-01,9.053283333778381348e-01,9.053283333778381348e-01,9.053283333778381348e-01,9.053283333778381348e-01,9.053283333778381348e-01,9.053283333778381348e-01,9.053283333778381348e-01,9.053283333778381348e-01,9.053283333778381348e-01,9.053283333778381348e-01,9.053283333778381348e-01,9.053285121917724609e-01,9.053275585174560547e-01,9.053191542625427246e-01,9.057011008262634277e-01,9.059000015258789062e-01,9.050748348236083984e-01,9.046900868415832520e-01,9.008603096008300781e-01,8.882830142974853516e-01,8.693476319313049316e-01,8.372708559036254883e-01,7.744640707969665527e-01,6.841805577278137207e-01,5.823217630386352539e-01,5.070177912712097168e-01,4.572296440601348877e-01,4.358131289482116699e-01,4.114025533199310303e-01,3.974791765213012695e-01,4.309829473495483398e-01,4.689526259899139404e-01,4.414528906345367432e-01,4.290769100189208984e-01,4.100328087806701660e-01,3.594152927398681641e-01,3.579673767089843750e-01,3.660047650337219238e-01,3.511629402637481689e-01,3.534461259841918945e-01,3.893876373767852783e-01,4.346981346607208252e-01,4.788704812526702881e-01,4.506906867027282715e-01
5.884454846382141113e-01,6.138548254966735840e-01,6.564122438430786133e-01,6.571611166000366211e-01,6.806613802909851074e-01,7.048745155334472656e-01,7.412406206130981445e-01,7.626481056213378906e-01,7.834212183952331543e-01,8.020594120025634766e-01,8.198603391647338867e-01,8.363682627677917480e-01,8.513388633728027344e-01,8.646761178970336914e-01,8.763204216957092285e-01,8.858736753463745117e-01,8.929178714752197266e-01,8.976680636405944824e-01,9.009572267532348633e-01,9.031045436859130859e-01,9.043307304382324219e-01,9.050027132034301758e-01,9.052590131759643555e-01,9.053180217742919922e-01,9.053307175636291504e-01,9.053288698196411133e-01,9.053283333778381348e-01,9.053283333778381348e-01,9.053283333778381348e-01,9.053283333778381348e-01,9.053283333778381348e-01,9.053283333778381348e-01,9.053283333778381348e-01,9.053283333778381348e-01,9.053283333778381348e-01,9.053283333778381348e-01,9.053283333778381348e-01,9.053283333778381348e-01,9.053283333778381348e-01,9.053283333778381348e-01,9.053283333778381348e-01,9.053283333778381348e-01,9.053283333778381348e-01,9.053283333778381348e-01,9.053283333778381348e-01,9.053283333778381348e-01,9.053283333778381348e-01,9.053283333778381348e-01,9.053221940994262695e-01,9.053031206130981445e-01,9.052959680557250977e-01,9.059095382690429688e-01,9.051839113235473633e-01,9.060894846916198730e-01,9.031528830528259277e-01,8.909733295440673828e-01,8.743828535079956055e-01,8.428774476051330566e-01,8.031650781631469727e-01,7.244722247123718262e-01,6.223434209823608398e-01,5.288078188896179199e-01,4.922793805599212646e-01,4.603832066059112549e-01,4.449146091938018799e-01,4.446215331554412842e-01,4.587326645851135254e-01,5.224604606628417969e-01,5.141803026199340820e-01,4.761263728141784668e-01,4.501641392707824707e-01,4.123736619949340820e-01,3.859215080738067627e-01,3.760827183723449707e-01,3.527889251708984375e-01,3.557921648025512695e-01,3.767783045768737793e-01,4.212889373302459717e-01,4.700270295143127441e-01,4.469280838966369629e-01
5.884395837783813477e-01,6.138448715209960938e-01,6.564004421234130859e-01,6.571470499038696289e-01,6.806458234786987305e-01,7.048583030700683594e-01,7.412242293357849121e-01,7.626317739486694336e-01,7.834048867225646973e-01,8.020431995391845703e-01,8.198449611663818359e-01,8.363540172576904297e-01,8.513258695602416992e-01,8.646646738052368164e-01,8.763104081153869629e-01,8.858656287193298340e-01,8.929122090339660645e-01,8.976643085479736328e-01,9.009544849395751953e-01,9.031029343605041504e-01,9.043298363685607910e-01,9.050021171569824219e-01,9.052590131759643555e-01,9.053179025650024414e-01,9.053307771682739258e-01,9.053288698196411133e-01,9.053283333778381348e-01,9.053283333778381348e-01,9.053283333778381348e-01,9.053283333778381348e-01,9.053283333778381348e-01,9.053283333778381348e-01,9.053283333778381348e-01,9.053283333778381348e-01,9.053283333778381348e-01,9.053283333778381348e-01,9.053283333778381348e-01,9.053283333778381348e-01,9.053283333778381348e-01,9.053283333778381348e-01,9.053283333778381348e-01,9.053283333778381348e-01,9.053283333778381348e-01,9.053283333778381348e-01,9.053283333778381348e-01,9.053283333778381348e-01,9.053283333778381348e-01,9.053283333778381348e-01,9.053281545639038086e-01,9.052918553352355957e-01,9.052581787109375000e-01,9.056742787361145020e-01,9.066333770751953125e-01,9.070994853973388672e-01,9.036116600036621094e-01,8.974224328994750977e-01,8.802721500396728516e-01,8.498249053955078125e-01,8.142251372337341309e-01,7.606834769248962402e-01,6.633047461509704590e-01,5.551954507827758789e-01,5.164692401885986328e-01,4.812716245651245117e-01,4.713686406612396240e-01,4.684092700481414795e-01,4.931895136833190918e-01,5.579416155815124512e-01,6.028821468353271484e-01,5.206330418586730957e-01,5.050368905067443848e-01,4.511526823043823242e-01,4.121757149696350098e-01,3.786458671092987061e-01,3.731302022933959961e-01,3.636192083358764648e-01,3.691717386245727539e-01,4.026110768318176270e-01,4.618739783763885498e-01,4.498669207096099854e-01
5.884339809417724609e-01,6.138355731964111328e-01,6.563895344734191895e-01,6.571338176727294922e-01,6.806309819221496582e-01,7.048429250717163086e-01,7.412084937095642090e-01,7.626160383224487305e-01,7.833890318870544434e-01,8.020274043083190918e-01,8.198301792144775391e-01,8.363401889801025391e-01,8.513132333755493164e-01,8.646533489227294922e-01,8.763004541397094727e-01,8.858578205108642578e-01,8.929066658020019531e-01,8.976606130599975586e-01,9.009517431259155273e-01,9.031013250350952148e-01,9.043290615081787109e-01,9.050017595291137695e-01,9.052589535713195801e-01,9.053180217742919922e-01,9.053307175636291504e-01,9.053288698196411133e-01,9.053283333778381348e-01,9.053283333778381348e-01,9.053283333778381348e-01,9.053283333778381348e-01,9.053283333778381348e-01,9.053283333778381348e-01,9.053283333778381348e-01,9.053283333778381348e-01,9.053283333778381348e-01,9.053283333778381348e-01,9.053283333778381348e-01,9.053283333778381348e-01,9.053283333778381348e-01,9.053283333778381348e-01,9.053283333778381348e-01,9.053283333778381348e-01,9.053283333778381348e-01,9.053283333778381348e-01,9.053283333778381348e-01,9.053283333778381348e-01,9.053283333778381348e-01,9.053283333778381348e-01,9.053251147270202637e-01,9.053024053573608398e-01,9.052394032478332520e-01,9.053279161453247070e-01,9.066226482391357422e-01,9.065922498703002930e-01,9.040571451187133789e-01,8.982037901878356934e-01,8.838897943496704102e-01,8.555486202239990234e-01,8.348250389099121094e-01,7.822140455245971680e-01,6.944900155067443848e-01,5.796497464179992676e-01,5.282775759696960449e-01,5.030780434608459473e-01,4.975378513336181641e-01,5.099450349807739258e-01,5.255386233329772949e-01,5.936153531074523926e-01,6.265611648559570312e-01,6.026228070259094238e-01,5.444880723953247070e-01,4.833694398403167725e-01,4.442441463470458984e-01,4.099330902099609375e-01,3.876960873603820801e-01,3.629879653453826904e-01,3.861896991729736328e-01,4.052340686321258545e-01,4.561106264591217041e-01,4.480088353157043457e-01
5.884286761283874512e-01,6.138268113136291504e-01,6.563791632652282715e-01,6.571218967437744141e-01,6.806172728538513184e-01,7.048282623291015625e-01,7.411936521530151367e-01,7.626008987426757812e-01,7.833735942840576172e-01,8.020122051239013672e-01,8.198155164718627930e-01,8.363265991210937500e-01,8.513008356094360352e-01,8.646421432495117188e-01,8.762906789779663086e-01,8.858499526977539062e-01,8.929013013839721680e-01,8.976571559906005859e-01,9.009491801261901855e-01,9.030998945236206055e-01,9.043281674385070801e-01,9.050012826919555664e-01,9.052588939666748047e-01,9.053179025650024414e-01,9.053307175636291504e-01,9.053288698196411133e-01,9.053283333778381348e-01,9.053283333778381348e-01,9.053283333778381348e-01,9.053283333778381348e-01,9.053283333778381348e-01,9.053283333778381348e-01,9.053283333778381348e-01,9.053283333778381348e-01,9.053283333778381348e-01,9.053283333778381348e-01,9.053283333778381348e-01,9.053283333778381348e-01,9.053283333778381348e-01,9.053283333778381348e-01,9.053283333778381348e-01,9.053283333778381348e-01,9.053283333778381348e-01,9.053283333778381348e-01,9.053283333778381348e-01,9.053283333778381348e-01,9.053283333778381348e-01,9.053283333778381348e-01,9.053283929824829102e-01,9.053173065185546875e-01,9.053124785423278809e-01,9.053252339363098145e-01,9.059685468673706055e-01,9.066237211227416992e-01,9.054962396621704102e-01,9.004894495010375977e-01,8.870460987091064453e-01,8.619083762168884277e-01,8.376335501670837402e-01,7.941932678222656250e-01,7.150613665580749512e-01,6.032734513282775879e-01,5.502874851226806641e-01,5.243561863899230957e-01,5.198032259941101074e-01,5.426895022392272949e-01,5.611984133720397949e-01,6.186322569847106934e-01,6.440057754516601562e-01,6.587715148925781250e-01,5.966842174530029297e-01,5.130288600921630859e-01,4.591636955738067627e-01,4.372506737709045410e-01,3.886756300926208496e-01,3.611333370208740234e-01,3.904966115951538086e-01,4.146624207496643066e-01,4.570935070514678955e-01,4.435047209262847900e-01
5.884234905242919922e-01,6.138182878494262695e-01,6.563690900802612305e-01,6.571102738380432129e-01,6.806042790412902832e-01,7.048152089118957520e-01,7.411800622940063477e-01,7.625868320465087891e-01,7.833594083786010742e-01,8.019977807998657227e-01,8.198015689849853516e-01,8.363134860992431641e-01,8.512889146804809570e-01,8.646314740180969238e-01,8.762813806533813477e-01,8.858424425125122070e-01,8.928959369659423828e-01,8.976534605026245117e-01,9.009466171264648438e-01,9.030983448028564453e-01,9.043273925781250000e-01,9.050009846687316895e-01,9.052587747573852539e-01,9.053179025650024414e-01,9.053307175636291504e-01,9.053288698196411133e-01,9.053283333778381348e-01,9.053283333778381348e-01,9.053283333778381348e-01,9.053283333778381348e-01,9.053283333778381348e-01,9.053283333778381348e-01,9.053283333778381348e-01,9.053283333778381348e-01,9.053283333778381348e-01,9.053283333778381348e-01,9.053283333778381348e-01,9.053283333778381348e-01,9.053283333778381348e-01,9.053283333778381348e-01,9.053283333778381348e-01,9.053283333778381348e-01,9.053283333778381348e-01,9.053283333778381348e-01,9.053283333778381348e-01,9.053283333778381348e-01,9.053283333778381348e-01,9.053283333778381348e-01,9.053282737731933594e-01,9.053235650062561035e-01,9.052780270576477051e-01,9.053702950477600098e-01,9.053678512573242188e-01,9.061682224273681641e-01,9.055680036544799805e-01,9.013518095016479492e-01,8.888291120529174805e-01,8.670098781585693359e-01,8.422704935073852539e-01,7.992414236068725586e-01,7.439891099929809570e-01,6.161816716194152832e-01,5.669669508934020996e-01,5.336977839469909668e-01,5.409111976623535156e-01,5.603067874908447266e-01,5.947172045707702637e-01,6.388668417930603027e-01,6.717776656150817871e-01,6.722908616065979004e-01,6.508795022964477539e-01,5.413035154342651367e-01,4.718862473964691162e-01,4.404318332672119141e-01,3.873110413551330566e-01,3.747663795948028564e-01,3.936369419097900391e-01,4.192511737346649170e-01,4.545997381210327148e-01,4.475126266479492188e-01
5.884181261062622070e-01,6.138095855712890625e-01,6.563593149185180664e-01,6.570989489555358887e-01,6.805918812751770020e-01,7.048023939132690430e-01,7.411671876907348633e-01,7.625739574432373047e-01,7.833460569381713867e-01,8.019843697547912598e-01,8.197883963584899902e-01,8.363014459609985352e-01,8.512773513793945312e-01,8.646211028099060059e-01,8.762724399566650391e-01,8.858352303504943848e-01,8.928909301757812500e-01,8.976502418518066406e-01,9.009441733360290527e-01,9.030970931053161621e-01,9.043264389038085938e-01,9.050005078315734863e-01,9.052586555480957031e-01,9.053179025650024414e-01,9.053307175636291504e-01,9.053288698196411133e-01,9.053283333778381348e-01,9.053283333778381348e-01,9.053283333778381348e-01,9.053283333778381348e-01,9.053283333778381348e-01,9.053283333778381348e-01,9.053283333778381348e-01,9.053283333778381348e-01,9.053283333778381348e-01,9.053283333778381348e-01,9.053283333778381348e-01,9.053283333778381348e-01,9.053283333778381348e-01,9.053283333778381348e-01,9.053283333778381348e-01,9.053283333778381348e-01,9.053283333778381348e-01,9.053283333778381348e-01,9.053283333778381348e-01,9.053283333778381348e-01,9.053283333778381348e-01,9.053283333778381348e-01,9.053292274475097656e-01,9.053274393081665039e-01,9.053189754486083984e-01,9.052510261535644531e-01,9.053228497505187988e-01,9.061326980590820312e-01,9.059731960296630859e-01,9.010316133499145508e-01,8.893198370933532715e-01,8.725830912590026855e-01,8.471653461456298828e-01,8.076521158218383789e-01,7.466217279434204102e-01,6.397622227668762207e-01,5.794999599456787109e-01,5.403283238410949707e-01,5.536010265350341797e-01,5.769461989402770996e-01,6.309024095535278320e-01,6.650499105453491211e-01,6.937472224235534668e-01,6.902722120285034180e-01,6.566358804702758789e-01,5.652880668640136719e-01,4.897871613502502441e-01,4.477750062942504883e-01,3.905898928642272949e-01,3.829071819782257080e-01,4.022029042243957520e-01,4.305360913276672363e-01,4.618701934814453125e-01,4.545564949512481689e-01
5.884124040603637695e-01,6.138004660606384277e-01,6.563490629196166992e-01,6.570871472358703613e-01,6.805794239044189453e-01,7.047899365425109863e-01,7.411544322967529297e-01,7.625613808631896973e-01,7.833335399627685547e-01,8.019717931747436523e-01,8.197765350341796875e-01,8.362898826599121094e-01,8.512667417526245117e-01,8.646115064620971680e-01,8.762634992599487305e-01,8.858282566070556641e-01,8.928860425949096680e-01,8.976470232009887695e-01,9.009418487548828125e-01,9.030955433845520020e-01,9.043257832527160645e-01,9.050000309944152832e-01,9.052585959434509277e-01,9.053179025650024414e-01,9.053307175636291504e-01,9.053288698196411133e-01,9.053283333778381348e-01,9.053283333778381348e-01,9.053283333778381348e-01,9.053283333778381348e-01,9.053283333778381348e-01,9.053283333778381348e-01,9.053283333778381348e-01,9.053283333778381348e-01,9.053283333778381348e-01,9.053283333778381348e-01,9.053283333778381348e-01,9.053283333778381348e-01,9.053283333778381348e-01,9.053283333778381348e-01,9.053283333778381348e-01,9.053283333778381348e-01,9.053283333778381348e-01,9.053283333778381348e-01,9.053283333778381348e-01,9.053283333778381348e-01,9.053283333778381348e-01,9.053283333778381348e-01,9.053286314010620117e-01,9.053279161453247070e-01,9.053207635879516602e-01,9.053057432174682617e-01,9.052872657775878906e-01,9.059219360351562500e-01,9.060240983963012695e-01,9.000883102416992188e-01,8.884556293487548828e-01,8.746227025985717773e-01,8.485449552536010742e-01,8.107793927192687988e-01,7.629840373992919922e-01,6.518263816833496094e-01,5.948215723037719727e-01,5.474615693092346191e-01,5.779442787170410156e-01,6.124030351638793945e-01,6.458502411842346191e-01,6.935770511627197266e-01,7.183206677436828613e-01,7.020229101181030273e-01,6.549793481826782227e-01,5.925754904747009277e-01,5.095553994178771973e-01,4.548106789588928223e-01,3.918174207210540771e-01,3.909930884838104248e-01,4.045356214046478271e-01,4.272086024284362793e-01,4.645545780658721924e-01,4.533494710922241211e-01
5.884065628051757812e-01,6.137909293174743652e-01,6.563382148742675781e-01,6.570747494697570801e-01,6.805660128593444824e-01,7.047765851020812988e-01,7.411416769027709961e-01,7.625488638877868652e-01,7.833214998245239258e-01,8.019596338272094727e-01,8.197648525238037109e-01,8.362787961959838867e-01,8.512561321258544922e-01,8.646017313003540039e-01,8.762550354003906250e-01,8.858212232589721680e-01,8.928804397583007812e-01,8.976427316665649414e-01,9.009382724761962891e-01,9.030928611755371094e-01,9.043233394622802734e-01,9.049978256225585938e-01,9.052566885948181152e-01,9.053159952163696289e-01,9.053288698196411133e-01,9.053270220756530762e-01,9.053264856338500977e-01,9.053264856338500977e-01,9.053264856338500977e-01,9.053264856338500977e-01,9.053264856338500977e-01,9.053264856338500977e-01,9.053264856338500977e-01,9.053264260292053223e-01,9.053264260292053223e-01,9.053264260292053223e-01,9.053263664245605469e-01,9.053263664245605469e-01,9.053263664245605469e-01,9.053263664245605469e-01,9.053263664245605469e-01,9.053263664245605469e-01,9.053262472152709961e-01,9.053262472152709961e-01,9.053262472152709961e-01,9.053262472152709961e-01,9.053262472152709961e-01,9.053261280059814453e-01,9.053263664245605469e-01,9.053262472152709961e-01,9.053245782852172852e-01,9.053150415420532227e-01,9.053603410720825195e-01,9.059224724769592285e-01,9.058140516281127930e-01,9.002155661582946777e-01,8.894544243812561035e-01,8.748682737350463867e-01,8.503824472427368164e-01,8.152621984481811523e-01,7.675747871398925781e-01,6.687549352645874023e-01,6.022587418556213379e-01,5.609573721885681152e-01,5.950705409049987793e-01,6.332339644432067871e-01,6.653624773025512695e-01,7.050875425338745117e-01,7.406393289566040039e-01,7.225875854492187500e-01,6.728467345237731934e-01,5.906696319580078125e-01,5.138797163963317871e-01,4.591874182224273682e-01,3.935389518737792969e-01,3.893944025039672852e-01,4.035556018352508545e-01,4.356816411018371582e-01,4.723913371562957764e-01,4.540827274322509766e-01
5.884003043174743652e-01,6.137806177139282227e-01,6.563261151313781738e-01,6.570605039596557617e-01,6.805493831634521484e-01,7.047585844993591309e-01,7.411233186721801758e-01,7.625307440757751465e-01,7.833031415939331055e-01,8.019413948059082031e-01,8.197474479675292969e-01,8.362618088722229004e-01,8.512393236160278320e-01,8.645861148834228516e-01,8.762410879135131836e-01,8.858091235160827637e-01,8.928698301315307617e-01,8.976340293884277344e-01,9.009301066398620605e-01,9.030849337577819824e-01,9.043157100677490234e-01,9.049906730651855469e-01,9.052500724792480469e-01,9.053096771240234375e-01,9.053227305412292480e-01,9.053209424018859863e-01,9.053205251693725586e-01,9.053205251693725586e-01,9.053205847740173340e-01,9.053205847740173340e-01,9.053205847740173340e-01,9.053206443786621094e-01,9.053206443786621094e-01,9.053207635879516602e-01,9.053207635879516602e-01,9.053207635879516602e-01,9.053208827972412109e-01,9.053208827972412109e-01,9.053208827972412109e-01,9.053210020065307617e-01,9.053210020065307617e-01,9.053211212158203125e-01,9.053211212158203125e-01,9.053211212158203125e-01,9.053212404251098633e-01,9.053212404251098633e-01,9.053212404251098633e-01,9.053212404251098633e-01,9.053214192390441895e-01,9.053215384483337402e-01,9.053213596343994141e-01,9.053206443786621094e-01,9.053283929824829102e-01,9.058786630630493164e-01,9.055755138397216797e-01,8.996953964233398438e-01,8.890470266342163086e-01,8.747398853302001953e-01,8.525311946868896484e-01,8.216142654418945312e-01,7.752526998519897461e-01,6.811098456382751465e-01,6.101852655410766602e-01,5.812330842018127441e-01,6.084964871406555176e-01,6.418792605400085449e-01,7.010949850082397461e-01,7.273298501968383789e-01,7.506158351898193359e-01,7.334446310997009277e-01,6.887988448143005371e-01,5.887091755867004395e-01,5.206685066223144531e-01,4.620006680488586426e-01,4.013626575469970703e-01,4.014131426811218262e-01,4.058426618576049805e-01,4.541927278041839600e-01,4.738163352012634277e-01,4.552516341209411621e-01
5.883891582489013672e-01,6.137666702270507812e-01,6.563093066215515137e-01,6.570457220077514648e-01,6.805346608161926270e-01,7.047426104545593262e-01,7.411088943481445312e-01,7.625213861465454102e-01,7.833009958267211914e-01,8.019469976425170898e-01,8.197635412216186523e-01,8.362913727760314941e-01,8.512885570526123047e-01,8.646524548530578613e-01,8.763093948364257812e-01,8.858674168586730957e-01,8.929166197776794434e-01,8.976724743843078613e-01,9.009701013565063477e-01,9.031355381011962891e-01,9.043728113174438477e-01,9.050534367561340332e-01,9.053156375885009766e-01,9.053768515586853027e-01,9.053903818130493164e-01,9.053888320922851562e-01,9.053885936737060547e-01,9.053889513015747070e-01,9.053891897201538086e-01,9.053894281387329102e-01,9.053897261619567871e-01,9.053899645805358887e-01,9.053902626037597656e-01,9.053905010223388672e-01,9.053907394409179688e-01,9.053911566734313965e-01,9.053913354873657227e-01,9.053915143013000488e-01,9.053919315338134766e-01,9.053921699523925781e-01,9.053922891616821289e-01,9.053925871849060059e-01,9.053928852081298828e-01,9.053932428359985352e-01,9.053934812545776367e-01,9.053937196731567383e-01,9.053939580917358398e-01,9.053941965103149414e-01,9.053944945335388184e-01,9.053947925567626953e-01,9.053958654403686523e-01,9.053988456726074219e-01,9.054441452026367188e-01,9.059054851531982422e-01,9.056762456893920898e-01,9.000099897384643555e-01,8.890982866287231445e-01,8.748151063919067383e-01,8.531574010848999023e-01,8.226602077484130859e-01,7.827760577201843262e-01,6.977491378784179688e-01,6.153244972229003906e-01,6.163859367370605469e-01,6.279622316360473633e-01,6.728252768516540527e-01,7.210325002670288086e-01,7.511565685272216797e-01,7.567375898361206055e-01,7.406327724456787109e-01,6.918459534645080566e-01,6.035249829292297363e-01,5.232150554656982422e-01,4.681597948074340820e-01,4.222790300846099854e-01,4.046313166618347168e-01,4.179614484310150146e-01,4.610732793807983398e-01,4.827566742897033691e-01,4.587551653385162354e-01
5.883958339691162109e-01,6.137749552726745605e-01,6.563156247138977051e-01,6.570629477500915527e-01,6.805626153945922852e-01,7.048035860061645508e-01,7.412209510803222656e-01,7.626814842224121094e-01,7.834873199462890625e-01,8.021457791328430176e-01,8.199640512466430664e-01,8.364895582199096680e-01,8.514638543128967285e-01,8.647962808609008789e-01,8.764250874519348145e-01,8.859480619430541992e-01,8.929858207702636719e-01,8.977741003036499023e-01,9.010944366455078125e-01,9.032585620880126953e-01,9.044930338859558105e-01,9.051687717437744141e-01,9.054245948791503906e-01,9.054826498031616211e-01,9.054936766624450684e-01,9.054909944534301758e-01,9.054896831512451172e-01,9.054888486862182617e-01,9.054880142211914062e-01,9.054870605468750000e-01,9.054862260818481445e-01,9.054852724075317383e-01,9.054844379425048828e-01,9.054836034774780273e-01,9.054827690124511719e-01,9.054819345474243164e-01,9.054809808731079102e-01,9.054802656173706055e-01,9.054793119430541992e-01,9.054784774780273438e-01,9.054775238037109375e-01,9.054766297340393066e-01,9.054757356643676758e-01,9.054749011993408203e-01,9.054740071296691895e-01,9.054731726646423340e-01,9.054722785949707031e-01,9.054714441299438477e-01,9.054704904556274414e-01,9.054696559906005859e-01,9.054691195487976074e-01,9.054715633392333984e-01,9.054808616638183594e-01,9.060097932815551758e-01,9.057445526123046875e-01,8.997787237167358398e-01,8.890448808670043945e-01,8.748994469642639160e-01,8.524129390716552734e-01,8.269956111907958984e-01,7.845323085784912109e-01,6.946743130683898926e-01,6.175181865692138672e-01,6.395647525787353516e-01,6.589118242263793945e-01,6.874322295188903809e-01,7.466799020767211914e-01,7.705930471420288086e-01,7.680183053016662598e-01,7.525193691253662109e-01,7.142078280448913574e-01,5.985354781150817871e-01,5.301550030708312988e-01,4.683213531970977783e-01,4.238925874233245850e-01,4.019720852375030518e-01,4.279311299324035645e-01,4.742210507392883301e-01,4.956353902816772461e-01,4.604377150535583496e-01
5.885782241821289062e-01,6.139519214630126953e-01,6.565686464309692383e-01,6.573188304901123047e-01,6.808109879493713379e-01,7.049678564071655273e-01,7.413084506988525391e-01,7.626934647560119629e-01,7.833596467971801758e-01,8.018871545791625977e-01,8.195883035659790039e-01,8.359788060188293457e-01,8.508627414703369141e-01,8.641133308410644531e-01,8.756430149078369141e-01,8.851402997970581055e-01,8.922127485275268555e-01,8.969819545745849609e-01,9.002747535705566406e-01,9.024299979209899902e-01,9.036752581596374512e-01,9.043314456939697266e-01,9.045724868774414062e-01,9.046295285224914551e-01,9.046416282653808594e-01,9.046391248703002930e-01,9.046377539634704590e-01,9.046367406845092773e-01,9.046360254287719727e-01,9.046350717544555664e-01,9.046341180801391602e-01,9.046331644058227539e-01,9.046323299407958984e-01,9.046314954757690430e-01,9.046304225921630859e-01,9.046295285224914551e-01,9.046286344528198242e-01,9.046277403831481934e-01,9.046268463134765625e-01,9.046258926391601562e-01,9.046249985694885254e-01,9.046241044998168945e-01,9.046231508255004883e-01,9.046223163604736328e-01,9.046213626861572266e-01,9.046204090118408203e-01,9.046195745468139648e-01,9.046186804771423340e-01,9.046177864074707031e-01,9.046168327331542969e-01,9.046162366867065430e-01,9.046206474304199219e-01,9.046473503112792969e-01,9.051772952079772949e-01,9.048744440078735352e-01,8.992869853973388672e-01,8.877381682395935059e-01,8.741353750228881836e-01,8.513747453689575195e-01,8.298375606536865234e-01,7.912280559539794922e-01,6.943449974060058594e-01,6.296079754829406738e-01,6.447045207023620605e-01,6.678484082221984863e-01,7.133476734161376953e-01,7.642520666122436523e-01,7.749525904655456543e-01,7.783646583557128906e-01,7.647178173065185547e-01,7.183228135108947754e-01,6.080022454261779785e-01,5.421842932701110840e-01,4.782091975212097168e-01,4.200057089328765869e-01,4.085590541362762451e-01,4.352879226207733154e-01,4.766191542148590088e-01,4.954296052455902100e-01,4.645834863185882568e-01
5.889355540275573730e-01,6.138247251510620117e-01,6.562421321868896484e-01,6.566777229309082031e-01,6.799253225326538086e-01,7.037644386291503906e-01,7.398926019668579102e-01,7.610063552856445312e-01,7.815140485763549805e-01,7.999111413955688477e-01,8.175242543220520020e-01,8.339143991470336914e-01,8.489247560501098633e-01,8.623863458633422852e-01,8.741701841354370117e-01,8.838965892791748047e-01,8.910568952560424805e-01,8.958877325057983398e-01,8.992764949798583984e-01,9.014962911605834961e-01,9.027298688888549805e-01,9.033837318420410156e-01,9.036415219306945801e-01,9.037145376205444336e-01,9.037274122238159180e-01,9.037251472473144531e-01,9.037237167358398438e-01,9.037226438522338867e-01,9.037216305732727051e-01,9.037203788757324219e-01,9.037194252014160156e-01,9.037184119224548340e-01,9.037173986434936523e-01,9.037162065505981445e-01,9.037152528762817383e-01,9.037142395973205566e-01,9.037131071090698242e-01,9.037120342254638672e-01,9.037109613418579102e-01,9.037098288536071777e-01,9.037088155746459961e-01,9.037078022956848145e-01,9.037067890167236328e-01,9.037055373191833496e-01,9.037045240402221680e-01,9.037035703659057617e-01,9.037024974822998047e-01,9.037014842033386230e-01,9.037003517150878906e-01,9.036992788314819336e-01,9.036982059478759766e-01,9.037041664123535156e-01,9.036613702774047852e-01,9.041272401809692383e-01,9.039862751960754395e-01,8.979908227920532227e-01,8.874438405036926270e-01,8.740408420562744141e-01,8.523676991462707520e-01,8.307760357856750488e-01,7.935404777526855469e-01,6.971117854118347168e-01,6.352572441101074219e-01,6.482007503509521484e-01,6.760308742523193359e-01,7.326376438140869141e-01,7.726789712905883789e-01,7.821642160415649414e-01,7.932164669036865234e-01,7.681311368942260742e-01,7.223066687583923340e-01,6.268220543861389160e-01,5.458013415336608887e-01,4.784501194953918457e-01,4.225567877292633057e-01,4.204296469688415527e-01,4.440851211547851562e-01,4.819799363613128662e-01,4.930074512958526611e-01,4.682040810585021973e-01
5.881916284561157227e-01,6.121518015861511230e-01,6.544510126113891602e-01,6.547915339469909668e-01,6.775829792022705078e-01,7.009679079055786133e-01,7.370871305465698242e-01,7.582466602325439453e-01,7.788032293319702148e-01,7.971997261047363281e-01,8.147959709167480469e-01,8.312983512878417969e-01,8.464387059211730957e-01,8.599842786788940430e-01,8.718601465225219727e-01,8.816281557083129883e-01,8.889316916465759277e-01,8.940091133117675781e-01,8.974869251251220703e-01,8.997213840484619141e-01,9.009755849838256836e-01,9.016541838645935059e-01,9.019175767898559570e-01,9.019797444343566895e-01,9.019865989685058594e-01,9.019794464111328125e-01,9.019730091094970703e-01,9.019668102264404297e-01,9.019607305526733398e-01,9.019545316696166992e-01,9.019484519958496094e-01,9.019424915313720703e-01,9.019362926483154297e-01,9.019302129745483398e-01,9.019240140914916992e-01,9.019180536270141602e-01,9.019119143486022949e-01,9.019057750701904297e-01,9.018996953964233398e-01,9.018936753273010254e-01,9.018876552581787109e-01,9.018813371658325195e-01,9.018755555152893066e-01,9.018692970275878906e-01,9.018632173538208008e-01,9.018571972846984863e-01,9.018511176109313965e-01,9.018450975418090820e-01,9.018390178680419922e-01,9.018329381942749023e-01,9.018269777297973633e-01,9.018279314041137695e-01,9.018167257308959961e-01,9.022467732429504395e-01,9.023092389106750488e-01,8.964573740959167480e-01,8.856544494628906250e-01,8.714295029640197754e-01,8.510280847549438477e-01,8.314956426620483398e-01,7.938153743743896484e-01,6.963596940040588379e-01,6.516289710998535156e-01,6.540406346321105957e-01,6.907929182052612305e-01,7.456861734390258789e-01,7.689374685287475586e-01,7.890753149986267090e-01,7.982065677642822266e-01,7.706365585327148438e-01,7.285202145576477051e-01,6.442512273788452148e-01,5.572811365127563477e-01,4.841341972351074219e-01,4.363126158714294434e-01,4.292725324630737305e-01,4.592624902725219727e-01,4.871650934219360352e-01,5.035609602928161621e-01,4.667128920555114746e-01
5.862554907798767090e-01,6.094372272491455078e-01,6.514806151390075684e-01,6.515449285507202148e-01,6.740766167640686035e-01,6.969125270843505859e-01,7.324783802032470703e-01,7.531212568283081055e-01,7.730054855346679688e-01,7.909487485885620117e-01,8.082788586616516113e-01,8.245598673820495605e-01,8.395540118217468262e-01,8.531523942947387695e-01,8.651050329208374023e-01,8.749612569808959961e-01,8.823373913764953613e-01,8.874372839927673340e-01,8.910174369812011719e-01,8.932563066482543945e-01,8.945026397705078125e-01,8.952051401138305664e-01,8.954694271087646484e-01,8.955242633819580078e-01,8.955229520797729492e-01,8.955118656158447266e-01,8.955020904541015625e-01,8.954927921295166016e-01,8.954838514328002930e-01,8.954744935035705566e-01,8.954654932022094727e-01,8.954563140869140625e-01,8.954472541809082031e-01,8.954380750656127930e-01,8.954290151596069336e-01,8.954197168350219727e-01,8.954106569290161133e-01,8.954015970230102539e-01,8.953923583030700684e-01,8.953833580017089844e-01,8.953742384910583496e-01,8.953650593757629395e-01,8.953559994697570801e-01,8.953467011451721191e-01,8.953378796577453613e-01,8.953286409378051758e-01,8.953194618225097656e-01,8.953104019165039062e-01,8.953012228012084961e-01,8.952922821044921875e-01,8.952832221984863281e-01,8.952785730361938477e-01,8.952981233596801758e-01,8.958840370178222656e-01,8.954060077667236328e-01,8.904480934143066406e-01,8.803140521049499512e-01,8.664042949676513672e-01,8.467959165573120117e-01,8.227033615112304688e-01,7.857971191406250000e-01,6.897410154342651367e-01,6.503417491912841797e-01,6.491972208023071289e-01,6.922596693038940430e-01,7.545596361160278320e-01,7.784905433654785156e-01,7.891234159469604492e-01,7.924743890762329102e-01,7.767552137374877930e-01,7.314824461936950684e-01,6.600900888442993164e-01,5.740386247634887695e-01,4.982455968856811523e-01,4.479969441890716553e-01,4.322702884674072266e-01,4.812199473381042480e-01,4.972874522209167480e-01,5.112791657447814941e-01,4.697338938713073730e-01
5.823477506637573242e-01,6.035627126693725586e-01,6.450696587562561035e-01,6.443619132041931152e-01,6.657208800315856934e-01,6.876936554908752441e-01,7.224068045616149902e-01,7.425895333290100098e-01,7.618005275726318359e-01,7.788741588592529297e-01,7.956081628799438477e-01,8.115677833557128906e-01,8.266267180442810059e-01,8.405215740203857422e-01,8.527925014495849609e-01,8.630747199058532715e-01,8.709454536437988281e-01,8.763761520385742188e-01,8.801449537277221680e-01,8.825232386589050293e-01,8.838610649108886719e-01,8.845165371894836426e-01,8.847187161445617676e-01,8.847364187240600586e-01,8.847258090972900391e-01,8.847030401229858398e-01,8.846821188926696777e-01,8.846617937088012695e-01,8.846415281295776367e-01,8.846210241317749023e-01,8.846007585525512695e-01,8.845803737640380859e-01,8.845602273941040039e-01,8.845400810241699219e-01,8.845196962356567383e-01,8.844994306564331055e-01,8.844791650772094727e-01,8.844590187072753906e-01,8.844387531280517578e-01,8.844184875488281250e-01,8.843982219696044922e-01,8.843780755996704102e-01,8.843576908111572266e-01,8.843374252319335938e-01,8.843173980712890625e-01,8.842970728874206543e-01,8.842768669128417969e-01,8.842566013336181641e-01,8.842364549636840820e-01,8.842163085937500000e-01,8.841960430145263672e-01,8.841789364814758301e-01,8.842086195945739746e-01,8.846810460090637207e-01,8.840912580490112305e-01,8.784744739532470703e-01,8.695021271705627441e-01,8.552227616310119629e-01,8.352746367454528809e-01,8.142052888870239258e-01,7.736340761184692383e-01,6.785157918930053711e-01,6.451102495193481445e-01,6.475325822830200195e-01,6.934342384338378906e-01,7.428810596466064453e-01,7.745530605316162109e-01,7.852457761764526367e-01,7.856452465057373047e-01,7.787759304046630859e-01,7.299175858497619629e-01,6.671298742294311523e-01,5.693528056144714355e-01,4.976279735565185547e-01,4.607484936714172363e-01,4.537802040576934814e-01,4.854792952537536621e-01,5.056998729705810547e-01,5.131841897964477539e-01,4.757888317108154297e-01
5.752030014991760254e-01,5.937517285346984863e-01,6.341875791549682617e-01,6.314076185226440430e-01,6.507641077041625977e-01,6.714974641799926758e-01,7.052963376045227051e-01,7.246518135070800781e-01,7.431010007858276367e-01,7.594740390777587891e-01,7.753025293350219727e-01,7.904886007308959961e-01,8.051465749740600586e-01,8.185907602310180664e-01,8.304742574691772461e-01,8.404283523559570312e-01,8.479074835777282715e-01,8.532826900482177734e-01,8.570432662963867188e-01,8.593931794166564941e-01,8.606331348419189453e-01,8.611826896667480469e-01,8.613162636756896973e-01,8.613203763961791992e-01,8.612884283065795898e-01,8.612490892410278320e-01,8.612117767333984375e-01,8.611744642257690430e-01,8.611373901367187500e-01,8.611003160476684570e-01,8.610631227493286133e-01,8.610261678695678711e-01,8.609890937805175781e-01,8.609518408775329590e-01,8.609147667884826660e-01,8.608778715133666992e-01,8.608406782150268555e-01,8.608036041259765625e-01,8.607666492462158203e-01,8.607294559478759766e-01,8.606923818588256836e-01,8.606555461883544922e-01,8.606185913085937500e-01,8.605813980102539062e-01,8.605445027351379395e-01,8.605073690414428711e-01,8.604702949523925781e-01,8.604333400726318359e-01,8.603963851928710938e-01,8.603594303131103516e-01,8.603224754333496094e-01,8.602858185768127441e-01,8.603271245956420898e-01,8.609393239021301270e-01,8.608324527740478516e-01,8.547011613845825195e-01,8.460283875465393066e-01,8.314288854598999023e-01,8.103990554809570312e-01,7.821363210678100586e-01,7.339574098587036133e-01,6.396927237510681152e-01,6.307481527328491211e-01,6.467978358268737793e-01,6.735724806785583496e-01,7.180582284927368164e-01,7.528488636016845703e-01,7.684531211853027344e-01,7.640548944473266602e-01,7.678948640823364258e-01,7.252430915832519531e-01,6.497129201889038086e-01,5.526781082153320312e-01,4.880612492561340332e-01,4.574898779392242432e-01,4.593817591667175293e-01,4.937267899513244629e-01,5.106309652328491211e-01,5.055584311485290527e-01,4.851718842983245850e-01
5.642396211624145508e-01,5.783779025077819824e-01,6.170494556427001953e-01,6.110093593597412109e-01,6.274161338806152344e-01,6.464121937751770020e-01,6.783337593078613281e-01,6.956837773323059082e-01,7.117305397987365723e-01,7.257412075996398926e-01,7.394014000892639160e-01,7.528215646743774414e-01,7.661384940147399902e-01,7.786048650741577148e-01,7.895349264144897461e-01,7.988237142562866211e-01,8.062248229980468750e-01,8.115607500076293945e-01,8.152921199798583984e-01,8.175951242446899414e-01,8.186770677566528320e-01,8.189514875411987305e-01,8.189738392829895020e-01,8.189487457275390625e-01,8.188997507095336914e-01,8.188389539718627930e-01,8.187795877456665039e-01,8.187204599380493164e-01,8.186615705490112305e-01,8.186024427413940430e-01,8.185434341430664062e-01,8.184842467308044434e-01,8.184253573417663574e-01,8.183662891387939453e-01,8.183071613311767578e-01,8.182482719421386719e-01,8.181892633438110352e-01,8.181303739547729492e-01,8.180714249610900879e-01,8.180123567581176758e-01,8.179534077644348145e-01,8.178943991661071777e-01,8.178356885910034180e-01,8.177765607833862305e-01,8.177177906036376953e-01,8.176588416099548340e-01,8.176000118255615234e-01,8.175411224365234375e-01,8.174823522567749023e-01,8.174232840538024902e-01,8.173643350601196289e-01,8.173038959503173828e-01,8.173183798789978027e-01,8.181872367858886719e-01,8.173925876617431641e-01,8.106011152267456055e-01,8.012369871139526367e-01,7.866150140762329102e-01,7.668722867965698242e-01,7.395182847976684570e-01,6.853863596916198730e-01,5.997998714447021484e-01,5.940532684326171875e-01,6.132200360298156738e-01,6.410025358200073242e-01,6.859200000762939453e-01,7.152540683746337891e-01,7.286167740821838379e-01,7.276471853256225586e-01,7.285237312316894531e-01,6.828609108924865723e-01,6.197821497917175293e-01,5.248673558235168457e-01,4.684524536132812500e-01,4.486783444881439209e-01,4.485165774822235107e-01,4.965356886386871338e-01,4.884792864322662354e-01,5.026600360870361328e-01,4.836981594562530518e-01
5.497252345085144043e-01,5.539382696151733398e-01,5.888137817382812500e-01,5.787614583969116211e-01,5.919231772422790527e-01,6.082139015197753906e-01,6.378254890441894531e-01,6.524339318275451660e-01,6.663237810134887695e-01,6.780700683593750000e-01,6.894906163215637207e-01,7.006265521049499512e-01,7.116241455078125000e-01,7.215001583099365234e-01,7.303572297096252441e-01,7.380200624465942383e-01,7.437702417373657227e-01,7.477715611457824707e-01,7.504805922508239746e-01,7.519764304161071777e-01,7.524055242538452148e-01,7.524718046188354492e-01,7.524464130401611328e-01,7.523833513259887695e-01,7.523151636123657227e-01,7.522302865982055664e-01,7.521472573280334473e-01,7.520645856857299805e-01,7.519819736480712891e-01,7.518996000289916992e-01,7.518167495727539062e-01,7.517342567443847656e-01,7.516516447067260742e-01,7.515692114830017090e-01,7.514866590499877930e-01,7.514042854309082031e-01,7.513217926025390625e-01,7.512391805648803711e-01,7.511565685272216797e-01,7.510743141174316406e-01,7.509917020797729492e-01,7.509092688560485840e-01,7.508269548416137695e-01,7.507445812225341797e-01,7.506621479988098145e-01,7.505797147750854492e-01,7.504971623420715332e-01,7.504149675369262695e-01,7.503324747085571289e-01,7.502502202987670898e-01,7.501679062843322754e-01,7.500802278518676758e-01,7.500172853469848633e-01,7.514913678169250488e-01,7.501783370971679688e-01,7.425874471664428711e-01,7.310813069343566895e-01,7.204566001892089844e-01,6.947020292282104492e-01,6.685640215873718262e-01,6.136059761047363281e-01,5.567225813865661621e-01,5.469765663146972656e-01,5.516662001609802246e-01,6.102970838546752930e-01,6.291502714157104492e-01,6.534149646759033203e-01,6.646778583526611328e-01,6.665257215499877930e-01,6.588861942291259766e-01,6.172685623168945312e-01,5.790594816207885742e-01,4.796673655509948730e-01,4.476521909236907959e-01,4.149535894393920898e-01,4.276490211486816406e-01,4.684712290763854980e-01,4.715307354927062988e-01,4.863687455654144287e-01,4.732026457786560059e-01
5.325047373771667480e-01,5.236880183219909668e-01,5.544970035552978516e-01,5.385838150978088379e-01,5.464460253715515137e-01,5.592998862266540527e-01,5.835191011428833008e-01,5.946910977363586426e-01,6.051656007766723633e-01,6.132956743240356445e-01,6.213156580924987793e-01,6.292414665222167969e-01,6.369064450263977051e-01,6.437559723854064941e-01,6.499296426773071289e-01,6.547376513481140137e-01,6.579695940017700195e-01,6.604006290435791016e-01,6.619696021080017090e-01,6.628103256225585938e-01,6.630284786224365234e-01,6.629905700683593750e-01,6.628879904747009277e-01,6.628041863441467285e-01,6.627221107482910156e-01,6.626316308975219727e-01,6.625433564186096191e-01,6.624555587768554688e-01,6.623675823211669922e-01,6.622799634933471680e-01,6.621922254562377930e-01,6.621041893959045410e-01,6.620165705680847168e-01,6.619287729263305664e-01,6.618410944938659668e-01,6.617534160614013672e-01,6.616658568382263184e-01,6.615781784057617188e-01,6.614903807640075684e-01,6.614028215408325195e-01,6.613153815269470215e-01,6.612277626991271973e-01,6.611402034759521484e-01,6.610525250434875488e-01,6.609650850296020508e-01,6.608775258064270020e-01,6.607900857925415039e-01,6.607024669647216797e-01,6.606150865554809570e-01,6.605277061462402344e-01,6.604401469230651855e-01,6.603418588638305664e-01,6.601904630661010742e-01,6.618427634239196777e-01,6.598781347274780273e-01,6.525024175643920898e-01,6.405451297760009766e-01,6.368566155433654785e-01,6.087113618850708008e-01,5.831528902053833008e-01,5.408432483673095703e-01,5.103604197502136230e-01,4.910936355590820312e-01,5.006918311119079590e-01,5.452807545661926270e-01,5.658429861068725586e-01,5.794441103935241699e-01,5.893893241882324219e-01,5.957853198051452637e-01,5.729305744171142578e-01,5.478102564811706543e-01,4.986360669136047363e-01,4.311594367027282715e-01,4.154106974601745605e-01,3.813952207565307617e-01,3.977653384208679199e-01,4.365515112876892090e-01,4.496061801910400391e-01,4.628368020057678223e-01,4.598593413829803467e-01
5.115476250648498535e-01,4.893323183059692383e-01,5.141231417655944824e-01,4.908642768859863281e-01,4.924250543117523193e-01,5.010061264038085938e-01,5.196031928062438965e-01,5.275461077690124512e-01,5.347071290016174316e-01,5.395481586456298828e-01,5.444172620773315430e-01,5.495175123214721680e-01,5.544911623001098633e-01,5.588307380676269531e-01,5.624816417694091797e-01,5.651900172233581543e-01,5.674911141395568848e-01,5.691052079200744629e-01,5.701975822448730469e-01,5.706966519355773926e-01,5.707995295524597168e-01,5.707205533981323242e-01,5.705778598785400391e-01,5.705086588859558105e-01,5.704115033149719238e-01,5.703228712081909180e-01,5.702351331710815430e-01,5.701479315757751465e-01,5.700607895851135254e-01,5.699735283851623535e-01,5.698865056037902832e-01,5.697993040084838867e-01,5.697121620178222656e-01,5.696251988410949707e-01,5.695379972457885742e-01,5.694510340690612793e-01,5.693641901016235352e-01,5.692769885063171387e-01,5.691900849342346191e-01,5.691031217575073242e-01,5.690163373947143555e-01,5.689293146133422852e-01,5.688426494598388672e-01,5.687556266784667969e-01,5.686686635017395020e-01,5.685819983482360840e-01,5.684952139854431152e-01,5.684084892272949219e-01,5.683217048645019531e-01,5.682349801063537598e-01,5.681481361389160156e-01,5.680462121963500977e-01,5.679031610488891602e-01,5.692746639251708984e-01,5.675085783004760742e-01,5.613800287246704102e-01,5.536270141601562500e-01,5.499958395957946777e-01,5.223105549812316895e-01,4.991646111011505127e-01,4.654265642166137695e-01,4.575597941875457764e-01,4.392978250980377197e-01,4.546097218990325928e-01,4.879627823829650879e-01,4.996836483478546143e-01,5.057916641235351562e-01,5.135967731475830078e-01,5.246509313583374023e-01,4.927533566951751709e-01,4.730184674263000488e-01,4.397266507148742676e-01,3.921922445297241211e-01,3.832208514213562012e-01,3.618304729461669922e-01,3.627970814704895020e-01,4.023618102073669434e-01,4.134182929992675781e-01,4.454530775547027588e-01,4.477281868457794189e-01
4.905606210231781006e-01,4.556712806224822998e-01,4.712952673435211182e-01,4.408659338951110840e-01,4.361931681632995605e-01,4.405622482299804688e-01,4.539836645126342773e-01,4.580739140510559082e-01,4.623953998088836670e-01,4.647237956523895264e-01,4.672726988792419434e-01,4.700833559036254883e-01,4.728545844554901123e-01,4.754835665225982666e-01,4.777918756008148193e-01,4.795165956020355225e-01,4.807945787906646729e-01,4.817632138729095459e-01,4.823679327964782715e-01,4.826323091983795166e-01,4.826833903789520264e-01,4.826759994029998779e-01,4.825970232486724854e-01,4.824967086315155029e-01,4.824133813381195068e-01,4.823392629623413086e-01,4.822659194469451904e-01,4.821926653385162354e-01,4.821195900440216064e-01,4.820466637611389160e-01,4.819732904434204102e-01,4.819002747535705566e-01,4.818271398544311523e-01,4.817540347576141357e-01,4.816809594631195068e-01,4.816078543663024902e-01,4.815349876880645752e-01,4.814619123935699463e-01,4.813889563083648682e-01,4.813161492347717285e-01,4.812430441379547119e-01,4.811702966690063477e-01,4.810974895954132080e-01,4.810245931148529053e-01,4.809516668319702148e-01,4.808788895606994629e-01,4.808061420917510986e-01,4.807334840297698975e-01,4.806607663631439209e-01,4.805879890918731689e-01,4.805153608322143555e-01,4.804288446903228760e-01,4.802267551422119141e-01,4.812610149383544922e-01,4.797424376010894775e-01,4.763485491275787354e-01,4.728388786315917969e-01,4.706853628158569336e-01,4.478251934051513672e-01,4.324539303779602051e-01,4.100638031959533691e-01,4.067937731742858887e-01,3.933719992637634277e-01,4.014291167259216309e-01,4.214906990528106689e-01,4.311329722404479980e-01,4.383719563484191895e-01,4.503175616264343262e-01,4.543896913528442383e-01,4.324252307415008545e-01,4.125861525535583496e-01,3.822439908981323242e-01,3.573088645935058594e-01,3.495219349861145020e-01,3.320989608764648438e-01,3.376208543777465820e-01,3.725733160972595215e-01,3.845258653163909912e-01,4.240980446338653564e-01,4.342861473560333252e-01
4.694028496742248535e-01,4.224036633968353271e-01,4.285249710083007812e-01,3.950405418872833252e-01,3.840728402137756348e-01,3.856401145458221436e-01,3.960532546043395996e-01,3.989909589290618896e-01,4.020206928253173828e-01,4.032150506973266602e-01,4.044273495674133301e-01,4.056411385536193848e-01,4.066631793975830078e-01,4.076096117496490479e-01,4.084074497222900391e-01,4.089956879615783691e-01,4.096015989780426025e-01,4.100953042507171631e-01,4.103075563907623291e-01,4.103517532348632812e-01,4.103607833385467529e-01,4.102633595466613770e-01,4.101919531822204590e-01,4.101191163063049316e-01,4.100561738014221191e-01,4.099971652030944824e-01,4.099388122558593750e-01,4.098810255527496338e-01,4.098230004310607910e-01,4.097650945186614990e-01,4.097071886062622070e-01,4.096492528915405273e-01,4.095914959907531738e-01,4.095335602760314941e-01,4.094757139682769775e-01,4.094179570674896240e-01,4.093599915504455566e-01,4.093021750450134277e-01,4.092444777488708496e-01,4.091867208480834961e-01,4.091289043426513672e-01,4.090712666511535645e-01,4.090137183666229248e-01,4.089558422565460205e-01,4.088984429836273193e-01,4.088407456874847412e-01,4.087830483913421631e-01,4.087254405021667480e-01,4.086679816246032715e-01,4.086105525493621826e-01,4.085528552532196045e-01,4.084866046905517578e-01,4.083169102668762207e-01,4.088208079338073730e-01,4.077966809272766113e-01,4.066021144390106201e-01,4.044815003871917725e-01,4.019730091094970703e-01,3.859607577323913574e-01,3.757690191268920898e-01,3.644080460071563721e-01,3.627535104751586914e-01,3.540971875190734863e-01,3.614984154701232910e-01,3.718090057373046875e-01,3.794780969619750977e-01,3.844535648822784424e-01,3.889152705669403076e-01,3.905313611030578613e-01,3.739044666290283203e-01,3.636949062347412109e-01,3.406074345111846924e-01,3.266341984272003174e-01,3.194633126258850098e-01,3.001914620399475098e-01,3.154023289680480957e-01,3.403886258602142334e-01,3.578569889068603516e-01,4.029529988765716553e-01,4.197466373443603516e-01
4.513866901397705078e-01,3.938144445419311523e-01,3.929780125617980957e-01,3.572857975959777832e-01,3.413566350936889648e-01,3.406493663787841797e-01,3.480975627899169922e-01,3.498171567916870117e-01,3.515101075172424316e-01,3.519282937049865723e-01,3.524445295333862305e-01,3.529112935066223145e-01,3.533930778503417969e-01,3.538309037685394287e-01,3.541263043880462646e-01,3.542220592498779297e-01,3.542971611022949219e-01,3.541723489761352539e-01,3.540181815624237061e-01,3.539586365222930908e-01,3.539375662803649902e-01,3.539031147956848145e-01,3.538483977317810059e-01,3.537946343421936035e-01,3.537536859512329102e-01,3.537118434906005859e-01,3.536702394485473633e-01,3.536288738250732422e-01,3.535876274108886719e-01,3.535462021827697754e-01,3.535050153732299805e-01,3.534637689590454102e-01,3.534223437309265137e-01,3.533811271190643311e-01,3.533399701118469238e-01,3.532985448837280273e-01,3.532574176788330078e-01,3.532163500785827637e-01,3.531749844551086426e-01,3.531338274478912354e-01,3.530927896499633789e-01,3.530515432357788086e-01,3.530103862285614014e-01,3.529693484306335449e-01,3.529282212257385254e-01,3.528869748115539551e-01,3.528459668159484863e-01,3.528048992156982422e-01,3.527639508247375488e-01,3.527228534221649170e-01,3.526817560195922852e-01,3.526394069194793701e-01,3.525183796882629395e-01,3.528037369251251221e-01,3.522150516510009766e-01,3.521679043769836426e-01,3.511781692504882812e-01,3.493724167346954346e-01,3.399896025657653809e-01,3.335239887237548828e-01,3.267219662666320801e-01,3.256661891937255859e-01,3.222942650318145752e-01,3.252046406269073486e-01,3.305530548095703125e-01,3.382180333137512207e-01,3.404044806957244873e-01,3.429565131664276123e-01,3.432000875473022461e-01,3.330145478248596191e-01,3.211693167686462402e-01,3.109252452850341797e-01,3.033967912197113037e-01,2.929184138774871826e-01,2.812942266464233398e-01,2.899999022483825684e-01,3.149795532226562500e-01,3.304236233234405518e-01,3.853442072868347168e-01,4.059891402721405029e-01
4.349649548530578613e-01,3.689408898353576660e-01,3.612723350524902344e-01,3.251615166664123535e-01,3.061264157295227051e-01,3.047536611557006836e-01,3.108583092689514160e-01,3.122475743293762207e-01,3.134048581123352051e-01,3.134197592735290527e-01,3.134049773216247559e-01,3.133950531482696533e-01,3.134697675704956055e-01,3.135606050491333008e-01,3.135913014411926270e-01,3.136066198348999023e-01,3.135669529438018799e-01,3.135150671005249023e-01,3.135316967964172363e-01,3.135171532630920410e-01,3.134591877460479736e-01,3.134140074253082275e-01,3.133799731731414795e-01,3.133513331413269043e-01,3.133203685283660889e-01,3.132903277873992920e-01,3.132604360580444336e-01,3.132302761077880859e-01,3.132003545761108398e-01,3.131704032421112061e-01,3.131403923034667969e-01,3.131102919578552246e-01,3.130804002285003662e-01,3.130505084991455078e-01,3.130205273628234863e-01,3.129904866218566895e-01,3.129606544971466064e-01,3.129306733608245850e-01,3.129006624221801758e-01,3.128707408905029297e-01,3.128410577774047852e-01,3.128111362457275391e-01,3.127811253070831299e-01,3.127512037754058838e-01,3.127214312553405762e-01,3.126916885375976562e-01,3.126616179943084717e-01,3.126319646835327148e-01,3.126021027565002441e-01,3.125723600387573242e-01,3.125424981117248535e-01,3.125146031379699707e-01,3.124340772628784180e-01,3.124815225601196289e-01,3.122904002666473389e-01,3.122885227203369141e-01,3.118071556091308594e-01,3.107855916023254395e-01,3.063747882843017578e-01,3.017466962337493896e-01,2.972838878631591797e-01,2.983918190002441406e-01,2.955871820449829102e-01,2.996272444725036621e-01,2.989495396614074707e-01,3.049635291099548340e-01,3.047419190406799316e-01,3.074534833431243896e-01,3.066852688789367676e-01,3.007482886314392090e-01,2.933033108711242676e-01,2.856404781341552734e-01,2.814908623695373535e-01,2.739266157150268555e-01,2.648296654224395752e-01,2.684906721115112305e-01,2.953522205352783203e-01,3.154477477073669434e-01,3.749851882457733154e-01,3.950682878494262695e-01
4.212117493152618408e-01,3.491280078887939453e-01,3.364083766937255859e-01,2.999948859214782715e-01,2.791711091995239258e-01,2.769944667816162109e-01,2.819487154483795166e-01,2.831143736839294434e-01,2.839978337287902832e-01,2.838886380195617676e-01,2.838485538959503174e-01,2.838461101055145264e-01,2.838293910026550293e-01,2.838118076324462891e-01,2.837973237037658691e-01,2.837597131729125977e-01,2.837201654911041260e-01,2.836905717849731445e-01,2.836655676364898682e-01,2.836308479309082031e-01,2.836042046546936035e-01,2.835822701454162598e-01,2.835599780082702637e-01,2.835373282432556152e-01,2.835158705711364746e-01,2.834942936897277832e-01,2.834725379943847656e-01,2.834506034851074219e-01,2.834290564060211182e-01,2.834075093269348145e-01,2.833855152130126953e-01,2.833637893199920654e-01,2.833420932292938232e-01,2.833203673362731934e-01,2.832986116409301758e-01,2.832768559455871582e-01,2.832551598548889160e-01,2.832336127758026123e-01,2.832118272781372070e-01,2.831901907920837402e-01,2.831686735153198242e-01,2.831469178199768066e-01,2.831251025199890137e-01,2.831035256385803223e-01,2.830817699432373047e-01,2.830599844455718994e-01,2.830384373664855957e-01,2.830168306827545166e-01,2.829952239990234375e-01,2.829734683036804199e-01,2.829518914222717285e-01,2.829333543777465820e-01,2.828828692436218262e-01,2.828688323497772217e-01,2.828719019889831543e-01,2.829386293888092041e-01,2.826725244522094727e-01,2.824231386184692383e-01,2.807296812534332275e-01,2.780665457248687744e-01,2.750885486602783203e-01,2.746153473854064941e-01,2.740291357040405273e-01,2.760501205921173096e-01,2.768299579620361328e-01,2.784209549427032471e-01,2.795507311820983887e-01,2.803764045238494873e-01,2.791525125503540039e-01,2.754628062248229980e-01,2.716004848480224609e-01,2.657158374786376953e-01,2.635835409164428711e-01,2.591213583946228027e-01,2.503518462181091309e-01,2.547004222869873047e-01,2.773629724979400635e-01,3.029040694236755371e-01,3.616724610328674316e-01,3.878902494907379150e-01
4.091770350933074951e-01,3.324924111366271973e-01,3.159808516502380371e-01,2.799515128135681152e-01,2.584246098995208740e-01,2.558336853981018066e-01,2.600274980068206787e-01,2.610209584236145020e-01,2.617940902709960938e-01,2.617090344429016113e-01,2.616682648658752441e-01,2.616457343101501465e-01,2.616258859634399414e-01,2.616102099418640137e-01,2.615936994552612305e-01,2.615764737129211426e-01,2.615604996681213379e-01,2.615451216697692871e-01,2.615275979042053223e-01,2.615100741386413574e-01,2.614937424659729004e-01,2.614780366420745850e-01,2.614617347717285156e-01,2.614451646804809570e-01,2.614289522171020508e-01,2.614125609397888184e-01,2.613958120346069336e-01,2.613793015480041504e-01,2.613627016544342041e-01,2.613462805747985840e-01,2.613297104835510254e-01,2.613130509853363037e-01,2.612964510917663574e-01,2.612800002098083496e-01,2.612635493278503418e-01,2.612470388412475586e-01,2.612305283546447754e-01,2.612139582633972168e-01,2.611974477767944336e-01,2.611810266971588135e-01,2.611643970012664795e-01,2.611480057239532471e-01,2.611314058303833008e-01,2.611151039600372314e-01,2.610984444618225098e-01,2.610817849636077881e-01,2.610655426979064941e-01,2.610491514205932617e-01,2.610326409339904785e-01,2.610159218311309814e-01,2.609996199607849121e-01,2.609869539737701416e-01,2.609574794769287109e-01,2.609159946441650391e-01,2.609165310859680176e-01,2.609568536281585693e-01,2.607275545597076416e-01,2.607442736625671387e-01,2.602460980415344238e-01,2.590253949165344238e-01,2.574233114719390869e-01,2.571635246276855469e-01,2.569567561149597168e-01,2.580277323722839355e-01,2.570913434028625488e-01,2.588967680931091309e-01,2.587210237979888916e-01,2.596960365772247314e-01,2.583924531936645508e-01,2.569635510444641113e-01,2.544201612472534180e-01,2.518611252307891846e-01,2.483515739440917969e-01,2.448216378688812256e-01,2.376986443996429443e-01,2.394317388534545898e-01,2.659685611724853516e-01,2.898015379905700684e-01,3.508337140083312988e-01,3.812492787837982178e-01
3.991106748580932617e-01,3.188928365707397461e-01,2.997283339500427246e-01,2.643890082836151123e-01,2.423059940338134766e-01,2.394184172153472900e-01,2.430787086486816406e-01,2.439692318439483643e-01,2.446604371070861816e-01,2.445971071720123291e-01,2.445644438266754150e-01,2.445495724678039551e-01,2.445349097251892090e-01,2.445209026336669922e-01,2.445065081119537354e-01,2.444919943809509277e-01,2.444783151149749756e-01,2.444650232791900635e-01,2.444513142108917236e-01,2.444378435611724854e-01,2.444251179695129395e-01,2.444122135639190674e-01,2.443995773792266846e-01,2.443863749504089355e-01,2.443737387657165527e-01,2.443606257438659668e-01,2.443477213382720947e-01,2.443349063396453857e-01,2.443219423294067383e-01,2.443089485168457031e-01,2.442958652973175049e-01,2.442831695079803467e-01,2.442700862884521484e-01,2.442570924758911133e-01,2.442442178726196289e-01,2.442314326763153076e-01,2.442184090614318848e-01,2.442052960395812988e-01,2.441924214363098145e-01,2.441794872283935547e-01,2.441667318344116211e-01,2.441537082195281982e-01,2.441406250000000000e-01,2.441277205944061279e-01,2.441149652004241943e-01,2.441019713878631592e-01,2.440891265869140625e-01,2.440763115882873535e-01,2.440632581710815430e-01,2.440502941608428955e-01,2.440375089645385742e-01,2.440283596515655518e-01,2.440106570720672607e-01,2.439926564693450928e-01,2.439810931682586670e-01,2.440103888511657715e-01,2.438599765300750732e-01,2.440741360187530518e-01,2.438915073871612549e-01,2.435283362865447998e-01,2.423427402973175049e-01,2.423157393932342529e-01,2.420129477977752686e-01,2.431792020797729492e-01,2.426835894584655762e-01,2.428141832351684570e-01,2.432049512863159180e-01,2.432915866374969482e-01,2.432045042514801025e-01,2.419690191745758057e-01,2.414876222610473633e-01,2.383035421371459961e-01,2.372049391269683838e-01,2.348538041114807129e-01,2.273399829864501953e-01,2.296375930309295654e-01,2.535449862480163574e-01,2.793630361557006836e-01,3.412129580974578857e-01,3.760257959365844727e-01
3.908094167709350586e-01,3.077790737152099609e-01,2.866284847259521484e-01,2.519685626029968262e-01,2.295330166816711426e-01,2.264055609703063965e-01,2.296716570854187012e-01,2.304616570472717285e-01,2.310832440853118896e-01,2.310285270214080811e-01,2.310016155242919922e-01,2.309908568859100342e-01,2.309804260730743408e-01,2.309702932834625244e-01,2.309597730636596680e-01,2.309494614601135254e-01,2.309390306472778320e-01,2.309286296367645264e-01,2.309181690216064453e-01,2.309075295925140381e-01,2.308973968029022217e-01,2.308869063854217529e-01,2.308763563632965088e-01,2.308658957481384277e-01,2.308553755283355713e-01,2.308451235294342041e-01,2.308348417282104492e-01,2.308244407176971436e-01,2.308138608932495117e-01,2.308035790920257568e-01,2.307932078838348389e-01,2.307828068733215332e-01,2.307724654674530029e-01,2.307620644569396973e-01,2.307516336441040039e-01,2.307413816452026367e-01,2.307308614253997803e-01,2.307203114032745361e-01,2.307101786136627197e-01,2.306997776031494141e-01,2.306892275810241699e-01,2.306788861751556396e-01,2.306686043739318848e-01,2.306581139564514160e-01,2.306476831436157227e-01,2.306374907493591309e-01,2.306271791458129883e-01,2.306167185306549072e-01,2.306062579154968262e-01,2.305961847305297852e-01,2.305855453014373779e-01,2.305766940116882324e-01,2.305652201175689697e-01,2.305471301078796387e-01,2.305530905723571777e-01,2.305101752281188965e-01,2.304272949695587158e-01,2.305238544940948486e-01,2.305299043655395508e-01,2.303870916366577148e-01,2.299704253673553467e-01,2.296625375747680664e-01,2.297844886779785156e-01,2.299497723579406738e-01,2.302775681018829346e-01,2.302286028861999512e-01,2.302814126014709473e-01,2.301978468894958496e-01,2.302556633949279785e-01,2.298992276191711426e-01,2.295485138893127441e-01,2.284540534019470215e-01,2.276773154735565186e-01,2.259915173053741455e-01,2.180065214633941650e-01,2.213568389415740967e-01,2.445431053638458252e-01,2.696213722229003906e-01,3.336905241012573242e-01,3.707029521465301514e-01
3.838106393814086914e-01,2.985780835151672363e-01,2.758298516273498535e-01,2.418453395366668701e-01,2.191902995109558105e-01,2.158578038215637207e-01,2.188133895397186279e-01,2.195148468017578125e-01,2.200808525085449219e-01,2.200334370136260986e-01,2.200101613998413086e-01,2.200017869472503662e-01,2.199932634830474854e-01,2.199846804141998291e-01,2.199760973453521729e-01,2.199675738811492920e-01,2.199589908123016357e-01,2.199505269527435303e-01,2.199417948722839355e-01,2.199333310127258301e-01,2.199249863624572754e-01,2.199163138866424561e-01,2.199076414108276367e-01,2.198992371559143066e-01,2.198906838893890381e-01,2.198822796344757080e-01,2.198736369609832764e-01,2.198648154735565186e-01,2.198566794395446777e-01,2.198481857776641846e-01,2.198397517204284668e-01,2.198312282562255859e-01,2.198225855827331543e-01,2.198140025138854980e-01,2.198054492473602295e-01,2.197969257831573486e-01,2.197886407375335693e-01,2.197800576686859131e-01,2.197712659835815430e-01,2.197626531124114990e-01,2.197544872760772705e-01,2.197459936141967773e-01,2.197373807430267334e-01,2.197289168834686279e-01,2.197205424308776855e-01,2.197118997573852539e-01,2.197034358978271484e-01,2.196949720382690430e-01,2.196865081787109375e-01,2.196778953075408936e-01,2.196694314479827881e-01,2.196617126464843750e-01,2.196530103683471680e-01,2.196457087993621826e-01,2.196348607540130615e-01,2.196242809295654297e-01,2.196165323257446289e-01,2.196221053600311279e-01,2.196084856986999512e-01,2.196783125400543213e-01,2.194863259792327881e-01,2.193578779697418213e-01,2.192323803901672363e-01,2.193896174430847168e-01,2.193105220794677734e-01,2.195442914962768555e-01,2.195965945720672607e-01,2.194362282752990723e-01,2.195380330085754395e-01,2.195299565792083740e-01,2.188296616077423096e-01,2.186766862869262695e-01,2.187277078628540039e-01,2.175432741641998291e-01,2.110817432403564453e-01,2.137937545776367188e-01,2.368885278701782227e-01,2.629817128181457520e-01,3.271046876907348633e-01,3.665931224822998047e-01
3.778373301029205322e-01,2.908441424369812012e-01,2.668071389198303223e-01,2.334588766098022461e-01,2.106584310531616211e-01,2.071487307548522949e-01,2.098526358604431152e-01,2.104761302471160889e-01,2.109937369823455811e-01,2.109517157077789307e-01,2.109316587448120117e-01,2.109246551990509033e-01,2.109173536300659180e-01,2.109103798866271973e-01,2.109030187129974365e-01,2.108961343765258789e-01,2.108890414237976074e-01,2.108818888664245605e-01,2.108748257160186768e-01,2.108675539493560791e-01,2.108605802059173584e-01,2.108533680438995361e-01,2.108462452888488770e-01,2.108390331268310547e-01,2.108320593833923340e-01,2.108248472213745117e-01,2.108178436756134033e-01,2.108107209205627441e-01,2.108035981655120850e-01,2.107964456081390381e-01,2.107894718647003174e-01,2.107824683189392090e-01,2.107753455638885498e-01,2.107681334018707275e-01,2.107609808444976807e-01,2.107539772987365723e-01,2.107468247413635254e-01,2.107399106025695801e-01,2.107326090335845947e-01,2.107255756855010986e-01,2.107184827327728271e-01,2.107115089893341064e-01,2.107043266296386719e-01,2.106974124908447266e-01,2.106902003288269043e-01,2.106831073760986328e-01,2.106761634349822998e-01,2.106690406799316406e-01,2.106618583202362061e-01,2.106546163558959961e-01,2.106475234031677246e-01,2.106407284736633301e-01,2.106340229511260986e-01,2.106262147426605225e-01,2.106184065341949463e-01,2.106126248836517334e-01,2.105993926525115967e-01,2.105747163295745850e-01,2.106006443500518799e-01,2.105816006660461426e-01,2.105493843555450439e-01,2.105090618133544922e-01,2.105076909065246582e-01,2.104012668132781982e-01,2.105689346790313721e-01,2.105020284652709961e-01,2.104652225971221924e-01,2.105347812175750732e-01,2.105685770511627197e-01,2.104156315326690674e-01,2.104868590831756592e-01,2.101815938949584961e-01,2.102744579315185547e-01,2.096752822399139404e-01,2.028839588165283203e-01,2.062678337097167969e-01,2.292587161064147949e-01,2.561810612678527832e-01,3.218072950839996338e-01,3.627120256423950195e-01
3.726802468299865723e-01,2.842510938644409180e-01,2.591617703437805176e-01,2.263993024826049805e-01,2.035070359706878662e-01,1.998422145843505859e-01,2.023394703865051270e-01,2.028945088386535645e-01,2.033706605434417725e-01,2.033333480358123779e-01,2.033155858516693115e-01,2.033098340034484863e-01,2.033038735389709473e-01,2.032979130744934082e-01,2.032918632030487061e-01,2.032859623432159424e-01,2.032798230648040771e-01,2.032737433910369873e-01,2.032676339149475098e-01,2.032617330551147461e-01,2.032558321952819824e-01,2.032496333122253418e-01,2.032435238361358643e-01,2.032377123832702637e-01,2.032316923141479492e-01,2.032258212566375732e-01,2.032195627689361572e-01,2.032138109207153320e-01,2.032078504562377930e-01,2.032018601894378662e-01,2.031956911087036133e-01,2.031897008419036865e-01,2.031835317611694336e-01,2.031776010990142822e-01,2.031717002391815186e-01,2.031656503677368164e-01,2.031597793102264404e-01,2.031535804271697998e-01,2.031476795673370361e-01,2.031415700912475586e-01,2.031357288360595703e-01,2.031298577785491943e-01,2.031235694885253906e-01,2.031177580356597900e-01,2.031117379665374756e-01,2.031057178974151611e-01,2.030996084213256836e-01,2.030937969684600830e-01,2.030878067016601562e-01,2.030819058418273926e-01,2.030756175518035889e-01,2.030698955059051514e-01,2.030640542507171631e-01,2.030581235885620117e-01,2.030518054962158203e-01,2.030457258224487305e-01,2.030380666255950928e-01,2.030320763587951660e-01,2.030374109745025635e-01,2.030292451381683350e-01,2.030374407768249512e-01,2.030105590820312500e-01,2.029944062232971191e-01,2.029962837696075439e-01,2.029612660408020020e-01,2.029826939105987549e-01,2.029773890972137451e-01,2.029562294483184814e-01,2.029582262039184570e-01,2.029846012592315674e-01,2.028852999210357666e-01,2.028832137584686279e-01,2.030773758888244629e-01,2.026209533214569092e-01,1.967012882232666016e-01,1.997238397598266602e-01,2.223845720291137695e-01,2.496064305305480957e-01,3.154925704002380371e-01,3.591301739215850830e-01
3.681836426258087158e-01,2.785654962062835693e-01,2.526061534881591797e-01,2.203793823719024658e-01,1.974312663078308105e-01,1.936300396919250488e-01,1.959552764892578125e-01,1.964500844478607178e-01,1.968908309936523438e-01,1.968574821949005127e-01,1.968418657779693604e-01,1.968370079994201660e-01,1.968315541744232178e-01,1.968263685703277588e-01,1.968213319778442383e-01,1.968161761760711670e-01,1.968112587928771973e-01,1.968059241771697998e-01,1.968008577823638916e-01,1.967955529689788818e-01,1.967903375625610352e-01,1.967852711677551270e-01,1.967802643775939941e-01,1.967750489711761475e-01,1.967699527740478516e-01,1.967648863792419434e-01,1.967596411705017090e-01,1.967546045780181885e-01,1.967493891716003418e-01,1.967442631721496582e-01,1.967391669750213623e-01,1.967339217662811279e-01,1.967287957668304443e-01,1.967235207557678223e-01,1.967184245586395264e-01,1.967135369777679443e-01,1.967084109783172607e-01,1.967031657695770264e-01,1.966980397701263428e-01,1.966929137706756592e-01,1.966878771781921387e-01,1.966825425624847412e-01,1.966775357723236084e-01,1.966724395751953125e-01,1.966672241687774658e-01,1.966620683670043945e-01,1.966570019721984863e-01,1.966519057750701904e-01,1.966468393802642822e-01,1.966418027877807617e-01,1.966366469860076904e-01,1.966316103935241699e-01,1.966265141963958740e-01,1.966212987899780273e-01,1.966160535812377930e-01,1.966109275817871094e-01,1.966054141521453857e-01,1.965999007225036621e-01,1.965956091880798340e-01,1.965920329093933105e-01,1.965859532356262207e-01,1.965820491313934326e-01,1.965757906436920166e-01,1.965705156326293945e-01,1.965678334236145020e-01,1.965588331222534180e-01,1.965517401695251465e-01,1.965516805648803711e-01,1.965599954128265381e-01,1.965442895889282227e-01,1.965539753437042236e-01,1.964594423770904541e-01,1.966814696788787842e-01,1.963827908039093018e-01,1.905874311923980713e-01,1.939417719841003418e-01,2.164581716060638428e-01,2.440362870693206787e-01,3.106253445148468018e-01,3.558987379074096680e-01
3.642289638519287109e-01,2.736127972602844238e-01,2.469267249107360840e-01,2.151880264282226562e-01,1.922093927860260010e-01,1.882876753807067871e-01,1.904673576354980469e-01,1.909093260765075684e-01,1.913195550441741943e-01,1.912892460823059082e-01,1.912752985954284668e-01,1.912706494331359863e-01,1.912664175033569336e-01,1.912619471549987793e-01,1.912574768066406250e-01,1.912530362606048584e-01,1.912488043308258057e-01,1.912440359592437744e-01,1.912397742271423340e-01,1.912352442741394043e-01,1.912308931350708008e-01,1.912262737751007080e-01,1.912219226360321045e-01,1.912174820899963379e-01,1.912131309509277344e-01,1.912086308002471924e-01,1.912041306495666504e-01,1.911998689174652100e-01,1.911953687667846680e-01,1.911908686161041260e-01,1.911864280700683594e-01,1.911820471286773682e-01,1.911775469779968262e-01,1.911730170249938965e-01,1.911685466766357422e-01,1.911642551422119141e-01,1.911598443984985352e-01,1.911552250385284424e-01,1.911507546901702881e-01,1.911463737487792969e-01,1.911421418190002441e-01,1.911376118659973145e-01,1.911332309246063232e-01,1.911288201808929443e-01,1.911243498325347900e-01,1.911200582981109619e-01,1.911154389381408691e-01,1.911111176013946533e-01,1.911067962646484375e-01,1.911022365093231201e-01,1.910979747772216797e-01,1.910933554172515869e-01,1.910890042781829834e-01,1.910843253135681152e-01,1.910801529884338379e-01,1.910756826400756836e-01,1.910709738731384277e-01,1.910665929317474365e-01,1.910620331764221191e-01,1.910580694675445557e-01,1.910534501075744629e-01,1.910493373870849609e-01,1.910456717014312744e-01,1.910409033298492432e-01,1.910364329814910889e-01,1.910321414470672607e-01,1.910271644592285156e-01,1.910209655761718750e-01,1.910198330879211426e-01,1.910148561000823975e-01,1.910099983215332031e-01,1.909858584403991699e-01,1.911946535110473633e-01,1.909408569335937500e-01,1.855159997940063477e-01,1.888301074504852295e-01,2.111162841320037842e-01,2.389909029006958008e-01,3.059468865394592285e-01,3.529405593872070312e-01
3.607222437858581543e-01,2.692639529705047607e-01,2.419604659080505371e-01,2.106672823429107666e-01,1.876752972602844238e-01,1.836442649364471436e-01,1.856968402862548828e-01,1.860917806625366211e-01,1.864752769470214844e-01,1.864477694034576416e-01,1.864350736141204834e-01,1.864311099052429199e-01,1.864273846149444580e-01,1.864233613014221191e-01,1.864195764064788818e-01,1.864157617092132568e-01,1.864118278026580811e-01,1.864079833030700684e-01,1.864040791988372803e-01,1.864003241062164307e-01,1.863962113857269287e-01,1.863925158977508545e-01,1.863887012004852295e-01,1.863846182823181152e-01,1.863806247711181641e-01,1.863769292831420898e-01,1.863732039928436279e-01,1.863692104816436768e-01,1.863653659820556641e-01,1.863615810871124268e-01,1.863574981689453125e-01,1.863536536693572998e-01,1.863498091697692871e-01,1.863459944725036621e-01,1.863420009613037109e-01,1.863380372524261475e-01,1.863343417644500732e-01,1.863304078578948975e-01,1.863266229629516602e-01,1.863226592540740967e-01,1.863188743591308594e-01,1.863150298595428467e-01,1.863108873367309570e-01,1.863071024417877197e-01,1.863032877445220947e-01,1.862994730472564697e-01,1.862954497337341309e-01,1.862916350364685059e-01,1.862878203392028809e-01,1.862841248512268066e-01,1.862802803516387939e-01,1.862762570381164551e-01,1.862726807594299316e-01,1.862684190273284912e-01,1.862646639347076416e-01,1.862607002258300781e-01,1.862568855285644531e-01,1.862531900405883789e-01,1.862493157386779785e-01,1.862453818321228027e-01,1.862414777278900146e-01,1.862374842166900635e-01,1.862338781356811523e-01,1.862301230430603027e-01,1.862261295318603516e-01,1.862221062183380127e-01,1.862182021141052246e-01,1.862142980098724365e-01,1.862097382545471191e-01,1.862072050571441650e-01,1.862012743949890137e-01,1.861783266067504883e-01,1.863541007041931152e-01,1.861633658409118652e-01,1.809782385826110840e-01,1.842970252037048340e-01,2.064164280891418457e-01,2.345726191997528076e-01,3.019055128097534180e-01,3.503385186195373535e-01
3.576374053955078125e-01,2.654603123664855957e-01,2.376330494880676270e-01,2.067418396472930908e-01,1.837371885776519775e-01,1.796101927757263184e-01,1.815581321716308594e-01,1.819112598896026611e-01,1.822716295719146729e-01,1.822464764118194580e-01,1.822345256805419922e-01,1.822313368320465088e-01,1.822278499603271484e-01,1.822243928909301758e-01,1.822211146354675293e-01,1.822175383567810059e-01,1.822140514850616455e-01,1.822105348110198975e-01,1.822072267532348633e-01,1.822038888931274414e-01,1.822004020214080811e-01,1.821970045566558838e-01,1.821937263011932373e-01,1.821902096271514893e-01,1.821870207786560059e-01,1.821835041046142578e-01,1.821798980236053467e-01,1.821766495704650879e-01,1.821732223033905029e-01,1.821697652339935303e-01,1.821663081645965576e-01,1.821629405021667480e-01,1.821595430374145508e-01,1.821561157703399658e-01,1.821529269218444824e-01,1.821492612361907959e-01,1.821457743644714355e-01,1.821425557136535645e-01,1.821390986442565918e-01,1.821356117725372314e-01,1.821323335170745850e-01,1.821289658546447754e-01,1.821254491806030273e-01,1.821220517158508301e-01,1.821185052394866943e-01,1.821153163909912109e-01,1.821118593215942383e-01,1.821084320545196533e-01,1.821052432060241699e-01,1.821016669273376465e-01,1.820983588695526123e-01,1.820949614048004150e-01,1.820914745330810547e-01,1.820882260799407959e-01,1.820846796035766602e-01,1.820812523365020752e-01,1.820779442787170410e-01,1.820744276046752930e-01,1.820712387561798096e-01,1.820675730705261230e-01,1.820642650127410889e-01,1.820609271526336670e-01,1.820574700832366943e-01,1.820540130138397217e-01,1.820506155490875244e-01,1.820473968982696533e-01,1.820440292358398438e-01,1.820404827594757080e-01,1.820370256900787354e-01,1.820335090160369873e-01,1.820293068885803223e-01,1.820080876350402832e-01,1.821667850017547607e-01,1.820159256458282471e-01,1.770401895046234131e-01,1.803431808948516846e-01,2.022840678691864014e-01,2.306701242923736572e-01,2.983122467994689941e-01,3.479960262775421143e-01
3.552458286285400391e-01,2.622940540313720703e-01,2.341431379318237305e-01,2.035855054855346680e-01,1.805848479270935059e-01,1.763869225978851318e-01,1.782718896865844727e-01,1.786172389984130859e-01,1.789576113224029541e-01,1.789329648017883301e-01,1.789224147796630859e-01,1.789193749427795410e-01,1.789162755012512207e-01,1.789132058620452881e-01,1.789102256298065186e-01,1.789073348045349121e-01,1.789041459560394287e-01,1.789010465145111084e-01,1.788980960845947266e-01,1.788950264453887939e-01,1.788920760154724121e-01,1.788890361785888672e-01,1.788859367370605469e-01,1.788828074932098389e-01,1.788798868656158447e-01,1.788769066333770752e-01,1.788738071918487549e-01,1.788707673549652100e-01,1.788675785064697266e-01,1.788645982742309570e-01,1.788614690303802490e-01,1.788586676120758057e-01,1.788555681705474854e-01,1.788524389266967773e-01,1.788495481014251709e-01,1.788463890552520752e-01,1.788434684276580811e-01,1.788402497768402100e-01,1.788374185562133789e-01,1.788343787193298340e-01,1.788314878940582275e-01,1.788280904293060303e-01,1.788254678249359131e-01,1.788221299648284912e-01,1.788191497325897217e-01,1.788160800933837891e-01,1.788131594657897949e-01,1.788100302219390869e-01,1.788071095943450928e-01,1.788039505481719971e-01,1.788011491298675537e-01,1.787980198860168457e-01,1.787949502468109131e-01,1.787919998168945312e-01,1.787889301776885986e-01,1.787859201431274414e-01,1.787826716899871826e-01,1.787798702716827393e-01,1.787768602371215820e-01,1.787736415863037109e-01,1.787706613540649414e-01,1.787675619125366211e-01,1.787647604942321777e-01,1.787615716457366943e-01,1.787585020065307617e-01,1.787554919719696045e-01,1.787525117397308350e-01,1.787495017051696777e-01,1.787465512752532959e-01,1.787434816360473633e-01,1.787396669387817383e-01,1.787209212779998779e-01,1.788688004016876221e-01,1.787453889846801758e-01,1.739441156387329102e-01,1.772521436214447021e-01,1.989190280437469482e-01,2.273617982864379883e-01,2.952046394348144531e-01,3.462706804275512695e-01
3.522582650184631348e-01,2.585260272026062012e-01,2.300034761428833008e-01,1.997266411781311035e-01,1.766579747200012207e-01,1.722870767116546631e-01,1.739266812801361084e-01,1.741952300071716309e-01,1.744950413703918457e-01,1.744748055934906006e-01,1.744652092456817627e-01,1.744625270366668701e-01,1.744599342346191406e-01,1.744572520256042480e-01,1.744545996189117432e-01,1.744518876075744629e-01,1.744493544101715088e-01,1.744467616081237793e-01,1.744437813758850098e-01,1.744412183761596680e-01,1.744385957717895508e-01,1.744360029697418213e-01,1.744332611560821533e-01,1.744306385517120361e-01,1.744281351566314697e-01,1.744253039360046387e-01,1.744227409362792969e-01,1.744200587272644043e-01,1.744172871112823486e-01,1.744146645069122314e-01,1.744120717048645020e-01,1.744093298912048340e-01,1.744068264961242676e-01,1.744039654731750488e-01,1.744013130664825439e-01,1.743987798690795898e-01,1.743960976600646973e-01,1.743935942649841309e-01,1.743909716606140137e-01,1.743882894515991211e-01,1.743855476379394531e-01,1.743828952312469482e-01,1.743800044059753418e-01,1.743776500225067139e-01,1.743747591972351074e-01,1.743721961975097656e-01,1.743694841861724854e-01,1.743669509887695312e-01,1.743641793727874756e-01,1.743616461753845215e-01,1.743590235710144043e-01,1.743562519550323486e-01,1.743534207344055176e-01,1.743510067462921143e-01,1.743483543395996094e-01,1.743455827236175537e-01,1.743430495262145996e-01,1.743403673171997070e-01,1.743377149105072021e-01,1.743350028991699219e-01,1.743322610855102539e-01,1.743297576904296875e-01,1.743271052837371826e-01,1.743245720863342285e-01,1.743218004703521729e-01,1.743191480636596680e-01,1.743165552616119385e-01,1.743140518665313721e-01,1.743111014366149902e-01,1.743085086345672607e-01,1.743053793907165527e-01,1.742875277996063232e-01,1.744302809238433838e-01,1.743086278438568115e-01,1.696802377700805664e-01,1.730752289295196533e-01,1.948008239269256592e-01,2.234540879726409912e-01,2.916891574859619141e-01,3.432702422142028809e-01
3.534522354602813721e-01,2.556053996086120605e-01,2.290334999561309814e-01,1.991981565952301025e-01,1.747832596302032471e-01,1.703471839427947998e-01,1.715837717056274414e-01,1.718491613864898682e-01,1.721445620059967041e-01,1.721245050430297852e-01,1.721161603927612305e-01,1.721138358116149902e-01,1.721115708351135254e-01,1.721091568470001221e-01,1.721067428588867188e-01,1.721044480800628662e-01,1.721019744873046875e-01,1.720996201038360596e-01,1.720972657203674316e-01,1.720949709415435791e-01,1.720925271511077881e-01,1.720901429653167725e-01,1.720876395702362061e-01,1.720853447914123535e-01,1.720830798149108887e-01,1.720807552337646484e-01,1.720783114433288574e-01,1.720758378505706787e-01,1.720735430717468262e-01,1.720712482929229736e-01,1.720686852931976318e-01,1.720662415027618408e-01,1.720640659332275391e-01,1.720616519451141357e-01,1.720592975616455078e-01,1.720570325851440430e-01,1.720544993877410889e-01,1.720521450042724609e-01,1.720498502254486084e-01,1.720475554466247559e-01,1.720451712608337402e-01,1.720426380634307861e-01,1.720402538776397705e-01,1.720379889011383057e-01,1.720355451107025146e-01,1.720331311225891113e-01,1.720307767391204834e-01,1.720285415649414062e-01,1.720261573791503906e-01,1.720236241817474365e-01,1.720212996006011963e-01,1.720189750194549561e-01,1.720166802406311035e-01,1.720142662525177002e-01,1.720118224620819092e-01,1.720095574855804443e-01,1.720070838928222656e-01,1.720047891139984131e-01,1.720024943351745605e-01,1.720000207424163818e-01,1.719975769519805908e-01,1.719955503940582275e-01,1.719929277896881104e-01,1.719906628131866455e-01,1.719883084297180176e-01,1.719858646392822266e-01,1.719835698604583740e-01,1.719812154769897461e-01,1.719787716865539551e-01,1.719764173030853271e-01,1.719741821289062500e-01,1.719540059566497803e-01,1.720590591430664062e-01,1.720517277717590332e-01,1.679019033908843994e-01,1.713128685951232910e-01,1.922455132007598877e-01,2.205625474452972412e-01,2.916402220726013184e-01,3.415900468826293945e-01
3.557898998260498047e-01,2.536364495754241943e-01,2.169759869575500488e-01,1.914370357990264893e-01,1.698947846889495850e-01,1.649756431579589844e-01,1.661606132984161377e-01,1.664637923240661621e-01,1.667149662971496582e-01,1.666951179504394531e-01,1.666879951953887939e-01,1.666859388351440430e-01,1.666839122772216797e-01,1.666816771030426025e-01,1.666796803474426270e-01,1.666776239871978760e-01,1.666757166385650635e-01,1.666736304759979248e-01,1.666714549064636230e-01,1.666695177555084229e-01,1.666674613952636719e-01,1.666651368141174316e-01,1.666633784770965576e-01,1.666612923145294189e-01,1.666592359542846680e-01,1.666571199893951416e-01,1.666551828384399414e-01,1.666531860828399658e-01,1.666512489318847656e-01,1.666489541530609131e-01,1.666471660137176514e-01,1.666448712348937988e-01,1.666428148746490479e-01,1.666409075260162354e-01,1.666388511657714844e-01,1.666366755962371826e-01,1.666346192359924316e-01,1.666326224803924561e-01,1.666304767131805420e-01,1.666286885738372803e-01,1.666263937950134277e-01,1.666245162487030029e-01,1.666224300861358643e-01,1.666203737258911133e-01,1.666184365749359131e-01,1.666163802146911621e-01,1.666143238544464111e-01,1.666122078895568848e-01,1.666100919246673584e-01,1.666081845760345459e-01,1.666062772274017334e-01,1.666041016578674316e-01,1.666019856929779053e-01,1.666000187397003174e-01,1.665979027748107910e-01,1.665958166122436523e-01,1.665937602519989014e-01,1.665920019149780273e-01,1.665898859500885010e-01,1.665879189968109131e-01,1.665857434272766113e-01,1.665836870670318604e-01,1.665816903114318848e-01,1.665796637535095215e-01,1.665776968002319336e-01,1.665755510330200195e-01,1.665734350681304932e-01,1.665716171264648438e-01,1.665695011615753174e-01,1.665674149990081787e-01,1.665670275688171387e-01,1.665430366992950439e-01,1.666106581687927246e-01,1.667928099632263184e-01,1.623808741569519043e-01,1.654348969459533691e-01,1.886166334152221680e-01,2.108096480369567871e-01,2.860368490219116211e-01,3.337818384170532227e-01
3.380684852600097656e-01,2.402381598949432373e-01,2.027126550674438477e-01,1.804867982864379883e-01,1.658503115177154541e-01,1.592120826244354248e-01,1.592746376991271973e-01,1.594828069210052490e-01,1.597139239311218262e-01,1.596968770027160645e-01,1.596917212009429932e-01,1.596902012825012207e-01,1.596884727478027344e-01,1.596869230270385742e-01,1.596850454807281494e-01,1.596834361553192139e-01,1.596817970275878906e-01,1.596801280975341797e-01,1.596784889698028564e-01,1.596768498420715332e-01,1.596751213073730469e-01,1.596735417842864990e-01,1.596719920635223389e-01,1.596703231334686279e-01,1.596685349941253662e-01,1.596669554710388184e-01,1.596653163433074951e-01,1.596635878086090088e-01,1.596621870994567871e-01,1.596605181694030762e-01,1.596589088439941406e-01,1.596571803092956543e-01,1.596554815769195557e-01,1.596537828445434570e-01,1.596520245075225830e-01,1.596504449844360352e-01,1.596488058567047119e-01,1.596471369266510010e-01,1.596454679965972900e-01,1.596438288688659668e-01,1.596421897411346436e-01,1.596405804157257080e-01,1.596389710903167725e-01,1.596373319625854492e-01,1.596357226371765137e-01,1.596338748931884766e-01,1.596323251724243164e-01,1.596306562423706055e-01,1.596289575099945068e-01,1.596273779869079590e-01,1.596257686614990234e-01,1.596241891384124756e-01,1.596224606037139893e-01,1.596208512783050537e-01,1.596191525459289551e-01,1.596174836158752441e-01,1.596159934997558594e-01,1.596141159534454346e-01,1.596125364303588867e-01,1.596109569072723389e-01,1.596092879772186279e-01,1.596077680587768555e-01,1.596060395240783691e-01,1.596044301986694336e-01,1.596026122570037842e-01,1.596011817455291748e-01,1.595995426177978516e-01,1.595979034900665283e-01,1.595962941646575928e-01,1.595945954322814941e-01,1.595929265022277832e-01,1.595649719238281250e-01,1.596042811870574951e-01,1.598356962203979492e-01,1.557653546333312988e-01,1.533354222774505615e-01,1.688705086708068848e-01,2.049824893474578857e-01,2.839689850807189941e-01,3.553455770015716553e-01
3.297489285469055176e-01,2.279990613460540771e-01,1.979698836803436279e-01,1.790181696414947510e-01,1.636391878128051758e-01,1.572909653186798096e-01,1.598439812660217285e-01,1.601184606552124023e-01,1.602990031242370605e-01,1.602832376956939697e-01,1.602791845798492432e-01,1.602778136730194092e-01,1.602764725685119629e-01,1.602751016616821289e-01,1.602737009525299072e-01,1.602722108364105225e-01,1.602708101272583008e-01,1.602693498134613037e-01,1.602679789066314697e-01,1.602665781974792480e-01,1.602650880813598633e-01,1.602636575698852539e-01,1.602621972560882568e-01,1.602607965469360352e-01,1.602591574192047119e-01,1.602578163146972656e-01,1.602562963962554932e-01,1.602549552917480469e-01,1.602535545825958252e-01,1.602520942687988281e-01,1.602506935596466064e-01,1.602492332458496094e-01,1.602479517459869385e-01,1.602464318275451660e-01,1.602448821067810059e-01,1.602434813976287842e-01,1.602419912815093994e-01,1.602406203746795654e-01,1.602391898632049561e-01,1.602379381656646729e-01,1.602363586425781250e-01,1.602350175380706787e-01,1.602336466312408447e-01,1.602321267127990723e-01,1.602307260036468506e-01,1.602292358875274658e-01,1.602277159690856934e-01,1.602263748645782471e-01,1.602250039577484131e-01,1.602234840393066406e-01,1.602223217487335205e-01,1.602207422256469727e-01,1.602192819118499756e-01,1.602177321910858154e-01,1.602162420749664307e-01,1.602149009704589844e-01,1.602134108543395996e-01,1.602120697498321533e-01,1.602105200290679932e-01,1.602091193199157715e-01,1.602077782154083252e-01,1.602063775062561035e-01,1.602047979831695557e-01,1.602033376693725586e-01,1.602020561695098877e-01,1.602006554603576660e-01,1.601991951465606689e-01,1.601977646350860596e-01,1.601964533329010010e-01,1.601948738098144531e-01,1.601960659027099609e-01,1.601744294166564941e-01,1.602483391761779785e-01,1.604149639606475830e-01,1.554423570632934570e-01,1.561042964458465576e-01,1.747395694255828857e-01,1.962416768074035645e-01,3.100823462009429932e-01,3.704557418823242188e-01
3.673302233219146729e-01,2.730020880699157715e-01,2.366621792316436768e-01,1.968864798545837402e-01,1.776399612426757812e-01,1.728611290454864502e-01,1.740677356719970703e-01,1.743156909942626953e-01,1.744402050971984863e-01,1.744307279586791992e-01,1.744283735752105713e-01,1.744273900985717773e-01,1.744264960289001465e-01,1.744253337383270264e-01,1.744243502616882324e-01,1.744233965873718262e-01,1.744223237037658691e-01,1.744214594364166260e-01,1.744204461574554443e-01,1.744195818901062012e-01,1.744183301925659180e-01,1.744174957275390625e-01,1.744164228439331055e-01,1.744154095649719238e-01,1.744144856929779053e-01,1.744135022163391113e-01,1.744124889373779297e-01,1.744115948677062988e-01,1.744107007980346680e-01,1.744095087051391602e-01,1.744084954261779785e-01,1.744075417518615723e-01,1.744064390659332275e-01,1.744054853916168213e-01,1.744045615196228027e-01,1.744034886360168457e-01,1.744025647640228271e-01,1.744014620780944824e-01,1.744005084037780762e-01,1.743996441364288330e-01,1.743987500667572021e-01,1.743974685668945312e-01,1.743966639041900635e-01,1.743955612182617188e-01,1.743945777416229248e-01,1.743935942649841309e-01,1.743927299976348877e-01,1.743916273117065430e-01,1.743906140327453613e-01,1.743897199630737305e-01,1.743885874748229980e-01,1.743875443935394287e-01,1.743866205215454102e-01,1.743856966495513916e-01,1.743847429752349854e-01,1.743837594985961914e-01,1.743828058242797852e-01,1.743818223476409912e-01,1.743807792663574219e-01,1.743798255920410156e-01,1.743787527084350586e-01,1.743777990341186523e-01,1.743766963481903076e-01,1.743756532669067383e-01,1.743748188018798828e-01,1.743737757205963135e-01,1.743729710578918457e-01,1.743718981742858887e-01,1.743707656860351562e-01,1.743699610233306885e-01,1.743687391281127930e-01,1.743549704551696777e-01,1.744392514228820801e-01,1.744462251663208008e-01,1.704318523406982422e-01,1.741123497486114502e-01,1.803807616233825684e-01,1.959728300571441650e-01,2.897704839706420898e-01,3.657964468002319336e-01
3.785715997219085693e-01,3.069040179252624512e-01,2.609406113624572754e-01,2.302912771701812744e-01,2.096593081951141357e-01,2.076263129711151123e-01,2.071303725242614746e-01,2.072289288043975830e-01,2.073740363121032715e-01,2.073739171028137207e-01,2.073749303817749023e-01,2.073742151260375977e-01,2.073735892772674561e-01,2.073730528354644775e-01,2.073724567890167236e-01,2.073718607425689697e-01,2.073710560798645020e-01,2.073704004287719727e-01,2.073698043823242188e-01,2.073692083358764648e-01,2.073687016963958740e-01,2.073680162429809570e-01,2.073672711849212646e-01,2.073665559291839600e-01,2.073659300804138184e-01,2.073653042316436768e-01,2.073645889759063721e-01,2.073639333248138428e-01,2.073635160923004150e-01,2.073628604412078857e-01,2.073620855808258057e-01,2.073616087436676025e-01,2.073608636856079102e-01,2.073601782321929932e-01,2.073595821857452393e-01,2.073588669300079346e-01,2.073582708835601807e-01,2.073576748371124268e-01,2.073571383953094482e-01,2.073564529418945312e-01,2.073557674884796143e-01,2.073551118373870850e-01,2.073545753955841064e-01,2.073540985584259033e-01,2.073533236980438232e-01,2.073525488376617432e-01,2.073520421981811523e-01,2.073514163494110107e-01,2.073508203029632568e-01,2.073500752449035645e-01,2.073495090007781982e-01,2.073487639427185059e-01,2.073482573032379150e-01,2.073476314544677734e-01,2.073468267917633057e-01,2.073464393615722656e-01,2.073456048965454102e-01,2.073449790477752686e-01,2.073442935943603516e-01,2.073437869548797607e-01,2.073429822921752930e-01,2.073425054550170898e-01,2.073418200016021729e-01,2.073413729667663574e-01,2.073406279087066650e-01,2.073399722576141357e-01,2.073394656181335449e-01,2.073387205600738525e-01,2.073380947113037109e-01,2.073374986648559570e-01,2.073363065719604492e-01,2.073111534118652344e-01,2.072975635528564453e-01,2.073975801467895508e-01,2.048480808734893799e-01,2.087792456150054932e-01,2.079810202121734619e-01,2.248889207839965820e-01,2.848504781723022461e-01,3.590070307254791260e-01
