6.195639610290527566e-01,6.352766990661621316e-01,6.518070697784423828e-01,6.692207813262939231e-01,6.875904083251953569e-01,7.069952011108397993e-01,7.275269985198974387e-01,7.492868423461913618e-01,7.723885536193847434e-01,7.969600200653076394e-01,8.231462478637695535e-01,8.511118888854980469e-01,8.810444831848144309e-01,9.131591796875000444e-01,9.477036476135254350e-01,9.849644660949706809e-01,1.000000000000000000e+00,1.000000000000000000e+00,1.000000000000000000e+00,1.000000000000000000e+00,1.000000000000000000e+00,1.000000000000000000e+00,1.000000000000000000e+00,1.000000000000000000e+00,1.000000000000000000e+00,1.000000000000000000e+00,1.000000000000000000e+00,1.000000000000000000e+00,1.000000000000000000e+00,1.000000000000000000e+00,1.000000000000000000e+00,1.000000000000000000e+00,1.000000000000000000e+00,1.000000000000000000e+00,1.000000000000000000e+00,1.000000000000000000e+00,1.000000000000000000e+00,1.000000000000000000e+00,1.000000000000000000e+00,1.000000000000000000e+00,1.000000000000000000e+00,1.000000000000000000e+00,1.000000000000000000e+00,1.000000000000000000e+00,1.000000000000000000e+00,1.000000000000000000e+00,1.000000000000000000e+00,1.000000000000000000e+00,1.000000000000000000e+00,1.000000000000000000e+00,1.000000000000000000e+00,1.000000000000000000e+00,1.000000000000000000e+00,1.000000000000000000e+00,1.000000000000000000e+00,1.000000000000000000e+00,1.000000000000000000e+00,1.000000000000000000e+00,1.000000000000000000e+00,1.000000000000000000e+00,1.000000000000000000e+00,2.458475828170776367e-01,2.402446269989013672e-01,2.360429763793945312e-01,2.421371936798095703e-01,2.354732751846313477e-01,2.703563213348388894e-01,2.712587118148803711e-01,2.751733779907226674e-01,2.730383634567260520e-01,2.664321660995483398e-01,2.607750892639160156e-01,2.553211212158202903e-01,2.530288457870483176e-01,2.507146120071411244e-01,2.484423637390136830e-01,2.462109088897705134e-01,2.503991365432739480e-01,7.628299236297607644e-01,7.430499553680419700e-01
6.195507526397705522e-01,6.352628231048583762e-01,6.517924785614013228e-01,6.692053794860839400e-01,6.875741481781005859e-01,7.069797992706299272e-01,7.275107383728027788e-01,7.492696762084960493e-01,7.723702430725097878e-01,7.969406127929687944e-01,8.231255531311034712e-01,8.510896682739257368e-01,8.810206413269042747e-01,9.131336212158203125e-01,9.476761817932128906e-01,9.849349021911620872e-01,1.000000000000000000e+00,1.000000000000000000e+00,1.000000000000000000e+00,1.000000000000000000e+00,1.000000000000000000e+00,1.000000000000000000e+00,1.000000000000000000e+00,1.000000000000000000e+00,1.000000000000000000e+00,1.000000000000000000e+00,1.000000000000000000e+00,1.000000000000000000e+00,1.000000000000000000e+00,1.000000000000000000e+00,1.000000000000000000e+00,1.000000000000000000e+00,1.000000000000000000e+00,1.000000000000000000e+00,1.000000000000000000e+00,1.000000000000000000e+00,1.000000000000000000e+00,1.000000000000000000e+00,1.000000000000000000e+00,1.000000000000000000e+00,1.000000000000000000e+00,1.000000000000000000e+00,1.000000000000000000e+00,1.000000000000000000e+00,1.000000000000000000e+00,1.000000000000000000e+00,1.000000000000000000e+00,1.000000000000000000e+00,1.000000000000000000e+00,1.000000000000000000e+00,1.000000000000000000e+00,1.000000000000000000e+00,1.000000000000000000e+00,1.000000000000000000e+00,1.000000000000000000e+00,1.000000000000000000e+00,1.000000000000000000e+00,1.000000000000000000e+00,1.000000000000000000e+00,1.000000000000000000e+00,1.000000000000000000e+00,2.439335823059081976e-01,2.378401756286621094e-01,2.406450271606445368e-01,2.295375347137451061e-01,2.356023788452148438e-01,2.706760406494140847e-01,2.710941553115844838e-01,2.755427360534667969e-01,2.724424600601196289e-01,2.665423154830932617e-01,2.607975959777831809e-01,2.550975561141967662e-01,2.513768911361694558e-01,2.492817163467407338e-01,2.471482753753662109e-01,2.449399232864379883e-01,2.457075834274292103e-01,2.516062259674072266e-01,7.430653572082519531e-01
6.195375442504882368e-01,6.352488994598388672e-01,6.517778396606445090e-01,6.691899776458740678e-01,6.875578403472900613e-01,7.069625854492187500e-01,7.274944305419921431e-01,7.492525100708007368e-01,7.723520278930664507e-01,7.969212055206298384e-01,8.231048583984375000e-01,8.510675430297851562e-01,8.809969902038574663e-01,9.131081581115723100e-01,9.476487159729003462e-01,9.849051475524902566e-01,1.000000000000000000e+00,1.000000000000000000e+00,1.000000000000000000e+00,1.000000000000000000e+00,1.000000000000000000e+00,1.000000000000000000e+00,1.000000000000000000e+00,1.000000000000000000e+00,1.000000000000000000e+00,1.000000000000000000e+00,1.000000000000000000e+00,1.000000000000000000e+00,1.000000000000000000e+00,1.000000000000000000e+00,1.000000000000000000e+00,1.000000000000000000e+00,1.000000000000000000e+00,1.000000000000000000e+00,1.000000000000000000e+00,1.000000000000000000e+00,1.000000000000000000e+00,1.000000000000000000e+00,1.000000000000000000e+00,1.000000000000000000e+00,1.000000000000000000e+00,1.000000000000000000e+00,1.000000000000000000e+00,1.000000000000000000e+00,1.000000000000000000e+00,1.000000000000000000e+00,1.000000000000000000e+00,1.000000000000000000e+00,1.000000000000000000e+00,1.000000000000000000e+00,1.000000000000000000e+00,1.000000000000000000e+00,1.000000000000000000e+00,1.000000000000000000e+00,1.000000000000000000e+00,1.000000000000000000e+00,1.000000000000000000e+00,1.000000000000000000e+00,1.000000000000000000e+00,1.000000000000000000e+00,1.000000000000000000e+00,2.423055410385131780e-01,2.363189697265624944e-01,2.337972164154052679e-01,2.277368783950805553e-01,2.730744361877441295e-01,2.715278148651122936e-01,2.718799114227294922e-01,2.759740591049194558e-01,2.757440328598022572e-01,2.666489124298095925e-01,2.607147216796875111e-01,2.550131320953369363e-01,2.496188163757324108e-01,2.475527048110962025e-01,2.455204963684081976e-01,2.435214042663574330e-01,2.415348529815673773e-01,2.470325708389282116e-01,7.430801868438721147e-01
6.195243835449218972e-01,6.352350234985351118e-01,6.517632961273193137e-01,6.691745281219482200e-01,6.875416755676269087e-01,7.069453716278075728e-01,7.274762630462646706e-01,7.492352008819580522e-01,7.723338127136230025e-01,7.969017028808593750e-01,8.230840682983397993e-01,8.510454177856445757e-01,8.809731483459473100e-01,9.130825996398925781e-01,9.476211547851562944e-01,9.848754882812500444e-01,1.000000000000000000e+00,1.000000000000000000e+00,1.000000000000000000e+00,1.000000000000000000e+00,1.000000000000000000e+00,1.000000000000000000e+00,1.000000000000000000e+00,1.000000000000000000e+00,1.000000000000000000e+00,1.000000000000000000e+00,1.000000000000000000e+00,1.000000000000000000e+00,1.000000000000000000e+00,1.000000000000000000e+00,1.000000000000000000e+00,1.000000000000000000e+00,1.000000000000000000e+00,1.000000000000000000e+00,1.000000000000000000e+00,1.000000000000000000e+00,1.000000000000000000e+00,1.000000000000000000e+00,1.000000000000000000e+00,1.000000000000000000e+00,1.000000000000000000e+00,1.000000000000000000e+00,1.000000000000000000e+00,1.000000000000000000e+00,1.000000000000000000e+00,1.000000000000000000e+00,1.000000000000000000e+00,1.000000000000000000e+00,1.000000000000000000e+00,1.000000000000000000e+00,1.000000000000000000e+00,1.000000000000000000e+00,1.000000000000000000e+00,1.000000000000000000e+00,1.000000000000000000e+00,1.000000000000000000e+00,1.000000000000000000e+00,1.000000000000000000e+00,1.000000000000000000e+00,1.000000000000000000e+00,1.000000000000000000e+00,2.460757255554199274e-01,2.382599115371704102e-01,2.296447038650512584e-01,2.757673025131225364e-01,2.741453409194946067e-01,2.725423097610473744e-01,2.730973005294800027e-01,2.775365591049194225e-01,2.784883499145507924e-01,2.678655624389648660e-01,2.606319189071655273e-01,2.549287557601928600e-01,2.494296550750732533e-01,2.458475112915038951e-01,2.438526630401611217e-01,2.419470071792602650e-01,2.400708913803100697e-01,2.413211584091186634e-01,7.430949687957764116e-01
6.195111751556396928e-01,6.352211475372314675e-01,6.517486572265625000e-01,6.691591262817382368e-01,6.875253677368163840e-01,7.069282054901122603e-01,7.274580478668213335e-01,7.492158889770508257e-01,7.723155021667480469e-01,7.968823432922362837e-01,8.230633735656738281e-01,8.510231971740722656e-01,8.809494018554687722e-01,9.130570411682128462e-01,9.475937843322753684e-01,9.848458290100097212e-01,1.000000000000000000e+00,1.000000000000000000e+00,1.000000000000000000e+00,1.000000000000000000e+00,1.000000000000000000e+00,1.000000000000000000e+00,1.000000000000000000e+00,1.000000000000000000e+00,1.000000000000000000e+00,1.000000000000000000e+00,1.000000000000000000e+00,1.000000000000000000e+00,1.000000000000000000e+00,1.000000000000000000e+00,1.000000000000000000e+00,1.000000000000000000e+00,1.000000000000000000e+00,1.000000000000000000e+00,1.000000000000000000e+00,1.000000000000000000e+00,1.000000000000000000e+00,1.000000000000000000e+00,1.000000000000000000e+00,1.000000000000000000e+00,1.000000000000000000e+00,1.000000000000000000e+00,1.000000000000000000e+00,1.000000000000000000e+00,1.000000000000000000e+00,1.000000000000000000e+00,1.000000000000000000e+00,1.000000000000000000e+00,1.000000000000000000e+00,1.000000000000000000e+00,1.000000000000000000e+00,1.000000000000000000e+00,1.000000000000000000e+00,1.000000000000000000e+00,1.000000000000000000e+00,1.000000000000000000e+00,1.000000000000000000e+00,1.000000000000000000e+00,1.000000000000000000e+00,1.000000000000000000e+00,1.000000000000000000e+00,2.427185773849487305e-01,2.346440792083740179e-01,2.787976026535033958e-01,2.770951509475708119e-01,2.754203081130981445e-01,2.737656354904174916e-01,2.749217748641967773e-01,2.794259786605834961e-01,2.802517175674438255e-01,2.694151401519775391e-01,2.605491638183593528e-01,2.548444509506225808e-01,2.493489503860473744e-01,2.441933155059814453e-01,2.423616886138915960e-01,2.404791593551635631e-01,2.386256456375122070e-01,2.368005275726318415e-01,2.414567470550537109e-01
6.194979667663573775e-01,6.352072715759277122e-01,6.517340183258056863e-01,6.691437244415283647e-01,6.875091075897217241e-01,7.069109916687011941e-01,7.274398326873778853e-01,7.491965770721435991e-01,7.722949504852294478e-01,7.968628406524658203e-01,8.230426788330078569e-01,8.510010719299316850e-01,8.809257507324218528e-01,9.130315780639648438e-01,9.475662231445312056e-01,9.848160743713378906e-01,1.000000000000000000e+00,1.000000000000000000e+00,1.000000000000000000e+00,1.000000000000000000e+00,1.000000000000000000e+00,1.000000000000000000e+00,1.000000000000000000e+00,1.000000000000000000e+00,1.000000000000000000e+00,1.000000000000000000e+00,1.000000000000000000e+00,1.000000000000000000e+00,1.000000000000000000e+00,1.000000000000000000e+00,1.000000000000000000e+00,1.000000000000000000e+00,1.000000000000000000e+00,1.000000000000000000e+00,1.000000000000000000e+00,1.000000000000000000e+00,1.000000000000000000e+00,1.000000000000000000e+00,1.000000000000000000e+00,1.000000000000000000e+00,1.000000000000000000e+00,1.000000000000000000e+00,1.000000000000000000e+00,1.000000000000000000e+00,1.000000000000000000e+00,1.000000000000000000e+00,1.000000000000000000e+00,1.000000000000000000e+00,1.000000000000000000e+00,1.000000000000000000e+00,1.000000000000000000e+00,1.000000000000000000e+00,1.000000000000000000e+00,1.000000000000000000e+00,1.000000000000000000e+00,1.000000000000000000e+00,1.000000000000000000e+00,1.000000000000000000e+00,1.000000000000000000e+00,1.000000000000000000e+00,1.000000000000000000e+00,2.949610710144042747e-01,2.856932878494262695e-01,2.803344964981079324e-01,2.784903287887573464e-01,2.767986536026000866e-01,2.751274108886718750e-01,2.772464752197265625e-01,2.815000295639037975e-01,1.000000000000000000e+00,2.710752964019775280e-01,2.608790874481201061e-01,2.547601938247680553e-01,2.490109682083129772e-01,2.438798904418945368e-01,2.403039932250976562e-01,2.387969255447387751e-01,2.371977090835571400e-01,2.353942632675170843e-01,2.347556829452514537e-01
6.194847583770751731e-01,6.351934432983398215e-01,6.517194271087646262e-01,6.691283702850341353e-01,6.874928474426269531e-01,7.068938732147216353e-01,7.274216175079345481e-01,7.491773128509521262e-01,7.722744464874267134e-01,7.968410491943359597e-01,8.230219841003417747e-01,8.509789466857909934e-01,8.809019088745116965e-01,9.130061149597168413e-01,9.475387573242187722e-01,9.847864151000976785e-01,1.000000000000000000e+00,1.000000000000000000e+00,1.000000000000000000e+00,1.000000000000000000e+00,1.000000000000000000e+00,1.000000000000000000e+00,1.000000000000000000e+00,1.000000000000000000e+00,1.000000000000000000e+00,1.000000000000000000e+00,1.000000000000000000e+00,1.000000000000000000e+00,1.000000000000000000e+00,1.000000000000000000e+00,1.000000000000000000e+00,1.000000000000000000e+00,1.000000000000000000e+00,1.000000000000000000e+00,1.000000000000000000e+00,1.000000000000000000e+00,1.000000000000000000e+00,1.000000000000000000e+00,1.000000000000000000e+00,1.000000000000000000e+00,1.000000000000000000e+00,1.000000000000000000e+00,1.000000000000000000e+00,1.000000000000000000e+00,1.000000000000000000e+00,1.000000000000000000e+00,1.000000000000000000e+00,1.000000000000000000e+00,1.000000000000000000e+00,1.000000000000000000e+00,1.000000000000000000e+00,1.000000000000000000e+00,1.000000000000000000e+00,1.000000000000000000e+00,1.000000000000000000e+00,1.000000000000000000e+00,1.000000000000000000e+00,1.000000000000000000e+00,1.000000000000000000e+00,1.000000000000000000e+00,1.000000000000000000e+00,2.977632284164428711e-01,2.877098083496093528e-01,2.818884134292602428e-01,2.799393653869629017e-01,2.781908512115478516e-01,2.765027999877929799e-01,2.796108245849609486e-01,1.000000000000000000e+00,1.000000000000000000e+00,9.694010734558105025e-01,2.629075288772583230e-01,2.544062852859497181e-01,2.486201286315918024e-01,2.435672998428344838e-01,2.393056392669677679e-01,2.367098093032836970e-01,2.352473497390747126e-01,2.338028430938720592e-01,2.322492122650146595e-01
6.194715499877929688e-01,6.351795196533203125e-01,6.517047882080078125e-01,6.691129684448242632e-01,6.874765872955321822e-01,7.068766593933105691e-01,7.274034023284912109e-01,7.491580009460448997e-01,7.722538948059082253e-01,7.968192100524902344e-01,8.229986190795898215e-01,8.509567260742187944e-01,8.808781623840331587e-01,9.129805564880371094e-01,9.475113868713378462e-01,9.847567558288574663e-01,1.000000000000000000e+00,1.000000000000000000e+00,1.000000000000000000e+00,1.000000000000000000e+00,1.000000000000000000e+00,1.000000000000000000e+00,1.000000000000000000e+00,1.000000000000000000e+00,1.000000000000000000e+00,1.000000000000000000e+00,1.000000000000000000e+00,1.000000000000000000e+00,1.000000000000000000e+00,1.000000000000000000e+00,1.000000000000000000e+00,1.000000000000000000e+00,1.000000000000000000e+00,1.000000000000000000e+00,1.000000000000000000e+00,1.000000000000000000e+00,1.000000000000000000e+00,1.000000000000000000e+00,1.000000000000000000e+00,1.000000000000000000e+00,1.000000000000000000e+00,1.000000000000000000e+00,1.000000000000000000e+00,1.000000000000000000e+00,1.000000000000000000e+00,1.000000000000000000e+00,1.000000000000000000e+00,1.000000000000000000e+00,1.000000000000000000e+00,1.000000000000000000e+00,1.000000000000000000e+00,1.000000000000000000e+00,1.000000000000000000e+00,1.000000000000000000e+00,1.000000000000000000e+00,1.000000000000000000e+00,1.000000000000000000e+00,1.000000000000000000e+00,1.000000000000000000e+00,1.000000000000000000e+00,1.000000000000000000e+00,3.004393100738525502e-01,2.896972656249999778e-01,2.834596633911132812e-01,2.814888954162597656e-01,2.795971155166626088e-01,2.778920173645019753e-01,2.817230463027954324e-01,1.000000000000000000e+00,1.000000000000000000e+00,9.694263458251952681e-01,2.655857086181640514e-01,2.545480728149414062e-01,2.482305526733398493e-01,2.432554721832275446e-01,2.390046358108520452e-01,2.348997831344604437e-01,2.332215547561645452e-01,2.318017482757568359e-01,2.305020093917846680e-01
6.194583415985107644e-01,6.351656436920165572e-01,6.516901969909667525e-01,6.690975666046142800e-01,6.874603271484375222e-01,7.068594455718993919e-01,7.273851871490478738e-01,7.491386890411376731e-01,7.722333908081054910e-01,7.967973709106445090e-01,8.229753494262694868e-01,8.509318351745605025e-01,8.808545112609863503e-01,9.129550933837891069e-01,9.474838256835937944e-01,9.847270965576171431e-01,1.000000000000000000e+00,1.000000000000000000e+00,1.000000000000000000e+00,1.000000000000000000e+00,1.000000000000000000e+00,1.000000000000000000e+00,1.000000000000000000e+00,1.000000000000000000e+00,1.000000000000000000e+00,1.000000000000000000e+00,1.000000000000000000e+00,1.000000000000000000e+00,1.000000000000000000e+00,1.000000000000000000e+00,1.000000000000000000e+00,1.000000000000000000e+00,1.000000000000000000e+00,1.000000000000000000e+00,1.000000000000000000e+00,1.000000000000000000e+00,1.000000000000000000e+00,1.000000000000000000e+00,1.000000000000000000e+00,1.000000000000000000e+00,1.000000000000000000e+00,1.000000000000000000e+00,1.000000000000000000e+00,1.000000000000000000e+00,1.000000000000000000e+00,1.000000000000000000e+00,1.000000000000000000e+00,1.000000000000000000e+00,1.000000000000000000e+00,1.000000000000000000e+00,1.000000000000000000e+00,1.000000000000000000e+00,1.000000000000000000e+00,1.000000000000000000e+00,1.000000000000000000e+00,1.000000000000000000e+00,1.000000000000000000e+00,1.000000000000000000e+00,1.000000000000000000e+00,1.000000000000000000e+00,1.000000000000000000e+00,3.029615640640258567e-01,2.917123317718505748e-01,2.850485086441040261e-01,2.830556869506836160e-01,2.810905456542968639e-01,2.798470497131347878e-01,2.836634397506713756e-01,1.000000000000000000e+00,1.000000000000000000e+00,9.694515228271484153e-01,9.377267837524414507e-01,2.568974971771240123e-01,2.478421688079834040e-01,2.429444551467895563e-01,2.387043952941894642e-01,2.345643281936645452e-01,2.315633535385131780e-01,2.303961753845214788e-01,2.292407274246215931e-01
6.194451808929443137e-01,6.351517677307129128e-01,6.516756057739258035e-01,6.690821647644042969e-01,6.874441146850586160e-01,7.068422794342040794e-01,7.273670673370361550e-01,7.491193771362304465e-01,7.722129344940185103e-01,7.967754840850830300e-01,8.229520797729492632e-01,8.509069442749023215e-01,8.808279037475585938e-01,9.129296302795409934e-01,9.474563598632812500e-01,9.846975326538085493e-01,1.000000000000000000e+00,1.000000000000000000e+00,1.000000000000000000e+00,1.000000000000000000e+00,1.000000000000000000e+00,1.000000000000000000e+00,1.000000000000000000e+00,1.000000000000000000e+00,1.000000000000000000e+00,1.000000000000000000e+00,1.000000000000000000e+00,1.000000000000000000e+00,1.000000000000000000e+00,1.000000000000000000e+00,1.000000000000000000e+00,1.000000000000000000e+00,1.000000000000000000e+00,1.000000000000000000e+00,1.000000000000000000e+00,1.000000000000000000e+00,1.000000000000000000e+00,1.000000000000000000e+00,1.000000000000000000e+00,1.000000000000000000e+00,1.000000000000000000e+00,1.000000000000000000e+00,1.000000000000000000e+00,1.000000000000000000e+00,1.000000000000000000e+00,1.000000000000000000e+00,1.000000000000000000e+00,1.000000000000000000e+00,1.000000000000000000e+00,1.000000000000000000e+00,1.000000000000000000e+00,1.000000000000000000e+00,1.000000000000000000e+00,1.000000000000000000e+00,1.000000000000000000e+00,1.000000000000000000e+00,1.000000000000000000e+00,1.000000000000000000e+00,1.000000000000000000e+00,1.000000000000000000e+00,1.000000000000000000e+00,3.059594869613647683e-01,2.939069509506225808e-01,2.863977670669555775e-01,2.844413042068481556e-01,2.825114250183105580e-01,2.819639921188354381e-01,2.856463909149170033e-01,1.000000000000000000e+00,1.000000000000000000e+00,9.694766998291015625e-01,9.377504348754882590e-01,2.617012500762939675e-01,2.487703800201415960e-01,2.425955057144165150e-01,2.382375478744506725e-01,2.343081235885620117e-01,2.306041002273559459e-01,2.293973207473754827e-01,2.285215377807617299e-01
6.194319725036621094e-01,6.351378917694091575e-01,6.516610145568847434e-01,6.690667152404785600e-01,6.874278545379638450e-01,7.068250656127930132e-01,7.273488521575928178e-01,7.491000652313232200e-01,7.721924304962157759e-01,7.967536449432373047e-01,8.229287147521973100e-01,8.508820533752441406e-01,8.808012008666992188e-01,9.129011154174804243e-01,9.474288940429687056e-01,9.846677780151367188e-01,1.000000000000000000e+00,1.000000000000000000e+00,1.000000000000000000e+00,1.000000000000000000e+00,1.000000000000000000e+00,1.000000000000000000e+00,1.000000000000000000e+00,1.000000000000000000e+00,1.000000000000000000e+00,1.000000000000000000e+00,1.000000000000000000e+00,1.000000000000000000e+00,1.000000000000000000e+00,1.000000000000000000e+00,1.000000000000000000e+00,1.000000000000000000e+00,1.000000000000000000e+00,1.000000000000000000e+00,1.000000000000000000e+00,1.000000000000000000e+00,1.000000000000000000e+00,1.000000000000000000e+00,1.000000000000000000e+00,1.000000000000000000e+00,1.000000000000000000e+00,1.000000000000000000e+00,1.000000000000000000e+00,1.000000000000000000e+00,1.000000000000000000e+00,1.000000000000000000e+00,1.000000000000000000e+00,1.000000000000000000e+00,1.000000000000000000e+00,1.000000000000000000e+00,1.000000000000000000e+00,1.000000000000000000e+00,1.000000000000000000e+00,1.000000000000000000e+00,1.000000000000000000e+00,1.000000000000000000e+00,1.000000000000000000e+00,1.000000000000000000e+00,1.000000000000000000e+00,1.000000000000000000e+00,1.000000000000000000e+00,3.084559679031372292e-01,2.962266921997070424e-01,2.880553722381591908e-01,2.855638742446899303e-01,2.836187362670898326e-01,2.839948415756225475e-01,2.876070022583007701e-01,1.000000000000000000e+00,1.000000000000000000e+00,9.695019721984863281e-01,9.377739906311035600e-01,9.080569267272948775e-01,2.542455434799194558e-01,2.420275926589965931e-01,2.382508754730224554e-01,2.345631837844848744e-01,2.308420896530151423e-01,2.296263217926025335e-01,2.286694288253784124e-01
6.194109439849853072e-01,6.351202487945556419e-01,6.516463756561279297e-01,6.690513134002685769e-01,6.874115943908691850e-01,7.068078517913818359e-01,7.273306369781493697e-01,7.490807533264159934e-01,7.721718788146972878e-01,7.967318058013915794e-01,8.229054450988769753e-01,8.508571624755859597e-01,8.807744979858398438e-01,9.128724098205566184e-01,9.473982810974120872e-01,9.846381187438965066e-01,1.000000000000000000e+00,1.000000000000000000e+00,1.000000000000000000e+00,1.000000000000000000e+00,1.000000000000000000e+00,1.000000000000000000e+00,1.000000000000000000e+00,1.000000000000000000e+00,1.000000000000000000e+00,1.000000000000000000e+00,1.000000000000000000e+00,1.000000000000000000e+00,1.000000000000000000e+00,1.000000000000000000e+00,1.000000000000000000e+00,1.000000000000000000e+00,1.000000000000000000e+00,1.000000000000000000e+00,1.000000000000000000e+00,1.000000000000000000e+00,1.000000000000000000e+00,1.000000000000000000e+00,1.000000000000000000e+00,1.000000000000000000e+00,1.000000000000000000e+00,1.000000000000000000e+00,1.000000000000000000e+00,1.000000000000000000e+00,1.000000000000000000e+00,1.000000000000000000e+00,1.000000000000000000e+00,1.000000000000000000e+00,1.000000000000000000e+00,1.000000000000000000e+00,1.000000000000000000e+00,1.000000000000000000e+00,1.000000000000000000e+00,1.000000000000000000e+00,1.000000000000000000e+00,1.000000000000000000e+00,1.000000000000000000e+00,1.000000000000000000e+00,1.000000000000000000e+00,1.000000000000000000e+00,1.000000000000000000e+00,3.106775760650634655e-01,2.985833406448364369e-01,2.897588014602661133e-01,2.866953134536743275e-01,2.847348213195800559e-01,2.860551357269286998e-01,2.890534877777099498e-01,1.000000000000000000e+00,1.000000000000000000e+00,9.695271492004394753e-01,9.377975463867187500e-01,9.080790519714355691e-01,8.801861763000488059e-01,2.425612688064575084e-01,2.386605978012084905e-01,2.350461721420288030e-01,2.314798831939697266e-01,2.301259756088256947e-01,2.291887044906616155e-01
6.193879604339599387e-01,6.350961208343506303e-01,6.516217708587646040e-01,6.690303802490233931e-01,6.873946666717529741e-01,7.067907333374023882e-01,7.273124217987060325e-01,7.490615367889403853e-01,7.721513748168945535e-01,7.967100620269775835e-01,8.228821754455566406e-01,8.508322715759277788e-01,8.807478904724120872e-01,9.128437995910644309e-01,9.473673820495605025e-01,9.846050262451171431e-01,1.000000000000000000e+00,1.000000000000000000e+00,1.000000000000000000e+00,1.000000000000000000e+00,1.000000000000000000e+00,1.000000000000000000e+00,1.000000000000000000e+00,1.000000000000000000e+00,1.000000000000000000e+00,1.000000000000000000e+00,1.000000000000000000e+00,1.000000000000000000e+00,1.000000000000000000e+00,1.000000000000000000e+00,1.000000000000000000e+00,1.000000000000000000e+00,1.000000000000000000e+00,1.000000000000000000e+00,1.000000000000000000e+00,1.000000000000000000e+00,1.000000000000000000e+00,1.000000000000000000e+00,1.000000000000000000e+00,1.000000000000000000e+00,1.000000000000000000e+00,1.000000000000000000e+00,1.000000000000000000e+00,1.000000000000000000e+00,1.000000000000000000e+00,1.000000000000000000e+00,1.000000000000000000e+00,1.000000000000000000e+00,1.000000000000000000e+00,1.000000000000000000e+00,1.000000000000000000e+00,1.000000000000000000e+00,1.000000000000000000e+00,1.000000000000000000e+00,1.000000000000000000e+00,1.000000000000000000e+00,1.000000000000000000e+00,1.000000000000000000e+00,1.000000000000000000e+00,1.000000000000000000e+00,1.000000000000000000e+00,1.000000000000000000e+00,3.009778022766113059e-01,2.914825201034546009e-01,2.881266117095947488e-01,2.858597040176391602e-01,2.879899024963378795e-01,1.000000000000000000e+00,1.000000000000000000e+00,1.000000000000000000e+00,9.695523262023926225e-01,9.378211975097656694e-01,9.081011772155761497e-01,8.802069664001465066e-01,2.460937976837158092e-01,2.395534992218017467e-01,2.359219074249267467e-01,2.324238538742065541e-01,2.306519031524658092e-01,2.297103643417358343e-01
6.193673610687255859e-01,6.350719451904296431e-01,6.515962600708007368e-01,6.690035820007323997e-01,6.873663902282715066e-01,7.067657470703124778e-01,7.272918701171875444e-01,7.490421772003174050e-01,7.721308231353759544e-01,7.966881752014159934e-01,8.228589057922363059e-01,8.508073806762694868e-01,8.807211875915527122e-01,9.128150939941406250e-01,9.473364830017090288e-01,9.845716476440429243e-01,1.000000000000000000e+00,1.000000000000000000e+00,1.000000000000000000e+00,1.000000000000000000e+00,1.000000000000000000e+00,1.000000000000000000e+00,1.000000000000000000e+00,1.000000000000000000e+00,1.000000000000000000e+00,1.000000000000000000e+00,1.000000000000000000e+00,1.000000000000000000e+00,1.000000000000000000e+00,1.000000000000000000e+00,1.000000000000000000e+00,1.000000000000000000e+00,1.000000000000000000e+00,1.000000000000000000e+00,1.000000000000000000e+00,1.000000000000000000e+00,1.000000000000000000e+00,1.000000000000000000e+00,1.000000000000000000e+00,1.000000000000000000e+00,1.000000000000000000e+00,1.000000000000000000e+00,1.000000000000000000e+00,1.000000000000000000e+00,1.000000000000000000e+00,1.000000000000000000e+00,1.000000000000000000e+00,1.000000000000000000e+00,1.000000000000000000e+00,1.000000000000000000e+00,1.000000000000000000e+00,1.000000000000000000e+00,1.000000000000000000e+00,1.000000000000000000e+00,1.000000000000000000e+00,1.000000000000000000e+00,1.000000000000000000e+00,1.000000000000000000e+00,1.000000000000000000e+00,1.000000000000000000e+00,1.000000000000000000e+00,1.000000000000000000e+00,3.039603471755981667e-01,2.935760259628296120e-01,2.898308992385864036e-01,2.869935035705566406e-01,2.894402265548706166e-01,1.000000000000000000e+00,1.000000000000000000e+00,1.000000000000000000e+00,9.695775985717773882e-01,9.378447532653808594e-01,9.081233024597168413e-01,8.802277565002440962e-01,2.473241090774536133e-01,2.404632091522216908e-01,2.366275072097778209e-01,2.333755254745483454e-01,2.315309762954712025e-01,2.302343845367431641e-01
6.193541049957275169e-01,6.350560665130615678e-01,6.515748500823974609e-01,6.689767837524414062e-01,6.873380661010741743e-01,7.067357540130615456e-01,7.272601604461670366e-01,7.490122795104980913e-01,7.721056938171386719e-01,7.966663360595702681e-01,8.228355407714843528e-01,8.507824897766113059e-01,8.806944847106933372e-01,9.127863883972168191e-01,9.473056793212890625e-01,9.845382690429687056e-01,1.000000000000000000e+00,1.000000000000000000e+00,1.000000000000000000e+00,1.000000000000000000e+00,1.000000000000000000e+00,1.000000000000000000e+00,1.000000000000000000e+00,1.000000000000000000e+00,1.000000000000000000e+00,1.000000000000000000e+00,1.000000000000000000e+00,1.000000000000000000e+00,1.000000000000000000e+00,1.000000000000000000e+00,1.000000000000000000e+00,1.000000000000000000e+00,1.000000000000000000e+00,1.000000000000000000e+00,1.000000000000000000e+00,1.000000000000000000e+00,1.000000000000000000e+00,1.000000000000000000e+00,1.000000000000000000e+00,1.000000000000000000e+00,1.000000000000000000e+00,1.000000000000000000e+00,1.000000000000000000e+00,1.000000000000000000e+00,1.000000000000000000e+00,1.000000000000000000e+00,1.000000000000000000e+00,1.000000000000000000e+00,1.000000000000000000e+00,1.000000000000000000e+00,1.000000000000000000e+00,1.000000000000000000e+00,1.000000000000000000e+00,1.000000000000000000e+00,1.000000000000000000e+00,1.000000000000000000e+00,1.000000000000000000e+00,1.000000000000000000e+00,1.000000000000000000e+00,1.000000000000000000e+00,1.000000000000000000e+00,1.000000000000000000e+00,3.063720703125000222e-01,2.959206342697143777e-01,2.914138793945312278e-01,2.885827541351318470e-01,2.912471771240234264e-01,1.000000000000000000e+00,1.000000000000000000e+00,1.000000000000000000e+00,9.696027755737304243e-01,9.378684043884277788e-01,9.081454277038574219e-01,8.802485466003417969e-01,2.485667943954467662e-01,2.413798570632934570e-01,2.371180295944213812e-01,2.343350648880004883e-01,2.324753761291503962e-01,2.307608127593994141e-01
6.193408966064453125e-01,6.350421428680419478e-01,6.515602111816406472e-01,6.689604759216308816e-01,6.873157024383544922e-01,7.067064762115478072e-01,7.272284030914306641e-01,7.489786624908447710e-01,7.720699787139893022e-01,7.966305255889892800e-01,8.228048324584961160e-01,8.507575988769531250e-01,8.806677818298339622e-01,9.127577781677246316e-01,9.472747802734374778e-01,9.845049858093262163e-01,1.000000000000000000e+00,1.000000000000000000e+00,1.000000000000000000e+00,1.000000000000000000e+00,1.000000000000000000e+00,1.000000000000000000e+00,1.000000000000000000e+00,1.000000000000000000e+00,1.000000000000000000e+00,1.000000000000000000e+00,1.000000000000000000e+00,1.000000000000000000e+00,1.000000000000000000e+00,1.000000000000000000e+00,1.000000000000000000e+00,1.000000000000000000e+00,1.000000000000000000e+00,1.000000000000000000e+00,1.000000000000000000e+00,1.000000000000000000e+00,1.000000000000000000e+00,1.000000000000000000e+00,1.000000000000000000e+00,1.000000000000000000e+00,1.000000000000000000e+00,1.000000000000000000e+00,1.000000000000000000e+00,1.000000000000000000e+00,1.000000000000000000e+00,1.000000000000000000e+00,1.000000000000000000e+00,1.000000000000000000e+00,1.000000000000000000e+00,1.000000000000000000e+00,1.000000000000000000e+00,1.000000000000000000e+00,1.000000000000000000e+00,1.000000000000000000e+00,1.000000000000000000e+00,1.000000000000000000e+00,1.000000000000000000e+00,1.000000000000000000e+00,1.000000000000000000e+00,1.000000000000000000e+00,1.000000000000000000e+00,3.179512500762939342e-01,3.071151494979858509e-01,2.981876373291015847e-01,2.933642864227294922e-01,2.909778594970703347e-01,2.938091278076171986e-01,1.000000000000000000e+00,1.000000000000000000e+00,1.000000000000000000e+00,9.696280479431151900e-01,9.378919601440429688e-01,9.081675529479980025e-01,8.802693367004394975e-01,2.498220205307006836e-01,2.421874523162841908e-01,2.376106023788452093e-01,2.353024959564208873e-01,2.334274768829345814e-01,2.315821170806884877e-01
6.193276405334472434e-01,6.350282669067383035e-01,6.515455245971679688e-01,6.689450740814208984e-01,6.872993469238281028e-01,7.066893100738524947e-01,7.272050380706787109e-01,7.489475727081298384e-01,7.720342636108398215e-01,7.965923786163330300e-01,8.227643013000488503e-01,8.507143020629882590e-01,8.806301116943359153e-01,9.127265930175780806e-01,9.472438812255858931e-01,9.844717025756836160e-01,1.000000000000000000e+00,1.000000000000000000e+00,1.000000000000000000e+00,1.000000000000000000e+00,1.000000000000000000e+00,1.000000000000000000e+00,1.000000000000000000e+00,1.000000000000000000e+00,1.000000000000000000e+00,1.000000000000000000e+00,1.000000000000000000e+00,1.000000000000000000e+00,1.000000000000000000e+00,1.000000000000000000e+00,1.000000000000000000e+00,1.000000000000000000e+00,1.000000000000000000e+00,1.000000000000000000e+00,1.000000000000000000e+00,1.000000000000000000e+00,1.000000000000000000e+00,1.000000000000000000e+00,1.000000000000000000e+00,1.000000000000000000e+00,1.000000000000000000e+00,1.000000000000000000e+00,1.000000000000000000e+00,1.000000000000000000e+00,1.000000000000000000e+00,1.000000000000000000e+00,1.000000000000000000e+00,1.000000000000000000e+00,1.000000000000000000e+00,1.000000000000000000e+00,1.000000000000000000e+00,1.000000000000000000e+00,1.000000000000000000e+00,1.000000000000000000e+00,1.000000000000000000e+00,1.000000000000000000e+00,1.000000000000000000e+00,1.000000000000000000e+00,1.000000000000000000e+00,1.000000000000000000e+00,1.000000000000000000e+00,3.172145843505859153e-01,3.075665712356567272e-01,3.014603614807128684e-01,2.961599349975586049e-01,2.965464353561401145e-01,3.011153936386108398e-01,1.000000000000000000e+00,1.000000000000000000e+00,1.000000000000000000e+00,9.696532249450683372e-01,9.379156112670898882e-01,9.081896781921386941e-01,8.802901268005370872e-01,2.499935388565063532e-01,2.427013158798217718e-01,2.379476785659790095e-01,2.357900142669677734e-01,2.338304996490478405e-01,2.319032907485961970e-01
6.193144321441650391e-01,6.350142955780029297e-01,6.515309333801269087e-01,6.689296245574951616e-01,6.872830867767334428e-01,7.066720485687255637e-01,7.271868228912353738e-01,7.489281654357909934e-01,7.720096588134766069e-01,7.965591907501220481e-01,8.227237701416015847e-01,8.506709098815917747e-01,8.805836677551269753e-01,9.126767158508301003e-01,9.471974372863769531e-01,9.844322204589843750e-01,1.000000000000000000e+00,1.000000000000000000e+00,1.000000000000000000e+00,1.000000000000000000e+00,1.000000000000000000e+00,1.000000000000000000e+00,1.000000000000000000e+00,1.000000000000000000e+00,1.000000000000000000e+00,1.000000000000000000e+00,1.000000000000000000e+00,1.000000000000000000e+00,1.000000000000000000e+00,1.000000000000000000e+00,1.000000000000000000e+00,1.000000000000000000e+00,1.000000000000000000e+00,1.000000000000000000e+00,1.000000000000000000e+00,1.000000000000000000e+00,1.000000000000000000e+00,1.000000000000000000e+00,1.000000000000000000e+00,1.000000000000000000e+00,1.000000000000000000e+00,1.000000000000000000e+00,1.000000000000000000e+00,1.000000000000000000e+00,1.000000000000000000e+00,1.000000000000000000e+00,1.000000000000000000e+00,1.000000000000000000e+00,1.000000000000000000e+00,1.000000000000000000e+00,1.000000000000000000e+00,1.000000000000000000e+00,1.000000000000000000e+00,1.000000000000000000e+00,1.000000000000000000e+00,1.000000000000000000e+00,1.000000000000000000e+00,1.000000000000000000e+00,1.000000000000000000e+00,1.000000000000000000e+00,1.000000000000000000e+00,3.164812564849853738e-01,3.091511964797973855e-01,3.049827814102172852e-01,3.000623703002929799e-01,3.027547121047973744e-01,1.000000000000000000e+00,1.000000000000000000e+00,1.000000000000000000e+00,1.000000000000000000e+00,9.696784973144531028e-01,9.379391670227050781e-01,9.082118034362792747e-01,8.803109169006347878e-01,2.504853487014770397e-01,2.427563190460205189e-01,2.379002332687377985e-01,2.353397130966186634e-01,2.333941936492919811e-01,2.314741373062133845e-01
6.193011760711669700e-01,6.350004196166991743e-01,6.515162467956543413e-01,6.689142227172851785e-01,6.872667789459228072e-01,7.066548347473144975e-01,7.271685123443603072e-01,7.489088535308837669e-01,7.719891548156738725e-01,7.965372562408447044e-01,8.226979255676269975e-01,8.506353378295898882e-01,8.805371284484863059e-01,9.126267433166503906e-01,9.471436500549316184e-01,9.843742370605468306e-01,1.000000000000000000e+00,1.000000000000000000e+00,1.000000000000000000e+00,1.000000000000000000e+00,1.000000000000000000e+00,1.000000000000000000e+00,1.000000000000000000e+00,1.000000000000000000e+00,1.000000000000000000e+00,1.000000000000000000e+00,1.000000000000000000e+00,1.000000000000000000e+00,1.000000000000000000e+00,1.000000000000000000e+00,1.000000000000000000e+00,1.000000000000000000e+00,1.000000000000000000e+00,1.000000000000000000e+00,1.000000000000000000e+00,1.000000000000000000e+00,1.000000000000000000e+00,1.000000000000000000e+00,1.000000000000000000e+00,1.000000000000000000e+00,1.000000000000000000e+00,1.000000000000000000e+00,1.000000000000000000e+00,1.000000000000000000e+00,1.000000000000000000e+00,1.000000000000000000e+00,1.000000000000000000e+00,1.000000000000000000e+00,1.000000000000000000e+00,1.000000000000000000e+00,1.000000000000000000e+00,1.000000000000000000e+00,1.000000000000000000e+00,1.000000000000000000e+00,1.000000000000000000e+00,1.000000000000000000e+00,1.000000000000000000e+00,1.000000000000000000e+00,1.000000000000000000e+00,1.000000000000000000e+00,1.000000000000000000e+00,3.180042982101440319e-01,3.116723299026489258e-01,3.085676908493041881e-01,3.056331634521484153e-01,1.000000000000000000e+00,1.000000000000000000e+00,1.000000000000000000e+00,1.000000000000000000e+00,1.000000000000000000e+00,9.697036743164062500e-01,9.379628181457519975e-01,9.082339286804199663e-01,8.803322792053223100e-01,2.543181657791137584e-01,2.426746606826782338e-01,2.378528118133544922e-01,2.347695350646972767e-01,2.329595088958740234e-01,2.310465812683105413e-01
6.192880153656006303e-01,6.349864959716796653e-01,6.515016555786132812e-01,6.688987255096435769e-01,6.872505187988281472e-01,7.066375732421874556e-01,7.271503448486328347e-01,7.488894939422607866e-01,7.719685554504394087e-01,7.965154170989989790e-01,8.226745605468750444e-01,8.506103515624999778e-01,8.805100440979003462e-01,9.125883102416991743e-01,9.470922470092772993e-01,9.843160629272460493e-01,1.000000000000000000e+00,1.000000000000000000e+00,1.000000000000000000e+00,1.000000000000000000e+00,1.000000000000000000e+00,1.000000000000000000e+00,1.000000000000000000e+00,1.000000000000000000e+00,1.000000000000000000e+00,1.000000000000000000e+00,1.000000000000000000e+00,1.000000000000000000e+00,1.000000000000000000e+00,1.000000000000000000e+00,1.000000000000000000e+00,1.000000000000000000e+00,1.000000000000000000e+00,1.000000000000000000e+00,1.000000000000000000e+00,1.000000000000000000e+00,1.000000000000000000e+00,1.000000000000000000e+00,1.000000000000000000e+00,1.000000000000000000e+00,1.000000000000000000e+00,1.000000000000000000e+00,1.000000000000000000e+00,1.000000000000000000e+00,1.000000000000000000e+00,1.000000000000000000e+00,1.000000000000000000e+00,1.000000000000000000e+00,1.000000000000000000e+00,1.000000000000000000e+00,1.000000000000000000e+00,1.000000000000000000e+00,1.000000000000000000e+00,1.000000000000000000e+00,1.000000000000000000e+00,1.000000000000000000e+00,1.000000000000000000e+00,1.000000000000000000e+00,1.000000000000000000e+00,1.000000000000000000e+00,1.000000000000000000e+00,3.205756664276123158e-01,3.148093461990356667e-01,3.120928764343261497e-01,3.134442567825317383e-01,1.000000000000000000e+00,1.000000000000000000e+00,1.000000000000000000e+00,1.000000000000000000e+00,1.000000000000000000e+00,9.697288513183593972e-01,9.379876136779785600e-01,9.082583427429199441e-01,8.803556442260742632e-01,8.541162490844727007e-01,2.425930976867675670e-01,2.378054141998290905e-01,2.342020988464355580e-01,2.324271917343139759e-01,2.306205749511718861e-01
6.192747116088866965e-01,6.349726200103760210e-01,6.514869689941406028e-01,6.688833236694335938e-01,6.872341632843017578e-01,7.066204071044921431e-01,7.271320343017577681e-01,7.488701820373535600e-01,7.719480514526366743e-01,7.964934825897216353e-01,8.226511955261230913e-01,8.505853652954101785e-01,8.804832458496093528e-01,9.125596046447753684e-01,9.470613479614258257e-01,9.842743873596191406e-01,1.000000000000000000e+00,1.000000000000000000e+00,1.000000000000000000e+00,1.000000000000000000e+00,1.000000000000000000e+00,1.000000000000000000e+00,1.000000000000000000e+00,1.000000000000000000e+00,1.000000000000000000e+00,1.000000000000000000e+00,1.000000000000000000e+00,1.000000000000000000e+00,1.000000000000000000e+00,1.000000000000000000e+00,1.000000000000000000e+00,1.000000000000000000e+00,1.000000000000000000e+00,1.000000000000000000e+00,1.000000000000000000e+00,1.000000000000000000e+00,1.000000000000000000e+00,1.000000000000000000e+00,1.000000000000000000e+00,1.000000000000000000e+00,1.000000000000000000e+00,1.000000000000000000e+00,1.000000000000000000e+00,1.000000000000000000e+00,1.000000000000000000e+00,1.000000000000000000e+00,1.000000000000000000e+00,1.000000000000000000e+00,1.000000000000000000e+00,1.000000000000000000e+00,1.000000000000000000e+00,1.000000000000000000e+00,1.000000000000000000e+00,1.000000000000000000e+00,1.000000000000000000e+00,1.000000000000000000e+00,1.000000000000000000e+00,1.000000000000000000e+00,1.000000000000000000e+00,1.000000000000000000e+00,1.000000000000000000e+00,3.230682134628296009e-01,3.171137809753418191e-01,3.142455816268920898e-01,3.170633077621459739e-01,1.000000000000000000e+00,1.000000000000000000e+00,1.000000000000000000e+00,1.000000000000000000e+00,1.000000000000000000e+00,9.697573661804199663e-01,9.380142211914062056e-01,9.082832336425781250e-01,8.803790092468262163e-01,8.541383743286132812e-01,2.425116062164306696e-01,2.377580404281616211e-01,2.336374282836914118e-01,2.318710327148437444e-01,2.301311254501342829e-01
6.192615509033203569e-01,6.349586486816406472e-01,6.514723777770996538e-01,6.688678741455078569e-01,6.872179031372069868e-01,7.066031455993652122e-01,7.271138668060302956e-01,7.488507747650146040e-01,7.719274520874023215e-01,7.964716434478760210e-01,8.226279258728027566e-01,8.505603790283202681e-01,8.804565429687499778e-01,9.125308036804199441e-01,9.470303535461426225e-01,9.842410087585449219e-01,1.000000000000000000e+00,1.000000000000000000e+00,1.000000000000000000e+00,1.000000000000000000e+00,1.000000000000000000e+00,1.000000000000000000e+00,1.000000000000000000e+00,1.000000000000000000e+00,1.000000000000000000e+00,1.000000000000000000e+00,1.000000000000000000e+00,1.000000000000000000e+00,1.000000000000000000e+00,1.000000000000000000e+00,1.000000000000000000e+00,1.000000000000000000e+00,1.000000000000000000e+00,1.000000000000000000e+00,1.000000000000000000e+00,1.000000000000000000e+00,1.000000000000000000e+00,1.000000000000000000e+00,1.000000000000000000e+00,1.000000000000000000e+00,1.000000000000000000e+00,1.000000000000000000e+00,1.000000000000000000e+00,1.000000000000000000e+00,1.000000000000000000e+00,1.000000000000000000e+00,1.000000000000000000e+00,1.000000000000000000e+00,1.000000000000000000e+00,1.000000000000000000e+00,1.000000000000000000e+00,1.000000000000000000e+00,1.000000000000000000e+00,1.000000000000000000e+00,1.000000000000000000e+00,1.000000000000000000e+00,1.000000000000000000e+00,1.000000000000000000e+00,1.000000000000000000e+00,1.000000000000000000e+00,3.409989356994628795e-01,3.256160974502563255e-01,3.195867538452148438e-01,3.164281606674194114e-01,3.205178499221801869e-01,1.000000000000000000e+00,1.000000000000000000e+00,1.000000000000000000e+00,1.000000000000000000e+00,1.000000000000000000e+00,9.697857856750488059e-01,9.380407333374023438e-01,9.083081245422363059e-01,8.804024696350097878e-01,8.541604042053222434e-01,2.440472602844238337e-01,2.377106666564941517e-01,2.333306789398193470e-01,2.313175201416015625e-01,2.295858860015869141e-01
6.192482948303222878e-01,6.349447727203368919e-01,6.514576911926269753e-01,6.688524723052978738e-01,6.872015953063964622e-01,7.065859317779541460e-01,7.270955562591552290e-01,7.488315105438232422e-01,7.719069480895995872e-01,7.964497566223144309e-01,8.226045608520508035e-01,8.505354881286620872e-01,8.804298400878906028e-01,9.125020980834961382e-01,9.469994544982910378e-01,9.842076301574707031e-01,1.000000000000000000e+00,1.000000000000000000e+00,1.000000000000000000e+00,1.000000000000000000e+00,1.000000000000000000e+00,1.000000000000000000e+00,1.000000000000000000e+00,1.000000000000000000e+00,1.000000000000000000e+00,1.000000000000000000e+00,1.000000000000000000e+00,1.000000000000000000e+00,1.000000000000000000e+00,1.000000000000000000e+00,1.000000000000000000e+00,1.000000000000000000e+00,1.000000000000000000e+00,1.000000000000000000e+00,1.000000000000000000e+00,1.000000000000000000e+00,1.000000000000000000e+00,1.000000000000000000e+00,1.000000000000000000e+00,1.000000000000000000e+00,1.000000000000000000e+00,1.000000000000000000e+00,1.000000000000000000e+00,1.000000000000000000e+00,1.000000000000000000e+00,1.000000000000000000e+00,1.000000000000000000e+00,1.000000000000000000e+00,1.000000000000000000e+00,1.000000000000000000e+00,1.000000000000000000e+00,1.000000000000000000e+00,1.000000000000000000e+00,1.000000000000000000e+00,1.000000000000000000e+00,1.000000000000000000e+00,1.000000000000000000e+00,1.000000000000000000e+00,1.000000000000000000e+00,1.000000000000000000e+00,3.418268680572509877e-01,3.282499313354492188e-01,3.220985412597656139e-01,3.186412811279296653e-01,3.238785028457641380e-01,1.000000000000000000e+00,1.000000000000000000e+00,1.000000000000000000e+00,1.000000000000000000e+00,1.000000000000000000e+00,9.698142051696777566e-01,9.380672454833984819e-01,9.083331108093262163e-01,8.804258346557617410e-01,8.541823387145995872e-01,2.477206468582153209e-01,2.376633167266845592e-01,2.332902193069457952e-01,2.307715177536010798e-01,2.290458917617797796e-01
6.192350864410400835e-01,6.349308490753173828e-01,6.514430999755859153e-01,6.688370227813720259e-01,6.871853351593018022e-01,7.065686702728271040e-01,7.270773887634277566e-01,7.488121032714843972e-01,7.718863487243652344e-01,7.964279174804687056e-01,8.225811958312988503e-01,8.505105018615722878e-01,8.804030418395996094e-01,9.124733924865722212e-01,9.469684600830078347e-01,9.841741561889648660e-01,1.000000000000000000e+00,1.000000000000000000e+00,1.000000000000000000e+00,1.000000000000000000e+00,1.000000000000000000e+00,1.000000000000000000e+00,1.000000000000000000e+00,1.000000000000000000e+00,1.000000000000000000e+00,1.000000000000000000e+00,1.000000000000000000e+00,1.000000000000000000e+00,1.000000000000000000e+00,1.000000000000000000e+00,1.000000000000000000e+00,1.000000000000000000e+00,1.000000000000000000e+00,1.000000000000000000e+00,1.000000000000000000e+00,1.000000000000000000e+00,1.000000000000000000e+00,1.000000000000000000e+00,1.000000000000000000e+00,1.000000000000000000e+00,1.000000000000000000e+00,1.000000000000000000e+00,1.000000000000000000e+00,1.000000000000000000e+00,1.000000000000000000e+00,1.000000000000000000e+00,1.000000000000000000e+00,1.000000000000000000e+00,1.000000000000000000e+00,1.000000000000000000e+00,1.000000000000000000e+00,1.000000000000000000e+00,1.000000000000000000e+00,1.000000000000000000e+00,1.000000000000000000e+00,1.000000000000000000e+00,1.000000000000000000e+00,1.000000000000000000e+00,1.000000000000000000e+00,1.000000000000000000e+00,3.449463367462158314e-01,3.309532642364502175e-01,3.246501684188842773e-01,3.211682558059692494e-01,3.275116443634032981e-01,1.000000000000000000e+00,1.000000000000000000e+00,1.000000000000000000e+00,1.000000000000000000e+00,1.000000000000000000e+00,9.698425292968749778e-01,9.380939483642578569e-01,9.083580017089843972e-01,8.804492950439453125e-01,8.542044639587402788e-01,8.294789314270019087e-01,2.378833532333373968e-01,2.335431814193725530e-01,2.303256750106811579e-01,2.286066770553588923e-01
6.192218303680420144e-01,6.349169731140136275e-01,6.514284133911132368e-01,6.688216209411621538e-01,6.871690273284911665e-01,7.065515041351317915e-01,7.270591259002685547e-01,7.487927913665771706e-01,7.718658447265625000e-01,7.964059829711913618e-01,8.225578308105468972e-01,8.504855155944823775e-01,8.803763389587402344e-01,9.124446868896484153e-01,9.469375610351562500e-01,9.841407775878906472e-01,1.000000000000000000e+00,1.000000000000000000e+00,1.000000000000000000e+00,1.000000000000000000e+00,1.000000000000000000e+00,1.000000000000000000e+00,1.000000000000000000e+00,1.000000000000000000e+00,1.000000000000000000e+00,1.000000000000000000e+00,1.000000000000000000e+00,1.000000000000000000e+00,1.000000000000000000e+00,1.000000000000000000e+00,1.000000000000000000e+00,1.000000000000000000e+00,1.000000000000000000e+00,1.000000000000000000e+00,1.000000000000000000e+00,1.000000000000000000e+00,1.000000000000000000e+00,1.000000000000000000e+00,1.000000000000000000e+00,1.000000000000000000e+00,1.000000000000000000e+00,1.000000000000000000e+00,1.000000000000000000e+00,1.000000000000000000e+00,1.000000000000000000e+00,1.000000000000000000e+00,1.000000000000000000e+00,1.000000000000000000e+00,1.000000000000000000e+00,1.000000000000000000e+00,1.000000000000000000e+00,1.000000000000000000e+00,1.000000000000000000e+00,1.000000000000000000e+00,1.000000000000000000e+00,1.000000000000000000e+00,1.000000000000000000e+00,1.000000000000000000e+00,1.000000000000000000e+00,1.000000000000000000e+00,3.474662780761718639e-01,3.339528322219848522e-01,3.280436038970947488e-01,3.249441623687744363e-01,1.000000000000000000e+00,1.000000000000000000e+00,1.000000000000000000e+00,1.000000000000000000e+00,1.000000000000000000e+00,1.000000000000000000e+00,9.698710441589355469e-01,9.381204605102538840e-01,9.083828926086425781e-01,8.804727554321288840e-01,8.542264938354492410e-01,8.294996261596679910e-01,2.381463766098022572e-01,2.337967157363891602e-01,2.299769163131713812e-01,2.281691789627075251e-01
6.192086219787598100e-01,6.349030494689941184e-01,6.514138221740722878e-01,6.688061714172363059e-01,6.871527671813965066e-01,7.065342426300048606e-01,7.270409107208252175e-01,7.487734317779540794e-01,7.718452453613281472e-01,7.963841438293457475e-01,8.225345611572265625e-01,8.504606246948241965e-01,8.803495407104492410e-01,9.124159812927246094e-01,9.469066619873046653e-01,9.710433006286620650e-01,9.708029747009276900e-01,9.705627441406250444e-01,9.703227043151855247e-01,9.700826644897461160e-01,9.698429107666015625e-01,9.696031570434570090e-01,9.693634986877441850e-01,9.691240310668944868e-01,9.688846588134765181e-01,9.686454772949218972e-01,9.684062957763671653e-01,9.681673049926757812e-01,9.679284095764160156e-01,9.676896095275878684e-01,9.674509048461914507e-01,9.672123908996581587e-01,9.669738769531249778e-01,9.667356491088867632e-01,9.664974212646484375e-01,9.662593841552734597e-01,9.660213470458984819e-01,9.657835960388183594e-01,9.655458450317382368e-01,9.653081893920898438e-01,9.650708198547363059e-01,9.648333549499511497e-01,9.645961761474609597e-01,9.643589973449706587e-01,9.641219139099120872e-01,9.638851165771484819e-01,9.636482238769531472e-01,9.634116172790527788e-01,9.631750106811522993e-01,9.629385948181152788e-01,9.627022743225097656e-01,9.624660491943359819e-01,9.622300148010254350e-01,9.619939804077148882e-01,9.617581367492675781e-01,9.615223884582519975e-01,9.612867355346679243e-01,9.610512733459473100e-01,9.608158111572265847e-01,9.605805397033690962e-01,3.500232458114623801e-01,3.370190382003784291e-01,3.310770273208618053e-01,3.288963079452514870e-01,9.594058036804199441e-01,9.591712951660156250e-01,9.589367866516113059e-01,9.587024688720703347e-01,9.584681510925292525e-01,9.582340240478515181e-01,9.579999923706055132e-01,9.381469726562500222e-01,9.084077835083007590e-01,8.804961204528808372e-01,8.542485237121582031e-01,8.295204162597655806e-01,2.388178825378418080e-01,2.340507984161376842e-01,2.297805070877075306e-01,2.277333021163940319e-01
6.191953659057617410e-01,6.348891735076904741e-01,6.513991355895996094e-01,6.687907695770263228e-01,6.871364116668701172e-01,7.065170764923095481e-01,7.270226478576660156e-01,7.487541198730468528e-01,7.542606353759765403e-01,7.541156291961670366e-01,7.539707660675049050e-01,7.538258552551269087e-01,7.536809921264648882e-01,7.535361766815185103e-01,7.533914566040038618e-01,7.532468318939209428e-01,7.531022071838379128e-01,7.529576301574707475e-01,7.528131008148193359e-01,7.526687145233154075e-01,7.525243282318114790e-01,7.523799896240234153e-01,7.522356986999512163e-01,7.520914554595947710e-01,7.519473552703856978e-01,7.518032073974609819e-01,7.516591072082519087e-01,7.515151023864745650e-01,7.513711452484130859e-01,7.512273311614989790e-01,7.510834693908691184e-01,7.509396553039551225e-01,7.507958889007568803e-01,7.506522178649902566e-01,7.505086421966552512e-01,7.503650665283203569e-01,7.502215385437012163e-01,7.500780582427978294e-01,7.499346733093261719e-01,7.497913837432861328e-01,7.496480941772460938e-01,7.495048046112060547e-01,7.493616104125976340e-01,7.492184638977050781e-01,7.490754604339600053e-01,7.489324569702148215e-01,7.487894535064697488e-01,7.486465454101562944e-01,7.485036849975585938e-01,7.483609199523926225e-01,7.482182025909424050e-01,7.480754852294921875e-01,7.479328155517578347e-01,7.477902412414551003e-01,7.476477622985839844e-01,7.475052833557128684e-01,7.473628520965576172e-01,7.472204685211181197e-01,7.470781326293944868e-01,7.469359397888183372e-01,7.467937469482421875e-01,3.402039527893066517e-01,3.341671228408813477e-01,3.329457759857177845e-01,7.462255001068115456e-01,7.460835456848144975e-01,7.459416389465332031e-01,7.457998275756836382e-01,7.456580162048339622e-01,7.455163955688476340e-01,7.453746795654296875e-01,7.452330589294433594e-01,7.450914859771728960e-01,7.449499607086181863e-01,7.448085784912109597e-01,7.446671962738037331e-01,2.425269126892089788e-01,2.343054294586181530e-01,2.300235509872436412e-01,2.273203372955322210e-01
6.167023658752441850e-01,6.166053771972656028e-01,6.165084838867187500e-01,6.164115905761718972e-01,6.163147449493407981e-01,6.162178993225098100e-01,6.161211013793945757e-01,6.160243511199950950e-01,6.159276008605957253e-01,6.158309459686279741e-01,6.157342433929443581e-01,6.156376361846923606e-01,6.155409812927246094e-01,6.154444217681884766e-01,6.153479099273682085e-01,6.152513980865478294e-01,6.151548862457275613e-01,6.150584220886230469e-01,6.149620056152343972e-01,6.148656368255615012e-01,6.147692680358887163e-01,6.146728992462158203e-01,6.145765781402587891e-01,6.144803047180176225e-01,6.143841266632079634e-01,6.142879009246826616e-01,6.141917228698730025e-01,6.140955448150634544e-01,6.139994144439697710e-01,6.139033317565918413e-01,6.138072967529296653e-01,6.137112617492676003e-01,6.136152267456054243e-01,6.135192394256592241e-01,6.134233474731445312e-01,6.133274078369140847e-01,6.132315158843993919e-01,6.131356716156005637e-01,6.130398273468017356e-01,6.129441261291503906e-01,6.128483295440674272e-01,6.127525806427002175e-01,6.126568794250488725e-01,6.125611782073974165e-01,6.124655723571776900e-01,6.123699665069579634e-01,6.122743606567382368e-01,6.121788024902343750e-01,6.120832920074462669e-01,6.119878292083740234e-01,6.118923664093017800e-01,6.117969036102295366e-01,6.117014884948730469e-01,6.116061687469482866e-01,6.115108013153076616e-01,6.114154815673827903e-01,6.113201618194580300e-01,6.112248897552490234e-01,6.111297130584716353e-01,6.110345363616943581e-01,6.109393596649169700e-01,3.455695867538451926e-01,3.373154163360595481e-01,3.375129938125610574e-01,6.105589866638183594e-01,6.104639530181884544e-01,6.103689670562744141e-01,6.102739810943603738e-01,6.101790904998779519e-01,6.100841999053955300e-01,6.099893093109131081e-01,6.098944664001464400e-01,6.097996234893798828e-01,6.097048759460449441e-01,6.096101284027100053e-01,6.095153808593749556e-01,6.094206809997558816e-01,2.345605850219726618e-01,2.302671194076538197e-01,2.271093368530273382e-01
5.210249900817871538e-01,5.209558010101318359e-01,5.208866119384765181e-01,5.208174705505370650e-01,5.207483291625976118e-01,5.206791877746581587e-01,5.206100940704345703e-01,5.205410003662109819e-01,5.204719066619872825e-01,5.204028606414794478e-01,5.203338146209717241e-01,5.202648162841796431e-01,5.201958179473876731e-01,5.201268672943115678e-01,5.200579166412353516e-01,5.199889659881591353e-01,5.199200153350830300e-01,5.198511123657226785e-01,5.197822570800780806e-01,5.197134017944335938e-01,5.196445465087891069e-01,5.195756912231445090e-01,5.195068836212157759e-01,5.194381237030029075e-01,5.193693161010741743e-01,5.193005561828613059e-01,5.192317962646484375e-01,5.191630840301513228e-01,5.190944194793700728e-01,5.190257072448730691e-01,5.189570426940918191e-01,5.188883781433105691e-01,5.188197612762450728e-01,5.187511920928955522e-01,5.186825752258300559e-01,5.186140060424804243e-01,5.185454368591309038e-01,5.184768676757812722e-01,5.184083938598632590e-01,5.183398723602294922e-01,5.182713985443114790e-01,5.182029247283935769e-01,5.181344509124755637e-01,5.180660724639892800e-01,5.179976463317871316e-01,5.179292201995849831e-01,5.178608417510985884e-01,5.177925109863281694e-01,5.177241802215576394e-01,5.176558494567871094e-01,5.175875186920165794e-01,5.175192356109619141e-01,5.174509525299072488e-01,5.173827648162842019e-01,5.173145294189452903e-01,5.172462940216064897e-01,5.171781063079834428e-01,5.171099185943603960e-01,5.170417785644531028e-01,5.169736385345459206e-01,5.169054985046386275e-01,3.470652580261230358e-01,3.422933816909790039e-01,5.167012691497803178e-01,5.166331768035888894e-01,5.165651798248290794e-01,5.164971351623535156e-01,5.164291381835937056e-01,5.163611888885497603e-01,5.162931919097900613e-01,5.162252426147461160e-01,5.161573410034179243e-01,5.160893917083739790e-01,5.160215377807617632e-01,5.159536838531494363e-01,5.158857822418212447e-01,5.158179759979247825e-01,2.348163366317748968e-01,2.305112123489379827e-01,2.268987178802490123e-01
4.510478973388671875e-01,4.509960174560546653e-01,4.509441852569580078e-01,4.508923530578613503e-01,4.508405208587646373e-01,4.507886886596679799e-01,4.507369041442871316e-01,4.506851196289062278e-01,4.506333351135253795e-01,4.505815982818603405e-01,4.505298137664794922e-01,4.504780769348144531e-01,4.504263401031494141e-01,4.503746509552001842e-01,4.503229141235351451e-01,4.502712249755859153e-01,4.502195358276367410e-01,4.501678943634033203e-01,4.501162528991698997e-01,4.500646114349365345e-01,4.500129699707031139e-01,4.499613285064697488e-01,4.499097347259521373e-01,4.498581409454345814e-01,4.498065471649169700e-01,4.497549533843994141e-01,4.497034072875976674e-01,4.496518611907959206e-01,4.496003150939941184e-01,4.495488166809081809e-01,4.494972705841064342e-01,4.494457721710204967e-01,4.493942737579345592e-01,4.493428230285644309e-01,4.492913722991943581e-01,4.492398738861084206e-01,4.491884708404541016e-01,4.491370201110839733e-01,4.490856170654297097e-01,4.490342140197753906e-01,4.489828109741210715e-01,4.489314079284668080e-01,4.488800525665282981e-01,4.488286972045898438e-01,4.487773418426513894e-01,4.487259864807128795e-01,4.486746788024902344e-01,4.486233711242675892e-01,4.485720634460449441e-01,4.485207557678222434e-01,4.484694957733154075e-01,4.484181880950927623e-01,4.483669757843017356e-01,4.483157157897948997e-01,4.482645034790039285e-01,4.482132434844970925e-01,4.481620311737060658e-01,4.481108665466308483e-01,4.480597019195556863e-01,4.480084896087646595e-01,4.479573249816894420e-01,3.455452919006347656e-01,3.387407064437866211e-01,3.360760211944580078e-01,4.477528095245361106e-01,4.477016925811767578e-01,4.476506233215332142e-01,4.475995540618896706e-01,4.475484848022460715e-01,4.474974155426025280e-01,4.474463462829589844e-01,4.473953247070312500e-01,4.473443508148193248e-01,4.472933292388915905e-01,4.472423076629638561e-01,4.471913337707519309e-01,4.471403121948241965e-01,2.350726366043090765e-01,2.307558298110961859e-01,2.266884803771972712e-01
3.976419448852538951e-01,3.976016521453857311e-01,3.975613355636596902e-01,3.975210666656494030e-01,3.974807500839233620e-01,3.974405050277710072e-01,3.974002122879028431e-01,3.973599672317504883e-01,3.973196983337402566e-01,3.972794771194457786e-01,3.972392320632934792e-01,3.971990108489990012e-01,3.971587896347045787e-01,3.971185922622680886e-01,3.970784187316894753e-01,3.970381975173949973e-01,3.969979763031005748e-01,3.969578266143798939e-01,3.969176769256591575e-01,3.968774795532226674e-01,3.968373537063598633e-01,3.967971801757812500e-01,3.967570781707763783e-01,3.967169761657715066e-01,3.966768264770507701e-01,3.966367244720458984e-01,3.965965986251830944e-01,3.965565204620361550e-01,3.965164661407470925e-01,3.964763641357421653e-01,3.964363098144531028e-01,3.963962078094482311e-01,3.963561773300171009e-01,3.963161706924438477e-01,3.962760925292968528e-01,3.962360858917236550e-01,3.961960315704345925e-01,3.961560487747192161e-01,3.961160659790038951e-01,3.960760354995727650e-01,3.960360527038574441e-01,3.959960460662841908e-01,3.959561109542846791e-01,3.959161520004272350e-01,3.958761692047119141e-01,3.958362340927124023e-01,3.957962751388549583e-01,3.957563638687133789e-01,3.957164525985717995e-01,3.956765174865722878e-01,3.956366300582885853e-01,3.955966949462890736e-01,3.955568075180053711e-01,3.955169439315796009e-01,3.954770565032958984e-01,3.954371929168701283e-01,3.953973054885864258e-01,3.953574895858764648e-01,3.953176498413085715e-01,3.952777862548828014e-01,3.952379703521728405e-01,3.411859989166259877e-01,3.352311134338378795e-01,3.317204475402831809e-01,3.300713777542114147e-01,3.950389623641967773e-01,3.949991464614868164e-01,3.949594020843505970e-01,3.949196577072143777e-01,3.948798656463622936e-01,3.948401451110840066e-01,3.948004245758056641e-01,3.947606563568115123e-01,3.947209596633911022e-01,3.946812152862548828e-01,3.946415185928344727e-01,3.946018457412719949e-01,3.945621252059936523e-01,2.327164888381957897e-01,2.289382696151733287e-01
3.555440664291381614e-01,3.555118560791015736e-01,3.554796218872070535e-01,3.554474115371704102e-01,3.554152011871337669e-01,3.553830146789550559e-01,3.553508043289184681e-01,3.553186178207397572e-01,3.552864074707031139e-01,3.552542448043823353e-01,3.552220582962036244e-01,3.551899194717407227e-01,3.551577329635620117e-01,3.551255941390991100e-01,3.550934314727783314e-01,3.550612926483154297e-01,3.550291299819946511e-01,3.549970149993896262e-01,3.549648761749267800e-01,3.549327850341796875e-01,3.549006462097167858e-01,3.548685550689697488e-01,3.548364639282226562e-01,3.548043489456176869e-01,3.547722816467285267e-01,3.547401666641235574e-01,3.547080993652343972e-01,3.546760559082031139e-01,3.546439647674560769e-01,3.546119213104247936e-01,3.545798301696777566e-01,3.545478105545044056e-01,3.545157670974731223e-01,3.544836997985839622e-01,3.544517040252685436e-01,3.544196367263793834e-01,3.543876409530639648e-01,3.543556451797485463e-01,3.543236255645751953e-01,3.542916297912597767e-01,3.542596101760864258e-01,3.542276382446288840e-01,3.541956663131713978e-01,3.541636466979980469e-01,3.541316986083984375e-01,3.540997028350830189e-01,3.540677547454834095e-01,3.540358066558838002e-01,3.540038347244262584e-01,3.539719104766845814e-01,3.539399623870849720e-01,3.539080381393432395e-01,3.538761138916015625e-01,3.538441896438598855e-01,3.538122892379760853e-01,3.537803411483764759e-01,3.537484645843506081e-01,3.537165641784668080e-01,3.536846637725830078e-01,3.536527872085571400e-01,3.536208868026733398e-01,3.535890102386474720e-01,3.299805402755737194e-01,3.276324748992919811e-01,3.229236364364623801e-01,3.218846321105957031e-01,3.534297227859496959e-01,3.533978939056396373e-01,3.533660411834717019e-01,3.533342361450195201e-01,3.533023834228515847e-01,3.532705783843994030e-01,3.532387733459472767e-01,3.532069444656372181e-01,3.531751632690429688e-01,3.531433582305908425e-01,3.531115770339965931e-01,3.530798196792602761e-01,2.316700935363769642e-01,2.277687549591064509e-01
3.215065479278564342e-01,3.214801788330078347e-01,3.214538574218749889e-01,3.214275121688842662e-01,3.214011669158935436e-01,3.213748455047607533e-01,3.213485002517700306e-01,3.213221788406371848e-01,3.212958574295043945e-01,3.212695598602294811e-01,3.212432146072387584e-01,3.212169170379638450e-01,3.211905956268310547e-01,3.211643218994140736e-01,3.211380004882812278e-01,3.211117267608642467e-01,3.210854291915893333e-01,3.210591554641723522e-01,3.210328578948974387e-01,3.210066080093383900e-01,3.209803342819214089e-01,3.209540843963623047e-01,3.209277868270873912e-01,3.209015607833862194e-01,3.208752870559692383e-01,3.208490610122680664e-01,3.208228349685668945e-01,3.207965612411499134e-01,3.207703590393066184e-01,3.207441091537475697e-01,3.207178831100463978e-01,3.206916809082031028e-01,3.206654548645019309e-01,3.206392526626586914e-01,3.206130266189575195e-01,3.205868244171142800e-01,3.205606460571289174e-01,3.205344438552856223e-01,3.205082654953003152e-01,3.204820632934570201e-01,3.204558849334716575e-01,3.204297304153442272e-01,3.204035282135009877e-01,3.203773736953735574e-01,3.203511953353881947e-01,3.203250408172607644e-01,3.202989101409912109e-01,3.202727317810058483e-01,3.202466011047363503e-01,3.202204227447509877e-01,3.201943159103393666e-01,3.201681852340698131e-01,3.201420307159423828e-01,3.201159238815307617e-01,3.200897932052612083e-01,3.200636863708495872e-01,3.200375795364379661e-01,3.200114488601684681e-01,3.199853420257568470e-01,3.199592351913452259e-01,3.199331521987914817e-01,3.199070692062377930e-01,3.198809623718261719e-01,3.198549032211303600e-01,3.198287963867187389e-01,3.190159559249877708e-01,3.197766780853271706e-01,3.197505950927734264e-01,3.197245359420776145e-01,3.196984767913818581e-01,3.196724176406860463e-01,3.196463823318481667e-01,3.196203231811523549e-01,3.195942878723144753e-01,3.195682525634765403e-01,3.195422172546386608e-01,3.195162057876587136e-01,3.194901704788207786e-01,2.319774627685546875e-01,2.262397050857543890e-01
2.934166908264160267e-01,2.933947324752807506e-01,2.933727979660034069e-01,2.933508634567260631e-01,2.933289289474487194e-01,2.933069705963134988e-01,2.932850599288940319e-01,2.932631254196166881e-01,2.932411909103393444e-01,2.932193040847778098e-01,2.931973695755004661e-01,2.931754589080810547e-01,2.931535243988037109e-01,2.931316375732421764e-01,2.931097030639648326e-01,2.930878162384032981e-01,2.930659055709838867e-01,2.930440187454223522e-01,2.930221319198608176e-01,2.930002450942993386e-01,2.929783344268798717e-01,2.929564714431762695e-01,2.929345846176147350e-01,2.929127216339111328e-01,2.928908348083495983e-01,2.928689718246459961e-01,2.928470849990844616e-01,2.928252458572387917e-01,2.928033828735351340e-01,2.927815198898315319e-01,2.927596807479858620e-01,2.927378177642822044e-01,2.927159786224365345e-01,2.926941394805908092e-01,2.926723003387451394e-01,2.926504850387573464e-01,2.926286220550536887e-01,2.926068067550658958e-01,2.925849676132202259e-01,2.925631523132324330e-01,2.925413608551025169e-01,2.925195217132568470e-01,2.924977302551269309e-01,2.924758911132812611e-01,2.924540996551513450e-01,2.924323081970214844e-01,2.924104928970336914e-01,2.923887014389038308e-01,2.923669099807739147e-01,2.923451185226440541e-01,2.923233509063720703e-01,2.923015594482422097e-01,2.922797918319702259e-01,2.922580003738403098e-01,2.922362327575683816e-01,2.922144651412963978e-01,2.921926975250244141e-01,2.921709299087524303e-01,2.921491622924804465e-01,2.921274185180663951e-01,2.921056747436523438e-01,2.920839071273803600e-01,2.920621633529663086e-01,2.920404195785522572e-01,2.920186758041382058e-01,2.919969558715820312e-01,2.919752120971679799e-01,2.919534921646118053e-01,2.919317483901977539e-01,2.919100284576415794e-01,2.918883085250854603e-01,2.918665885925292858e-01,2.918448686599731667e-01,2.918231487274169922e-01,2.918014526367187500e-01,2.917797565460205078e-01,2.917580366134643333e-01,2.917363405227660911e-01,2.321425437927246149e-01,2.262981176376342718e-01
2.698408603668213113e-01,2.698222875595092662e-01,2.698037147521972767e-01,2.697851657867431641e-01,2.697666168212890514e-01,2.697480440139770619e-01,2.697295188903808816e-01,2.697109460830688366e-01,2.696924209594726562e-01,2.696738719940185436e-01,2.696553230285644309e-01,2.696367740631103738e-01,2.696182489395141380e-01,2.695997476577758900e-01,2.695811986923217773e-01,2.695626735687255970e-01,2.695441484451294167e-01,2.695256233215331809e-01,2.695070981979370006e-01,2.694885969161987527e-01,2.694700717926025169e-01,2.694515705108642689e-01,2.694330453872680886e-01,2.694145679473877175e-01,2.693960428237914817e-01,2.693775415420532338e-01,2.693590402603149303e-01,2.693405628204345592e-01,2.693220615386963113e-01,2.693035602569580078e-01,2.692850589752197044e-01,2.692666053771972656e-01,2.692481040954589622e-01,2.692296266555785911e-01,2.692111492156982200e-01,2.691926717758178489e-01,2.691742181777954102e-01,2.691557168960571067e-01,2.691372632980346680e-01,2.691188097000122292e-01,2.691003322601318581e-01,2.690818786621093639e-01,2.690634250640869252e-01,2.690449714660644309e-01,2.690265178680419922e-01,2.690080642700195535e-01,2.689896345138549916e-01,2.689711570739746205e-01,2.689527273178100586e-01,2.689342975616454967e-01,2.689158439636230580e-01,2.688974380493164285e-01,2.688789844512939342e-01,2.688605546951293723e-01,2.688421487808227428e-01,2.688237190246581809e-01,2.688052892684936745e-01,2.687868595123291127e-01,2.687684535980224831e-01,2.687500476837157981e-01,2.687316179275512917e-01,2.687132358551025391e-01,2.686948060989379772e-01,2.686764001846313477e-01,2.686580181121825950e-01,2.686396121978759655e-01,2.686212062835693359e-01,2.686028003692627064e-01,2.685844182968139537e-01,2.685660362243652566e-01,2.685476541519165039e-01,2.685292720794677512e-01,2.685108661651611217e-01,2.684925079345703014e-01,2.684741497039794811e-01,2.684557437896728516e-01,2.684373855590820312e-01,2.684190034866332786e-01,2.323333740234375111e-01,2.273670196533203181e-01
2.497718334197998047e-01,2.497559309005737416e-01,2.497400283813476507e-01,2.497241258621215876e-01,2.497082471847534291e-01,2.496923208236694336e-01,2.496764421463012751e-01,2.496605396270751842e-01,2.496446609497070257e-01,2.496287584304809626e-01,2.496128797531128041e-01,2.495970010757446178e-01,2.495811223983764593e-01,2.495652198791503962e-01,2.495493650436401423e-01,2.495334863662719838e-01,2.495176076889037975e-01,2.495017290115356390e-01,2.494858741760253851e-01,2.494700193405151312e-01,2.494541406631469727e-01,2.494382858276367188e-01,2.494224071502685602e-01,2.494065523147583063e-01,2.493906974792480524e-01,2.493748426437377985e-01,2.493589878082275446e-01,2.493431329727172907e-01,2.493272781372070368e-01,2.493114233016967829e-01,2.492955684661865290e-01,2.492797374725341797e-01,2.492638826370239258e-01,2.492480516433715765e-01,2.492322206497192272e-01,2.492163896560669056e-01,2.492005348205566517e-01,2.491847276687622070e-01,2.491688728332519531e-01,2.491530656814575084e-01,2.491372346878051869e-01,2.491214036941528376e-01,2.491055965423583929e-01,2.490897655487060436e-01,2.490739583969116266e-01,2.490581512451171819e-01,2.490423202514648326e-01,2.490265369415283203e-01,2.490107059478759710e-01,2.489948987960815541e-01,2.489791154861450140e-01,2.489633083343505970e-01,2.489475011825561523e-01,2.489317178726196400e-01,2.489159107208251953e-01,2.489001274108886830e-01,2.488843202590942383e-01,2.488685369491577259e-01,2.488527536392211859e-01,2.488369464874267689e-01,2.488211870193481334e-01,2.488053798675537165e-01,2.487896203994751088e-01,2.487738370895385687e-01,2.487580537796020563e-01,2.487422943115234486e-01,2.487265110015869085e-01,2.487107515335083008e-01,2.486949920654296931e-01,2.486792087554931530e-01,2.486634492874145452e-01,2.486476659774780329e-01,2.486319303512573298e-01,2.486161708831787220e-01,2.486004114151000866e-01,2.485846519470214788e-01,2.485688924789428711e-01,2.485531568527221680e-01,2.332555055618286133e-01,2.289369821548462025e-01
2.324813842773437444e-01,2.324676036834716908e-01,2.324538230895996094e-01,2.324400663375854603e-01,2.324262857437133789e-01,2.324125051498412975e-01,2.323987483978271484e-01,2.323849678039550670e-01,2.323712110519409180e-01,2.323574304580688366e-01,2.323436737060546875e-01,2.323299169540405384e-01,2.323161602020263616e-01,2.323023796081543080e-01,2.322886466979980358e-01,2.322748661041259821e-01,2.322611331939697377e-01,2.322473764419555609e-01,2.322336196899414118e-01,2.322198629379272350e-01,2.322061300277709905e-01,2.321923732757568415e-01,2.321786403656005970e-01,2.321648836135864202e-01,2.321511507034301758e-01,2.321374177932739313e-01,2.321236610412597545e-01,2.321099281311035101e-01,2.320961952209472656e-01,2.320824623107910212e-01,2.320687294006347767e-01,2.320549964904785045e-01,2.320412635803222601e-01,2.320275545120239202e-01,2.320138216018676758e-01,2.320001125335693359e-01,2.319863796234130915e-01,2.319726467132568470e-01,2.319589376449585072e-01,2.319452285766601674e-01,2.319314956665038951e-01,2.319177865982055553e-01,2.319040775299072155e-01,2.318903684616088756e-01,2.318766593933105358e-01,2.318629503250121959e-01,2.318492412567138561e-01,2.318355321884155162e-01,2.318218469619751088e-01,2.318081617355346735e-01,2.317944526672363337e-01,2.317807435989379938e-01,2.317670583724975586e-01,2.317533731460571234e-01,2.317396879196166881e-01,2.317259788513183483e-01,2.317122936248779408e-01,2.316986083984375056e-01,2.316849231719970703e-01,2.316712379455566351e-01,2.316575527191161998e-01,2.316438913345336970e-01,2.316302061080932617e-01,2.316165208816528265e-01,2.316028594970703236e-01,2.315891742706298884e-01,2.315755128860473577e-01,2.315618276596069225e-01,2.315481662750244196e-01,2.315345048904418890e-01,2.315208196640014537e-01,2.315071821212768555e-01,2.314934968948364202e-01,2.314798593521118220e-01,2.314661979675292913e-01,2.314525365829467884e-01,2.314388751983642578e-01,2.314252138137817272e-01,2.314115762710571289e-01,2.313979148864745983e-01
2.174298048019409069e-01,2.174177646636962780e-01,2.174057006835937444e-01,2.173936605453491155e-01,2.173815965652465820e-01,2.173695564270019531e-01,2.173574924468994196e-01,2.173454761505126953e-01,2.173334360122680664e-01,2.173213720321655329e-01,2.173093557357788086e-01,2.172972917556762751e-01,2.172852754592895508e-01,2.172732353210449219e-01,2.172611951828002930e-01,2.172491550445556641e-01,2.172371387481689398e-01,2.172250986099243109e-01,2.172130823135375866e-01,2.172010421752929576e-01,2.171890258789062611e-01,2.171769857406616322e-01,2.171649694442749079e-01,2.171529293060302790e-01,2.171409130096435547e-01,2.171288967132568304e-01,2.171168804168701061e-01,2.171048641204834095e-01,2.170928478240966852e-01,2.170808315277099609e-01,2.170688152313232366e-01,2.170568227767944447e-01,2.170447826385498158e-01,2.170327901840209961e-01,2.170207738876342718e-01,2.170087814331054799e-01,2.169967651367187556e-01,2.169847726821899359e-01,2.169727563858032116e-01,2.169607639312744196e-01,2.169487476348876953e-01,2.169367551803588756e-01,2.169247388839721791e-01,2.169127702713012640e-01,2.169007539749145397e-01,2.168887615203857477e-01,2.168767690658569280e-01,2.168648004531860407e-01,2.168528079986572210e-01,2.168408155441284291e-01,2.168288230895996094e-01,2.168168306350707897e-01,2.168048620223999023e-01,2.167928934097290150e-01,2.167809009552001953e-01,2.167689085006713756e-01,2.167569398880004883e-01,2.167449712753296009e-01,2.167330026626586859e-01,2.167210102081298939e-01,2.167090415954589788e-01,2.166970729827880915e-01,2.166851043701171764e-01,2.166731357574462891e-01,2.166611671447754017e-01,2.166491985321044866e-01,2.166372299194335993e-01,2.166252613067626842e-01,2.166133165359497015e-01,2.166013479232788141e-01,2.165893793106078991e-01,2.165774106979370117e-01,2.165654659271240290e-01,2.165535211563110463e-01,2.165415525436401312e-01,2.165296077728271484e-01,2.165176391601562611e-01,2.165056943893432506e-01,2.164937496185302679e-01,2.164818048477172852e-01
2.042086839675903431e-01,2.041980504989623912e-01,2.041874170303344671e-01,2.041768074035644476e-01,2.041661739349365234e-01,2.041555404663085993e-01,2.041449069976806752e-01,2.041342973709106556e-01,2.041236639022827037e-01,2.041130542755126842e-01,2.041024208068847601e-01,2.040918111801147405e-01,2.040811777114868164e-01,2.040705680847167969e-01,2.040599584579467773e-01,2.040493488311767578e-01,2.040387392044067383e-01,2.040281057357788141e-01,2.040174961090087946e-01,2.040068864822387751e-01,2.039962768554687556e-01,2.039856672286987360e-01,2.039750576019287165e-01,2.039644479751586970e-01,2.039538383483886774e-01,2.039432287216186579e-01,2.039326429367065430e-01,2.039220333099365234e-01,2.039114475250244085e-01,2.039008378982543890e-01,2.038902282714843694e-01,2.038796424865722545e-01,2.038690328598022350e-01,2.038584470748901478e-01,2.038478612899780329e-01,2.038372516632080134e-01,2.038266658782958984e-01,2.038160800933837835e-01,2.038054704666137640e-01,2.037949085235595814e-01,2.037842988967895619e-01,2.037737131118774470e-01,2.037631273269653320e-01,2.037525415420532171e-01,2.037419557571411022e-01,2.037313938140869196e-01,2.037207841873169001e-01,2.037102222442626898e-01,2.036996364593505748e-01,2.036890745162963923e-01,2.036784887313842773e-01,2.036679029464721624e-01,2.036573410034179799e-01,2.036467552185058649e-01,2.036361932754516546e-01,2.036256074905395397e-01,2.036150455474853571e-01,2.036044836044311468e-01,2.035939216613769642e-01,2.035833597183227539e-01,2.035727739334106390e-01,2.035622119903564564e-01,2.035516500473022461e-01,2.035410881042480358e-01,2.035305261611938532e-01,2.035199642181396429e-01,2.035094022750854603e-01,2.034988641738891546e-01,2.034883022308349720e-01,2.034777402877807617e-01,2.034671783447265514e-01,2.034566402435302734e-01,2.034460783004760631e-01,2.034355401992797852e-01,2.034249782562255748e-01,2.034144401550292969e-01,2.034038782119750866e-01,2.033933401107788086e-01,2.033828020095825306e-01,2.033722639083862249e-01
1.925032734870910645e-01,1.924938440322875866e-01,1.924843907356262318e-01,1.924749255180358831e-01,1.924654841423034668e-01,1.924560546874999889e-01,1.924466013908386341e-01,1.924371600151061901e-01,1.924277067184448353e-01,1.924182891845703236e-01,1.924088478088378795e-01,1.923993945121765248e-01,1.923899531364440807e-01,1.923805356025695690e-01,1.923710942268371527e-01,1.923616528511047363e-01,1.923522114753723200e-01,1.923428058624267467e-01,1.923333644866943304e-01,1.923239231109619141e-01,1.923145174980163685e-01,1.923050761222839244e-01,1.922956466674804743e-01,1.922862172126769964e-01,1.922767996788024847e-01,1.922673702239990345e-01,1.922579407691955566e-01,1.922485113143920787e-01,1.922391057014465332e-01,1.922296762466430553e-01,1.922202587127685436e-01,1.922108292579650934e-01,1.922014236450195201e-01,1.921920061111450084e-01,1.921825766563415583e-01,1.921731591224670466e-01,1.921637654304504395e-01,1.921543359756469616e-01,1.921449184417724498e-01,1.921355009078979381e-01,1.921261072158813588e-01,1.921166896820068470e-01,1.921072721481323353e-01,1.920978784561157282e-01,1.920884728431701549e-01,1.920790553092956432e-01,1.920696496963500977e-01,1.920602560043334905e-01,1.920508503913879450e-01,1.920414328575134333e-01,1.920320272445678600e-01,1.920226454734802191e-01,1.920132398605346735e-01,1.920038342475891002e-01,1.919944286346435547e-01,1.919850468635559138e-01,1.919756412506103405e-01,1.919662475585937611e-01,1.919568657875060924e-01,1.919474720954895131e-01,1.919380664825439398e-01,1.919286966323852650e-01,1.919192910194396917e-01,1.919098973274230846e-01,1.919005036354065052e-01,1.918911337852478027e-01,1.918817400932311956e-01,1.918723464012145885e-01,1.918629765510559138e-01,1.918535828590393066e-01,1.918442010879516657e-01,1.918348312377929632e-01,1.918254375457763561e-01,1.918160557746887152e-01,1.918066740036010742e-01,1.917973041534423717e-01,1.917879223823547308e-01,1.917785406112670898e-01,1.917691826820373535e-01,1.917598009109497126e-01
1.820670247077941784e-01,1.820585727691650391e-01,1.820501327514648382e-01,1.820416808128356989e-01,1.820332288742065319e-01,1.820247888565063588e-01,1.820163369178771917e-01,1.820078849792480524e-01,1.819994330406188854e-01,1.819910049438476507e-01,1.819825649261474498e-01,1.819741129875183105e-01,1.819656610488891713e-01,1.819572329521179088e-01,1.819487929344177357e-01,1.819403409957885687e-01,1.819319009780883678e-01,1.819234728813171331e-01,1.819150328636169323e-01,1.819065928459167591e-01,1.818981528282165583e-01,1.818897247314453236e-01,1.818812966346740612e-01,1.818728566169738881e-01,1.818644404411315918e-01,1.818560004234313909e-01,1.818475604057311901e-01,1.818391203880310170e-01,1.818307161331176869e-01,1.818222761154174860e-01,1.818138480186462513e-01,1.818054080009460505e-01,1.817970037460327204e-01,1.817885637283325195e-01,1.817801356315612848e-01,1.817717075347900502e-01,1.817633032798767201e-01,1.817548751831054576e-01,1.817464470863342230e-01,1.817380189895629883e-01,1.817296147346496582e-01,1.817211866378784235e-01,1.817127585411071888e-01,1.817043423652648926e-01,1.816959381103515625e-01,1.816875219345092662e-01,1.816790938377380316e-01,1.816707015037536677e-01,1.816622734069824330e-01,1.816538572311401367e-01,1.816454410552978405e-01,1.816370487213134766e-01,1.816286325454711803e-01,1.816202163696289118e-01,1.816118001937866155e-01,1.816034078598022516e-01,1.815949916839599554e-01,1.815865755081176869e-01,1.815781712532043568e-01,1.815697789192199652e-01,1.815613627433776966e-01,1.815529584884643666e-01,1.815445661544799749e-01,1.815361618995666448e-01,1.815277576446533148e-01,1.815193653106689509e-01,1.815109610557556208e-01,1.815025568008422907e-01,1.814941525459289606e-01,1.814857721328735352e-01,1.814773678779602051e-01,1.814689636230468750e-01,1.814605832099914495e-01,1.814521908760070856e-01,1.814437866210937556e-01,1.814354062080383301e-01,1.814270138740539662e-01,1.814186215400695745e-01,1.814102172851562444e-01,1.814018487930297852e-01
1.727041602134704590e-01,1.726965546607971136e-01,1.726889610290527344e-01,1.726813554763793890e-01,1.726737499237060436e-01,1.726661443710327259e-01,1.726585507392883190e-01,1.726509451866150013e-01,1.726433396339416559e-01,1.726357579231262152e-01,1.726281523704528698e-01,1.726205587387084905e-01,1.726129531860351451e-01,1.726053714752197321e-01,1.725977659225463867e-01,1.725901722908020075e-01,1.725825667381286621e-01,1.725749850273132213e-01,1.725673913955688421e-01,1.725597977638244629e-01,1.725522041320800837e-01,1.725446224212646429e-01,1.725370287895202637e-01,1.725294351577758845e-01,1.725218415260315052e-01,1.725142717361450306e-01,1.725066781044006237e-01,1.724990844726562444e-01,1.724914908409118652e-01,1.724839210510253906e-01,1.724763274192810114e-01,1.724687457084655706e-01,1.724611759185790960e-01,1.724535822868347168e-01,1.724460005760192760e-01,1.724384069442748968e-01,1.724308490753173884e-01,1.724232554435730091e-01,1.724156737327575684e-01,1.724080920219421276e-01,1.724005222320556530e-01,1.723929405212402399e-01,1.723853588104247991e-01,1.723777890205383245e-01,1.723702192306518499e-01,1.723626375198364369e-01,1.723550677299499623e-01,1.723474860191345215e-01,1.723399281501770131e-01,1.723323464393615723e-01,1.723247766494750977e-01,1.723172187805175892e-01,1.723096370697021484e-01,1.723020672798156738e-01,1.722944974899291992e-01,1.722869396209716908e-01,1.722793698310852162e-01,1.722718000411987416e-01,1.722642183303833008e-01,1.722566485404968262e-01,1.722491025924682562e-01,1.722415328025817816e-01,1.722339630126953069e-01,1.722264170646667369e-01,1.722188472747802623e-01,1.722112774848937877e-01,1.722037315368652455e-01,1.721961736679077093e-01,1.721886038780212347e-01,1.721810460090637263e-01,1.721735000610351562e-01,1.721659421920776478e-01,1.721583724021911732e-01,1.721508383750915416e-01,1.721432685852050670e-01,1.721357107162475586e-01,1.721281766891479548e-01,1.721206188201904186e-01,1.721130609512329102e-01,1.721055150032043402e-01
1.642571687698364258e-01,1.642502903938293513e-01,1.642434239387512152e-01,1.642365455627441406e-01,1.642296552658080999e-01,1.642227768898010254e-01,1.642159104347228893e-01,1.642090320587158148e-01,1.642021536827087402e-01,1.641952753067016657e-01,1.641884207725524958e-01,1.641815423965454213e-01,1.641746640205383190e-01,1.641678094863891491e-01,1.641609311103820745e-01,1.641540527343750000e-01,1.641471862792968639e-01,1.641403317451476940e-01,1.641334533691406194e-01,1.641265869140625111e-01,1.641197085380554088e-01,1.641128540039062389e-01,1.641059875488281306e-01,1.640991210937499944e-01,1.640922427177429199e-01,1.640853881835937500e-01,1.640785217285156139e-01,1.640716552734375056e-01,1.640647888183593694e-01,1.640579462051391657e-01,1.640510797500610296e-01,1.640442132949829213e-01,1.640373468399047852e-01,1.640304923057556152e-01,1.640236377716064453e-01,1.640167713165283092e-01,1.640099287033081055e-01,1.640030622482299694e-01,1.639961957931518610e-01,1.639893412590026911e-01,1.639824986457824596e-01,1.639756321907043513e-01,1.639687776565551813e-01,1.639619231224060114e-01,1.639550805091857799e-01,1.639482140541076716e-01,1.639413595199585016e-01,1.639345049858093317e-01,1.639276623725891002e-01,1.639208078384399303e-01,1.639139533042907604e-01,1.639070987701415905e-01,1.639002680778503529e-01,1.638934135437011830e-01,1.638865590095520131e-01,1.638797044754028431e-01,1.638728737831115778e-01,1.638660192489624079e-01,1.638591766357421764e-01,1.638523340225219727e-01,1.638454914093017689e-01,1.638386487960815374e-01,1.638317942619323675e-01,1.638249516487121638e-01,1.638181209564208984e-01,1.638112664222717285e-01,1.638044238090515248e-01,1.637975931167602595e-01,1.637907505035400280e-01,1.637839078903198242e-01,1.637770771980285589e-01,1.637702345848083552e-01,1.637634038925170898e-01,1.637565612792968861e-01,1.637497305870056208e-01,1.637428879737853893e-01,1.637360572814941517e-01,1.637292265892028864e-01,1.637223958969116211e-01,1.637155532836914174e-01
1.565979480743408259e-01,1.565916895866394098e-01,1.565854430198669323e-01,1.565791964530944824e-01,1.565729379653930664e-01,1.565666794776916504e-01,1.565604448318481390e-01,1.565541982650756891e-01,1.565479397773742731e-01,1.565416932106017955e-01,1.565354585647583119e-01,1.565292000770568959e-01,1.565229535102844183e-01,1.565167069435119684e-01,1.565104722976684570e-01,1.565042138099670410e-01,1.564979672431945912e-01,1.564917206764221136e-01,1.564854860305786022e-01,1.564792394638061523e-01,1.564729928970337025e-01,1.564667701721191295e-01,1.564605236053466797e-01,1.564542770385742299e-01,1.564480304718017523e-01,1.564417958259582409e-01,1.564355611801147572e-01,1.564293146133422796e-01,1.564230680465698298e-01,1.564168453216552845e-01,1.564105987548828069e-01,1.564043641090392955e-01,1.563981175422668457e-01,1.563918948173523005e-01,1.563856601715087891e-01,1.563794136047363392e-01,1.563731789588928278e-01,1.563669562339782826e-01,1.563607215881347712e-01,1.563544869422912598e-01,1.563482403755188099e-01,1.563420295715332031e-01,1.563357949256896917e-01,1.563295602798461803e-01,1.563233375549316351e-01,1.563171029090881237e-01,1.563108682632446400e-01,1.563046336174011286e-01,1.562984228134155218e-01,1.562921881675720104e-01,1.562859535217285267e-01,1.562797188758850153e-01,1.562735080718994085e-01,1.562672734260558971e-01,1.562610507011413519e-01,1.562548160552978405e-01,1.562486052513122614e-01,1.562423825263977162e-01,1.562361478805542048e-01,1.562299251556396595e-01,1.562237143516540527e-01,1.562174797058105413e-01,1.562112569808959961e-01,1.562050461769103893e-01,1.561988234519958441e-01,1.561926007270812988e-01,1.561863780021667536e-01,1.561801552772522084e-01,1.561739444732666016e-01,1.561677217483520563e-01,1.561614990234375111e-01,1.561553001403808705e-01,1.561490774154662975e-01,1.561428546905517523e-01,1.561366558074951116e-01,1.561304330825805664e-01,1.561242103576660212e-01,1.561179995536804144e-01,1.561117887496948353e-01,1.561055779457092285e-01
1.496211886405944824e-01,1.496154665946960449e-01,1.496097564697265736e-01,1.496040701866149791e-01,1.495983600616455078e-01,1.495926499366760365e-01,1.495869517326355036e-01,1.495812416076660045e-01,1.495755314826965332e-01,1.495698332786560003e-01,1.495641350746154674e-01,1.495584249496459961e-01,1.495527267456054632e-01,1.495470166206359919e-01,1.495413303375244252e-01,1.495356202125549261e-01,1.495299220085143932e-01,1.495242118835449219e-01,1.495185256004333552e-01,1.495128154754638561e-01,1.495071172714233509e-01,1.495014190673828181e-01,1.494957208633422852e-01,1.494900226593017523e-01,1.494843244552612194e-01,1.494786381721496527e-01,1.494729399681091198e-01,1.494672417640686146e-01,1.494615435600280817e-01,1.494558572769165150e-01,1.494501590728759821e-01,1.494444608688354492e-01,1.494387626647949163e-01,1.494330763816833496e-01,1.494273781776428167e-01,1.494216799736022838e-01,1.494159936904907171e-01,1.494103074073791504e-01,1.494046092033386175e-01,1.493989229202270508e-01,1.493932247161865179e-01,1.493875384330749512e-01,1.493818521499633845e-01,1.493761539459228516e-01,1.493704676628112848e-01,1.493647933006286566e-01,1.493590950965881237e-01,1.493534088134765569e-01,1.493477344512939564e-01,1.493420362472534235e-01,1.493363499641418568e-01,1.493306636810302623e-01,1.493249893188476618e-01,1.493192911148071289e-01,1.493136048316955622e-01,1.493079185485839955e-01,1.493022441864013672e-01,1.492965579032898005e-01,1.492908716201782338e-01,1.492851853370666393e-01,1.492795228958129772e-01,1.492738366127014105e-01,1.492681503295898438e-01,1.492624640464782770e-01,1.492567896842956487e-01,1.492511153221130482e-01,1.492454290390014537e-01,1.492397546768188532e-01,1.492340803146362249e-01,1.492283940315246582e-01,1.492227196693420299e-01,1.492170333862304632e-01,1.492113709449768011e-01,1.492056846618652344e-01,1.492000102996826061e-01,1.491943478584289440e-01,1.491886615753173773e-01,1.491829872131347767e-01,1.491773247718811146e-01,1.491716504096984863e-01
1.432395696640014759e-01,1.432343244552612416e-01,1.432290911674499456e-01,1.432238698005676159e-01,1.432186365127563477e-01,1.432134151458740179e-01,1.432081818580627497e-01,1.432029604911804199e-01,1.431977272033691517e-01,1.431924939155578558e-01,1.431872725486755260e-01,1.431820511817932240e-01,1.431768178939819280e-01,1.431715846061706598e-01,1.431663751602172963e-01,1.431611418724060003e-01,1.431559085845947321e-01,1.431506872177124023e-01,1.431454658508300726e-01,1.431402444839477428e-01,1.431350231170654408e-01,1.431297898292541448e-01,1.431245803833007812e-01,1.431193470954895131e-01,1.431141257286071833e-01,1.431089043617248535e-01,1.431036949157714899e-01,1.430984616279601940e-01,1.430932402610778920e-01,1.430880308151245006e-01,1.430828094482421986e-01,1.430775880813598688e-01,1.430723667144775391e-01,1.430671572685241755e-01,1.430619359016418457e-01,1.430567145347595159e-01,1.430514931678771862e-01,1.430462837219238226e-01,1.430410623550414928e-01,1.430358409881591908e-01,1.430306196212768610e-01,1.430254220962524359e-01,1.430202007293701061e-01,1.430149793624878041e-01,1.430097699165344127e-01,1.430045604705810491e-01,1.429993391036987194e-01,1.429941296577453558e-01,1.429889082908630260e-01,1.429837107658386286e-01,1.429784893989562988e-01,1.429732799530029352e-01,1.429680705070495716e-01,1.429628610610961803e-01,1.429576516151428167e-01,1.429524302482604869e-01,1.429472327232360895e-01,1.429420232772827259e-01,1.429368019104003962e-01,1.429315924644470326e-01,1.429263949394226074e-01,1.429211854934692438e-01,1.429159760475158802e-01,1.429107666015624889e-01,1.429055690765380915e-01,1.429003596305847279e-01,1.428951501846313366e-01,1.428899407386779730e-01,1.428847432136535756e-01,1.428795337677001842e-01,1.428743243217468206e-01,1.428691148757934570e-01,1.428639292716979980e-01,1.428587198257446345e-01,1.428535103797912709e-01,1.428483009338378795e-01,1.428431153297424205e-01,1.428379058837890569e-01,1.428327083587646595e-01,1.428275108337402344e-01
1.373800516128539928e-01,1.373752355575561523e-01,1.373704195022583119e-01,1.373656272888183483e-01,1.373608112335205078e-01,1.373559951782226674e-01,1.373511791229247991e-01,1.373463869094848633e-01,1.373415708541870228e-01,1.373367547988891546e-01,1.373319506645202526e-01,1.373271465301513783e-01,1.373223304748535101e-01,1.373175263404846080e-01,1.373127222061157338e-01,1.373079180717468317e-01,1.373031020164489635e-01,1.372982978820800892e-01,1.372934937477111872e-01,1.372886896133422852e-01,1.372838854789733831e-01,1.372790694236755427e-01,1.372742772102356068e-01,1.372694730758667048e-01,1.372646689414978027e-01,1.372598528861999623e-01,1.372550606727599987e-01,1.372502565383911244e-01,1.372454524040222223e-01,1.372406482696533203e-01,1.372358560562133845e-01,1.372310519218444824e-01,1.372262477874755804e-01,1.372214436531066784e-01,1.372166514396667425e-01,1.372118473052978405e-01,1.372070431709289662e-01,1.372022509574890026e-01,1.371974468231201283e-01,1.371926426887512263e-01,1.371878504753112904e-01,1.371830582618713268e-01,1.371782541275024525e-01,1.371734499931335505e-01,1.371686577796936146e-01,1.371638655662536510e-01,1.371590733528137152e-01,1.371542692184448131e-01,1.371494650840759388e-01,1.371446847915649414e-01,1.371398806571960394e-01,1.371350884437561035e-01,1.371302843093872015e-01,1.371255040168762318e-01,1.371207118034362682e-01,1.371159076690673939e-01,1.371111154556274303e-01,1.371063351631164606e-01,1.371015310287475586e-01,1.370967388153076227e-01,1.370919585227966253e-01,1.370871663093566895e-01,1.370823621749877874e-01,1.370775699615478516e-01,1.370727896690368541e-01,1.370679974555969183e-01,1.370632052421569824e-01,1.370584130287170466e-01,1.370536327362060491e-01,1.370488405227661133e-01,1.370440483093261774e-01,1.370392560958862416e-01,1.370344758033752441e-01,1.370296835899353083e-01,1.370249032974243109e-01,1.370201110839843750e-01,1.370153307914733776e-01,1.370105385780334417e-01,1.370057582855224720e-01,1.370009660720825084e-01
