6.195320606231689009e-01,6.352430820465088113e-01,6.517716884613037331e-01,6.691858768463134766e-01,6.875566005706786887e-01,7.069643974304199441e-01,7.274997711181641069e-01,7.492637157440185103e-01,7.723700523376464400e-01,7.969469547271728072e-01,8.231391906738281250e-01,8.511116981506348100e-01,8.810522079467772993e-01,9.131760597229003906e-01,9.477310180664062500e-01,9.850041389465331587e-01,1.000000000000000000e+00,1.000000000000000000e+00,1.000000000000000000e+00,1.000000000000000000e+00,1.000000000000000000e+00,1.000000000000000000e+00,1.000000000000000000e+00,1.000000000000000000e+00,1.000000000000000000e+00,1.000000000000000000e+00,1.000000000000000000e+00,1.000000000000000000e+00,1.000000000000000000e+00,1.000000000000000000e+00,1.000000000000000000e+00,1.000000000000000000e+00,1.000000000000000000e+00,1.000000000000000000e+00,1.000000000000000000e+00,1.000000000000000000e+00,1.000000000000000000e+00,1.000000000000000000e+00,1.000000000000000000e+00,1.000000000000000000e+00,1.000000000000000000e+00,1.000000000000000000e+00,1.000000000000000000e+00,1.000000000000000000e+00,1.000000000000000000e+00,1.000000000000000000e+00,1.000000000000000000e+00,1.000000000000000000e+00,1.000000000000000000e+00,1.000000000000000000e+00,1.000000000000000000e+00,1.000000000000000000e+00,1.000000000000000000e+00,4.827653408050537331e-01,4.796525478363037331e-01,4.766759395599365345e-01,4.718769550323486106e-01,4.671628952026367076e-01,4.647142410278320424e-01,4.657026290893554465e-01,4.667050361633300892e-01,4.663778781890869363e-01,4.719337463378906472e-01,4.888495922088623158e-01,4.891364574432373047e-01,1.000000000000000000e+00,1.000000000000000000e+00,1.000000000000000000e+00,1.000000000000000000e+00,1.000000000000000000e+00,9.691832542419434038e-01,9.374771118164062500e-01,9.077796936035156250e-01,8.799058914184569868e-01,8.536929130554199441e-01,8.289965629577636941e-01,8.056889533996581809e-01,7.836561203002929688e-01,7.627962112426758257e-01,7.430180549621582253e-01
6.195188045501709428e-01,6.352291584014893022e-01,6.517570018768310547e-01,6.691679477691649947e-01,6.875372886657714622e-01,7.069439888000488281e-01,7.274780750274658647e-01,7.492408275604247603e-01,7.723456859588623269e-01,7.969209194183349831e-01,8.231115341186523438e-01,8.510821342468262163e-01,8.810204505920410378e-01,9.131420135498047319e-01,9.476943969726562278e-01,9.849644660949706809e-01,1.000000000000000000e+00,1.000000000000000000e+00,1.000000000000000000e+00,1.000000000000000000e+00,1.000000000000000000e+00,1.000000000000000000e+00,1.000000000000000000e+00,1.000000000000000000e+00,1.000000000000000000e+00,1.000000000000000000e+00,1.000000000000000000e+00,1.000000000000000000e+00,1.000000000000000000e+00,1.000000000000000000e+00,1.000000000000000000e+00,1.000000000000000000e+00,1.000000000000000000e+00,1.000000000000000000e+00,1.000000000000000000e+00,1.000000000000000000e+00,1.000000000000000000e+00,1.000000000000000000e+00,1.000000000000000000e+00,1.000000000000000000e+00,1.000000000000000000e+00,1.000000000000000000e+00,1.000000000000000000e+00,1.000000000000000000e+00,1.000000000000000000e+00,1.000000000000000000e+00,1.000000000000000000e+00,1.000000000000000000e+00,1.000000000000000000e+00,1.000000000000000000e+00,1.000000000000000000e+00,1.000000000000000000e+00,1.000000000000000000e+00,4.866549491882324330e-01,4.822960853576659934e-01,4.810737133026122825e-01,4.726848602294921875e-01,4.691197872161865234e-01,4.659047126770019531e-01,4.638507366180419922e-01,4.649244785308838113e-01,4.674770355224609486e-01,4.739052772521972767e-01,4.881665229797363392e-01,4.927331924438476674e-01,1.000000000000000000e+00,1.000000000000000000e+00,1.000000000000000000e+00,1.000000000000000000e+00,1.000000000000000000e+00,9.692117691040038618e-01,9.375036239624023882e-01,9.078045845031738059e-01,8.799292564392089400e-01,8.537149429321289062e-01,8.290173530578612837e-01,8.057085037231445090e-01,7.836746215820312722e-01,7.628138065338134766e-01,7.430346488952637163e-01
6.195055007934570090e-01,6.352151870727539285e-01,6.517423152923583762e-01,6.691525459289551225e-01,6.875183582305908203e-01,7.069235801696777122e-01,7.274564743041992410e-01,7.492178916931152566e-01,7.723213672637939675e-01,7.968949794769286665e-01,8.230838775634765625e-01,8.510524749755858931e-01,8.809887886047362837e-01,9.131079673767089622e-01,9.476576805114745872e-01,9.849247932434082031e-01,1.000000000000000000e+00,1.000000000000000000e+00,1.000000000000000000e+00,1.000000000000000000e+00,1.000000000000000000e+00,1.000000000000000000e+00,1.000000000000000000e+00,1.000000000000000000e+00,1.000000000000000000e+00,1.000000000000000000e+00,1.000000000000000000e+00,1.000000000000000000e+00,1.000000000000000000e+00,1.000000000000000000e+00,1.000000000000000000e+00,1.000000000000000000e+00,1.000000000000000000e+00,1.000000000000000000e+00,1.000000000000000000e+00,1.000000000000000000e+00,1.000000000000000000e+00,1.000000000000000000e+00,1.000000000000000000e+00,1.000000000000000000e+00,1.000000000000000000e+00,1.000000000000000000e+00,1.000000000000000000e+00,1.000000000000000000e+00,1.000000000000000000e+00,1.000000000000000000e+00,1.000000000000000000e+00,1.000000000000000000e+00,1.000000000000000000e+00,1.000000000000000000e+00,1.000000000000000000e+00,1.000000000000000000e+00,1.000000000000000000e+00,4.891356468200683816e-01,4.833349704742431752e-01,4.826009750366210826e-01,4.733036518096923606e-01,4.692180633544921764e-01,4.652483463287353516e-01,4.632554054260253906e-01,4.639733314514160045e-01,4.671162128448486106e-01,4.773038387298583762e-01,4.877103805541992410e-01,4.932144165039062389e-01,1.000000000000000000e+00,1.000000000000000000e+00,1.000000000000000000e+00,1.000000000000000000e+00,1.000000000000000000e+00,9.692400932312011941e-01,9.375301361083984153e-01,9.078293800354003684e-01,8.799526214599608931e-01,8.537369728088378684e-01,8.290380477905273660e-01,8.057281494140624556e-01,7.836932182312011941e-01,7.628313064575195090e-01,7.430513858795165794e-01
6.194922924041748047e-01,6.352013111114501731e-01,6.517277240753174272e-01,6.691370487213135210e-01,6.875020027160644309e-01,7.069034576416015625e-01,7.274348735809326172e-01,7.491949081420898882e-01,7.722970008850097434e-01,7.968690872192383257e-01,8.230561256408691628e-01,8.510229110717772993e-01,8.809571266174316406e-01,9.130738258361816850e-01,9.476209640502929465e-01,9.848852157592773438e-01,1.000000000000000000e+00,1.000000000000000000e+00,1.000000000000000000e+00,1.000000000000000000e+00,1.000000000000000000e+00,1.000000000000000000e+00,1.000000000000000000e+00,1.000000000000000000e+00,1.000000000000000000e+00,1.000000000000000000e+00,1.000000000000000000e+00,1.000000000000000000e+00,1.000000000000000000e+00,1.000000000000000000e+00,1.000000000000000000e+00,1.000000000000000000e+00,1.000000000000000000e+00,1.000000000000000000e+00,1.000000000000000000e+00,1.000000000000000000e+00,1.000000000000000000e+00,1.000000000000000000e+00,1.000000000000000000e+00,1.000000000000000000e+00,1.000000000000000000e+00,1.000000000000000000e+00,1.000000000000000000e+00,1.000000000000000000e+00,1.000000000000000000e+00,1.000000000000000000e+00,1.000000000000000000e+00,1.000000000000000000e+00,1.000000000000000000e+00,1.000000000000000000e+00,1.000000000000000000e+00,1.000000000000000000e+00,1.000000000000000000e+00,4.907910346984863392e-01,4.841019153594970925e-01,4.811896324157715066e-01,4.753219127655029519e-01,4.685798645019531028e-01,4.651179790496826061e-01,4.637100219726562611e-01,4.641682147979736550e-01,4.666356563568115345e-01,4.782476902008056530e-01,4.877309799194335938e-01,4.940511703491211049e-01,1.000000000000000000e+00,1.000000000000000000e+00,1.000000000000000000e+00,1.000000000000000000e+00,1.000000000000000000e+00,9.692684173583984153e-01,9.375567436218261719e-01,9.078542709350585493e-01,8.799759864807128462e-01,8.537589073181152122e-01,8.290588378906249556e-01,8.057476997375487837e-01,7.837116718292236328e-01,7.628484249114990678e-01,7.430668354034424272e-01
6.194790363311767356e-01,6.351873397827147993e-01,6.517130374908447488e-01,6.691215515136719194e-01,6.874856472015380415e-01,7.068861961364746316e-01,7.274135112762450950e-01,7.491719722747802734e-01,7.722726345062256303e-01,7.968431472778320090e-01,8.230284690856933816e-01,8.509933471679687056e-01,8.809253692626952681e-01,9.130397796630859153e-01,9.475843429565429243e-01,9.848455429077148660e-01,1.000000000000000000e+00,1.000000000000000000e+00,1.000000000000000000e+00,1.000000000000000000e+00,1.000000000000000000e+00,1.000000000000000000e+00,1.000000000000000000e+00,1.000000000000000000e+00,1.000000000000000000e+00,1.000000000000000000e+00,1.000000000000000000e+00,1.000000000000000000e+00,1.000000000000000000e+00,1.000000000000000000e+00,1.000000000000000000e+00,1.000000000000000000e+00,1.000000000000000000e+00,1.000000000000000000e+00,1.000000000000000000e+00,1.000000000000000000e+00,1.000000000000000000e+00,1.000000000000000000e+00,1.000000000000000000e+00,1.000000000000000000e+00,1.000000000000000000e+00,1.000000000000000000e+00,1.000000000000000000e+00,1.000000000000000000e+00,1.000000000000000000e+00,1.000000000000000000e+00,1.000000000000000000e+00,1.000000000000000000e+00,1.000000000000000000e+00,1.000000000000000000e+00,1.000000000000000000e+00,1.000000000000000000e+00,1.000000000000000000e+00,4.936107158660888450e-01,4.847166538238525391e-01,4.817836284637451172e-01,4.769018173217773326e-01,4.680058002471924050e-01,4.642035484313964955e-01,4.637350559234619252e-01,4.653384685516357422e-01,4.663608551025390514e-01,4.944374084472656361e-01,4.899775028228759988e-01,4.958993911743164174e-01,1.000000000000000000e+00,1.000000000000000000e+00,1.000000000000000000e+00,1.000000000000000000e+00,1.000000000000000000e+00,9.692968368530273660e-01,9.375832557678223100e-01,9.078791618347168413e-01,8.799993515014647993e-01,8.537809371948241743e-01,8.290793418884276900e-01,8.057662010192870872e-01,7.837284564971923606e-01,7.628640174865722878e-01,7.430816650390624778e-01
6.194658279418945312e-01,6.351734638214111550e-01,6.516983985900879350e-01,6.691061496734619363e-01,6.874693870544433816e-01,7.068689823150634544e-01,7.273952960968017578e-01,7.491493225097656250e-01,7.722482204437255415e-01,7.968172073364258035e-01,8.230008125305176003e-01,8.509637832641601118e-01,8.808937072753906250e-01,9.130058288574218750e-01,9.475476264953612837e-01,9.848059654235840066e-01,1.000000000000000000e+00,1.000000000000000000e+00,1.000000000000000000e+00,1.000000000000000000e+00,1.000000000000000000e+00,1.000000000000000000e+00,1.000000000000000000e+00,1.000000000000000000e+00,1.000000000000000000e+00,1.000000000000000000e+00,1.000000000000000000e+00,1.000000000000000000e+00,1.000000000000000000e+00,1.000000000000000000e+00,1.000000000000000000e+00,1.000000000000000000e+00,1.000000000000000000e+00,1.000000000000000000e+00,1.000000000000000000e+00,1.000000000000000000e+00,1.000000000000000000e+00,1.000000000000000000e+00,1.000000000000000000e+00,1.000000000000000000e+00,1.000000000000000000e+00,1.000000000000000000e+00,1.000000000000000000e+00,1.000000000000000000e+00,1.000000000000000000e+00,1.000000000000000000e+00,1.000000000000000000e+00,1.000000000000000000e+00,1.000000000000000000e+00,1.000000000000000000e+00,1.000000000000000000e+00,1.000000000000000000e+00,1.000000000000000000e+00,4.980355739593506081e-01,4.859364986419677512e-01,4.842072010040283092e-01,4.739976882934570090e-01,4.664085388183593639e-01,4.625028133392333762e-01,4.617944240570068248e-01,4.629283428192138561e-01,4.639320373535156250e-01,4.706877708435058816e-01,4.924301147460937722e-01,4.979880332946777233e-01,1.000000000000000000e+00,1.000000000000000000e+00,1.000000000000000000e+00,1.000000000000000000e+00,1.000000000000000000e+00,9.693251609802245872e-01,9.376097679138183372e-01,9.079040527343750222e-01,8.800218582153320757e-01,8.538011550903320535e-01,8.290977478027343750e-01,8.057836532592773660e-01,7.837449073791503684e-01,7.628796100616455078e-01,7.430964469909667747e-01
6.194525718688964622e-01,6.351594924926757812e-01,6.516837120056152566e-01,6.690907001495360884e-01,6.874530792236328569e-01,7.068517208099365234e-01,7.273769855499268022e-01,7.491299152374267800e-01,7.722240447998046653e-01,7.967913150787353516e-01,8.229731559753418191e-01,8.509342193603515181e-01,8.808620452880859819e-01,9.129716873168944868e-01,9.475109100341796431e-01,9.847662925720215288e-01,1.000000000000000000e+00,1.000000000000000000e+00,1.000000000000000000e+00,1.000000000000000000e+00,1.000000000000000000e+00,1.000000000000000000e+00,1.000000000000000000e+00,1.000000000000000000e+00,1.000000000000000000e+00,1.000000000000000000e+00,1.000000000000000000e+00,1.000000000000000000e+00,1.000000000000000000e+00,1.000000000000000000e+00,1.000000000000000000e+00,1.000000000000000000e+00,1.000000000000000000e+00,1.000000000000000000e+00,1.000000000000000000e+00,1.000000000000000000e+00,1.000000000000000000e+00,1.000000000000000000e+00,1.000000000000000000e+00,1.000000000000000000e+00,1.000000000000000000e+00,1.000000000000000000e+00,1.000000000000000000e+00,1.000000000000000000e+00,1.000000000000000000e+00,1.000000000000000000e+00,1.000000000000000000e+00,1.000000000000000000e+00,1.000000000000000000e+00,1.000000000000000000e+00,1.000000000000000000e+00,1.000000000000000000e+00,1.000000000000000000e+00,1.000000000000000000e+00,4.872375011444091686e-01,4.846921920776366965e-01,4.737693309783935769e-01,4.688740253448486217e-01,4.651959896087646262e-01,4.632567405700683816e-01,4.628741264343261830e-01,4.657827377319335715e-01,4.749133110046386830e-01,4.936915874481201394e-01,4.967679977416992188e-01,1.000000000000000000e+00,1.000000000000000000e+00,1.000000000000000000e+00,1.000000000000000000e+00,1.000000000000000000e+00,9.693529129028319868e-01,9.376346588134765181e-01,9.079262733459472212e-01,8.800426483154296653e-01,8.538207054138183816e-01,8.291161537170410600e-01,8.058011054992675337e-01,7.837614059448242410e-01,7.628952503204345925e-01,7.431111812591553178e-01
6.194393157958983931e-01,6.351455688476562722e-01,6.516690254211425781e-01,6.690752029418944868e-01,6.874367713928222212e-01,7.068345069885253462e-01,7.273587703704833540e-01,7.491106033325195535e-01,7.722034931182861772e-01,7.967654705047607644e-01,8.229454994201660378e-01,8.509046554565429243e-01,8.808302879333496094e-01,9.129376411437988281e-01,9.474742889404297319e-01,9.847267150878906694e-01,1.000000000000000000e+00,1.000000000000000000e+00,1.000000000000000000e+00,1.000000000000000000e+00,1.000000000000000000e+00,1.000000000000000000e+00,1.000000000000000000e+00,1.000000000000000000e+00,1.000000000000000000e+00,1.000000000000000000e+00,1.000000000000000000e+00,1.000000000000000000e+00,1.000000000000000000e+00,1.000000000000000000e+00,1.000000000000000000e+00,1.000000000000000000e+00,1.000000000000000000e+00,1.000000000000000000e+00,1.000000000000000000e+00,1.000000000000000000e+00,1.000000000000000000e+00,1.000000000000000000e+00,1.000000000000000000e+00,1.000000000000000000e+00,1.000000000000000000e+00,1.000000000000000000e+00,1.000000000000000000e+00,1.000000000000000000e+00,1.000000000000000000e+00,1.000000000000000000e+00,1.000000000000000000e+00,1.000000000000000000e+00,1.000000000000000000e+00,1.000000000000000000e+00,1.000000000000000000e+00,1.000000000000000000e+00,1.000000000000000000e+00,1.000000000000000000e+00,4.834347248077392467e-01,4.829763889312744252e-01,4.735013961791992299e-01,4.687808990478515847e-01,4.649246692657470481e-01,4.635868072509765625e-01,4.626561164855956809e-01,4.659616947174072266e-01,4.718472480773925892e-01,4.919118881225585938e-01,4.912912845611572266e-01,1.000000000000000000e+00,1.000000000000000000e+00,1.000000000000000000e+00,1.000000000000000000e+00,1.000000000000000000e+00,9.693781852722167525e-01,9.376582145690918191e-01,9.079483985900879128e-01,8.800634384155273660e-01,8.538402557373047097e-01,8.291346549987792525e-01,8.058184623718261941e-01,7.837778568267822488e-01,7.629108428955078125e-01,7.431260108947753684e-01
6.194261074066161887e-01,6.351316928863525169e-01,6.516544342041015181e-01,6.690598011016846147e-01,6.874204635620116965e-01,7.068172454833984153e-01,7.273405075073242632e-01,7.490911960601807085e-01,7.721828937530517134e-01,7.967435359954834206e-01,8.229179382324218750e-01,8.508749961853027122e-01,8.807986259460449663e-01,9.129035949707031694e-01,9.474375724792480913e-01,9.846870422363280806e-01,1.000000000000000000e+00,1.000000000000000000e+00,1.000000000000000000e+00,1.000000000000000000e+00,1.000000000000000000e+00,1.000000000000000000e+00,1.000000000000000000e+00,1.000000000000000000e+00,1.000000000000000000e+00,1.000000000000000000e+00,1.000000000000000000e+00,1.000000000000000000e+00,1.000000000000000000e+00,1.000000000000000000e+00,1.000000000000000000e+00,1.000000000000000000e+00,1.000000000000000000e+00,1.000000000000000000e+00,1.000000000000000000e+00,1.000000000000000000e+00,1.000000000000000000e+00,1.000000000000000000e+00,1.000000000000000000e+00,1.000000000000000000e+00,1.000000000000000000e+00,1.000000000000000000e+00,1.000000000000000000e+00,1.000000000000000000e+00,1.000000000000000000e+00,1.000000000000000000e+00,1.000000000000000000e+00,1.000000000000000000e+00,1.000000000000000000e+00,1.000000000000000000e+00,1.000000000000000000e+00,1.000000000000000000e+00,1.000000000000000000e+00,1.000000000000000000e+00,4.802320003509521484e-01,4.782812118530273549e-01,4.712921142578124778e-01,4.666920185089111217e-01,4.671998500823974498e-01,4.664123058319091797e-01,4.671225070953369252e-01,4.688229560852050781e-01,4.693227291107177623e-01,4.913568496704101562e-01,4.893679618835449219e-01,1.000000000000000000e+00,1.000000000000000000e+00,1.000000000000000000e+00,1.000000000000000000e+00,1.000000000000000000e+00,9.694033622741698997e-01,9.376817703247070090e-01,9.079705238342284934e-01,8.800841331481933372e-01,8.538598060607910378e-01,8.291530609130859375e-01,8.058358192443847434e-01,7.837943553924560103e-01,7.629263877868652788e-01,7.431407928466796653e-01
6.194128513336181197e-01,6.351177215576171431e-01,6.516397476196289507e-01,6.690443038940430132e-01,6.874041080474853072e-01,7.067999839782714844e-01,7.273221969604491965e-01,7.490718841552734819e-01,7.721623897552489790e-01,7.967216968536376953e-01,8.228945732116699219e-01,8.508454322814941184e-01,8.807669639587402122e-01,9.128695487976073997e-01,9.474009513854980691e-01,9.846474647521972212e-01,1.000000000000000000e+00,1.000000000000000000e+00,1.000000000000000000e+00,1.000000000000000000e+00,1.000000000000000000e+00,1.000000000000000000e+00,1.000000000000000000e+00,1.000000000000000000e+00,1.000000000000000000e+00,1.000000000000000000e+00,1.000000000000000000e+00,1.000000000000000000e+00,1.000000000000000000e+00,1.000000000000000000e+00,1.000000000000000000e+00,1.000000000000000000e+00,1.000000000000000000e+00,1.000000000000000000e+00,1.000000000000000000e+00,1.000000000000000000e+00,1.000000000000000000e+00,1.000000000000000000e+00,1.000000000000000000e+00,1.000000000000000000e+00,1.000000000000000000e+00,1.000000000000000000e+00,1.000000000000000000e+00,1.000000000000000000e+00,1.000000000000000000e+00,1.000000000000000000e+00,1.000000000000000000e+00,1.000000000000000000e+00,1.000000000000000000e+00,1.000000000000000000e+00,1.000000000000000000e+00,1.000000000000000000e+00,1.000000000000000000e+00,1.000000000000000000e+00,4.779697418212890403e-01,4.743405818939209206e-01,4.630931377410888450e-01,4.579833507537841575e-01,4.563362598419189453e-01,4.672047138214111550e-01,4.716924190521240012e-01,4.675168037414551003e-01,4.643219470977782981e-01,4.722929954528808372e-01,4.860086917877197155e-01,1.000000000000000000e+00,1.000000000000000000e+00,1.000000000000000000e+00,1.000000000000000000e+00,1.000000000000000000e+00,9.694285392761230469e-01,9.377053260803223100e-01,9.079925537109374556e-01,8.801049232482910378e-01,8.538793563842773660e-01,8.291714668273926225e-01,8.058532714843750222e-01,7.838108062744140181e-01,7.629419803619384988e-01,7.431556224822998269e-01
6.193995475769042969e-01,6.351038455963134988e-01,6.516251087188720259e-01,6.690289020538330300e-01,6.873878479003906472e-01,7.067827701568603072e-01,7.273039817810058594e-01,7.490524768829345259e-01,7.721417427062988725e-01,7.966997146606444868e-01,8.228712081909179688e-01,8.508204460144043191e-01,8.807352066040039507e-01,9.128355026245117410e-01,9.473642349243164285e-01,9.846077919006347434e-01,1.000000000000000000e+00,1.000000000000000000e+00,1.000000000000000000e+00,1.000000000000000000e+00,1.000000000000000000e+00,1.000000000000000000e+00,1.000000000000000000e+00,1.000000000000000000e+00,1.000000000000000000e+00,1.000000000000000000e+00,1.000000000000000000e+00,1.000000000000000000e+00,1.000000000000000000e+00,1.000000000000000000e+00,1.000000000000000000e+00,1.000000000000000000e+00,1.000000000000000000e+00,1.000000000000000000e+00,1.000000000000000000e+00,1.000000000000000000e+00,1.000000000000000000e+00,1.000000000000000000e+00,1.000000000000000000e+00,1.000000000000000000e+00,1.000000000000000000e+00,1.000000000000000000e+00,1.000000000000000000e+00,1.000000000000000000e+00,1.000000000000000000e+00,1.000000000000000000e+00,1.000000000000000000e+00,1.000000000000000000e+00,1.000000000000000000e+00,1.000000000000000000e+00,1.000000000000000000e+00,1.000000000000000000e+00,1.000000000000000000e+00,1.000000000000000000e+00,4.743740081787109486e-01,4.691609859466552845e-01,4.596387386322021706e-01,4.546787261962890736e-01,4.505424022674560658e-01,4.557426452636718639e-01,4.678928852081298828e-01,4.631407260894775391e-01,4.601847648620605580e-01,4.672047615051269642e-01,4.860497474670409934e-01,1.000000000000000000e+00,1.000000000000000000e+00,1.000000000000000000e+00,1.000000000000000000e+00,1.000000000000000000e+00,9.694537162780761941e-01,9.377288818359375000e-01,9.080146789550781472e-01,8.801257133483886275e-01,8.538989067077636941e-01,8.291898727416991965e-01,8.058707237243651900e-01,7.838272094726562722e-01,7.629576206207275835e-01,7.431704521179198775e-01
6.193863391876220925e-01,6.350899219512939897e-01,6.516104698181152122e-01,6.690134525299071822e-01,6.873715400695801225e-01,7.067655086517333762e-01,7.272857189178466575e-01,7.490330696105956809e-01,7.721211433410644087e-01,7.966777801513671431e-01,8.228477478027343972e-01,8.507954597473144087e-01,8.807084083557128462e-01,9.128014564514159712e-01,9.473275184631347878e-01,9.845682144165038840e-01,1.000000000000000000e+00,1.000000000000000000e+00,1.000000000000000000e+00,1.000000000000000000e+00,1.000000000000000000e+00,1.000000000000000000e+00,1.000000000000000000e+00,1.000000000000000000e+00,1.000000000000000000e+00,1.000000000000000000e+00,1.000000000000000000e+00,1.000000000000000000e+00,1.000000000000000000e+00,1.000000000000000000e+00,1.000000000000000000e+00,1.000000000000000000e+00,1.000000000000000000e+00,1.000000000000000000e+00,1.000000000000000000e+00,1.000000000000000000e+00,1.000000000000000000e+00,1.000000000000000000e+00,1.000000000000000000e+00,1.000000000000000000e+00,1.000000000000000000e+00,1.000000000000000000e+00,1.000000000000000000e+00,1.000000000000000000e+00,1.000000000000000000e+00,1.000000000000000000e+00,1.000000000000000000e+00,1.000000000000000000e+00,1.000000000000000000e+00,1.000000000000000000e+00,1.000000000000000000e+00,1.000000000000000000e+00,1.000000000000000000e+00,1.000000000000000000e+00,4.731767654418945201e-01,4.696175098419189675e-01,4.570689201354980469e-01,4.521642208099365123e-01,4.476805210113525280e-01,4.522800922393798717e-01,4.667989730834961049e-01,4.615474224090576061e-01,4.587006568908691406e-01,4.651615142822265736e-01,4.854730129241943137e-01,1.000000000000000000e+00,1.000000000000000000e+00,1.000000000000000000e+00,1.000000000000000000e+00,1.000000000000000000e+00,9.694788932800293413e-01,9.377525329589844194e-01,9.080368041992187278e-01,8.801465034484863281e-01,8.539184570312500222e-01,8.292083740234375000e-01,8.058880805969238503e-01,7.838437080383300337e-01,7.629732131958008035e-01,7.431852340698241743e-01
6.193730831146240234e-01,6.350759506225586160e-01,6.515957832336425337e-01,6.689979553222655806e-01,6.873551845550537331e-01,7.067482948303223100e-01,7.272675037384033203e-01,7.490137577056884544e-01,7.721006393432616743e-01,7.966559410095215288e-01,8.228243827819824441e-01,8.507704734802246094e-01,8.806815147399902344e-01,9.127725601196289285e-01,9.472908973693847656e-01,9.845286369323730247e-01,1.000000000000000000e+00,1.000000000000000000e+00,1.000000000000000000e+00,1.000000000000000000e+00,1.000000000000000000e+00,1.000000000000000000e+00,1.000000000000000000e+00,1.000000000000000000e+00,1.000000000000000000e+00,1.000000000000000000e+00,1.000000000000000000e+00,1.000000000000000000e+00,1.000000000000000000e+00,1.000000000000000000e+00,1.000000000000000000e+00,1.000000000000000000e+00,1.000000000000000000e+00,1.000000000000000000e+00,1.000000000000000000e+00,1.000000000000000000e+00,1.000000000000000000e+00,1.000000000000000000e+00,1.000000000000000000e+00,1.000000000000000000e+00,1.000000000000000000e+00,1.000000000000000000e+00,1.000000000000000000e+00,1.000000000000000000e+00,1.000000000000000000e+00,1.000000000000000000e+00,1.000000000000000000e+00,1.000000000000000000e+00,1.000000000000000000e+00,1.000000000000000000e+00,1.000000000000000000e+00,1.000000000000000000e+00,1.000000000000000000e+00,1.000000000000000000e+00,4.692977428436279075e-01,4.615232944488525391e-01,4.549689292907714844e-01,4.498450756072998047e-01,4.450899600982666238e-01,4.490185737609863059e-01,4.666126251220703014e-01,4.608843326568603516e-01,4.581528186798095592e-01,4.640435218811035378e-01,4.795901298522949330e-01,4.801834106445312389e-01,1.000000000000000000e+00,1.000000000000000000e+00,1.000000000000000000e+00,1.000000000000000000e+00,9.695040702819823775e-01,9.377759933471679910e-01,9.080588340759276900e-01,8.801672935485840288e-01,8.539380073547363503e-01,8.292267799377441850e-01,8.059055328369140181e-01,7.838601589202880415e-01,7.629888534545898882e-01,7.432000637054443359e-01
6.193704605102539062e-01,6.350670814514159934e-01,6.515811443328857200e-01,6.689825534820557085e-01,6.873389244079589622e-01,7.067310333251952681e-01,7.272492408752441184e-01,7.489943981170654741e-01,7.720800399780273215e-01,7.966340065002441850e-01,8.228010177612304910e-01,8.507454872131348100e-01,8.806548118591308594e-01,9.127437591552733931e-01,9.472596168518065962e-01,9.844889640808105469e-01,1.000000000000000000e+00,1.000000000000000000e+00,1.000000000000000000e+00,1.000000000000000000e+00,1.000000000000000000e+00,1.000000000000000000e+00,1.000000000000000000e+00,1.000000000000000000e+00,1.000000000000000000e+00,1.000000000000000000e+00,1.000000000000000000e+00,1.000000000000000000e+00,1.000000000000000000e+00,1.000000000000000000e+00,1.000000000000000000e+00,1.000000000000000000e+00,1.000000000000000000e+00,1.000000000000000000e+00,1.000000000000000000e+00,1.000000000000000000e+00,1.000000000000000000e+00,1.000000000000000000e+00,1.000000000000000000e+00,1.000000000000000000e+00,1.000000000000000000e+00,1.000000000000000000e+00,1.000000000000000000e+00,1.000000000000000000e+00,1.000000000000000000e+00,1.000000000000000000e+00,1.000000000000000000e+00,1.000000000000000000e+00,1.000000000000000000e+00,1.000000000000000000e+00,1.000000000000000000e+00,1.000000000000000000e+00,1.000000000000000000e+00,1.000000000000000000e+00,4.666121482849120983e-01,4.561760902404785045e-01,4.554506301879882590e-01,4.477938652038574441e-01,4.427380561828613281e-01,4.456548213958740345e-01,4.662260055541992410e-01,4.599360942840576283e-01,4.576062679290771595e-01,4.634836196899413951e-01,4.780355930328369363e-01,4.777656078338622936e-01,1.000000000000000000e+00,1.000000000000000000e+00,1.000000000000000000e+00,1.000000000000000000e+00,9.695293426513671431e-01,9.377996444702147993e-01,9.080809593200683816e-01,8.801879882812500000e-01,8.539575576782226785e-01,8.292451858520507590e-01,8.059228897094726785e-01,7.838766574859619141e-01,7.630044460296631081e-01,7.432148933410644975e-01
6.193704605102539062e-01,6.350671291351318581e-01,6.515800952911376953e-01,6.689746379852294922e-01,6.873234272003173606e-01,7.067137718200683372e-01,7.272309303283691628e-01,7.489749908447265181e-01,7.720594882965088335e-01,7.966121673583984597e-01,8.227777481079101562e-01,8.507205009460448997e-01,8.806280136108398660e-01,9.127150535583495872e-01,9.472287178039551225e-01,9.844551086425781250e-01,1.000000000000000000e+00,1.000000000000000000e+00,1.000000000000000000e+00,1.000000000000000000e+00,1.000000000000000000e+00,1.000000000000000000e+00,1.000000000000000000e+00,1.000000000000000000e+00,1.000000000000000000e+00,1.000000000000000000e+00,1.000000000000000000e+00,1.000000000000000000e+00,1.000000000000000000e+00,1.000000000000000000e+00,1.000000000000000000e+00,1.000000000000000000e+00,1.000000000000000000e+00,1.000000000000000000e+00,1.000000000000000000e+00,1.000000000000000000e+00,1.000000000000000000e+00,1.000000000000000000e+00,1.000000000000000000e+00,1.000000000000000000e+00,1.000000000000000000e+00,1.000000000000000000e+00,1.000000000000000000e+00,1.000000000000000000e+00,1.000000000000000000e+00,1.000000000000000000e+00,1.000000000000000000e+00,1.000000000000000000e+00,1.000000000000000000e+00,1.000000000000000000e+00,1.000000000000000000e+00,1.000000000000000000e+00,1.000000000000000000e+00,1.000000000000000000e+00,4.651592254638671764e-01,4.516146183013916016e-01,4.588304042816161998e-01,4.452615737915038840e-01,4.402625083923339955e-01,4.429129123687743919e-01,4.658136367797851562e-01,4.589037418365478627e-01,4.568152427673339844e-01,4.629509449005126953e-01,1.000000000000000000e+00,4.921299934387207142e-01,1.000000000000000000e+00,1.000000000000000000e+00,1.000000000000000000e+00,1.000000000000000000e+00,9.695544242858886719e-01,9.378232002258301003e-01,9.081030845642089622e-01,8.802087783813477007e-01,8.539771080017090066e-01,8.292635917663574441e-01,8.059403419494628462e-01,7.838931083679199219e-01,7.630200386047363281e-01,7.432297229766845481e-01
6.193672180175781028e-01,6.350671291351318581e-01,6.515800952911376953e-01,6.689746856689453569e-01,6.873234272003173606e-01,7.067071437835693581e-01,7.272159576416015181e-01,7.489556789398192915e-01,7.720388889312743697e-01,7.965902328491211160e-01,8.227543830871582031e-01,8.506956100463867188e-01,8.806013107299804910e-01,9.126862525939941628e-01,9.471977233886719194e-01,9.844217300415039062e-01,1.000000000000000000e+00,1.000000000000000000e+00,1.000000000000000000e+00,1.000000000000000000e+00,1.000000000000000000e+00,1.000000000000000000e+00,1.000000000000000000e+00,1.000000000000000000e+00,1.000000000000000000e+00,1.000000000000000000e+00,1.000000000000000000e+00,1.000000000000000000e+00,1.000000000000000000e+00,1.000000000000000000e+00,1.000000000000000000e+00,1.000000000000000000e+00,1.000000000000000000e+00,1.000000000000000000e+00,1.000000000000000000e+00,1.000000000000000000e+00,1.000000000000000000e+00,1.000000000000000000e+00,1.000000000000000000e+00,1.000000000000000000e+00,1.000000000000000000e+00,1.000000000000000000e+00,1.000000000000000000e+00,1.000000000000000000e+00,1.000000000000000000e+00,1.000000000000000000e+00,1.000000000000000000e+00,1.000000000000000000e+00,1.000000000000000000e+00,1.000000000000000000e+00,1.000000000000000000e+00,1.000000000000000000e+00,1.000000000000000000e+00,1.000000000000000000e+00,4.617471218109130970e-01,1.000000000000000000e+00,4.644956111907959095e-01,4.433478832244873158e-01,4.378144741058349609e-01,4.398336887359619030e-01,4.648994445800781472e-01,4.578670501708984597e-01,4.560519218444823997e-01,4.605923652648925559e-01,1.000000000000000000e+00,1.000000000000000000e+00,1.000000000000000000e+00,1.000000000000000000e+00,1.000000000000000000e+00,1.000000000000000000e+00,9.695796966552734375e-01,9.378467559814452903e-01,9.081252098083496538e-01,8.802295684814452903e-01,8.539966583251953347e-01,8.292820930480957475e-01,8.059577941894531250e-01,7.839096069335937944e-01,7.630356788635254128e-01,7.432445049285888450e-01
6.193539619445800337e-01,6.350558757781982200e-01,6.515747070312499778e-01,6.689746856689453569e-01,6.873235225677489790e-01,7.067072391510009766e-01,7.272159576416015181e-01,7.489506721496581587e-01,7.720245838165282759e-01,7.965682983398437722e-01,8.227309226989746316e-01,8.506705284118651900e-01,8.805745124816894975e-01,9.126575469970703569e-01,9.471668243408203347e-01,9.843882560729980691e-01,1.000000000000000000e+00,1.000000000000000000e+00,1.000000000000000000e+00,1.000000000000000000e+00,1.000000000000000000e+00,1.000000000000000000e+00,1.000000000000000000e+00,1.000000000000000000e+00,1.000000000000000000e+00,1.000000000000000000e+00,1.000000000000000000e+00,1.000000000000000000e+00,1.000000000000000000e+00,1.000000000000000000e+00,1.000000000000000000e+00,1.000000000000000000e+00,1.000000000000000000e+00,1.000000000000000000e+00,1.000000000000000000e+00,1.000000000000000000e+00,1.000000000000000000e+00,1.000000000000000000e+00,1.000000000000000000e+00,1.000000000000000000e+00,1.000000000000000000e+00,1.000000000000000000e+00,1.000000000000000000e+00,1.000000000000000000e+00,1.000000000000000000e+00,1.000000000000000000e+00,1.000000000000000000e+00,1.000000000000000000e+00,1.000000000000000000e+00,1.000000000000000000e+00,1.000000000000000000e+00,1.000000000000000000e+00,1.000000000000000000e+00,1.000000000000000000e+00,1.000000000000000000e+00,1.000000000000000000e+00,1.000000000000000000e+00,4.417574405670166016e-01,4.353934764862060769e-01,4.365578174591064342e-01,4.638459682464599609e-01,4.563682556152343639e-01,4.552844524383544700e-01,4.605522632598876842e-01,1.000000000000000000e+00,1.000000000000000000e+00,1.000000000000000000e+00,1.000000000000000000e+00,1.000000000000000000e+00,1.000000000000000000e+00,9.696048736572265847e-01,9.378704071044922097e-01,9.081473350524902344e-01,8.802503585815429910e-01,8.540162086486816628e-01,8.293004989624023215e-01,8.059751510620116743e-01,7.839261054992675559e-01,7.630512714385986328e-01,7.432592391967773882e-01
6.193407058715820757e-01,6.350419521331787109e-01,6.515600204467772993e-01,6.689602851867675337e-01,6.873154640197753906e-01,7.067063331604004350e-01,7.272160530090332475e-01,7.489507675170898882e-01,7.720245838165282759e-01,7.965654373168945535e-01,8.227176666259765625e-01,8.506456375122070090e-01,8.805477142333983931e-01,9.126287460327148215e-01,9.471358299255371316e-01,9.843548774719238503e-01,1.000000000000000000e+00,1.000000000000000000e+00,1.000000000000000000e+00,1.000000000000000000e+00,1.000000000000000000e+00,1.000000000000000000e+00,1.000000000000000000e+00,1.000000000000000000e+00,1.000000000000000000e+00,1.000000000000000000e+00,1.000000000000000000e+00,1.000000000000000000e+00,1.000000000000000000e+00,1.000000000000000000e+00,1.000000000000000000e+00,1.000000000000000000e+00,1.000000000000000000e+00,1.000000000000000000e+00,1.000000000000000000e+00,1.000000000000000000e+00,1.000000000000000000e+00,1.000000000000000000e+00,1.000000000000000000e+00,1.000000000000000000e+00,1.000000000000000000e+00,1.000000000000000000e+00,1.000000000000000000e+00,1.000000000000000000e+00,1.000000000000000000e+00,1.000000000000000000e+00,1.000000000000000000e+00,1.000000000000000000e+00,1.000000000000000000e+00,1.000000000000000000e+00,1.000000000000000000e+00,1.000000000000000000e+00,1.000000000000000000e+00,1.000000000000000000e+00,1.000000000000000000e+00,1.000000000000000000e+00,1.000000000000000000e+00,4.447815895080566295e-01,4.347699165344238170e-01,4.354817867279052734e-01,4.635116100311279519e-01,4.553976058959960938e-01,4.538440704345703125e-01,1.000000000000000000e+00,1.000000000000000000e+00,1.000000000000000000e+00,1.000000000000000000e+00,1.000000000000000000e+00,1.000000000000000000e+00,1.000000000000000000e+00,9.696301460266113503e-01,9.378938674926757812e-01,9.081694602966308150e-01,8.802711486816405806e-01,8.540357589721679910e-01,8.293189048767090066e-01,8.059925079345703347e-01,7.839425563812255637e-01,7.630669116973877175e-01,7.432740688323974387e-01
6.193274497985840066e-01,6.350280284881592019e-01,6.515452861785888672e-01,6.689448356628417969e-01,6.872991561889648660e-01,7.066890716552733931e-01,7.272048473358154741e-01,7.489473342895507368e-01,7.720246791839600053e-01,7.965655326843261719e-01,8.227177619934081809e-01,8.506455421447753906e-01,8.805359840393066628e-01,9.126034736633300559e-01,9.471048355102539285e-01,9.843214035034180132e-01,1.000000000000000000e+00,1.000000000000000000e+00,1.000000000000000000e+00,1.000000000000000000e+00,1.000000000000000000e+00,1.000000000000000000e+00,1.000000000000000000e+00,1.000000000000000000e+00,1.000000000000000000e+00,1.000000000000000000e+00,1.000000000000000000e+00,1.000000000000000000e+00,1.000000000000000000e+00,1.000000000000000000e+00,1.000000000000000000e+00,1.000000000000000000e+00,1.000000000000000000e+00,1.000000000000000000e+00,1.000000000000000000e+00,1.000000000000000000e+00,1.000000000000000000e+00,1.000000000000000000e+00,1.000000000000000000e+00,1.000000000000000000e+00,1.000000000000000000e+00,1.000000000000000000e+00,1.000000000000000000e+00,1.000000000000000000e+00,1.000000000000000000e+00,1.000000000000000000e+00,1.000000000000000000e+00,1.000000000000000000e+00,1.000000000000000000e+00,1.000000000000000000e+00,1.000000000000000000e+00,1.000000000000000000e+00,1.000000000000000000e+00,1.000000000000000000e+00,1.000000000000000000e+00,1.000000000000000000e+00,1.000000000000000000e+00,4.456508159637451172e-01,4.355559349060058594e-01,4.366425514221191628e-01,4.635731220245361550e-01,4.555130481719970592e-01,4.538482666015625222e-01,1.000000000000000000e+00,1.000000000000000000e+00,1.000000000000000000e+00,1.000000000000000000e+00,1.000000000000000000e+00,1.000000000000000000e+00,1.000000000000000000e+00,9.696553230285644975e-01,9.379175186157227007e-01,9.081914901733398882e-01,8.802918434143066628e-01,8.540553092956543191e-01,8.293374061584473100e-01,8.060099601745605025e-01,7.839590549468994363e-01,7.630827903747559038e-01,7.432899475097656250e-01
6.193141460418700728e-01,6.350140094757079634e-01,6.515305995941161887e-01,6.689293384552001953e-01,6.872828006744384766e-01,7.066718101501464622e-01,7.271864891052246538e-01,7.489279270172118919e-01,7.720095157623291238e-01,7.965590000152588113e-01,8.227177619934081809e-01,8.506456375122070090e-01,8.805359840393066628e-01,9.126035690307616743e-01,9.470951080322265181e-01,9.842962265014648660e-01,1.000000000000000000e+00,1.000000000000000000e+00,1.000000000000000000e+00,1.000000000000000000e+00,1.000000000000000000e+00,1.000000000000000000e+00,1.000000000000000000e+00,1.000000000000000000e+00,1.000000000000000000e+00,1.000000000000000000e+00,1.000000000000000000e+00,1.000000000000000000e+00,1.000000000000000000e+00,1.000000000000000000e+00,1.000000000000000000e+00,1.000000000000000000e+00,1.000000000000000000e+00,1.000000000000000000e+00,1.000000000000000000e+00,1.000000000000000000e+00,1.000000000000000000e+00,1.000000000000000000e+00,1.000000000000000000e+00,1.000000000000000000e+00,1.000000000000000000e+00,1.000000000000000000e+00,1.000000000000000000e+00,1.000000000000000000e+00,1.000000000000000000e+00,1.000000000000000000e+00,1.000000000000000000e+00,1.000000000000000000e+00,1.000000000000000000e+00,1.000000000000000000e+00,1.000000000000000000e+00,1.000000000000000000e+00,1.000000000000000000e+00,1.000000000000000000e+00,1.000000000000000000e+00,1.000000000000000000e+00,4.657491683959961160e-01,4.494580268859863503e-01,4.408017635345459206e-01,4.434476375579833873e-01,4.659909248352051003e-01,4.583542823791503795e-01,4.569648742675781472e-01,1.000000000000000000e+00,1.000000000000000000e+00,1.000000000000000000e+00,1.000000000000000000e+00,1.000000000000000000e+00,1.000000000000000000e+00,1.000000000000000000e+00,9.696805000305175337e-01,9.379410743713378906e-01,9.082136154174804688e-01,8.803126335144042525e-01,8.540748596191406472e-01,8.293558120727538840e-01,8.060281753540039507e-01,7.839771270751952903e-01,7.631003856658935547e-01,7.433066844940185991e-01
6.193008422851562500e-01,6.350000858306884544e-01,6.515159606933593750e-01,6.689138889312744585e-01,6.872664928436279519e-01,7.066544532775879128e-01,7.271682262420654519e-01,7.489085197448730469e-01,7.719889163970947710e-01,7.965370655059814675e-01,8.226976394653320312e-01,8.506350517272949219e-01,8.805360794067382812e-01,9.126036643981934038e-01,9.470952033996582475e-01,9.842963218688964844e-01,1.000000000000000000e+00,1.000000000000000000e+00,1.000000000000000000e+00,1.000000000000000000e+00,1.000000000000000000e+00,1.000000000000000000e+00,1.000000000000000000e+00,1.000000000000000000e+00,1.000000000000000000e+00,1.000000000000000000e+00,1.000000000000000000e+00,1.000000000000000000e+00,1.000000000000000000e+00,1.000000000000000000e+00,1.000000000000000000e+00,1.000000000000000000e+00,1.000000000000000000e+00,1.000000000000000000e+00,1.000000000000000000e+00,1.000000000000000000e+00,1.000000000000000000e+00,1.000000000000000000e+00,1.000000000000000000e+00,1.000000000000000000e+00,1.000000000000000000e+00,1.000000000000000000e+00,1.000000000000000000e+00,1.000000000000000000e+00,1.000000000000000000e+00,1.000000000000000000e+00,1.000000000000000000e+00,1.000000000000000000e+00,1.000000000000000000e+00,1.000000000000000000e+00,1.000000000000000000e+00,1.000000000000000000e+00,1.000000000000000000e+00,1.000000000000000000e+00,1.000000000000000000e+00,1.000000000000000000e+00,4.694458961486816517e-01,4.576750755310058372e-01,4.528023242950439675e-01,1.000000000000000000e+00,4.682786941528320201e-01,4.629015445709228627e-01,4.663246631622314231e-01,1.000000000000000000e+00,1.000000000000000000e+00,1.000000000000000000e+00,1.000000000000000000e+00,1.000000000000000000e+00,1.000000000000000000e+00,1.000000000000000000e+00,9.697056770324706809e-01,9.379647254943848100e-01,9.082357406616210493e-01,8.803339004516601562e-01,8.540958404541015847e-01,8.293765068054199663e-01,8.060478210449218972e-01,7.839956760406494585e-01,7.631180286407470703e-01,7.433233737945557085e-01
6.192875862121581809e-01,6.349861145019530806e-01,6.515012741088866965e-01,6.688983917236328569e-01,6.872500896453856978e-01,7.066371917724609819e-01,7.271499156951903853e-01,7.488891601562499556e-01,7.719682693481445535e-01,7.965150356292725053e-01,8.226742744445800781e-01,8.506100654602051225e-01,8.805097579956054910e-01,9.125880241394043191e-01,9.470920562744140625e-01,9.842964172363281028e-01,1.000000000000000000e+00,1.000000000000000000e+00,1.000000000000000000e+00,1.000000000000000000e+00,1.000000000000000000e+00,1.000000000000000000e+00,1.000000000000000000e+00,1.000000000000000000e+00,1.000000000000000000e+00,1.000000000000000000e+00,1.000000000000000000e+00,1.000000000000000000e+00,1.000000000000000000e+00,1.000000000000000000e+00,1.000000000000000000e+00,1.000000000000000000e+00,1.000000000000000000e+00,1.000000000000000000e+00,1.000000000000000000e+00,1.000000000000000000e+00,1.000000000000000000e+00,1.000000000000000000e+00,1.000000000000000000e+00,1.000000000000000000e+00,1.000000000000000000e+00,1.000000000000000000e+00,1.000000000000000000e+00,1.000000000000000000e+00,1.000000000000000000e+00,1.000000000000000000e+00,1.000000000000000000e+00,1.000000000000000000e+00,1.000000000000000000e+00,1.000000000000000000e+00,1.000000000000000000e+00,1.000000000000000000e+00,1.000000000000000000e+00,1.000000000000000000e+00,1.000000000000000000e+00,1.000000000000000000e+00,4.751714706420898660e-01,4.645869731903076172e-01,4.667756080627441517e-01,4.801740646362304688e-01,4.712769031524658425e-01,4.675581455230712891e-01,1.000000000000000000e+00,1.000000000000000000e+00,1.000000000000000000e+00,1.000000000000000000e+00,1.000000000000000000e+00,1.000000000000000000e+00,1.000000000000000000e+00,1.000000000000000000e+00,9.697309494018554465e-01,9.379894256591796431e-01,9.082600593566894087e-01,8.803573608398437278e-01,8.541178703308105469e-01,8.293972969055175559e-01,8.060674667358398438e-01,7.840142726898193803e-01,7.631356239318847212e-01,7.433401107788085715e-01
6.192743301391601118e-01,6.349721908569335715e-01,6.514865875244140181e-01,6.688828945159912553e-01,6.872337341308594194e-01,7.066199302673339400e-01,7.271316528320312944e-01,7.488697528839111106e-01,7.719476222991943359e-01,7.964931488037109153e-01,8.226509094238281250e-01,8.505849838256835938e-01,8.804829597473144975e-01,9.125592231750487837e-01,9.470609664916992410e-01,9.842741012573241743e-01,1.000000000000000000e+00,1.000000000000000000e+00,1.000000000000000000e+00,1.000000000000000000e+00,1.000000000000000000e+00,1.000000000000000000e+00,1.000000000000000000e+00,1.000000000000000000e+00,1.000000000000000000e+00,1.000000000000000000e+00,1.000000000000000000e+00,1.000000000000000000e+00,1.000000000000000000e+00,1.000000000000000000e+00,1.000000000000000000e+00,1.000000000000000000e+00,1.000000000000000000e+00,1.000000000000000000e+00,1.000000000000000000e+00,1.000000000000000000e+00,1.000000000000000000e+00,1.000000000000000000e+00,1.000000000000000000e+00,1.000000000000000000e+00,1.000000000000000000e+00,1.000000000000000000e+00,1.000000000000000000e+00,1.000000000000000000e+00,1.000000000000000000e+00,1.000000000000000000e+00,1.000000000000000000e+00,1.000000000000000000e+00,1.000000000000000000e+00,1.000000000000000000e+00,1.000000000000000000e+00,1.000000000000000000e+00,1.000000000000000000e+00,1.000000000000000000e+00,1.000000000000000000e+00,1.000000000000000000e+00,4.812397480010986439e-01,4.706941127777099498e-01,4.765345096588134988e-01,4.800671100616454856e-01,4.725644111633300892e-01,4.692688465118408092e-01,1.000000000000000000e+00,1.000000000000000000e+00,1.000000000000000000e+00,1.000000000000000000e+00,1.000000000000000000e+00,1.000000000000000000e+00,1.000000000000000000e+00,1.000000000000000000e+00,9.697592735290527788e-01,9.380160331726073997e-01,9.082850456237793191e-01,8.803807258605956809e-01,8.541399955749511275e-01,8.294180870056152566e-01,8.060871124267577903e-01,7.840328693389893022e-01,7.631532669067382368e-01,7.433568000793456809e-01
6.192610740661621538e-01,6.349582672119140625e-01,6.514718532562255859e-01,6.688673973083496538e-01,6.872174263000487837e-01,7.066026687622070090e-01,7.271133899688720925e-01,7.488502979278564009e-01,7.719270229339599831e-01,7.964712142944335715e-01,8.226274490356445535e-01,8.505599975585937944e-01,8.804560661315917747e-01,9.125304222106933594e-01,9.470299720764160378e-01,9.842405319213867188e-01,1.000000000000000000e+00,1.000000000000000000e+00,1.000000000000000000e+00,1.000000000000000000e+00,1.000000000000000000e+00,1.000000000000000000e+00,1.000000000000000000e+00,1.000000000000000000e+00,1.000000000000000000e+00,1.000000000000000000e+00,1.000000000000000000e+00,1.000000000000000000e+00,1.000000000000000000e+00,1.000000000000000000e+00,1.000000000000000000e+00,1.000000000000000000e+00,1.000000000000000000e+00,1.000000000000000000e+00,1.000000000000000000e+00,1.000000000000000000e+00,1.000000000000000000e+00,1.000000000000000000e+00,1.000000000000000000e+00,1.000000000000000000e+00,1.000000000000000000e+00,1.000000000000000000e+00,1.000000000000000000e+00,1.000000000000000000e+00,1.000000000000000000e+00,1.000000000000000000e+00,1.000000000000000000e+00,1.000000000000000000e+00,1.000000000000000000e+00,1.000000000000000000e+00,1.000000000000000000e+00,1.000000000000000000e+00,1.000000000000000000e+00,1.000000000000000000e+00,1.000000000000000000e+00,1.000000000000000000e+00,4.879210472106933483e-01,4.797045707702636830e-01,1.000000000000000000e+00,4.800868511199951061e-01,4.737828731536865012e-01,4.706120014190673939e-01,1.000000000000000000e+00,1.000000000000000000e+00,1.000000000000000000e+00,1.000000000000000000e+00,1.000000000000000000e+00,1.000000000000000000e+00,1.000000000000000000e+00,1.000000000000000000e+00,9.697877883911132368e-01,9.380426406860351562e-01,9.083099365234375000e-01,8.804041862487792525e-01,8.541620254516602007e-01,8.294389724731445757e-01,8.061067581176757368e-01,7.840514659881592241e-01,7.631708621978759988e-01,7.433735370635986550e-01
6.192478179931640847e-01,6.349442481994629350e-01,6.514571666717529075e-01,6.688519477844238059e-01,6.872011184692382590e-01,7.065854072570800781e-01,7.270950317382812722e-01,7.488308906555175559e-01,7.719064235687256303e-01,7.964492797851562278e-01,8.226039886474609819e-01,8.505349159240722656e-01,8.804292678833007812e-01,9.125016212463379350e-01,9.469988822937012163e-01,9.842070579528808816e-01,1.000000000000000000e+00,1.000000000000000000e+00,1.000000000000000000e+00,1.000000000000000000e+00,1.000000000000000000e+00,1.000000000000000000e+00,1.000000000000000000e+00,1.000000000000000000e+00,1.000000000000000000e+00,1.000000000000000000e+00,1.000000000000000000e+00,1.000000000000000000e+00,1.000000000000000000e+00,1.000000000000000000e+00,1.000000000000000000e+00,1.000000000000000000e+00,1.000000000000000000e+00,1.000000000000000000e+00,1.000000000000000000e+00,1.000000000000000000e+00,1.000000000000000000e+00,1.000000000000000000e+00,1.000000000000000000e+00,1.000000000000000000e+00,1.000000000000000000e+00,1.000000000000000000e+00,1.000000000000000000e+00,1.000000000000000000e+00,1.000000000000000000e+00,1.000000000000000000e+00,1.000000000000000000e+00,1.000000000000000000e+00,1.000000000000000000e+00,1.000000000000000000e+00,1.000000000000000000e+00,1.000000000000000000e+00,1.000000000000000000e+00,1.000000000000000000e+00,1.000000000000000000e+00,1.000000000000000000e+00,4.953173160552978294e-01,4.909429073333740345e-01,1.000000000000000000e+00,4.804968357086181752e-01,4.750075817108154186e-01,4.746631622314453347e-01,1.000000000000000000e+00,1.000000000000000000e+00,1.000000000000000000e+00,1.000000000000000000e+00,1.000000000000000000e+00,1.000000000000000000e+00,1.000000000000000000e+00,1.000000000000000000e+00,9.698162078857421875e-01,9.380692481994629128e-01,9.083349227905272993e-01,8.804276466369629350e-01,8.541840553283691628e-01,8.294597625732421653e-01,8.061264038085937944e-01,7.840700626373291460e-01,7.631885051727295144e-01,7.433902263641357644e-01
6.192345142364501509e-01,6.349303245544433150e-01,6.514425277709960938e-01,6.688364982604980691e-01,6.871847629547118697e-01,7.065680980682372825e-01,7.270767688751220703e-01,7.488115310668945757e-01,7.718858242034911665e-01,7.964273452758788840e-01,8.225806236267090288e-01,8.505099296569824663e-01,8.804024696350097878e-01,9.124728202819823997e-01,9.469678878784180132e-01,9.841735839843750444e-01,1.000000000000000000e+00,1.000000000000000000e+00,1.000000000000000000e+00,1.000000000000000000e+00,1.000000000000000000e+00,1.000000000000000000e+00,1.000000000000000000e+00,1.000000000000000000e+00,1.000000000000000000e+00,1.000000000000000000e+00,1.000000000000000000e+00,1.000000000000000000e+00,1.000000000000000000e+00,1.000000000000000000e+00,1.000000000000000000e+00,1.000000000000000000e+00,1.000000000000000000e+00,1.000000000000000000e+00,1.000000000000000000e+00,1.000000000000000000e+00,1.000000000000000000e+00,1.000000000000000000e+00,1.000000000000000000e+00,1.000000000000000000e+00,1.000000000000000000e+00,1.000000000000000000e+00,1.000000000000000000e+00,1.000000000000000000e+00,1.000000000000000000e+00,1.000000000000000000e+00,1.000000000000000000e+00,1.000000000000000000e+00,1.000000000000000000e+00,1.000000000000000000e+00,1.000000000000000000e+00,1.000000000000000000e+00,1.000000000000000000e+00,1.000000000000000000e+00,1.000000000000000000e+00,1.000000000000000000e+00,5.071018695831298606e-01,1.000000000000000000e+00,1.000000000000000000e+00,4.814863204956054688e-01,4.764419078826904186e-01,1.000000000000000000e+00,1.000000000000000000e+00,1.000000000000000000e+00,1.000000000000000000e+00,1.000000000000000000e+00,1.000000000000000000e+00,1.000000000000000000e+00,1.000000000000000000e+00,1.000000000000000000e+00,9.698446273803711382e-01,9.380958557128906694e-01,9.083599090576172097e-01,8.804510116577148882e-01,8.542061805725097434e-01,8.294805526733398660e-01,8.061461448669433594e-01,7.840886592864990678e-01,7.632061004638671653e-01,7.434069633483886275e-01
6.192212581634521928e-01,6.349164009094238059e-01,6.514278411865234153e-01,6.688210010528564675e-01,6.871683597564697266e-01,7.065508365631103516e-01,7.270584583282471147e-01,7.487921237945556197e-01,7.718652248382568137e-01,7.964053153991699219e-01,8.225571632385253462e-01,8.504849433898925559e-01,8.803756713867187944e-01,9.124440193176269753e-01,9.469368934631348100e-01,9.841400146484374778e-01,1.000000000000000000e+00,1.000000000000000000e+00,1.000000000000000000e+00,1.000000000000000000e+00,1.000000000000000000e+00,1.000000000000000000e+00,1.000000000000000000e+00,1.000000000000000000e+00,1.000000000000000000e+00,1.000000000000000000e+00,1.000000000000000000e+00,1.000000000000000000e+00,1.000000000000000000e+00,1.000000000000000000e+00,1.000000000000000000e+00,1.000000000000000000e+00,1.000000000000000000e+00,1.000000000000000000e+00,1.000000000000000000e+00,1.000000000000000000e+00,1.000000000000000000e+00,1.000000000000000000e+00,1.000000000000000000e+00,1.000000000000000000e+00,1.000000000000000000e+00,1.000000000000000000e+00,1.000000000000000000e+00,1.000000000000000000e+00,1.000000000000000000e+00,1.000000000000000000e+00,1.000000000000000000e+00,1.000000000000000000e+00,1.000000000000000000e+00,1.000000000000000000e+00,1.000000000000000000e+00,1.000000000000000000e+00,1.000000000000000000e+00,1.000000000000000000e+00,1.000000000000000000e+00,1.000000000000000000e+00,5.066704750061035156e-01,1.000000000000000000e+00,1.000000000000000000e+00,4.824137687683105469e-01,4.779122352600097545e-01,1.000000000000000000e+00,1.000000000000000000e+00,1.000000000000000000e+00,1.000000000000000000e+00,1.000000000000000000e+00,1.000000000000000000e+00,1.000000000000000000e+00,1.000000000000000000e+00,1.000000000000000000e+00,9.698731422424315962e-01,9.381224632263183150e-01,9.083848953247070090e-01,8.804744720458984597e-01,8.542282104492187056e-01,8.295013427734374556e-01,8.061657905578613059e-01,7.841072559356689897e-01,7.632237434387206809e-01,7.434236049652099831e-01
6.192080020904541238e-01,6.349024295806884322e-01,6.514131546020507368e-01,6.688055038452148660e-01,6.871520519256592019e-01,7.065335750579834206e-01,7.270401954650879128e-01,7.487727642059326394e-01,7.718445301055908425e-01,7.963833808898925781e-01,8.225337982177733931e-01,8.504598617553711382e-01,8.803488731384276900e-01,9.124152183532714400e-01,9.469058036804198775e-01,9.710134506225586160e-01,9.707718849182128684e-01,9.705306053161620872e-01,9.702893257141113059e-01,9.700481414794921431e-01,9.698070526123047097e-01,9.695661544799805132e-01,9.693253517150879350e-01,9.690846443176269753e-01,9.688441276550292525e-01,9.686036109924316406e-01,9.683632850646972656e-01,9.681231498718261275e-01,9.678830146789551003e-01,9.676430702209473100e-01,9.674032211303711382e-01,9.671634674072265847e-01,9.669238090515136497e-01,9.666843414306640625e-01,9.664449691772460938e-01,9.662056922912597434e-01,9.659665107727051225e-01,9.657275199890136275e-01,9.654886245727538618e-01,9.652499198913574441e-01,9.650112152099609153e-01,9.647727012634277344e-01,9.645342826843261719e-01,9.642959594726562278e-01,9.640577316284180132e-01,9.638196945190429243e-01,9.635817527770995650e-01,9.633439064025879350e-01,9.631061553955078125e-01,9.628684997558594194e-01,9.626310348510742632e-01,9.623936653137207253e-01,9.621563911437988059e-01,9.619192123413086160e-01,9.616822242736816628e-01,5.127583980560302956e-01,5.053413867950439231e-01,5.038850784301758257e-01,9.607353210449218750e-01,4.833447933197021484e-01,4.819310188293456920e-01,9.600262641906738281e-01,9.597903251647948997e-01,9.595542907714843528e-01,9.593184471130371538e-01,9.590826988220214622e-01,9.588470458984375000e-01,9.586115837097167747e-01,9.583762168884277788e-01,9.581409454345702903e-01,9.579057693481445312e-01,9.381490707397460715e-01,9.084097862243651900e-01,8.804979324340820312e-01,8.542502403259277788e-01,8.295221328735351562e-01,8.061854362487792525e-01,7.841258525848389116e-01,7.632413387298584428e-01,7.434402942657470925e-01
6.191947460174560547e-01,6.348885059356689231e-01,6.513984203338623047e-01,6.687900066375732644e-01,6.871357440948486772e-01,7.065163135528564897e-01,7.270219326019287109e-01,7.487533092498779297e-01,7.542498588562012163e-01,7.541040897369384322e-01,7.539584636688232422e-01,7.538127899169921875e-01,7.536672592163086160e-01,7.535217285156250444e-01,7.533762931823730913e-01,7.532308578491211382e-01,7.530855655670165572e-01,7.529402256011963335e-01,7.527950286865234819e-01,7.526498317718506303e-01,7.525047779083251509e-01,7.523596286773681641e-01,7.522146701812744141e-01,7.520697116851806641e-01,7.519248485565185325e-01,7.517799377441406472e-01,7.516352176666259988e-01,7.514904499053954856e-01,7.513458251953124556e-01,7.512012481689452903e-01,7.510566234588622603e-01,7.509121894836425781e-01,7.507677078247070312e-01,7.506233215332031028e-01,7.504789352416991743e-01,7.503346920013427290e-01,7.501904487609862837e-01,7.500463008880615678e-01,7.499021530151367410e-01,7.497581005096435325e-01,7.496140956878661887e-01,7.494701862335204634e-01,7.493262290954589844e-01,7.491824150085448775e-01,7.490386009216308816e-01,7.488949298858642578e-01,7.487512111663818803e-01,7.486076354980468750e-01,7.484640121459961160e-01,7.483205318450927290e-01,7.481770515441894531e-01,7.480337142944335493e-01,7.478904247283935103e-01,7.477470874786377175e-01,7.476038932800292969e-01,7.474606513977051225e-01,5.016661643981933372e-01,4.995311260223388450e-01,7.470314979553223100e-01,4.857971191406250111e-01,7.467456340789795366e-01,7.466027259826659712e-01,7.464599609375000000e-01,7.463171958923340288e-01,7.461745262145995650e-01,7.460318565368652122e-01,7.458893299102783425e-01,7.457467555999756081e-01,7.456043243408203569e-01,7.454618930816649947e-01,7.453195571899413618e-01,7.451772212982177290e-01,7.450349807739258257e-01,7.448928356170654297e-01,7.447506427764892800e-01,7.446085929870605025e-01,7.444665431976318359e-01,7.443245887756347878e-01,7.441826343536377397e-01,7.434570312499999556e-01
6.167003154754638894e-01,6.166028976440429688e-01,6.165054798126220481e-01,6.164081096649169922e-01,6.163108348846435547e-01,6.162134647369384988e-01,6.161161899566650613e-01,6.160189628601073775e-01,6.159217357635498047e-01,6.158245563507079856e-01,6.157273769378661665e-01,6.156302928924560769e-01,6.155331611633301225e-01,6.154361248016357866e-01,6.153390407562255859e-01,6.152420997619628684e-01,6.151450634002685325e-01,6.150481700897216797e-01,6.149512767791748269e-01,6.148543834686279741e-01,6.147575378417968750e-01,6.146606922149657759e-01,6.145639419555664062e-01,6.144671440124511719e-01,6.143704414367675559e-01,6.142737388610839400e-01,6.141770839691161887e-01,6.140804290771484375e-01,6.139838218688964400e-01,6.138872146606445535e-01,6.137907028198241743e-01,6.136941909790039062e-01,6.135977268218993919e-01,6.135012626647948775e-01,6.134048461914062278e-01,6.133084297180175781e-01,6.132121086120605469e-01,6.131157398223876509e-01,6.130194664001464844e-01,6.129232406616210715e-01,6.128269672393799050e-01,6.127307891845703569e-01,6.126345634460449441e-01,6.125384330749511497e-01,6.124423027038574663e-01,6.123462200164795366e-01,6.122501373291016069e-01,6.121541500091552956e-01,6.120581150054931197e-01,6.119621753692626731e-01,6.118661880493163618e-01,6.117702960968017800e-01,6.116744041442870872e-01,6.115785598754882590e-01,6.114827156066894309e-01,6.113869667053222212e-01,6.112911701202392578e-01,4.971935272216796986e-01,5.010706901550292525e-01,4.763002872467040905e-01,4.829705715179443137e-01,6.108128547668456587e-01,6.107172966003417969e-01,6.106216907501220703e-01,6.105262279510498269e-01,6.104306697845458540e-01,6.103352546691894753e-01,6.102397918701172319e-01,6.101444244384766069e-01,6.100490093231201172e-01,6.099536895751953569e-01,6.098583698272704856e-01,6.097630977630614790e-01,6.096678256988525835e-01,6.095726490020751953e-01,6.094774246215820535e-01,6.093822956085205300e-01,6.092871189117431419e-01,6.091920375823974831e-01,6.090969562530517134e-01
5.210244655609130859e-01,5.209549427032470481e-01,5.208854198455810103e-01,5.208158969879150835e-01,5.207464218139647993e-01,5.206769943237304910e-01,5.206075191497803178e-01,5.205380916595458984e-01,5.204687118530273438e-01,5.203992843627929243e-01,5.203298568725586160e-01,5.202605247497558150e-01,5.201911926269531250e-01,5.201218605041504350e-01,5.200525283813476340e-01,5.199832916259765625e-01,5.199139595031738725e-01,5.198447704315185547e-01,5.197754859924316184e-01,5.197062969207764116e-01,5.196370601654052290e-01,5.195679187774657759e-01,5.194987297058105691e-01,5.194296360015868697e-01,5.193604946136474165e-01,5.192914009094238281e-01,5.192223072052002397e-01,5.191532611846924050e-01,5.190842151641845703e-01,5.190151691436767356e-01,5.189461708068847656e-01,5.188771724700927956e-01,5.188082218170165794e-01,5.187392234802246094e-01,5.186703205108642578e-01,5.186013698577880415e-01,5.185324668884276900e-01,5.184635639190673384e-01,5.183947563171387163e-01,5.183258533477783647e-01,5.182570457458496316e-01,5.181882381439208984e-01,5.181194782257080300e-01,5.180506706237792969e-01,5.179819107055664285e-01,5.179131507873535600e-01,5.178444862365723100e-01,5.177757740020751953e-01,5.177071094512939453e-01,5.176383972167968306e-01,5.175697803497314453e-01,5.175011634826660600e-01,5.174325466156005637e-01,5.173639774322509322e-01,5.172953605651855469e-01,5.172268390655517800e-01,5.171582698822021484e-01,5.170897960662841353e-01,5.170212745666503684e-01,4.647793769836425781e-01,4.626278400421142689e-01,5.168159008026123047e-01,5.167474746704101562e-01,5.166790485382080078e-01,5.166106700897217241e-01,5.165422916412353294e-01,5.164739131927490456e-01,5.164055824279785156e-01,5.163372516632079856e-01,5.162689685821533203e-01,5.162006855010986550e-01,5.161324501037597434e-01,5.160641670227050781e-01,5.159959316253661665e-01,5.159277439117431197e-01,5.158595561981200728e-01,5.157913684844970259e-01,5.157232284545898438e-01,5.156550884246826616e-01,5.155869483947753684e-01
4.510481834411620983e-01,4.509960651397705300e-01,4.509439945220947155e-01,4.508918762207031472e-01,4.508398056030273326e-01,4.507877349853515736e-01,4.507356643676757590e-01,4.506836414337158092e-01,4.506316184997558594e-01,4.505795955657959095e-01,4.505275726318359597e-01,4.504755973815918191e-01,4.504235744476318137e-01,4.503715991973876731e-01,4.503196239471435325e-01,4.502676486968993919e-01,4.502157211303711160e-01,4.501638412475585938e-01,4.501119136810302623e-01,4.500599861145019309e-01,4.500081062316894642e-01,4.499562263488769420e-01,4.499043464660644753e-01,4.498525142669677623e-01,4.498006343841552956e-01,4.497488021850585826e-01,4.496969699859619252e-01,4.496451854705810769e-01,4.495934009552001731e-01,4.495416164398193248e-01,4.494898319244384766e-01,4.494380950927734375e-01,4.493863105773925892e-01,4.493345737457275502e-01,4.492828369140625111e-01,4.492311477661132812e-01,4.491794109344482422e-01,4.491277694702148215e-01,4.490760326385497825e-01,4.490243911743164174e-01,4.489727497100829967e-01,4.489211082458496316e-01,4.488694667816162109e-01,4.488178730010986550e-01,4.487662792205810436e-01,4.487146377563476785e-01,4.486630916595458762e-01,4.486114978790283203e-01,4.485599517822265736e-01,4.485084056854248269e-01,4.484568595886230247e-01,4.484053134918212780e-01,4.483538150787353405e-01,4.483023166656494030e-01,4.482508182525634655e-01,4.481993198394775280e-01,4.481478691101073997e-01,4.480964183807373269e-01,4.480450153350830078e-01,4.479935646057128795e-01,4.479421615600586160e-01,4.478907108306884877e-01,4.478393554687499778e-01,4.477880001068115234e-01,4.477365970611572044e-01,4.476852416992187500e-01,4.476338863372802956e-01,4.475825786590575950e-01,4.475312232971191406e-01,4.474799156188964955e-01,4.474286079406738503e-01,4.473773479461670144e-01,4.473260402679443137e-01,4.472747802734374778e-01,4.472235202789306419e-01,4.471723079681396706e-01,4.471210479736328347e-01,4.470698356628418080e-01,4.470186233520507812e-01,4.469674587249755637e-01
3.976427078247070090e-01,3.976021766662597434e-01,3.975617170333862194e-01,3.975212097167968861e-01,3.974807500839233620e-01,3.974402666091919056e-01,3.973997831344604492e-01,3.973593711853027344e-01,3.973189115524292103e-01,3.972784519195556863e-01,3.972380399703979714e-01,3.971976041793823242e-01,3.971571922302246094e-01,3.971168041229248269e-01,3.970763921737671120e-01,3.970359802246093972e-01,3.969955921173095592e-01,3.969552040100097767e-01,3.969148635864258035e-01,3.968744754791259655e-01,3.968341112136840598e-01,3.967937707901000866e-01,3.967534542083740456e-01,3.967131137847900169e-01,3.966727972030639759e-01,3.966324567794800027e-01,3.965921878814697155e-01,3.965518951416015514e-01,3.965116024017333873e-01,3.964713573455810325e-01,3.964310646057128684e-01,3.963907957077026367e-01,3.963505268096924050e-01,3.963103055953979270e-01,3.962700605392456277e-01,3.962298154830932728e-01,3.961895704269409180e-01,3.961493968963623047e-01,3.961091756820678822e-01,3.960689783096313366e-01,3.960287809371948464e-01,3.959886312484741100e-01,3.959484338760376199e-01,3.959082603454590066e-01,3.958680868148803933e-01,3.958279848098754661e-01,3.957878112792968528e-01,3.957476854324341042e-01,3.957075357437133678e-01,3.956674575805664285e-01,3.956273317337036244e-01,3.955872297286987527e-01,3.955471754074096902e-01,3.955070734024047630e-01,3.954669713973998912e-01,3.954268932342529519e-01,3.953868627548217662e-01,3.953468084335327037e-01,3.953067541122436412e-01,3.952666997909545787e-01,3.952267169952392578e-01,3.951866865158081277e-01,3.951466560363769420e-01,3.951066493988036887e-01,3.950666904449463002e-01,3.950266838073730469e-01,3.949867010116577259e-01,3.949467182159424050e-01,3.949067831039428933e-01,3.948668241500854492e-01,3.948268651962280051e-01,3.947869062423706166e-01,3.947470188140869141e-01,3.947070837020874023e-01,3.946671485900878906e-01,3.946272850036621205e-01,3.945873737335204856e-01,3.945474624633789062e-01,3.945075750350952037e-01,3.944677352905273660e-01
3.555450916290283092e-01,3.555127143859863059e-01,3.554803371429443581e-01,3.554479598999023549e-01,3.554156064987182839e-01,3.553832292556762806e-01,3.553508758544922097e-01,3.553185462951660156e-01,3.552861928939819447e-01,3.552538394927978738e-01,3.552215337753296120e-01,3.551892042160034180e-01,3.551568746566772239e-01,3.551245689392089622e-01,3.550922632217407005e-01,3.550599813461303711e-01,3.550276756286621094e-01,3.549953699111938477e-01,3.549631118774413951e-01,3.549308300018310658e-01,3.548985481262206809e-01,3.548662662506103516e-01,3.548339843750000222e-01,3.548017263412475697e-01,3.547694921493530495e-01,3.547372341156005970e-01,3.547049999237060769e-01,3.546727418899536244e-01,3.546405553817749134e-01,3.546083211898803933e-01,3.545760869979858176e-01,3.545438766479492299e-01,3.545116901397705189e-01,3.544794797897338756e-01,3.544472694396972878e-01,3.544150829315185769e-01,3.543829202651977428e-01,3.543507337570190319e-01,3.543185710906982533e-01,3.542864322662353516e-01,3.542542457580566406e-01,3.542221069335937389e-01,3.541899442672729603e-01,3.541578292846679910e-01,3.541256904602050892e-01,3.540935516357421875e-01,3.540614128112792858e-01,3.540293216705322488e-01,3.539972066879272239e-01,3.539650917053222545e-01,3.539329767227172852e-01,3.539009094238281250e-01,3.538688182830810325e-01,3.538367271423339955e-01,3.538046360015869030e-01,3.537725925445556752e-01,3.537405014038085826e-01,3.537084341049194225e-01,3.536763906478881947e-01,3.536443710327148438e-01,3.536123037338256836e-01,3.535802602767944558e-01,3.535482645034789817e-01,3.535162210464477539e-01,3.534842014312744030e-01,3.534521818161010520e-01,3.534201860427856334e-01,3.533881902694702148e-01,3.533561944961547963e-01,3.533241748809814453e-01,3.532922267913818359e-01,3.532602310180664174e-01,3.532282590866088756e-01,3.531962871551513894e-01,3.531643629074096569e-01,3.531323909759521706e-01,3.531004428863525613e-01,3.530684947967529519e-01,3.530365705490112194e-01,3.530046463012695424e-01
3.215077161788940652e-01,3.214812517166137917e-01,3.214547634124755859e-01,3.214282751083373801e-01,3.214018344879150391e-01,3.213753700256347656e-01,3.213489055633544922e-01,3.213224649429321511e-01,3.212960004806518777e-01,3.212695837020874134e-01,3.212431192398071400e-01,3.212166786193847434e-01,3.211902618408203347e-01,3.211638212203979381e-01,3.211374044418334739e-01,3.211109876632690652e-01,3.210845708847046009e-01,3.210581541061401367e-01,3.210317611694336049e-01,3.210053443908691406e-01,3.209789514541626088e-01,3.209525585174560769e-01,3.209261655807494895e-01,3.208997726440429576e-01,3.208733797073364258e-01,3.208469867706298939e-01,3.208206176757812389e-01,3.207942724227905162e-01,3.207679033279419167e-01,3.207415342330932617e-01,3.207151889801025391e-01,3.206888198852538840e-01,3.206624746322631614e-01,3.206361293792724387e-01,3.206098079681396484e-01,3.205834627151489258e-01,3.205571174621582031e-01,3.205307960510254128e-01,3.205044984817504994e-01,3.204781770706176536e-01,3.204518556594848633e-01,3.204255342483520730e-01,3.203992366790771595e-01,3.203729391098022461e-01,3.203466415405273326e-01,3.203203439712524192e-01,3.202940702438354381e-01,3.202677726745605247e-01,3.202414989471435436e-01,3.202152013778686301e-01,3.201889514923095814e-01,3.201626777648926003e-01,3.201364278793334961e-01,3.201101779937743919e-01,3.200839281082153431e-01,3.200576782226562389e-01,3.200314044952392578e-01,3.200052022933960183e-01,3.199789524078369141e-01,3.199527025222778098e-01,3.199264764785766380e-01,3.199002742767333984e-01,3.198740482330322266e-01,3.198478221893310547e-01,3.198215961456298828e-01,3.197954177856445201e-01,3.197692155838012806e-01,3.197430133819579856e-01,3.197168111801147461e-01,3.196906328201293834e-01,3.196644544601440208e-01,3.196382522583007812e-01,3.196120738983154186e-01,3.195859193801879883e-01,3.195597648620605580e-01,3.195335865020751953e-01,3.195074558258056419e-01,3.194812774658203347e-01,3.194551229476928489e-01,3.194289684295654186e-01
2.934179544448852761e-01,2.933959245681762584e-01,2.933738470077514870e-01,2.933518171310424694e-01,2.933297634124755748e-01,2.933077096939086803e-01,2.932857036590575950e-01,2.932636499404907005e-01,2.932416200637817383e-01,2.932195901870727761e-01,2.931975603103637584e-01,2.931755304336547963e-01,2.931535243988037109e-01,2.931314945220947488e-01,2.931094884872436634e-01,2.930874824523925781e-01,2.930654764175414928e-01,2.930434703826904075e-01,2.930214881896972545e-01,2.929994821548461692e-01,2.929774999618530162e-01,2.929554939270019309e-01,2.929335117340087780e-01,2.929115533828735574e-01,2.928895473480224720e-01,2.928675651550293191e-01,2.928456068038940430e-01,2.928236007690429576e-01,2.928016424179077370e-01,2.927796840667724609e-01,2.927577257156371848e-01,2.927357435226440319e-01,2.927137851715088113e-01,2.926918506622314675e-01,2.926698923110961914e-01,2.926479578018188477e-01,2.926259994506835715e-01,2.926040887832641602e-01,2.925821304321288840e-01,2.925601959228515403e-01,2.925382852554321289e-01,2.925163507461547852e-01,2.924944400787353738e-01,2.924725055694580300e-01,2.924506187438964955e-01,2.924286842346191517e-01,2.924067735671996848e-01,2.923848628997802734e-01,2.923629760742187389e-01,2.923410654067993275e-01,2.923191785812377930e-01,2.922972679138183816e-01,2.922754049301147239e-01,2.922535181045532449e-01,2.922316312789917103e-01,2.922097444534301758e-01,2.921878814697265736e-01,2.921659946441650391e-01,2.921441316604614369e-01,2.921222448348999023e-01,2.921004056930541770e-01,2.920785427093505748e-01,2.920566797256469727e-01,2.920348405838012473e-01,2.920129776000976451e-01,2.919911384582519753e-01,2.919692754745483176e-01,2.919474601745605247e-01,2.919256210327148549e-01,2.919037818908691295e-01,2.918819427490234597e-01,2.918601274490356667e-01,2.918383121490478738e-01,2.918164730072021484e-01,2.917946577072143555e-01,2.917728424072265625e-01,2.917510271072387695e-01,2.917292118072509766e-01,2.917074203491211160e-01,2.916856288909911998e-01
2.698421716690063699e-01,2.698235034942627064e-01,2.698048591613769753e-01,2.697862148284911887e-01,2.697675704956054576e-01,2.697489261627197266e-01,2.697302818298339955e-01,2.697116374969482644e-01,2.696929931640624778e-01,2.696743726730346791e-01,2.696557521820068248e-01,2.696371078491210938e-01,2.696184873580932395e-01,2.695998668670654408e-01,2.695812702178955189e-01,2.695626258850097878e-01,2.695440053939819336e-01,2.695254087448120117e-01,2.695067882537841575e-01,2.694881916046142356e-01,2.694695949554443137e-01,2.694509983062743919e-01,2.694323778152465931e-01,2.694138050079345481e-01,2.693952083587646262e-01,2.693766117095947044e-01,2.693580150604247825e-01,2.693394422531127930e-01,2.693208456039428711e-01,2.693022727966308816e-01,2.692836761474609597e-01,2.692651033401489147e-01,2.692465305328369252e-01,2.692279338836670033e-01,2.692093610763549583e-01,2.691908121109009011e-01,2.691722393035888561e-01,2.691536664962768666e-01,2.691351175308227539e-01,2.691165685653686412e-01,2.690979957580566517e-01,2.690794467926025391e-01,2.690608978271484264e-01,2.690423488616943137e-01,2.690237998962402566e-01,2.690052509307861439e-01,2.689867258071899636e-01,2.689682006835937278e-01,2.689496517181396706e-01,2.689311265945434348e-01,2.689125776290893777e-01,2.688940763473510742e-01,2.688755273818969616e-01,2.688570022583007812e-01,2.688385009765624778e-01,2.688199758529662975e-01,2.688014507293701172e-01,2.687829494476318137e-01,2.687644481658935658e-01,2.687459468841552623e-01,2.687274217605590820e-01,2.687089204788207786e-01,2.686904430389404075e-01,2.686719417572021595e-01,2.686534404754638561e-01,2.686349391937256081e-01,2.686164617538452370e-01,2.685979604721069336e-01,2.685794830322265625e-01,2.685610055923461914e-01,2.685425281524658203e-01,2.685240507125854492e-01,2.685055732727050781e-01,2.684871196746826394e-01,2.684686422348022683e-01,2.684501647949218972e-01,2.684316873550415261e-01,2.684132575988769642e-01,2.683947801589965931e-01,2.683763265609740989e-01
2.497731685638427679e-01,2.497571945190429632e-01,2.497412204742431585e-01,2.497252464294433538e-01,2.497092723846435491e-01,2.496932983398437444e-01,2.496773242950439398e-01,2.496613502502441351e-01,2.496454000473022350e-01,2.496294260025024303e-01,2.496134519577026256e-01,2.495975017547607533e-01,2.495815277099609486e-01,2.495655775070190485e-01,2.495496273040771484e-01,2.495336532592773438e-01,2.495177030563354437e-01,2.495017766952514759e-01,2.494858026504516713e-01,2.494698524475097712e-01,2.494539260864257757e-01,2.494379758834838756e-01,2.494220256805420033e-01,2.494060993194580078e-01,2.493901729583740123e-01,2.493742465972900446e-01,2.493583202362060491e-01,2.493423700332641491e-01,2.493264675140380859e-01,2.493105173110961859e-01,2.492945909500122181e-01,2.492786884307861273e-01,2.492627620697021595e-01,2.492468357086181641e-01,2.492309093475341686e-01,2.492150068283081055e-01,2.491990804672241100e-01,2.491831541061401423e-01,2.491672754287719838e-01,2.491513490676879883e-01,2.491354465484619252e-01,2.491195678710937389e-01,2.491036653518676758e-01,2.490877628326416127e-01,2.490718603134155218e-01,2.490559816360473633e-01,2.490400791168213002e-01,2.490241765975952093e-01,2.490082979202270508e-01,2.489924192428588923e-01,2.489765167236328014e-01,2.489606380462646429e-01,2.489447593688964844e-01,2.489288806915283259e-01,2.489130020141601674e-01,2.488971233367919811e-01,2.488812446594238226e-01,2.488653898239135687e-01,2.488495349884033148e-01,2.488336563110351562e-01,2.488177776336669977e-01,2.488019466400146484e-01,2.487860679626464899e-01,2.487702131271362360e-01,2.487543582916259821e-01,2.487385034561157282e-01,2.487226486206054743e-01,2.487067937850952204e-01,2.486909627914428711e-01,2.486751079559326172e-01,2.486592769622802679e-01,2.486434221267700140e-01,2.486275911331176647e-01,2.486117601394653431e-01,2.485959053039550892e-01,2.485800743103027399e-01,2.485642671585082952e-01,2.485484123229980413e-01,2.485325813293456920e-01,2.485167741775512751e-01
2.324827432632446400e-01,2.324688911437988170e-01,2.324550390243530218e-01,2.324411869049072266e-01,2.324273586273193359e-01,2.324135303497314453e-01,2.323996782302856501e-01,2.323858261108398549e-01,2.323720216751098688e-01,2.323581695556640736e-01,2.323443412780761830e-01,2.323305130004882924e-01,2.323166847229004017e-01,2.323028564453125111e-01,2.322890281677246205e-01,2.322751998901367299e-01,2.322613716125488392e-01,2.322475671768188532e-01,2.322337388992309626e-01,2.322199344635009766e-01,2.322061300277709905e-01,2.321923017501830999e-01,2.321784973144531139e-01,2.321646928787231556e-01,2.321508646011352650e-01,2.321370840072631836e-01,2.321232557296752930e-01,2.321094512939453069e-01,2.320956707000732533e-01,2.320818662643432673e-01,2.320680618286132812e-01,2.320542573928832952e-01,2.320404767990112416e-01,2.320266723632812556e-01,2.320128917694091741e-01,2.319990873336791881e-01,2.319853067398071345e-01,2.319715261459350530e-01,2.319577217102050670e-01,2.319439172744751088e-01,2.319301605224609319e-01,2.319163560867309459e-01,2.319025754928588923e-01,2.318887948989868109e-01,2.318750381469726618e-01,2.318612575531005804e-01,2.318474769592285267e-01,2.318336963653564453e-01,2.318199396133422963e-01,2.318061590194702148e-01,2.317924022674560658e-01,2.317786455154418890e-01,2.317648649215698353e-01,2.317511081695556585e-01,2.317373514175415095e-01,2.317235946655273326e-01,2.317098379135131836e-01,2.316960811614990345e-01,2.316823005676269531e-01,2.316685676574707087e-01,2.316548109054565319e-01,2.316410779953002874e-01,2.316273212432861384e-01,2.316135883331298939e-01,2.315998315811157171e-01,2.315860986709594727e-01,2.315723419189453236e-01,2.315586090087890514e-01,2.315448760986328069e-01,2.315311431884765625e-01,2.315173864364624134e-01,2.315036773681640736e-01,2.314899444580078014e-01,2.314762115478515569e-01,2.314625024795532171e-01,2.314487695693969727e-01,2.314350366592407282e-01,2.314213037490844838e-01,2.314075946807861439e-01,2.313938617706298717e-01
2.174311399459838978e-01,2.174190282821655273e-01,2.174069166183471569e-01,2.173948049545288141e-01,2.173826932907104437e-01,2.173706054687500056e-01,2.173584938049316351e-01,2.173463821411132924e-01,2.173342943191528265e-01,2.173221826553344838e-01,2.173100948333740179e-01,2.172979831695556752e-01,2.172858953475952093e-01,2.172738075256347712e-01,2.172616958618164007e-01,2.172496080398559626e-01,2.172375202178954967e-01,2.172254323959350586e-01,2.172133445739746205e-01,2.172012567520141546e-01,2.171891689300537165e-01,2.171770811080932506e-01,2.171650171279907171e-01,2.171529293060302790e-01,2.171408414840698131e-01,2.171287775039672796e-01,2.171166896820068415e-01,2.171046257019043080e-01,2.170925378799438421e-01,2.170804500579834040e-01,2.170683860778808705e-01,2.170563220977783092e-01,2.170442581176757757e-01,2.170321941375732422e-01,2.170201063156128041e-01,2.170080423355102428e-01,2.169960021972656139e-01,2.169839143753051758e-01,2.169718503952026423e-01,2.169598102569580134e-01,2.169477462768554799e-01,2.169356822967529186e-01,2.169236183166503851e-01,2.169115543365478516e-01,2.168994903564453181e-01,2.168874502182006891e-01,2.168754100799560602e-01,2.168633460998535267e-01,2.168512821197509655e-01,2.168392419815063366e-01,2.168272018432617076e-01,2.168151617050170787e-01,2.168030977249145452e-01,2.167910575866699163e-01,2.167790412902831920e-01,2.167669773101806585e-01,2.167549371719360296e-01,2.167428970336914007e-01,2.167308807373046764e-01,2.167188405990600475e-01,2.167068004608154186e-01,2.166947603225707897e-01,2.166827440261840931e-01,2.166707038879394642e-01,2.166586875915527399e-01,2.166466712951660156e-01,2.166346311569213867e-01,2.166226148605346624e-01,2.166105747222900335e-01,2.165985822677612416e-01,2.165865421295166127e-01,2.165745258331298884e-01,2.165625095367431641e-01,2.165504932403564398e-01,2.165384769439697155e-01,2.165264606475830189e-01,2.165144443511962946e-01,2.165024518966674749e-01,2.164904356002807506e-01,2.164784193038940541e-01
2.042099952697754017e-01,2.041993141174316406e-01,2.041886329650878795e-01,2.041779518127441462e-01,2.041672945022582897e-01,2.041566133499145563e-01,2.041459321975707952e-01,2.041352510452270619e-01,2.041245698928833008e-01,2.041138887405395397e-01,2.041032314300537109e-01,2.040925502777099498e-01,2.040818691253662165e-01,2.040712118148803600e-01,2.040605306625366266e-01,2.040498733520507701e-01,2.040392160415649414e-01,2.040285348892211803e-01,2.040178775787353516e-01,2.040072202682495228e-01,2.039965629577636663e-01,2.039859056472778376e-01,2.039752483367919811e-01,2.039645671844482477e-01,2.039539337158203236e-01,2.039432525634765625e-01,2.039325952529907338e-01,2.039219617843627819e-01,2.039113044738769531e-01,2.039006471633911244e-01,2.038899898529052679e-01,2.038793563842773438e-01,2.038686990737915150e-01,2.038580656051635631e-01,2.038474082946777344e-01,2.038367509841919056e-01,2.038261175155639537e-01,2.038154602050781250e-01,2.038048267364502009e-01,2.037941932678222767e-01,2.037835597991943248e-01,2.037729263305664007e-01,2.037622690200805720e-01,2.037516355514526478e-01,2.037410020828246959e-01,2.037303686141967718e-01,2.037197113037109431e-01,2.037090778350830189e-01,2.036984443664550670e-01,2.036878347396850475e-01,2.036772012710571234e-01,2.036665678024291992e-01,2.036559343338012751e-01,2.036453247070312556e-01,2.036346912384033314e-01,2.036240577697753795e-01,2.036134481430053600e-01,2.036028146743774359e-01,2.035922050476074163e-01,2.035815715789794922e-01,2.035709619522094727e-01,2.035603523254394531e-01,2.035497188568115290e-01,2.035391092300415095e-01,2.035284996032714899e-01,2.035178899765014704e-01,2.035072565078735463e-01,2.034966468811035267e-01,2.034860610961914118e-01,2.034754514694213923e-01,2.034648180007934681e-01,2.034542083740234486e-01,2.034436225891113337e-01,2.034330129623413141e-01,2.034224033355712946e-01,2.034118175506591797e-01,2.034012079238891602e-01,2.033905982971191406e-01,2.033800125122070257e-01,2.033694267272949108e-01
1.925045728683471569e-01,1.924950718879699652e-01,1.924855828285217396e-01,1.924760818481445201e-01,1.924666047096252330e-01,1.924571156501770075e-01,1.924476146697998158e-01,1.924381256103515625e-01,1.924286365509033092e-01,1.924191474914550837e-01,1.924096822738647350e-01,1.924001932144165095e-01,1.923907041549682562e-01,1.923812270164489691e-01,1.923717379570007435e-01,1.923622727394103948e-01,1.923527956008911077e-01,1.923433065414428822e-01,1.923338294029235951e-01,1.923243403434753418e-01,1.923148632049560547e-01,1.923054099082946722e-01,1.922959327697753851e-01,1.922864556312560980e-01,1.922769784927368109e-01,1.922675013542175237e-01,1.922580361366272028e-01,1.922485828399658203e-01,1.922391057014465332e-01,1.922296404838562123e-01,1.922201633453369252e-01,1.922106981277465765e-01,1.922012448310851940e-01,1.921917796134948730e-01,1.921823143959045521e-01,1.921728491783142034e-01,1.921633839607238825e-01,1.921539187431335338e-01,1.921444773674011175e-01,1.921350240707397350e-01,1.921255588531494141e-01,1.921160936355590931e-01,1.921066403388977106e-01,1.920971751213073619e-01,1.920877456665039118e-01,1.920782923698425293e-01,1.920688271522522084e-01,1.920593738555908259e-01,1.920499205589294434e-01,1.920404672622680609e-01,1.920310139656066784e-01,1.920215725898742620e-01,1.920121192932128795e-01,1.920026659965515248e-01,1.919932246208190807e-01,1.919837951660156306e-01,1.919743537902832142e-01,1.919649004936218317e-01,1.919554591178894154e-01,1.919460177421569713e-01,1.919365763664245550e-01,1.919271349906921387e-01,1.919177174568176270e-01,1.919082760810852106e-01,1.918988347053527943e-01,1.918893933296203502e-01,1.918799638748169001e-01,1.918705224990844838e-01,1.918610930442810059e-01,1.918516516685485895e-01,1.918422460556030162e-01,1.918328166007995661e-01,1.918233752250671498e-01,1.918139457702636719e-01,1.918045163154601940e-01,1.917950868606567438e-01,1.917856693267822321e-01,1.917762398719787542e-01,1.917668342590332087e-01,1.917574048042297308e-01
1.820682883262634277e-01,1.820598125457763561e-01,1.820513248443603460e-01,1.820428252220153698e-01,1.820343375205993597e-01,1.820258378982543834e-01,1.820173501968383734e-01,1.820088744163513295e-01,1.820003867149352916e-01,1.819918990135192816e-01,1.819834113121032715e-01,1.819749236106872614e-01,1.819664478302001898e-01,1.819579720497131459e-01,1.819494843482971080e-01,1.819409966468810980e-01,1.819325089454650879e-01,1.819240331649780162e-01,1.819155693054199108e-01,1.819070816040039007e-01,1.818986058235168568e-01,1.818901300430297852e-01,1.818816423416137751e-01,1.818731665611267034e-01,1.818647146224975641e-01,1.818562388420104925e-01,1.818477630615234486e-01,1.818392872810363770e-01,1.818308115005493053e-01,1.818223595619201660e-01,1.818138837814330944e-01,1.818054080009460505e-01,1.817969441413879450e-01,1.817884683609008734e-01,1.817800045013427679e-01,1.817715525627136286e-01,1.817630767822265569e-01,1.817546129226684515e-01,1.817461490631103460e-01,1.817376852035522405e-01,1.817292213439941351e-01,1.817207694053649958e-01,1.817123055458068903e-01,1.817038536071777233e-01,1.816953897476196178e-01,1.816869258880615123e-01,1.816784858703613392e-01,1.816700220108032338e-01,1.816615700721740667e-01,1.816531062126159612e-01,1.816446542739868220e-01,1.816362023353576549e-01,1.816277623176574818e-01,1.816192865371704102e-01,1.816108345985412709e-01,1.816023826599121038e-01,1.815939307212829645e-01,1.815855026245117299e-01,1.815770506858825628e-01,1.815685987472534235e-01,1.815601468086242565e-01,1.815516948699951172e-01,1.815432548522949163e-01,1.815348029136657770e-01,1.815263628959655762e-01,1.815179347991943415e-01,1.815094947814941406e-01,1.815010428428650013e-01,1.814926028251648005e-01,1.814841628074645996e-01,1.814757227897643987e-01,1.814672827720641979e-01,1.814588427543640248e-01,1.814504265785217285e-01,1.814419865608215277e-01,1.814335465431213268e-01,1.814251065254211537e-01,1.814166784286498912e-01,1.814082384109497181e-01,1.813998103141784557e-01
1.727053999900817760e-01,1.726977586746215876e-01,1.726901173591613714e-01,1.726824879646301214e-01,1.726748466491699330e-01,1.726672053337097168e-01,1.726595640182495006e-01,1.726519227027893122e-01,1.726442813873290960e-01,1.726366639137268122e-01,1.726290225982665960e-01,1.726213932037353460e-01,1.726137518882751576e-01,1.726061105728149414e-01,1.725984811782836914e-01,1.725908637046814076e-01,1.725832223892211914e-01,1.725755929946899414e-01,1.725679636001586914e-01,1.725603342056274414e-01,1.725527167320251576e-01,1.725450873374939076e-01,1.725374579429626576e-01,1.725298285484314076e-01,1.725221991539001576e-01,1.725145697593689076e-01,1.725069522857665960e-01,1.724993348121643122e-01,1.724917054176330622e-01,1.724840760231018122e-01,1.724764585494995006e-01,1.724688291549682506e-01,1.724612236022949330e-01,1.724536061286926214e-01,1.724459767341613714e-01,1.724383592605590876e-01,1.724307417869567760e-01,1.724231362342834584e-01,1.724155187606811468e-01,1.724079012870788630e-01,1.724002838134765514e-01,1.723926663398742676e-01,1.723850488662719838e-01,1.723774433135986384e-01,1.723698258399963268e-01,1.723622202873230091e-01,1.723546028137206976e-01,1.723469853401184138e-01,1.723393797874450684e-01,1.723317861557006891e-01,1.723241686820983776e-01,1.723165631294250599e-01,1.723089456558227484e-01,1.723013401031494030e-01,1.722937464714050237e-01,1.722861409187316784e-01,1.722785353660583607e-01,1.722709059715271107e-01,1.722633004188537653e-01,1.722556948661804199e-01,1.722481131553649791e-01,1.722405076026916615e-01,1.722329020500183161e-01,1.722252964973449707e-01,1.722177028656005915e-01,1.722100973129272461e-01,1.722025036811828669e-01,1.721949219703674261e-01,1.721873164176940807e-01,1.721797227859497015e-01,1.721721172332763561e-01,1.721645236015319769e-01,1.721569299697875977e-01,1.721493363380432184e-01,1.721417307853698730e-01,1.721341609954833984e-01,1.721265673637390192e-01,1.721189737319946400e-01,1.721113801002502330e-01,1.721037864685058538e-01
1.642583966255188044e-01,1.642514824867248591e-01,1.642445683479309138e-01,1.642376542091369684e-01,1.642307400703430231e-01,1.642238259315490778e-01,1.642169237136840709e-01,1.642100214958190918e-01,1.642031073570251465e-01,1.641961932182312012e-01,1.641892910003662220e-01,1.641823768615722767e-01,1.641754865646362360e-01,1.641685724258422907e-01,1.641616702079772838e-01,1.641547679901123047e-01,1.641478538513183594e-01,1.641409635543823187e-01,1.641340613365173395e-01,1.641271591186523326e-01,1.641202569007873535e-01,1.641133546829223744e-01,1.641064524650573675e-01,1.640995621681213268e-01,1.640926599502563477e-01,1.640857577323913685e-01,1.640788674354553278e-01,1.640719652175903209e-01,1.640650629997253418e-01,1.640581846237182673e-01,1.640512824058532604e-01,1.640443801879882812e-01,1.640374898910522405e-01,1.640305876731872614e-01,1.640237092971801869e-01,1.640168190002441462e-01,1.640099287033081055e-01,1.640030264854431263e-01,1.639961361885070856e-01,1.639892458915710449e-01,1.639823675155639704e-01,1.639754772186279297e-01,1.639685869216918890e-01,1.639616966247558483e-01,1.639548063278198353e-01,1.639479160308837946e-01,1.639410376548767201e-01,1.639341592788696178e-01,1.639272689819336049e-01,1.639203786849975641e-01,1.639134883880615234e-01,1.639066219329833873e-01,1.638997316360473744e-01,1.638928532600402721e-01,1.638859629631042591e-01,1.638790845870971569e-01,1.638722062110900823e-01,1.638653397560119740e-01,1.638584494590759333e-01,1.638515710830688588e-01,1.638446688652038519e-01,1.638377904891967773e-01,1.638309359550476074e-01,1.638240575790405329e-01,1.638171792030334584e-01,1.638103008270263561e-01,1.638034224510192816e-01,1.637965440750122070e-01,1.637896656990051325e-01,1.637827873229980580e-01,1.637759327888488881e-01,1.637690544128417858e-01,1.637621879577636774e-01,1.637553095817566029e-01,1.637484431266784668e-01,1.637415647506713923e-01,1.637346982955932562e-01,1.637278437614440862e-01,1.637209653854370117e-01,1.637140989303588756e-01
1.565991282463073675e-01,1.565928459167480469e-01,1.565865635871887263e-01,1.565802931785583441e-01,1.565740108489990234e-01,1.565677165985107366e-01,1.565614342689514160e-01,1.565551519393920954e-01,1.565488934516906794e-01,1.565426111221313588e-01,1.565363287925720104e-01,1.565300464630126898e-01,1.565237641334533691e-01,1.565174937248229869e-01,1.565112233161926325e-01,1.565049529075622503e-01,1.564986705780029297e-01,1.564923882484436091e-01,1.564861178398132269e-01,1.564798355102539062e-01,1.564735770225524902e-01,1.564673066139221080e-01,1.564610242843627874e-01,1.564547538757324330e-01,1.564484834671020508e-01,1.564422249794006348e-01,1.564359545707702526e-01,1.564296841621398981e-01,1.564234137535095159e-01,1.564171314239501953e-01,1.564108610153198131e-01,1.564046144485473633e-01,1.563983440399169811e-01,1.563920736312866266e-01,1.563858032226562444e-01,1.563795328140258900e-01,1.563732624053955078e-01,1.563670158386230580e-01,1.563607454299926758e-01,1.563544869422912598e-01,1.563482165336608776e-01,1.563419461250305231e-01,1.563356995582580455e-01,1.563294410705566295e-01,1.563231706619262751e-01,1.563169121742248591e-01,1.563106536865234431e-01,1.563043832778930609e-01,1.562981367111206110e-01,1.562918782234191950e-01,1.562856197357177790e-01,1.562793612480163630e-01,1.562731027603149470e-01,1.562668442726135309e-01,1.562605977058410534e-01,1.562543392181396373e-01,1.562480807304382213e-01,1.562418222427368053e-01,1.562355637550353893e-01,1.562293291091919056e-01,1.562230706214904896e-01,1.562168121337890736e-01,1.562105655670165960e-01,1.562043070793151800e-01,1.561980485916137640e-01,1.561918020248413141e-01,1.561855435371398981e-01,1.561792969703674205e-01,1.561730504035949707e-01,1.561667919158935547e-01,1.561605453491211049e-01,1.561542987823486273e-01,1.561480641365051159e-01,1.561418056488036998e-01,1.561355590820312500e-01,1.561293125152588002e-01,1.561230659484863226e-01,1.561168193817138727e-01,1.561105728149413951e-01,1.561043262481689453e-01
1.496223449707031194e-01,1.496166110038757435e-01,1.496108651161193737e-01,1.496051311492919977e-01,1.495993971824645941e-01,1.495936751365661566e-01,1.495879411697387806e-01,1.495822072029113770e-01,1.495764732360839733e-01,1.495707392692565973e-01,1.495650053024291937e-01,1.495592832565307562e-01,1.495535492897033802e-01,1.495478153228759766e-01,1.495420813560485729e-01,1.495363593101501354e-01,1.495306253433227595e-01,1.495249032974243220e-01,1.495191693305969183e-01,1.495134472846984808e-01,1.495077133178711049e-01,1.495019912719726674e-01,1.494962692260742299e-01,1.494905471801757924e-01,1.494848132133483887e-01,1.494790911674499512e-01,1.494733691215515137e-01,1.494676351547241100e-01,1.494619250297546387e-01,1.494562029838562012e-01,1.494504809379577637e-01,1.494447469711303600e-01,1.494390249252319225e-01,1.494333028793334850e-01,1.494275927543640137e-01,1.494218707084655762e-01,1.494161486625671387e-01,1.494104266166687012e-01,1.494047045707702637e-01,1.493989944458007924e-01,1.493932723999023549e-01,1.493875622749328558e-01,1.493818402290344183e-01,1.493761181831359808e-01,1.493703961372375433e-01,1.493646979331970104e-01,1.493589758872985729e-01,1.493532538414001354e-01,1.493475437164306641e-01,1.493418216705322266e-01,1.493361115455627552e-01,1.493304133415222223e-01,1.493246912956237848e-01,1.493189811706542858e-01,1.493132591247558483e-01,1.493075489997863770e-01,1.493018507957458441e-01,1.492961406707763727e-01,1.492904186248779352e-01,1.492847084999084362e-01,1.492789983749389648e-01,1.492732882499694935e-01,1.492675900459289606e-01,1.492618799209594616e-01,1.492561697959899902e-01,1.492504596710205189e-01,1.492447495460510198e-01,1.492390394210815485e-01,1.492333292961120494e-01,1.492276310920715443e-01,1.492219209671020452e-01,1.492162108421325739e-01,1.492105007171630748e-01,1.492048025131225697e-01,1.491991043090820368e-01,1.491934061050415039e-01,1.491876959800720326e-01,1.491819977760314997e-01,1.491762876510620006e-01,1.491705894470214955e-01
