6.200771808624268022e-01,6.358146190643310103e-01,6.523715972900390181e-01,6.698139667510986106e-01,6.882146358489990012e-01,7.076549053192138228e-01,7.282253265380859153e-01,7.500274658203125444e-01,7.731753826141357644e-01,7.977975368499755637e-01,8.240395545959472434e-01,8.520667076110839400e-01,8.820673942565917525e-01,1.000000000000000000e+00,1.000000000000000000e+00,1.000000000000000000e+00,1.000000000000000000e+00,1.000000000000000000e+00,1.000000000000000000e+00,1.000000000000000000e+00,1.000000000000000000e+00,1.000000000000000000e+00,1.000000000000000000e+00,1.000000000000000000e+00,1.000000000000000000e+00,1.000000000000000000e+00,1.000000000000000000e+00,1.000000000000000000e+00,1.000000000000000000e+00,1.000000000000000000e+00,1.000000000000000000e+00,1.000000000000000000e+00,1.000000000000000000e+00,1.000000000000000000e+00,1.000000000000000000e+00,1.000000000000000000e+00,1.000000000000000000e+00,1.000000000000000000e+00,1.439986467361450140e-01,1.400136470794677845e-01,1.367728829383850209e-01,1.343988537788391169e-01,1.321058273315429688e-01,1.301142930984497126e-01,1.302412390708923284e-01,1.303684473037719782e-01,1.304958939552307018e-01,1.306235909461975209e-01,1.307515382766723522e-01,1.309918642044067272e-01,1.352114677429199219e-01,1.400840520858764593e-01,1.000000000000000000e+00,1.000000000000000000e+00,1.000000000000000000e+00,1.000000000000000000e+00,1.000000000000000000e+00,1.000000000000000000e+00,1.815810799598693848e-01,1.780588507652282604e-01,1.274752378463745173e-01,1.249434590339660589e-01,1.225305080413818387e-01,1.202089667320251493e-01,1.179737806320190485e-01,1.158201932907104437e-01,1.137438178062439020e-01,1.117405772209167508e-01,1.103545069694518987e-01,1.092819809913635198e-01,1.083023548126220703e-01,1.073216319084167453e-01,1.063312292098999023e-01,1.053589463233947782e-01,1.044851303100585993e-01,1.036421895027160589e-01,1.028127312660217230e-01,1.019964456558227484e-01,1.011930108070373535e-01,1.016445517539978083e-01
6.200654029846190962e-01,6.358021259307861106e-01,6.523585319519042969e-01,6.698001384735107200e-01,6.882000923156738059e-01,7.076395034790039507e-01,7.282089710235595259e-01,7.500101566314697488e-01,7.731569766998290794e-01,7.977780342102051003e-01,8.240186691284179243e-01,8.520442962646483931e-01,8.820434570312499778e-01,9.142320632934570757e-01,1.000000000000000000e+00,1.000000000000000000e+00,1.000000000000000000e+00,1.000000000000000000e+00,1.000000000000000000e+00,1.000000000000000000e+00,1.000000000000000000e+00,1.000000000000000000e+00,1.000000000000000000e+00,1.000000000000000000e+00,1.000000000000000000e+00,1.000000000000000000e+00,1.000000000000000000e+00,1.000000000000000000e+00,1.000000000000000000e+00,1.000000000000000000e+00,1.000000000000000000e+00,1.000000000000000000e+00,1.000000000000000000e+00,1.000000000000000000e+00,1.000000000000000000e+00,1.000000000000000000e+00,1.000000000000000000e+00,1.000000000000000000e+00,1.447727441787719782e-01,1.408059477806091198e-01,1.375294327735900879e-01,1.351348876953125111e-01,1.328222751617431641e-01,1.307752370834350530e-01,1.308715462684631459e-01,1.310656905174255316e-01,1.312544345855712891e-01,1.313836097717285267e-01,1.315130591392517090e-01,1.320262908935546931e-01,1.368348836898803655e-01,1.418273448944091797e-01,1.000000000000000000e+00,1.000000000000000000e+00,1.000000000000000000e+00,1.000000000000000000e+00,1.000000000000000000e+00,1.000000000000000000e+00,1.000000000000000000e+00,1.795216560363769587e-01,1.316046833992004506e-01,1.258793830871582087e-01,1.233543157577514648e-01,1.209285497665405218e-01,1.185963392257690374e-01,1.163523912429809543e-01,1.141917824745178195e-01,1.121143102645874023e-01,1.101675629615783691e-01,1.090896487236023005e-01,1.080664992332458496e-01,1.070623755455017145e-01,1.060767292976379367e-01,1.052050709724426242e-01,1.043505072593688965e-01,1.035097241401672363e-01,1.027175307273864718e-01,1.020033955574035645e-01,1.012290000915527372e-01,1.015576958656310980e-01
6.200535297393798828e-01,6.357897281646728294e-01,6.523453712463378462e-01,6.697863578796386941e-01,6.881855010986328569e-01,7.076240539550781028e-01,7.281927108764648660e-01,7.499928474426269531e-01,7.731386184692382590e-01,7.977583885192871538e-01,8.239977836608887163e-01,8.520219802856445757e-01,8.820194244384765847e-01,9.142063140869141069e-01,9.488312721252440962e-01,1.000000000000000000e+00,1.000000000000000000e+00,1.000000000000000000e+00,1.000000000000000000e+00,1.000000000000000000e+00,1.000000000000000000e+00,1.000000000000000000e+00,1.000000000000000000e+00,1.000000000000000000e+00,1.000000000000000000e+00,1.000000000000000000e+00,1.000000000000000000e+00,1.000000000000000000e+00,1.000000000000000000e+00,1.000000000000000000e+00,1.000000000000000000e+00,1.000000000000000000e+00,1.000000000000000000e+00,1.000000000000000000e+00,1.000000000000000000e+00,1.000000000000000000e+00,1.000000000000000000e+00,1.000000000000000000e+00,1.457071065902710016e-01,1.416896462440490612e-01,1.383119940757751576e-01,1.358903527259826549e-01,1.335520386695861761e-01,1.314989686012268122e-01,1.314337968826294056e-01,1.316296219825744684e-01,1.318260192871093806e-01,1.320230126380920466e-01,1.322205781936645619e-01,1.337330341339111328e-01,1.384977698326110840e-01,1.000000000000000000e+00,1.000000000000000000e+00,1.000000000000000000e+00,1.000000000000000000e+00,1.000000000000000000e+00,1.000000000000000000e+00,1.000000000000000000e+00,1.000000000000000000e+00,1.801308155059814509e-01,1.760676264762878473e-01,1.268883228302001842e-01,1.243230104446411133e-01,1.218593716621398926e-01,1.194914698600769015e-01,1.172138571739196750e-01,1.150214314460754339e-01,1.129095196723937933e-01,1.108153820037841852e-01,1.088217854499816950e-01,1.078036427497863770e-01,1.068158149719238281e-01,1.059349894523620578e-01,1.050929307937622098e-01,1.043455004692077637e-01,1.036086320877075140e-01,1.028509259223937961e-01,1.020631074905395536e-01,1.012872576713561984e-01,1.017629265785217341e-01
6.200415134429931863e-01,6.357772350311279297e-01,6.523323535919189897e-01,6.697725296020508035e-01,6.881709098815917969e-01,7.076086521148681197e-01,7.281763553619384766e-01,7.499755382537841575e-01,7.731201648712158203e-01,7.977388381958008257e-01,8.239768981933593972e-01,8.519995689392090288e-01,8.819954872131348100e-01,9.141805648803711382e-01,9.488036155700683150e-01,9.861524581909180132e-01,1.000000000000000000e+00,1.000000000000000000e+00,1.000000000000000000e+00,1.000000000000000000e+00,1.000000000000000000e+00,1.000000000000000000e+00,1.000000000000000000e+00,1.000000000000000000e+00,1.000000000000000000e+00,1.000000000000000000e+00,1.000000000000000000e+00,1.000000000000000000e+00,1.000000000000000000e+00,1.000000000000000000e+00,1.000000000000000000e+00,1.000000000000000000e+00,1.000000000000000000e+00,1.000000000000000000e+00,1.000000000000000000e+00,1.000000000000000000e+00,1.000000000000000000e+00,1.000000000000000000e+00,1.466536045074463002e-01,1.425845026969909668e-01,1.391035079956054743e-01,1.366543173789978027e-01,1.342898726463317982e-01,1.322307705879211537e-01,1.320008993148803766e-01,1.321984052658081166e-01,1.323965191841125488e-01,1.325952172279357966e-01,1.327945113182067982e-01,1.353513479232787975e-01,1.402015566825866588e-01,1.000000000000000000e+00,1.000000000000000000e+00,1.000000000000000000e+00,1.000000000000000000e+00,1.000000000000000000e+00,1.000000000000000000e+00,1.000000000000000000e+00,1.000000000000000000e+00,1.817692041397094838e-01,1.793626189231872503e-01,1.761870622634887640e-01,1.253070473670959417e-01,1.228046417236328125e-01,1.204002380371093778e-01,1.180881738662719754e-01,1.158632278442382757e-01,1.137205839157104520e-01,1.114660978317260770e-01,1.092308163642883301e-01,1.075807690620422391e-01,1.067976951599121094e-01,1.060259103775024470e-01,1.052652239799499456e-01,1.045153617858886747e-01,1.037120699882507352e-01,1.029110670089721652e-01,1.021223187446594211e-01,1.013455748558044489e-01,1.019689798355102595e-01
6.200282573699951172e-01,6.357645988464355469e-01,6.523191928863525391e-01,6.697587013244629128e-01,6.881563663482666016e-01,7.075932025909423828e-01,7.281600952148437056e-01,7.499582290649413618e-01,7.731018066406250000e-01,7.977192401885986328e-01,8.239559173583984597e-01,8.519772529602051003e-01,8.819715499877929243e-01,9.141549110412597878e-01,9.487758636474609153e-01,9.861225128173828347e-01,1.000000000000000000e+00,1.000000000000000000e+00,1.000000000000000000e+00,1.000000000000000000e+00,1.000000000000000000e+00,1.000000000000000000e+00,1.000000000000000000e+00,1.000000000000000000e+00,1.000000000000000000e+00,1.000000000000000000e+00,1.000000000000000000e+00,1.000000000000000000e+00,1.000000000000000000e+00,1.000000000000000000e+00,1.000000000000000000e+00,1.000000000000000000e+00,1.000000000000000000e+00,1.000000000000000000e+00,1.000000000000000000e+00,1.000000000000000000e+00,1.000000000000000000e+00,1.000000000000000000e+00,1.474640369415283203e-01,1.434907317161560059e-01,1.399041414260864258e-01,1.374269247055053822e-01,1.350358963012695257e-01,1.329707503318786621e-01,1.325729131698608343e-01,1.327721357345580944e-01,1.329719662666320745e-01,1.331723928451538086e-01,1.333734393119812012e-01,1.370166778564453069e-01,1.419841408729553278e-01,1.000000000000000000e+00,1.000000000000000000e+00,1.000000000000000000e+00,1.000000000000000000e+00,1.000000000000000000e+00,1.000000000000000000e+00,1.000000000000000000e+00,1.000000000000000000e+00,1.000000000000000000e+00,1.810770392417907770e-01,1.761863350868225209e-01,1.330764889717102051e-01,1.237647056579589816e-01,1.213229298591613770e-01,1.189756274223327664e-01,1.167174458503723172e-01,1.144810676574707087e-01,1.121245145797729464e-01,1.098398804664611761e-01,1.077613353729248019e-01,1.069756269454956027e-01,1.062012910842895508e-01,1.054152250289916992e-01,1.045877814292907743e-01,1.037732362747192383e-01,1.029712796211242620e-01,1.022416710853576716e-01,1.016408443450927679e-01,1.022752046585082980e-01
6.200150966644286665e-01,6.357507705688476562e-01,6.523058891296387163e-01,6.697449207305907759e-01,6.881417751312255415e-01,7.075778484344482644e-01,7.281437397003174272e-01,7.499409675598144309e-01,7.730834007263183150e-01,7.976995944976806863e-01,8.239350318908691406e-01,8.519549369812011719e-01,8.819476127624511497e-01,9.141291618347168191e-01,9.487482070922851340e-01,9.860925674438476562e-01,1.000000000000000000e+00,1.000000000000000000e+00,1.000000000000000000e+00,1.000000000000000000e+00,1.000000000000000000e+00,1.000000000000000000e+00,1.000000000000000000e+00,1.000000000000000000e+00,1.000000000000000000e+00,1.000000000000000000e+00,1.000000000000000000e+00,1.000000000000000000e+00,1.000000000000000000e+00,1.000000000000000000e+00,1.000000000000000000e+00,1.000000000000000000e+00,1.000000000000000000e+00,1.000000000000000000e+00,1.000000000000000000e+00,1.000000000000000000e+00,1.000000000000000000e+00,1.000000000000000000e+00,1.482025027275085394e-01,1.444085597991943415e-01,1.407140254974365290e-01,1.382083177566528209e-01,1.357253789901733398e-01,1.337190628051757868e-01,1.332577109336852972e-01,1.333508729934692327e-01,1.335524559020996038e-01,1.337546348571777288e-01,1.339777231216430775e-01,1.387234807014465221e-01,1.436084032058715931e-01,1.000000000000000000e+00,1.000000000000000000e+00,1.000000000000000000e+00,1.000000000000000000e+00,1.000000000000000000e+00,1.000000000000000000e+00,1.000000000000000000e+00,1.000000000000000000e+00,1.000000000000000000e+00,1.810267448425292858e-01,1.766086101531982311e-01,1.715240001678466908e-01,1.265960097312927302e-01,1.222598671913146945e-01,1.198765277862548773e-01,1.175843477249145508e-01,1.151756882667541448e-01,1.127632737159729032e-01,1.100710034370422363e-01,1.079425096511840848e-01,1.071541666984558161e-01,1.063200473785400335e-01,1.054783940315246610e-01,1.047243595123290988e-01,1.039892673492431585e-01,1.032644271850585993e-01,1.025187611579894964e-01,1.021420121192932184e-01,1.027171134948730441e-01
6.200019359588623269e-01,6.357368946075439009e-01,6.522912979125976562e-01,6.697309017181396484e-01,6.881272315979003462e-01,7.075623989105224165e-01,7.281274318695067915e-01,7.499236106872558816e-01,7.730649471282958762e-01,7.976800441741943581e-01,8.239141464233398215e-01,8.519326210021972434e-01,8.819236755371093750e-01,9.141034126281738503e-01,9.487205505371093528e-01,9.860626220703124778e-01,1.000000000000000000e+00,1.000000000000000000e+00,1.000000000000000000e+00,1.000000000000000000e+00,1.000000000000000000e+00,1.000000000000000000e+00,1.000000000000000000e+00,1.000000000000000000e+00,1.000000000000000000e+00,1.000000000000000000e+00,1.000000000000000000e+00,1.000000000000000000e+00,1.000000000000000000e+00,1.000000000000000000e+00,1.000000000000000000e+00,1.000000000000000000e+00,1.000000000000000000e+00,1.000000000000000000e+00,1.000000000000000000e+00,1.000000000000000000e+00,1.000000000000000000e+00,1.000000000000000000e+00,1.489484071731567438e-01,1.453382134437561091e-01,1.415333628654479869e-01,1.389986395835876576e-01,1.364160299301147572e-01,1.344758510589599554e-01,1.340092658996581976e-01,1.339346766471862793e-01,1.341380238533020075e-01,1.343419909477233942e-01,1.356092214584350697e-01,1.404733538627624401e-01,1.448256254196166881e-01,1.000000000000000000e+00,1.000000000000000000e+00,1.000000000000000000e+00,1.000000000000000000e+00,1.000000000000000000e+00,1.000000000000000000e+00,1.000000000000000000e+00,1.000000000000000000e+00,1.000000000000000000e+00,1.810346364974975697e-01,1.772658109664916881e-01,1.756122708320617676e-01,1.697254180908203125e-01,1.232113838195800781e-01,1.207911849021911649e-01,1.183975815773010282e-01,1.158463954925537109e-01,1.131472349166870173e-01,1.103030920028686551e-01,1.081138491630554144e-01,1.073305845260620062e-01,1.065585970878601130e-01,1.057976365089416532e-01,1.050474524497985868e-01,1.043078422546386691e-01,1.035785675048828125e-01,1.026692032814025823e-01,1.026481389999389648e-01,1.031628489494323675e-01
6.199887275695801225e-01,6.357230663299560103e-01,6.522767066955565962e-01,6.697154998779296653e-01,6.881124496459960493e-01,7.075470447540282981e-01,7.281110763549805132e-01,7.499062538146972212e-01,7.730465888977050559e-01,7.976604461669921653e-01,8.238932609558105025e-01,8.519103050231933150e-01,8.818997383117676003e-01,9.140777587890625000e-01,9.486927032470703347e-01,9.860326766967772993e-01,1.000000000000000000e+00,1.000000000000000000e+00,1.000000000000000000e+00,1.000000000000000000e+00,1.000000000000000000e+00,1.000000000000000000e+00,1.000000000000000000e+00,1.000000000000000000e+00,1.000000000000000000e+00,1.000000000000000000e+00,1.000000000000000000e+00,1.000000000000000000e+00,1.000000000000000000e+00,1.000000000000000000e+00,1.000000000000000000e+00,1.000000000000000000e+00,1.000000000000000000e+00,1.000000000000000000e+00,1.000000000000000000e+00,1.000000000000000000e+00,1.000000000000000000e+00,1.000000000000000000e+00,1.497018575668334905e-01,1.462798953056335394e-01,1.423622846603393444e-01,1.397980451583862305e-01,1.371137619018554799e-01,1.352412462234497126e-01,1.347693324089050404e-01,1.345236182212829479e-01,1.347287654876709040e-01,1.349345207214355524e-01,1.372809410095214844e-01,1.421457409858703502e-01,1.000000000000000000e+00,1.000000000000000000e+00,1.000000000000000000e+00,1.000000000000000000e+00,1.000000000000000000e+00,1.000000000000000000e+00,1.000000000000000000e+00,1.000000000000000000e+00,1.000000000000000000e+00,1.000000000000000000e+00,1.000000000000000000e+00,1.000000000000000000e+00,1.755968213081359752e-01,1.701490402221679799e-01,1.000000000000000000e+00,1.217198848724365262e-01,1.191028594970703069e-01,1.164003610610961914e-01,1.133924841880798312e-01,1.104465842247009250e-01,1.084582448005676214e-01,1.076700091361999512e-01,1.068931341171264621e-01,1.061274051666259710e-01,1.053725600242614718e-01,1.046283841133117676e-01,1.037489175796508789e-01,1.031805872917175293e-01,1.031593084335327148e-01,1.036124706268310575e-01
6.199755668640136719e-01,6.357091426849365012e-01,6.522621631622314009e-01,6.697001457214355469e-01,6.880962371826171431e-01,7.075314521789550781e-01,7.280947685241698775e-01,7.498889923095702903e-01,7.730281829833984819e-01,7.976408958435058372e-01,8.238723754882812944e-01,8.518878936767577681e-01,8.818758010864258257e-01,9.140520095825195312e-01,9.486650466918945535e-01,9.860027313232422319e-01,1.000000000000000000e+00,1.000000000000000000e+00,1.000000000000000000e+00,1.000000000000000000e+00,1.000000000000000000e+00,1.000000000000000000e+00,1.000000000000000000e+00,1.000000000000000000e+00,1.000000000000000000e+00,1.000000000000000000e+00,1.000000000000000000e+00,1.000000000000000000e+00,1.000000000000000000e+00,1.000000000000000000e+00,1.000000000000000000e+00,1.000000000000000000e+00,1.000000000000000000e+00,1.000000000000000000e+00,1.000000000000000000e+00,1.000000000000000000e+00,1.000000000000000000e+00,1.000000000000000000e+00,1.504629611968994196e-01,1.471282005310058649e-01,1.432009816169738659e-01,1.406067132949829213e-01,1.378186464309692494e-01,1.360154032707214244e-01,1.355380892753600963e-01,1.351177573204040416e-01,1.353247046470641979e-01,1.355323076248168834e-01,1.389943838119506725e-01,1.433381915092468151e-01,1.000000000000000000e+00,1.000000000000000000e+00,1.000000000000000000e+00,1.000000000000000000e+00,1.000000000000000000e+00,1.000000000000000000e+00,1.000000000000000000e+00,1.000000000000000000e+00,1.000000000000000000e+00,1.000000000000000000e+00,1.000000000000000000e+00,1.000000000000000000e+00,1.000000000000000000e+00,1.000000000000000000e+00,1.000000000000000000e+00,1.000000000000000000e+00,1.197607517242431641e-01,1.166352033615112305e-01,1.135149478912353543e-01,1.103370666503906278e-01,1.088048458099365179e-01,1.080115795135498102e-01,1.072298049926757868e-01,1.064592480659484891e-01,1.056996941566467341e-01,1.048706173896789551e-01,1.038843035697936956e-01,1.036970853805541937e-01,1.036755919456481961e-01,1.040660381317138616e-01
6.199624061584472212e-01,6.356953144073486106e-01,6.522475719451904519e-01,6.696847915649414285e-01,6.880799293518066184e-01,7.075142860412597656e-01,7.280783176422118697e-01,7.498716354370117410e-01,7.730098247528076616e-01,7.976212978363037553e-01,8.238514900207519753e-01,8.518655776977539507e-01,8.818518638610839400e-01,9.140262603759765625e-01,9.486373901367187722e-01,9.859728813171386719e-01,1.000000000000000000e+00,1.000000000000000000e+00,1.000000000000000000e+00,1.000000000000000000e+00,1.000000000000000000e+00,1.000000000000000000e+00,1.000000000000000000e+00,1.000000000000000000e+00,1.000000000000000000e+00,1.000000000000000000e+00,1.000000000000000000e+00,1.000000000000000000e+00,1.000000000000000000e+00,1.000000000000000000e+00,1.000000000000000000e+00,1.000000000000000000e+00,1.000000000000000000e+00,1.000000000000000000e+00,1.000000000000000000e+00,1.000000000000000000e+00,1.000000000000000000e+00,1.000000000000000000e+00,1.512318611145019587e-01,1.478633046150207575e-01,1.440496087074279730e-01,1.413939476013183483e-01,1.385308384895324596e-01,1.367984771728515681e-01,1.363156557083129994e-01,1.358362436294555664e-01,1.359259605407714955e-01,1.361354112625122181e-01,1.407125592231750488e-01,1.445508003234863281e-01,1.000000000000000000e+00,1.000000000000000000e+00,1.000000000000000000e+00,1.000000000000000000e+00,1.000000000000000000e+00,1.000000000000000000e+00,1.000000000000000000e+00,1.000000000000000000e+00,1.000000000000000000e+00,1.000000000000000000e+00,1.000000000000000000e+00,1.000000000000000000e+00,1.000000000000000000e+00,1.000000000000000000e+00,1.000000000000000000e+00,1.000000000000000000e+00,1.200497865676879855e-01,1.167586565017700168e-01,1.133992552757263211e-01,1.102277636528015137e-01,1.091536641120910700e-01,1.083553314208984403e-01,1.075685739517211886e-01,1.067931652069091797e-01,1.060168266296386691e-01,1.050089478492736844e-01,1.042405009269714300e-01,1.042187809944152832e-01,1.041970729827880887e-01,1.045235872268676786e-01
6.199492454528808816e-01,6.356814384460449663e-01,6.522329807281493919e-01,6.696693897247314453e-01,6.880637168884277122e-01,7.074971199035644531e-01,7.280601501464843972e-01,7.498542785644530806e-01,7.729914188385009766e-01,7.976017475128174272e-01,8.238306045532226562e-01,8.518432617187500222e-01,8.818279266357421653e-01,9.140006065368652122e-01,9.486096382141113725e-01,9.859429359436034934e-01,1.000000000000000000e+00,1.000000000000000000e+00,1.000000000000000000e+00,1.000000000000000000e+00,1.000000000000000000e+00,1.000000000000000000e+00,1.000000000000000000e+00,1.000000000000000000e+00,1.000000000000000000e+00,1.000000000000000000e+00,1.000000000000000000e+00,1.000000000000000000e+00,1.000000000000000000e+00,1.000000000000000000e+00,1.000000000000000000e+00,1.000000000000000000e+00,1.000000000000000000e+00,1.000000000000000000e+00,1.000000000000000000e+00,1.000000000000000000e+00,1.000000000000000000e+00,1.000000000000000000e+00,1.520086407661437877e-01,1.486057758331298939e-01,1.449711799621581920e-01,1.421436548233032116e-01,1.392504215240478460e-01,1.375906229019165095e-01,1.371022105216979925e-01,1.366172552108764759e-01,1.365325808525085505e-01,1.375462174415588434e-01,1.418809771537780651e-01,1.457841038703918402e-01,1.000000000000000000e+00,1.000000000000000000e+00,1.000000000000000000e+00,1.000000000000000000e+00,1.000000000000000000e+00,1.000000000000000000e+00,1.000000000000000000e+00,1.000000000000000000e+00,1.000000000000000000e+00,1.000000000000000000e+00,1.000000000000000000e+00,1.000000000000000000e+00,1.000000000000000000e+00,1.000000000000000000e+00,1.000000000000000000e+00,1.000000000000000000e+00,1.201931953430175753e-01,1.166362643241882352e-01,1.132838010787963895e-01,1.103201627731323214e-01,1.095047235488891546e-01,1.087012648582458552e-01,1.079095005989074707e-01,1.071291804313659612e-01,1.061582207679748480e-01,1.051476597785949707e-01,1.047676920890808078e-01,1.047457575798034640e-01,1.047238230705261203e-01,1.049851655960083036e-01
6.199360370635986772e-01,6.356676101684570757e-01,6.522183418273925781e-01,6.696540355682373269e-01,6.880475044250488059e-01,7.074800014495850053e-01,7.280419826507568137e-01,7.498349666595458540e-01,7.729729652404785378e-01,7.975821495056152344e-01,8.238097190856933372e-01,8.518208503723144753e-01,8.818039894104003906e-01,9.139748573303222434e-01,9.485819816589355913e-01,9.859129905700683150e-01,1.000000000000000000e+00,1.000000000000000000e+00,1.000000000000000000e+00,1.000000000000000000e+00,1.000000000000000000e+00,1.000000000000000000e+00,1.000000000000000000e+00,1.000000000000000000e+00,1.000000000000000000e+00,1.000000000000000000e+00,1.000000000000000000e+00,1.000000000000000000e+00,1.000000000000000000e+00,1.000000000000000000e+00,1.000000000000000000e+00,1.000000000000000000e+00,1.000000000000000000e+00,1.000000000000000000e+00,1.000000000000000000e+00,1.000000000000000000e+00,1.000000000000000000e+00,1.000000000000000000e+00,1.527934551239013561e-01,1.493557572364807018e-01,1.459080934524536188e-01,1.429013729095459095e-01,1.399775147438049316e-01,1.383919835090637318e-01,1.378978848457336481e-01,1.374072909355163463e-01,1.371446371078491322e-01,1.392663359642028753e-01,1.430689573287963756e-01,1.000000000000000000e+00,1.000000000000000000e+00,1.000000000000000000e+00,1.000000000000000000e+00,1.000000000000000000e+00,1.000000000000000000e+00,1.000000000000000000e+00,1.000000000000000000e+00,1.000000000000000000e+00,1.000000000000000000e+00,1.000000000000000000e+00,1.000000000000000000e+00,1.000000000000000000e+00,1.000000000000000000e+00,1.000000000000000000e+00,1.000000000000000000e+00,1.000000000000000000e+00,1.200635075569152777e-01,1.165141344070434598e-01,1.131685972213745117e-01,1.106787800788879422e-01,1.098580598831176702e-01,1.090494275093078641e-01,1.082525968551635714e-01,1.073329091072082464e-01,1.062999725341796931e-01,1.053224325180053683e-01,1.053002476692199707e-01,1.052780866622924777e-01,1.052559375762939509e-01,1.054508566856384305e-01
6.199228286743163618e-01,6.356537342071533203e-01,6.522037506103515181e-01,6.696386814117432085e-01,6.880312919616698997e-01,7.074627399444579634e-01,7.280238151550293413e-01,7.498157024383544922e-01,7.729525089263915572e-01,7.975625038146972878e-01,8.237888336181640181e-01,8.517985343933105469e-01,8.817800521850586160e-01,9.139491081237792747e-01,9.485543251037598100e-01,9.858831405639648660e-01,1.000000000000000000e+00,1.000000000000000000e+00,1.000000000000000000e+00,1.000000000000000000e+00,1.000000000000000000e+00,1.000000000000000000e+00,1.000000000000000000e+00,1.000000000000000000e+00,1.000000000000000000e+00,1.000000000000000000e+00,1.000000000000000000e+00,1.000000000000000000e+00,1.000000000000000000e+00,1.000000000000000000e+00,1.000000000000000000e+00,1.000000000000000000e+00,1.000000000000000000e+00,1.000000000000000000e+00,1.000000000000000000e+00,1.000000000000000000e+00,1.000000000000000000e+00,1.000000000000000000e+00,1.536790490150451716e-01,1.501274585723876842e-01,1.467939019203186035e-01,1.436671853065490667e-01,1.407122373580932673e-01,1.392027497291564997e-01,1.387028455734252985e-01,1.382065296173095592e-01,1.377622008323669545e-01,1.404531002044677734e-01,1.442770004272460882e-01,1.000000000000000000e+00,1.000000000000000000e+00,1.000000000000000000e+00,1.000000000000000000e+00,1.000000000000000000e+00,1.000000000000000000e+00,1.000000000000000000e+00,1.000000000000000000e+00,1.000000000000000000e+00,1.000000000000000000e+00,1.000000000000000000e+00,1.000000000000000000e+00,1.000000000000000000e+00,1.000000000000000000e+00,1.000000000000000000e+00,1.000000000000000000e+00,1.000000000000000000e+00,1.199340939521789523e-01,1.163922548294067383e-01,1.130536079406738309e-01,1.110397577285766602e-01,1.102136850357055692e-01,1.093998193740844671e-01,1.085338950157165583e-01,1.074778199195861872e-01,1.064421176910400335e-01,1.058606505393981934e-01,1.058382391929626465e-01,1.058158636093139704e-01,1.057934761047363281e-01,1.059206843376159640e-01
6.199096679687500222e-01,6.356399059295654297e-01,6.521891593933105691e-01,6.696232795715332253e-01,6.880150318145752397e-01,7.074456214904785156e-01,7.280056476593017578e-01,7.497963905334472656e-01,7.729320049285888228e-01,7.975407123565674272e-01,8.237679481506348100e-01,8.517762184143066184e-01,8.817561149597168413e-01,9.139234542846679243e-01,9.485265731811522993e-01,9.858531951904296875e-01,1.000000000000000000e+00,1.000000000000000000e+00,1.000000000000000000e+00,1.000000000000000000e+00,1.000000000000000000e+00,1.000000000000000000e+00,1.000000000000000000e+00,1.000000000000000000e+00,1.000000000000000000e+00,1.000000000000000000e+00,1.000000000000000000e+00,1.000000000000000000e+00,1.000000000000000000e+00,1.000000000000000000e+00,1.000000000000000000e+00,1.000000000000000000e+00,1.000000000000000000e+00,1.000000000000000000e+00,1.000000000000000000e+00,1.000000000000000000e+00,1.000000000000000000e+00,1.000000000000000000e+00,1.547237753868103138e-01,1.510617852210998646e-01,1.476345539093017467e-01,1.445103049278259333e-01,1.415486097335815485e-01,1.399769425392150823e-01,1.394201159477233831e-01,1.389537692070007269e-01,1.384905099868774525e-01,1.416203260421752819e-01,1.455056190490722767e-01,1.000000000000000000e+00,1.000000000000000000e+00,1.000000000000000000e+00,1.000000000000000000e+00,1.000000000000000000e+00,1.000000000000000000e+00,1.000000000000000000e+00,1.000000000000000000e+00,1.000000000000000000e+00,1.000000000000000000e+00,1.000000000000000000e+00,1.000000000000000000e+00,1.000000000000000000e+00,1.000000000000000000e+00,1.000000000000000000e+00,1.000000000000000000e+00,1.000000000000000000e+00,1.197866916656494113e-01,1.162706255912780706e-01,1.129388570785522516e-01,1.114030718803405706e-01,1.105716109275817899e-01,1.097524523735046442e-01,1.086820840835571317e-01,1.076231479644775418e-01,1.065846443176269587e-01,1.064043998718261774e-01,1.063817620277404813e-01,1.063591480255126898e-01,1.063365340232849121e-01,1.063947200775146457e-01
6.198965072631835715e-01,6.356260299682616743e-01,6.521746158599853738e-01,6.696078777313232422e-01,6.879988193511963335e-01,7.074284553527832031e-01,7.279874801635741743e-01,7.497771263122559038e-01,7.729114532470703347e-01,7.975189208984374556e-01,8.237446784973144753e-01,8.517539024353026900e-01,8.817321777343749556e-01,9.138977050781249556e-01,9.484989166259765181e-01,9.858232498168945090e-01,1.000000000000000000e+00,1.000000000000000000e+00,1.000000000000000000e+00,1.000000000000000000e+00,1.000000000000000000e+00,1.000000000000000000e+00,1.000000000000000000e+00,1.000000000000000000e+00,1.000000000000000000e+00,1.000000000000000000e+00,1.000000000000000000e+00,1.000000000000000000e+00,1.000000000000000000e+00,1.000000000000000000e+00,1.000000000000000000e+00,1.000000000000000000e+00,1.000000000000000000e+00,1.000000000000000000e+00,1.000000000000000000e+00,1.000000000000000000e+00,1.000000000000000000e+00,1.000000000000000000e+00,1.549843192100524847e-01,1.519810557365417480e-01,1.485380172729492132e-01,1.454076766967773438e-01,1.424242258071899414e-01,1.410401344299316295e-01,1.400821566581726130e-01,1.396025300025939830e-01,1.398233413696289007e-01,1.435114383697509710e-01,1.471832156181335505e-01,1.000000000000000000e+00,1.000000000000000000e+00,1.000000000000000000e+00,1.000000000000000000e+00,1.000000000000000000e+00,1.000000000000000000e+00,1.000000000000000000e+00,1.000000000000000000e+00,1.000000000000000000e+00,1.000000000000000000e+00,1.000000000000000000e+00,1.000000000000000000e+00,1.000000000000000000e+00,1.000000000000000000e+00,1.000000000000000000e+00,1.000000000000000000e+00,1.229622006416320745e-01,1.195821404457092230e-01,1.161492586135864230e-01,1.128243327140808078e-01,1.117687702178955106e-01,1.109318614006042508e-01,1.099136233329773005e-01,1.088306665420532282e-01,1.077688455581665011e-01,1.069766521453857366e-01,1.069537639617919866e-01,1.069308996200561551e-01,1.069080471992492620e-01,1.068851947784423828e-01,1.068730235099792508e-01
6.198832988739013672e-01,6.356121540069580300e-01,6.521600246429443137e-01,6.695924758911132590e-01,6.879826068878174272e-01,7.074112892150878906e-01,7.279693126678467019e-01,7.497578620910644309e-01,7.728909969329833540e-01,7.974971294403075950e-01,8.237214088439941406e-01,8.517291069030761275e-01,8.817083358764647993e-01,9.138720512390137163e-01,9.484711647033691184e-01,9.857933044433593306e-01,1.000000000000000000e+00,1.000000000000000000e+00,1.000000000000000000e+00,1.000000000000000000e+00,1.000000000000000000e+00,1.000000000000000000e+00,1.000000000000000000e+00,1.000000000000000000e+00,1.000000000000000000e+00,1.000000000000000000e+00,1.000000000000000000e+00,1.000000000000000000e+00,1.000000000000000000e+00,1.000000000000000000e+00,1.000000000000000000e+00,1.000000000000000000e+00,1.000000000000000000e+00,1.000000000000000000e+00,1.000000000000000000e+00,1.000000000000000000e+00,1.000000000000000000e+00,1.586210131645202637e-01,1.549534797668457031e-01,1.516385674476623535e-01,1.487665295600891224e-01,1.459657669067382924e-01,1.432685017585754450e-01,1.421195745468139537e-01,1.411469578742980957e-01,1.402573943138122614e-01,1.416664600372314342e-01,1.451277971267700140e-01,1.486961722373962291e-01,1.000000000000000000e+00,1.000000000000000000e+00,1.000000000000000000e+00,1.000000000000000000e+00,1.000000000000000000e+00,1.000000000000000000e+00,1.000000000000000000e+00,1.000000000000000000e+00,1.000000000000000000e+00,1.000000000000000000e+00,1.000000000000000000e+00,1.000000000000000000e+00,1.000000000000000000e+00,1.000000000000000000e+00,1.000000000000000000e+00,1.000000000000000000e+00,1.227466702461242620e-01,1.193782925605773870e-01,1.160281300544738770e-01,1.129921555519104032e-01,1.121368885040283231e-01,1.111733913421630859e-01,1.100655913352966281e-01,1.089796662330627386e-01,1.079149484634399359e-01,1.075319528579711942e-01,1.075088262557983426e-01,1.074857234954833957e-01,1.074626326560974149e-01,1.074395537376403864e-01,1.074164748191833441e-01
6.198701381683349165e-01,6.355982780456542747e-01,6.521454334259033647e-01,6.695771217346191406e-01,6.879663944244385210e-01,7.073941230773925781e-01,7.279510974884033647e-01,7.497385978698730691e-01,7.728704929351806197e-01,7.974752902984618697e-01,8.236981391906738059e-01,8.517042160034179465e-01,8.816817283630371538e-01,9.138463020324707475e-01,9.484435081481933372e-01,9.857634544372558816e-01,1.000000000000000000e+00,1.000000000000000000e+00,1.000000000000000000e+00,1.000000000000000000e+00,1.000000000000000000e+00,1.000000000000000000e+00,1.000000000000000000e+00,1.000000000000000000e+00,1.000000000000000000e+00,1.000000000000000000e+00,1.000000000000000000e+00,1.000000000000000000e+00,1.000000000000000000e+00,1.000000000000000000e+00,1.000000000000000000e+00,1.000000000000000000e+00,1.000000000000000000e+00,1.000000000000000000e+00,1.000000000000000000e+00,1.000000000000000000e+00,1.000000000000000000e+00,1.582503795623779186e-01,1.547094702720642201e-01,1.513235569000244141e-01,1.488074421882629450e-01,1.464472651481628362e-01,1.445129632949829213e-01,1.432571291923522838e-01,1.422596335411071833e-01,1.412759184837341364e-01,1.439908385276794378e-01,1.475479960441589411e-01,1.000000000000000000e+00,1.000000000000000000e+00,1.000000000000000000e+00,1.000000000000000000e+00,1.000000000000000000e+00,1.000000000000000000e+00,1.000000000000000000e+00,1.000000000000000000e+00,1.000000000000000000e+00,1.000000000000000000e+00,1.000000000000000000e+00,1.000000000000000000e+00,1.000000000000000000e+00,1.000000000000000000e+00,1.000000000000000000e+00,1.000000000000000000e+00,1.000000000000000000e+00,1.225319027900695773e-01,1.191751360893249512e-01,1.159072637557983371e-01,1.133683800697326688e-01,1.124623775482177790e-01,1.113288760185241755e-01,1.102179884910583496e-01,1.091290712356567383e-01,1.081164240837097223e-01,1.080930471420288030e-01,1.080696940422058161e-01,1.080463409423828153e-01,1.080230116844177191e-01,1.079996824264526367e-01,1.079763650894165067e-01
6.198569774627685769e-01,6.355844497680663840e-01,6.521308898925781694e-01,6.695617675781250222e-01,6.879500865936278853e-01,7.073770046234131303e-01,7.279329299926757812e-01,7.497193336486815962e-01,7.728500366210937500e-01,7.974534034729003906e-01,8.236748695373534712e-01,8.516793251037597656e-01,8.816550254821777788e-01,9.138178825378417969e-01,9.484158515930175559e-01,9.857335090637207031e-01,1.000000000000000000e+00,1.000000000000000000e+00,1.000000000000000000e+00,1.000000000000000000e+00,1.000000000000000000e+00,1.000000000000000000e+00,1.000000000000000000e+00,1.000000000000000000e+00,1.000000000000000000e+00,1.000000000000000000e+00,1.000000000000000000e+00,1.000000000000000000e+00,1.000000000000000000e+00,1.000000000000000000e+00,1.000000000000000000e+00,1.000000000000000000e+00,1.000000000000000000e+00,1.000000000000000000e+00,1.000000000000000000e+00,1.000000000000000000e+00,1.629725694656372070e-01,1.578814625740051214e-01,1.543568611145019476e-01,1.516276478767394909e-01,1.493484497070312611e-01,1.471991658210754506e-01,1.459651350975036677e-01,1.446184515953063965e-01,1.434074759483337513e-01,1.441244363784789928e-01,1.478933215141296498e-01,1.520021557807922363e-01,1.000000000000000000e+00,1.000000000000000000e+00,1.000000000000000000e+00,1.000000000000000000e+00,1.000000000000000000e+00,1.000000000000000000e+00,1.000000000000000000e+00,1.000000000000000000e+00,1.000000000000000000e+00,1.000000000000000000e+00,1.000000000000000000e+00,1.000000000000000000e+00,1.000000000000000000e+00,1.000000000000000000e+00,1.000000000000000000e+00,1.000000000000000000e+00,1.000000000000000000e+00,1.223178863525390681e-01,1.189726710319519015e-01,1.157866597175598172e-01,1.137471318244934054e-01,1.126214861869812012e-01,1.114847898483276312e-01,1.103471279144287165e-01,1.091825485229492160e-01,1.080705761909484808e-01,1.081284642219543513e-01,1.081457138061523438e-01,1.081629633903503362e-01,1.081802248954772949e-01,1.081974983215332059e-01,1.082147717475891169e-01
6.198361396789551225e-01,6.355670452117919700e-01,6.521162509918212447e-01,6.695464134216309038e-01,6.879338741302489790e-01,7.073598384857178178e-01,7.279147624969481978e-01,7.497000694274902344e-01,7.728295803070068803e-01,7.974316120147705300e-01,8.236515998840332475e-01,8.516544342041015847e-01,8.816284179687500222e-01,9.137891769409179910e-01,9.483852386474609375e-01,9.857036590576171431e-01,1.000000000000000000e+00,1.000000000000000000e+00,1.000000000000000000e+00,1.000000000000000000e+00,1.000000000000000000e+00,1.000000000000000000e+00,1.000000000000000000e+00,1.000000000000000000e+00,1.000000000000000000e+00,1.000000000000000000e+00,1.000000000000000000e+00,1.000000000000000000e+00,1.000000000000000000e+00,1.000000000000000000e+00,1.000000000000000000e+00,1.000000000000000000e+00,1.000000000000000000e+00,1.000000000000000000e+00,1.000000000000000000e+00,1.000000000000000000e+00,1.611862540245056208e-01,1.575142741203308105e-01,1.543724417686462291e-01,1.520106196403503418e-01,1.499298810958862305e-01,1.488371133804321234e-01,1.477511405944824108e-01,1.463016986846923939e-01,1.448804259300232045e-01,1.484270691871643066e-01,1.526121497154235840e-01,1.000000000000000000e+00,1.000000000000000000e+00,1.000000000000000000e+00,1.000000000000000000e+00,1.000000000000000000e+00,1.000000000000000000e+00,1.000000000000000000e+00,1.000000000000000000e+00,1.000000000000000000e+00,1.000000000000000000e+00,1.000000000000000000e+00,1.000000000000000000e+00,1.000000000000000000e+00,1.000000000000000000e+00,1.000000000000000000e+00,1.000000000000000000e+00,1.000000000000000000e+00,1.000000000000000000e+00,1.221045970916748019e-01,1.187708973884582520e-01,1.156143665313720675e-01,1.139343857765197782e-01,1.126932740211486761e-01,1.114789128303527860e-01,1.102904438972473200e-01,1.091270446777343750e-01,1.080308675765991183e-01,1.079491138458252009e-01,1.079663038253784180e-01,1.079834938049316351e-01,1.080007076263427707e-01,1.080179095268249539e-01,1.080351352691650418e-01
6.198131084442138894e-01,6.355428695678710938e-01,6.520918369293212669e-01,6.695256233215332031e-01,6.879172325134277344e-01,7.073427200317382590e-01,7.278965950012207253e-01,7.496807098388671431e-01,7.728090763092041460e-01,7.974098205566406694e-01,8.236283302307129128e-01,8.516296386718750222e-01,8.816017150878906472e-01,9.137605667114258035e-01,9.483543395996093528e-01,9.856705665588378906e-01,1.000000000000000000e+00,1.000000000000000000e+00,1.000000000000000000e+00,1.000000000000000000e+00,1.000000000000000000e+00,1.000000000000000000e+00,1.000000000000000000e+00,1.000000000000000000e+00,1.000000000000000000e+00,1.000000000000000000e+00,1.000000000000000000e+00,1.000000000000000000e+00,1.000000000000000000e+00,1.000000000000000000e+00,1.000000000000000000e+00,1.000000000000000000e+00,1.000000000000000000e+00,1.000000000000000000e+00,1.000000000000000000e+00,1.000000000000000000e+00,1.608035445213317760e-01,1.572184443473815807e-01,1.547694206237792969e-01,1.527638435363769531e-01,1.510690569877624623e-01,1.507288336753845326e-01,1.495814204216003307e-01,1.480960130691528209e-01,1.490663290023803711e-01,1.532880663871765137e-01,1.000000000000000000e+00,1.000000000000000000e+00,1.000000000000000000e+00,1.000000000000000000e+00,1.000000000000000000e+00,1.000000000000000000e+00,1.000000000000000000e+00,1.000000000000000000e+00,1.000000000000000000e+00,1.000000000000000000e+00,1.000000000000000000e+00,1.000000000000000000e+00,1.000000000000000000e+00,1.000000000000000000e+00,1.000000000000000000e+00,1.000000000000000000e+00,1.000000000000000000e+00,1.000000000000000000e+00,1.000000000000000000e+00,1.218920707702636774e-01,1.186968684196472168e-01,1.157601714134216253e-01,1.138739466667175321e-01,1.126341462135314886e-01,1.114210486412048340e-01,1.102338075637817327e-01,1.090716004371643094e-01,1.079936027526855469e-01,1.077013134956359836e-01,1.077874898910522461e-01,1.078046321868896540e-01,1.078217744827270480e-01,1.078389286994934082e-01,1.078560948371887207e-01
6.197924613952636719e-01,6.355187416076659712e-01,6.520663738250732644e-01,6.694987773895263450e-01,6.878889560699462669e-01,7.073178768157959428e-01,7.278762340545654741e-01,7.496614933013916460e-01,7.727886199951171653e-01,7.973880290985106978e-01,8.236050605773925781e-01,8.516047477722168413e-01,8.815751075744628906e-01,9.137319564819336160e-01,9.483235359191894975e-01,9.856372833251952903e-01,1.000000000000000000e+00,1.000000000000000000e+00,1.000000000000000000e+00,1.000000000000000000e+00,1.000000000000000000e+00,1.000000000000000000e+00,1.000000000000000000e+00,1.000000000000000000e+00,1.000000000000000000e+00,1.000000000000000000e+00,1.000000000000000000e+00,1.000000000000000000e+00,1.000000000000000000e+00,1.000000000000000000e+00,1.000000000000000000e+00,1.000000000000000000e+00,1.000000000000000000e+00,1.000000000000000000e+00,1.000000000000000000e+00,1.666000247001648005e-01,1.604226589202880915e-01,1.576301932334899791e-01,1.557070136070251576e-01,1.539466619491577093e-01,1.528948545455932617e-01,1.526692628860473744e-01,1.514575839042663630e-01,1.499348878860473633e-01,1.539699912071227916e-01,1.000000000000000000e+00,1.000000000000000000e+00,1.000000000000000000e+00,1.000000000000000000e+00,1.000000000000000000e+00,1.000000000000000000e+00,1.000000000000000000e+00,1.000000000000000000e+00,1.000000000000000000e+00,1.000000000000000000e+00,1.000000000000000000e+00,1.000000000000000000e+00,1.000000000000000000e+00,1.000000000000000000e+00,1.000000000000000000e+00,1.000000000000000000e+00,1.000000000000000000e+00,1.000000000000000000e+00,1.000000000000000000e+00,1.000000000000000000e+00,1.221305012702941922e-01,1.190236687660217313e-01,1.160709857940673828e-01,1.138135671615600614e-01,1.125750780105590765e-01,1.113632440567016574e-01,1.101772308349609347e-01,1.090162038803100530e-01,1.079563498497009277e-01,1.074489116668701227e-01,1.075864315032959012e-01,1.076263427734374944e-01,1.076434373855590793e-01,1.076605319976806641e-01,1.076776385307312012e-01
6.197793006896972212e-01,6.355027675628661665e-01,6.520448207855225053e-01,6.694719314575194868e-01,6.878606319427490456e-01,7.072878837585448997e-01,7.278444766998291016e-01,7.496318340301513228e-01,7.727637290954589844e-01,7.973662376403808372e-01,8.235817909240722434e-01,8.515798568725585493e-01,8.815485000610351340e-01,9.137033462524414285e-01,9.482926368713379128e-01,9.856039047241210715e-01,1.000000000000000000e+00,1.000000000000000000e+00,1.000000000000000000e+00,1.000000000000000000e+00,1.000000000000000000e+00,1.000000000000000000e+00,1.000000000000000000e+00,1.000000000000000000e+00,1.000000000000000000e+00,1.000000000000000000e+00,1.000000000000000000e+00,1.000000000000000000e+00,1.000000000000000000e+00,1.000000000000000000e+00,1.000000000000000000e+00,1.000000000000000000e+00,1.000000000000000000e+00,1.000000000000000000e+00,1.000000000000000000e+00,1.646477818489074652e-01,1.606387734413146917e-01,1.587658047676086537e-01,1.569360256195068415e-01,1.551479339599609319e-01,1.548918128013610784e-01,1.546603083610534612e-01,1.533814430236816462e-01,1.546580195426940918e-01,1.000000000000000000e+00,1.000000000000000000e+00,1.000000000000000000e+00,1.000000000000000000e+00,1.000000000000000000e+00,1.000000000000000000e+00,1.000000000000000000e+00,1.000000000000000000e+00,1.000000000000000000e+00,1.000000000000000000e+00,1.000000000000000000e+00,1.000000000000000000e+00,1.000000000000000000e+00,1.000000000000000000e+00,1.000000000000000000e+00,1.000000000000000000e+00,1.000000000000000000e+00,1.000000000000000000e+00,1.000000000000000000e+00,1.000000000000000000e+00,1.000000000000000000e+00,1.224766612052917425e-01,1.193522810935974121e-01,1.163834691047668513e-01,1.137532591819763184e-01,1.125160813331604059e-01,1.113055109977722223e-01,1.101207017898559598e-01,1.089673280715942327e-01,1.079191207885742132e-01,1.071977019309997559e-01,1.073345661163330050e-01,1.074486494064331027e-01,1.074656844139099121e-01,1.074827313423156738e-01,1.074997782707214355e-01
6.197661876678466353e-01,6.354889869689941406e-01,6.520303249359130637e-01,6.694557189941405806e-01,6.878381252288818803e-01,7.072584629058837891e-01,7.278128623962402122e-01,7.495981693267822488e-01,7.727279186248778853e-01,7.973306179046630859e-01,8.235513687133788618e-01,8.515549659729003684e-01,8.815217971801757590e-01,9.136746406555176225e-01,9.482618331909179465e-01,9.855706214904784712e-01,1.000000000000000000e+00,1.000000000000000000e+00,1.000000000000000000e+00,1.000000000000000000e+00,1.000000000000000000e+00,1.000000000000000000e+00,1.000000000000000000e+00,1.000000000000000000e+00,1.000000000000000000e+00,1.000000000000000000e+00,1.000000000000000000e+00,1.000000000000000000e+00,1.000000000000000000e+00,1.000000000000000000e+00,1.000000000000000000e+00,1.000000000000000000e+00,1.000000000000000000e+00,1.000000000000000000e+00,1.000000000000000000e+00,1.638821601867675726e-01,1.619471788406371959e-01,1.600437760353088379e-01,1.581845760345458873e-01,1.571800231933593861e-01,1.569416403770446666e-01,1.567039847373962458e-01,1.553547739982605036e-01,1.000000000000000000e+00,1.000000000000000000e+00,1.000000000000000000e+00,1.000000000000000000e+00,1.000000000000000000e+00,1.000000000000000000e+00,1.000000000000000000e+00,1.000000000000000000e+00,1.000000000000000000e+00,1.000000000000000000e+00,1.000000000000000000e+00,1.000000000000000000e+00,1.000000000000000000e+00,1.000000000000000000e+00,1.000000000000000000e+00,1.000000000000000000e+00,1.000000000000000000e+00,1.000000000000000000e+00,1.000000000000000000e+00,1.000000000000000000e+00,1.000000000000000000e+00,1.000000000000000000e+00,1.228301763534545843e-01,1.196826934814453069e-01,1.166976451873779352e-01,1.138578534126281766e-01,1.124571323394775446e-01,1.112478137016296442e-01,1.100642442703247126e-01,1.089293956756591797e-01,1.078819155693054171e-01,1.069476604461669922e-01,1.070838809013366644e-01,1.072204589843750028e-01,1.072885274887084989e-01,1.073055148124694852e-01,1.073224902153015192e-01
6.197530746459960493e-01,6.354752063751221147e-01,6.520157337188721147e-01,6.694404125213623269e-01,6.878219604492187278e-01,7.072413921356200950e-01,7.277893066406250222e-01,7.495669364929199441e-01,7.726922512054443803e-01,7.972925662994384544e-01,8.235107421874999778e-01,8.515119552612304688e-01,8.814844131469726785e-01,9.136438369750976562e-01,9.482310295104980913e-01,9.855373382568359819e-01,1.000000000000000000e+00,1.000000000000000000e+00,1.000000000000000000e+00,1.000000000000000000e+00,1.000000000000000000e+00,1.000000000000000000e+00,1.000000000000000000e+00,1.000000000000000000e+00,1.000000000000000000e+00,1.000000000000000000e+00,1.000000000000000000e+00,1.000000000000000000e+00,1.000000000000000000e+00,1.000000000000000000e+00,1.000000000000000000e+00,1.000000000000000000e+00,1.000000000000000000e+00,1.000000000000000000e+00,1.000000000000000000e+00,1.651426911354064997e-01,1.631989836692810114e-01,1.613004922866821400e-01,1.594707250595092662e-01,1.592912554740905651e-01,1.590464472770690973e-01,1.588023781776428112e-01,1.652388691902160756e-01,1.000000000000000000e+00,1.000000000000000000e+00,1.000000000000000000e+00,1.000000000000000000e+00,1.000000000000000000e+00,1.000000000000000000e+00,1.000000000000000000e+00,1.000000000000000000e+00,1.000000000000000000e+00,1.000000000000000000e+00,1.000000000000000000e+00,1.000000000000000000e+00,1.000000000000000000e+00,1.000000000000000000e+00,1.000000000000000000e+00,1.000000000000000000e+00,1.000000000000000000e+00,1.000000000000000000e+00,1.000000000000000000e+00,1.000000000000000000e+00,1.000000000000000000e+00,1.000000000000000000e+00,1.231857538223266602e-01,1.200159192085266113e-01,1.170135021209716825e-01,1.141585230827331515e-01,1.123982548713684110e-01,1.111901998519897461e-01,1.100078344345092746e-01,1.088914871215820312e-01,1.078447341918945257e-01,1.068179130554199191e-01,1.068343758583068792e-01,1.069703102111816406e-01,1.071065902709960882e-01,1.071288824081420843e-01,1.071458101272582952e-01
6.197399616241454634e-01,6.354613780975342241e-01,6.520012378692626731e-01,6.694251060485839622e-01,6.878057479858398215e-01,7.072243213653564009e-01,7.277712345123290572e-01,7.495476722717284712e-01,7.726675987243651900e-01,7.972591876983642356e-01,8.234701156616210938e-01,8.514685630798339844e-01,8.814378738403320090e-01,9.135937690734863281e-01,9.481847763061523882e-01,9.854983329772949441e-01,1.000000000000000000e+00,1.000000000000000000e+00,1.000000000000000000e+00,1.000000000000000000e+00,1.000000000000000000e+00,1.000000000000000000e+00,1.000000000000000000e+00,1.000000000000000000e+00,1.000000000000000000e+00,1.000000000000000000e+00,1.000000000000000000e+00,1.000000000000000000e+00,1.000000000000000000e+00,1.000000000000000000e+00,1.000000000000000000e+00,1.000000000000000000e+00,1.000000000000000000e+00,1.000000000000000000e+00,1.755072116851806585e-01,1.664227843284606934e-01,1.644490003585815374e-01,1.625215053558349554e-01,1.608565926551818737e-01,1.607380509376525879e-01,1.606729507446288951e-01,1.606078982353210394e-01,1.695537328720092829e-01,1.000000000000000000e+00,1.000000000000000000e+00,1.000000000000000000e+00,1.000000000000000000e+00,1.000000000000000000e+00,1.000000000000000000e+00,1.000000000000000000e+00,1.000000000000000000e+00,1.000000000000000000e+00,1.000000000000000000e+00,1.000000000000000000e+00,1.000000000000000000e+00,1.000000000000000000e+00,1.000000000000000000e+00,1.000000000000000000e+00,1.000000000000000000e+00,1.000000000000000000e+00,1.000000000000000000e+00,1.000000000000000000e+00,1.000000000000000000e+00,1.000000000000000000e+00,1.000000000000000000e+00,1.000000000000000000e+00,1.203553557395935086e-01,1.173310875892639160e-01,1.144607663154602051e-01,1.123394250869751004e-01,1.111326336860656711e-01,1.099514961242675781e-01,1.088536143302917536e-01,1.078075885772705050e-01,1.067814707756042508e-01,1.065860271453857450e-01,1.067213177680969294e-01,1.068569779396057184e-01,1.069528222084045466e-01,1.069697022438049344e-01
6.197268009185791238e-01,6.354475975036620872e-01,6.519867420196533425e-01,6.694097518920898438e-01,6.877896308898925337e-01,7.072072505950928178e-01,7.277531147003173384e-01,7.495285034179687278e-01,7.726472377777099387e-01,7.972374439239502397e-01,8.234443664550781250e-01,8.514328002929687500e-01,8.813913345336914507e-01,9.135438919067382368e-01,9.481309890747070535e-01,9.854401588439941628e-01,1.000000000000000000e+00,1.000000000000000000e+00,1.000000000000000000e+00,1.000000000000000000e+00,1.000000000000000000e+00,1.000000000000000000e+00,1.000000000000000000e+00,1.000000000000000000e+00,1.000000000000000000e+00,1.000000000000000000e+00,1.000000000000000000e+00,1.000000000000000000e+00,1.000000000000000000e+00,1.000000000000000000e+00,1.000000000000000000e+00,1.000000000000000000e+00,1.000000000000000000e+00,1.000000000000000000e+00,1.752842783927917591e-01,1.677228689193725475e-01,1.657183170318603516e-01,1.637787818908691406e-01,1.622667908668518066e-01,1.620918989181518444e-01,1.620257019996643177e-01,1.642320632934570201e-01,1.000000000000000000e+00,1.000000000000000000e+00,1.000000000000000000e+00,1.000000000000000000e+00,1.000000000000000000e+00,1.000000000000000000e+00,1.000000000000000000e+00,1.000000000000000000e+00,1.000000000000000000e+00,1.000000000000000000e+00,1.000000000000000000e+00,1.000000000000000000e+00,1.000000000000000000e+00,1.000000000000000000e+00,1.000000000000000000e+00,1.000000000000000000e+00,1.000000000000000000e+00,1.000000000000000000e+00,1.000000000000000000e+00,1.000000000000000000e+00,1.000000000000000000e+00,1.000000000000000000e+00,1.000000000000000000e+00,1.000000000000000000e+00,1.206967115402221707e-01,1.176521062850952176e-01,1.147646307945251465e-01,1.122806668281555176e-01,1.110751271247863714e-01,1.098952054977417048e-01,1.088157653808593806e-01,1.077704548835754367e-01,1.067450404167175348e-01,1.063388228416442816e-01,1.064735054969787598e-01,1.066085100173950195e-01,1.067438721656799316e-01,1.067941665649414090e-01
6.197136878967285378e-01,6.354338169097900613e-01,6.519721508026122825e-01,6.693944454193114790e-01,6.877734661102294922e-01,7.071901321411132590e-01,7.277350425720214844e-01,7.495093345642089844e-01,7.726267814636230691e-01,7.972157478332519975e-01,8.234211921691894087e-01,8.514080047607421875e-01,8.813642501831054910e-01,9.135053634643555132e-01,9.480792999267577681e-01,9.853819847106933816e-01,1.000000000000000000e+00,1.000000000000000000e+00,1.000000000000000000e+00,1.000000000000000000e+00,1.000000000000000000e+00,1.000000000000000000e+00,1.000000000000000000e+00,1.000000000000000000e+00,1.000000000000000000e+00,1.000000000000000000e+00,1.000000000000000000e+00,1.000000000000000000e+00,1.000000000000000000e+00,1.000000000000000000e+00,1.000000000000000000e+00,1.000000000000000000e+00,1.000000000000000000e+00,1.000000000000000000e+00,1.750619173049926813e-01,1.690434336662292591e-01,1.670073866844177246e-01,1.650779724121093639e-01,1.637019157409667913e-01,1.634687423706054632e-01,1.634014129638671764e-01,1.684938192367553822e-01,1.000000000000000000e+00,1.000000000000000000e+00,1.000000000000000000e+00,1.000000000000000000e+00,1.000000000000000000e+00,1.000000000000000000e+00,1.000000000000000000e+00,1.000000000000000000e+00,1.000000000000000000e+00,1.000000000000000000e+00,1.000000000000000000e+00,1.000000000000000000e+00,1.000000000000000000e+00,1.000000000000000000e+00,1.000000000000000000e+00,1.000000000000000000e+00,1.000000000000000000e+00,1.000000000000000000e+00,1.000000000000000000e+00,1.000000000000000000e+00,1.000000000000000000e+00,1.000000000000000000e+00,1.000000000000000000e+00,1.000000000000000000e+00,1.210400223731994684e-01,1.179782867431640597e-01,1.150701165199279757e-01,1.123080611228942927e-01,1.110176920890808133e-01,1.098429799079894964e-01,1.087779402732849121e-01,1.077333569526672391e-01,1.067086458206176758e-01,1.060927629470825168e-01,1.062268257141113226e-01,1.063612103462219238e-01,1.064959406852722112e-01,1.066192030906677191e-01
6.197005748748779519e-01,6.354200363159179243e-01,6.519576549530029519e-01,6.693791866302489790e-01,6.877573490142822044e-01,7.071730613708495650e-01,7.277169704437256303e-01,7.494900703430176225e-01,7.726064205169678178e-01,7.971940517425537553e-01,8.233980178833008035e-01,8.513833045959472434e-01,8.813377380371093528e-01,9.134767532348633257e-01,9.480485916137695312e-01,9.853402137756347434e-01,1.000000000000000000e+00,1.000000000000000000e+00,1.000000000000000000e+00,1.000000000000000000e+00,1.000000000000000000e+00,1.000000000000000000e+00,1.000000000000000000e+00,1.000000000000000000e+00,1.000000000000000000e+00,1.000000000000000000e+00,1.000000000000000000e+00,1.000000000000000000e+00,1.000000000000000000e+00,1.000000000000000000e+00,1.000000000000000000e+00,1.000000000000000000e+00,1.000000000000000000e+00,1.000000000000000000e+00,1.743962526321411188e-01,1.703849434852600098e-01,1.683499932289123646e-01,1.663979411125183216e-01,1.651626348495483509e-01,1.648692011833191029e-01,1.648006916046142467e-01,1.725460886955261230e-01,1.000000000000000000e+00,1.000000000000000000e+00,1.000000000000000000e+00,1.000000000000000000e+00,1.000000000000000000e+00,1.000000000000000000e+00,1.000000000000000000e+00,1.000000000000000000e+00,1.000000000000000000e+00,1.000000000000000000e+00,1.000000000000000000e+00,1.000000000000000000e+00,1.000000000000000000e+00,1.000000000000000000e+00,1.000000000000000000e+00,1.000000000000000000e+00,1.000000000000000000e+00,1.000000000000000000e+00,1.000000000000000000e+00,1.000000000000000000e+00,1.000000000000000000e+00,1.000000000000000000e+00,1.000000000000000000e+00,1.000000000000000000e+00,1.213852882385253878e-01,1.183062672615051297e-01,1.153796076774597223e-01,1.126005768775939914e-01,1.109603047370910645e-01,1.098044395446777372e-01,1.087401390075683622e-01,1.076962828636169461e-01,1.066722750663757352e-01,1.058478474617004367e-01,1.059812784194946317e-01,1.061150550842285128e-01,1.062491655349731418e-01,1.063836097717285184e-01
6.196875095367431197e-01,6.354062080383300337e-01,6.519431591033935103e-01,6.693638801574707253e-01,6.877411365509032981e-01,7.071559906005859819e-01,7.276988983154296653e-01,7.494709014892577681e-01,7.725860595703124556e-01,7.971723556518555132e-01,8.233748435974120872e-01,8.513585090637206809e-01,8.813111305236815962e-01,9.134483337402343750e-01,9.480178833007812944e-01,9.853070259094238725e-01,1.000000000000000000e+00,1.000000000000000000e+00,1.000000000000000000e+00,1.000000000000000000e+00,1.000000000000000000e+00,1.000000000000000000e+00,1.000000000000000000e+00,1.000000000000000000e+00,1.000000000000000000e+00,1.000000000000000000e+00,1.000000000000000000e+00,1.000000000000000000e+00,1.000000000000000000e+00,1.000000000000000000e+00,1.000000000000000000e+00,1.000000000000000000e+00,1.000000000000000000e+00,1.000000000000000000e+00,1.739019632339477428e-01,1.717543125152588002e-01,1.697230219841003307e-01,1.677392005920410045e-01,1.666496753692627009e-01,1.662938237190246527e-01,1.674470663070678766e-01,1.764407634735107311e-01,1.000000000000000000e+00,1.000000000000000000e+00,1.000000000000000000e+00,1.000000000000000000e+00,1.000000000000000000e+00,1.000000000000000000e+00,1.000000000000000000e+00,1.000000000000000000e+00,1.000000000000000000e+00,1.000000000000000000e+00,1.000000000000000000e+00,1.000000000000000000e+00,1.000000000000000000e+00,1.000000000000000000e+00,1.000000000000000000e+00,1.000000000000000000e+00,1.000000000000000000e+00,1.000000000000000000e+00,1.000000000000000000e+00,1.000000000000000000e+00,1.000000000000000000e+00,1.000000000000000000e+00,1.000000000000000000e+00,1.000000000000000000e+00,1.217325210571289090e-01,1.186361074447631891e-01,1.156932950019836370e-01,1.128946304321289118e-01,1.109029769897460910e-01,1.097659349441528348e-01,1.087023735046386691e-01,1.076592326164245578e-01,1.066359281539916992e-01,1.056318879127502441e-01,1.057368755340576116e-01,1.058700203895568820e-01,1.060035228729248047e-01,1.061373472213745089e-01
6.196743488311767800e-01,6.353924274444580078e-01,6.519286632537841797e-01,6.693485260009766069e-01,6.877249717712402566e-01,7.071389198303222878e-01,7.276807308197021928e-01,7.494517326354980247e-01,7.725656986236572044e-01,7.971505641937255415e-01,8.233516693115234819e-01,8.513337135314941184e-01,8.812846183776855691e-01,9.134198188781738059e-01,9.479872703552245650e-01,9.852738380432128906e-01,1.000000000000000000e+00,1.000000000000000000e+00,1.000000000000000000e+00,1.000000000000000000e+00,1.000000000000000000e+00,1.000000000000000000e+00,1.000000000000000000e+00,1.000000000000000000e+00,1.000000000000000000e+00,1.000000000000000000e+00,1.000000000000000000e+00,1.000000000000000000e+00,1.000000000000000000e+00,1.000000000000000000e+00,1.000000000000000000e+00,1.000000000000000000e+00,1.000000000000000000e+00,1.000000000000000000e+00,1.753220200538635198e-01,1.731836795806884766e-01,1.711186408996581976e-01,1.691022515296936035e-01,1.681637287139892689e-01,1.677433133125305065e-01,1.717281818389892467e-01,1.000000000000000000e+00,1.000000000000000000e+00,1.000000000000000000e+00,1.000000000000000000e+00,1.000000000000000000e+00,1.000000000000000000e+00,1.000000000000000000e+00,1.000000000000000000e+00,1.000000000000000000e+00,1.000000000000000000e+00,1.000000000000000000e+00,1.000000000000000000e+00,1.000000000000000000e+00,1.000000000000000000e+00,1.000000000000000000e+00,1.000000000000000000e+00,1.000000000000000000e+00,1.000000000000000000e+00,1.000000000000000000e+00,1.000000000000000000e+00,1.000000000000000000e+00,1.000000000000000000e+00,1.000000000000000000e+00,1.000000000000000000e+00,1.000000000000000000e+00,1.000000000000000000e+00,1.189677715301513672e-01,1.160086870193481473e-01,1.131932377815246527e-01,1.108457088470458929e-01,1.097274541854858371e-01,1.086646437644958468e-01,1.076222181320190402e-01,1.065996170043945340e-01,1.055962562561035128e-01,1.054936051368713379e-01,1.056261420249939020e-01,1.057590246200561523e-01,1.058922290802001981e-01
6.196612358093261941e-01,6.353786468505859819e-01,6.519140720367431197e-01,6.693332195281982422e-01,6.877088546752929688e-01,7.071218013763427290e-01,7.276626586914062278e-01,7.494325637817382812e-01,7.725452423095703347e-01,7.971289157867431641e-01,8.233285903930663840e-01,8.513090133666991743e-01,8.812581062316894309e-01,9.133913040161132368e-01,9.479564666748047097e-01,9.852406501770019087e-01,1.000000000000000000e+00,1.000000000000000000e+00,1.000000000000000000e+00,1.000000000000000000e+00,1.000000000000000000e+00,1.000000000000000000e+00,1.000000000000000000e+00,1.000000000000000000e+00,1.000000000000000000e+00,1.000000000000000000e+00,1.000000000000000000e+00,1.000000000000000000e+00,1.000000000000000000e+00,1.000000000000000000e+00,1.000000000000000000e+00,1.000000000000000000e+00,1.000000000000000000e+00,1.862897634506225641e-01,1.767884135246276800e-01,1.746370315551757924e-01,1.725373983383178822e-01,1.704876303672790416e-01,1.697055578231811412e-01,1.692182779312133845e-01,1.755856156349182018e-01,1.000000000000000000e+00,1.000000000000000000e+00,1.000000000000000000e+00,1.000000000000000000e+00,1.000000000000000000e+00,1.000000000000000000e+00,1.000000000000000000e+00,1.000000000000000000e+00,1.000000000000000000e+00,1.000000000000000000e+00,1.000000000000000000e+00,1.000000000000000000e+00,1.000000000000000000e+00,1.000000000000000000e+00,1.000000000000000000e+00,1.000000000000000000e+00,1.000000000000000000e+00,1.000000000000000000e+00,1.000000000000000000e+00,1.000000000000000000e+00,1.000000000000000000e+00,1.000000000000000000e+00,1.000000000000000000e+00,1.000000000000000000e+00,1.000000000000000000e+00,1.000000000000000000e+00,1.193012833595275823e-01,1.163257956504821777e-01,1.134951233863830539e-01,1.107998728752136175e-01,1.096889972686767578e-01,1.086269259452819769e-01,1.075852274894714411e-01,1.065633177757263211e-01,1.055606365203857477e-01,1.052514433860778781e-01,1.053833723068237360e-01,1.055156350135803278e-01,1.056482434272766058e-01
6.196481227874756081e-01,6.353648185729980913e-01,6.518995761871337891e-01,6.693179607391357422e-01,6.876926422119140625e-01,7.071047306060791460e-01,7.276445865631103738e-01,7.494133472442626731e-01,7.725248813629150835e-01,7.971072196960449219e-01,8.233053207397460493e-01,8.512842178344726118e-01,8.812315940856934038e-01,9.133627891540527788e-01,9.479258537292480913e-01,9.852075576782226562e-01,1.000000000000000000e+00,1.000000000000000000e+00,1.000000000000000000e+00,1.000000000000000000e+00,1.000000000000000000e+00,1.000000000000000000e+00,1.000000000000000000e+00,1.000000000000000000e+00,1.000000000000000000e+00,1.000000000000000000e+00,1.000000000000000000e+00,1.000000000000000000e+00,1.000000000000000000e+00,1.000000000000000000e+00,1.000000000000000000e+00,1.000000000000000000e+00,1.000000000000000000e+00,1.868083477020263672e-01,1.784304380416870117e-01,1.761953473091125433e-01,1.740155339241027943e-01,1.719907283782959040e-01,1.712759137153625488e-01,1.707904815673828014e-01,1.799742341041564997e-01,1.000000000000000000e+00,1.000000000000000000e+00,1.000000000000000000e+00,1.000000000000000000e+00,1.000000000000000000e+00,1.000000000000000000e+00,1.000000000000000000e+00,1.000000000000000000e+00,1.000000000000000000e+00,1.000000000000000000e+00,1.000000000000000000e+00,1.000000000000000000e+00,1.000000000000000000e+00,1.000000000000000000e+00,1.000000000000000000e+00,1.000000000000000000e+00,1.000000000000000000e+00,1.000000000000000000e+00,1.000000000000000000e+00,1.000000000000000000e+00,1.000000000000000000e+00,1.000000000000000000e+00,1.000000000000000000e+00,1.000000000000000000e+00,1.000000000000000000e+00,1.000000000000000000e+00,1.196366906166076716e-01,1.166446566581726130e-01,1.138034701347351019e-01,1.111081957817077609e-01,1.097258806228637723e-01,1.086690902709960965e-01,1.076324701309204074e-01,1.066154241561889648e-01,1.056174278259277288e-01,1.050592780113220187e-01,1.051859498023986761e-01,1.053129315376281766e-01,1.054402112960815402e-01
6.196350097656250222e-01,6.353510379791259544e-01,6.518850803375244585e-01,6.693026542663573775e-01,6.876765251159667747e-01,7.070876598358154519e-01,7.276265144348144087e-01,7.493941783905029297e-01,7.725044727325439675e-01,7.970854282379150613e-01,8.232822418212890625e-01,8.512594223022460493e-01,8.812049865722656472e-01,9.133342742919922097e-01,9.478951454162597434e-01,9.710564613342285156e-01,9.708171844482421653e-01,9.705780982971191628e-01,9.703390121459960493e-01,9.701001167297362837e-01,9.698612213134765181e-01,9.696226119995117188e-01,9.693840026855469194e-01,9.691455841064453569e-01,9.689072608947754128e-01,9.686690330505370872e-01,9.684309005737304910e-01,9.681929588317871316e-01,9.679550170898437722e-01,9.677172660827636497e-01,9.674797058105468750e-01,9.672421455383301003e-01,9.670046806335449441e-01,1.873292684555053766e-01,1.801262378692626842e-01,1.778486967086791992e-01,1.756280422210693415e-01,1.742616891860961914e-01,1.733188509941100963e-01,1.750868201255798284e-01,9.651097297668457253e-01,9.648733139038085938e-01,9.646370887756348100e-01,9.644009590148925337e-01,9.641649246215819868e-01,9.639290809631347878e-01,9.636932373046874778e-01,9.634575843811035156e-01,9.632220268249511719e-01,9.629865646362304465e-01,9.627512931823730691e-01,9.625161170959473100e-01,9.622809410095214400e-01,9.620460510253906472e-01,9.618111610412597434e-01,9.615763664245605691e-01,9.613417625427246316e-01,9.611072540283203125e-01,9.608728408813476118e-01,9.606385231018066406e-01,9.604043960571289062e-01,9.601703643798827903e-01,9.599363327026366743e-01,9.597025871276855247e-01,9.594688415527343750e-01,9.592351913452148438e-01,9.590017318725585493e-01,1.199849843978881836e-01,1.169928073883056696e-01,1.141462445259094211e-01,1.114349007606506292e-01,1.098028421401977539e-01,1.087445855140685980e-01,1.077065229415893610e-01,1.066880822181701660e-01,1.056887388229370145e-01,1.048963308334350530e-01,1.050034165382385254e-01,1.051299452781677274e-01,1.052567958831787109e-01
6.196218490600585715e-01,6.353372573852539285e-01,6.518705844879150169e-01,6.692873001098632590e-01,6.876603603363037331e-01,7.070705890655517578e-01,7.276083946228026900e-01,7.493750095367431863e-01,7.542661666870117410e-01,7.541218280792236772e-01,7.539775371551513672e-01,7.538331985473633035e-01,7.536890506744384766e-01,7.535449028015136497e-01,7.534007549285888228e-01,7.532567501068114790e-01,7.531127929687500000e-01,7.529687881469726562e-01,7.528249263763427956e-01,7.526811599731445535e-01,7.525373458862304465e-01,7.523936271667480691e-01,7.522500038146973100e-01,7.521063804626464400e-01,7.519628524780272993e-01,7.518193721771240234e-01,7.516758918762207475e-01,7.515325069427489790e-01,7.513892173767089400e-01,7.512458801269531472e-01,7.511026859283447266e-01,7.509595870971679243e-01,7.508163928985596147e-01,1.877458930015563909e-01,1.818545460700988770e-01,1.795333981513977106e-01,1.773059606552123968e-01,1.764777541160583441e-01,1.756604790687560924e-01,1.797320485115051214e-01,7.496734619140624778e-01,7.495308399200439897e-01,7.493883132934570090e-01,7.492457389831542747e-01,7.491033077239990234e-01,7.489609241485595259e-01,7.488185405731201394e-01,7.486762523651122603e-01,7.485340595245361106e-01,7.483918190002440962e-01,7.482497215270995650e-01,7.481076717376708984e-01,7.479655742645263672e-01,7.478236675262450728e-01,7.476817607879638894e-01,7.475398540496825950e-01,7.473980426788330300e-01,7.472563266754150835e-01,7.471145629882812722e-01,7.469729423522949441e-01,7.468313694000243697e-01,7.466897964477539062e-01,7.465483188629150613e-01,7.464068412780762163e-01,7.462655067443847434e-01,7.461241722106933816e-01,7.459828853607177734e-01,1.204596877098083468e-01,1.173550963401794461e-01,1.144910812377929743e-01,1.117635369300842285e-01,1.098799228668212863e-01,1.088201761245727595e-01,1.077806830406188993e-01,1.067608475685119657e-01,1.057585716247558538e-01,1.048308730125427218e-01,1.048215150833129855e-01,1.049476027488708552e-01,1.050740122795104925e-01
6.167037963867187944e-01,6.166073322296142800e-01,6.165108680725097656e-01,6.164143562316894975e-01,6.163179397583007368e-01,6.162216186523437056e-01,6.161252975463866743e-01,6.160289287567138894e-01,6.159326076507568581e-01,6.158363819122314453e-01,6.157400608062744141e-01,6.156438827514648660e-01,6.155476570129394531e-01,6.154515266418456587e-01,6.153553962707519753e-01,6.152592658996581809e-01,6.151632308959961160e-01,6.150671958923339400e-01,6.149711608886718750e-01,6.148752212524414285e-01,6.147792816162109819e-01,6.146833419799804243e-01,6.145874500274658425e-01,6.144916057586670144e-01,6.143957614898681863e-01,6.142999649047851118e-01,6.142042160034180132e-01,6.141084671020508035e-01,6.140127658843994585e-01,6.139171123504638672e-01,6.138214111328125222e-01,6.137258529663085493e-01,6.136302471160888228e-01,1.881643772125244085e-01,1.836163520812988392e-01,1.812688112258911133e-01,1.790304422378539984e-01,1.787399888038635198e-01,1.780662655830383412e-01,1.846304535865783691e-01,6.128666400909423828e-01,6.127712726593017578e-01,6.126760005950927512e-01,6.125807762145996094e-01,6.124855041503906028e-01,6.123903274536133257e-01,6.122951507568359375e-01,6.121999740600585493e-01,6.121048927307128906e-01,6.120098114013672319e-01,6.119147300720214622e-01,6.118196964263915572e-01,6.117247581481933816e-01,6.116297245025634766e-01,6.115348339080810547e-01,6.114399433135986328e-01,6.113450050354003462e-01,6.112502098083496538e-01,6.111553668975829856e-01,6.110605716705321822e-01,6.109658241271972434e-01,6.108711242675781694e-01,6.107763767242431197e-01,6.106817245483397993e-01,6.105870723724364790e-01,6.104924201965331587e-01,6.103978633880615678e-01,6.103033065795898660e-01,1.177196264266967829e-01,1.148380160331726046e-01,1.120941162109374972e-01,1.099571108818054171e-01,1.088958859443664579e-01,1.078549504280090360e-01,1.068337202072143499e-01,1.058261871337890653e-01,1.048199892044067438e-01,1.046402335166931180e-01,1.047659039497375461e-01,1.048918604850768987e-01
5.210269927978515847e-01,5.209580898284912331e-01,5.208891868591308816e-01,5.208203792572021484e-01,5.207515239715576616e-01,5.206827163696289285e-01,5.206139087677001953e-01,5.205451011657714622e-01,5.204763412475585938e-01,5.204076766967773438e-01,5.203389644622802290e-01,5.202702045440673606e-01,5.202015399932861106e-01,5.201328754425048606e-01,5.200641632080078569e-01,5.199955463409423606e-01,5.199269294738769753e-01,5.198583126068114790e-01,5.197897434234619585e-01,5.197211265563964622e-01,5.196526050567626953e-01,5.195840835571289285e-01,5.195155620574951616e-01,5.194470882415771484e-01,5.193786144256591353e-01,5.193101406097412331e-01,5.192417144775390847e-01,5.191732883453369363e-01,5.191048622131347878e-01,5.190364837646483931e-01,5.189681053161621094e-01,5.188997268676758257e-01,5.188314437866210493e-01,1.885847449302673340e-01,1.854128360748291127e-01,1.830716252326965443e-01,1.807888031005859264e-01,1.810609459877014216e-01,1.805388569831848089e-01,5.183536052703857644e-01,5.182854175567627175e-01,5.182172298431396706e-01,5.181490421295166238e-01,5.180809497833251953e-01,5.180128574371337669e-01,5.179447174072265847e-01,5.178766250610351562e-01,5.178085803985595925e-01,5.177405357360840288e-01,5.176724910736083540e-01,5.176044940948486550e-01,5.175364971160888450e-01,5.174685478210448997e-01,5.174005985260009544e-01,5.173326015472412553e-01,5.172646999359130637e-01,5.171968460083007368e-01,5.171288967132567915e-01,5.170610427856445757e-01,5.169932365417480025e-01,5.169253826141357866e-01,5.168575763702392134e-01,5.167897701263427512e-01,5.167219638824462891e-01,5.166542530059814453e-01,5.165864944458007368e-01,5.165187835693358931e-01,5.164510726928710493e-01,1.180920600891113281e-01,1.151870608329772921e-01,1.124266386032104492e-01,1.100343942642211942e-01,1.089716911315918024e-01,1.079293131828308050e-01,1.069066882133483942e-01,1.058938741683959905e-01,1.048864006996154813e-01,1.044856429100036593e-01,1.045848131179809570e-01,1.047103524208068820e-01
4.510499954223632924e-01,4.509984016418456809e-01,4.509468078613281250e-01,4.508952140808105691e-01,4.508435726165771484e-01,4.507919788360595925e-01,4.507404327392577903e-01,4.506888866424560436e-01,4.506373405456542969e-01,4.505857944488525502e-01,4.505342960357666127e-01,4.504827976226806752e-01,4.504312992095947377e-01,4.503798484802246094e-01,4.503283500671386719e-01,4.502768993377685436e-01,4.502254486083984153e-01,4.501739978790283425e-01,4.501225471496582142e-01,4.500711441040038951e-01,4.500196933746337669e-01,4.499683380126953125e-01,4.499169349670409934e-01,4.498655796051025391e-01,4.498142242431640847e-01,4.497628688812255748e-01,4.497115135192871205e-01,4.496602058410644753e-01,4.496088981628417747e-01,4.495575904846191295e-01,4.495062828063964844e-01,4.494550228118896484e-01,4.494037151336670033e-01,1.897706389427185059e-01,1.872994542121887152e-01,1.849106669425964466e-01,1.825820446014404241e-01,1.834429740905761663e-01,1.843755602836608942e-01,4.490451812744140625e-01,4.489940166473388450e-01,4.489428520202636830e-01,4.488916873931884655e-01,4.488405704498291127e-01,4.487894058227538951e-01,4.487383365631103516e-01,4.486872196197509988e-01,4.486361026763915905e-01,4.485850334167480469e-01,4.485339641571045033e-01,4.484828948974609597e-01,4.484318733215332253e-01,4.483808040618896262e-01,4.483297824859618919e-01,4.482788085937500222e-01,4.482277870178222878e-01,4.481768131256103627e-01,4.481258392333984375e-01,4.480748653411865123e-01,4.480238914489745872e-01,4.479729652404785267e-01,4.479220390319824108e-01,4.478711128234863503e-01,4.478202342987060436e-01,4.477693080902099831e-01,4.477184295654296764e-01,4.476675510406494252e-01,4.476166725158691184e-01,1.186477541923522949e-01,1.155382156372070368e-01,1.127611517906188937e-01,1.101144552230834961e-01,1.090476036071777316e-01,1.080037713050842341e-01,1.069797396659851046e-01,1.059616684913635282e-01,1.049528956413268987e-01,1.044207096099853543e-01,1.044043540954589788e-01,1.045294523239135714e-01
3.976441144943237416e-01,3.976040124893188699e-01,3.975638866424560658e-01,3.975237607955932617e-01,3.974836826324462669e-01,3.974435567855835183e-01,3.974035024642944558e-01,3.973634243011474609e-01,3.973233222961425892e-01,3.972832918167114036e-01,3.972432136535644642e-01,3.972032070159912109e-01,3.971631526947021484e-01,3.971230983734130859e-01,3.970831155776977650e-01,3.970430850982665794e-01,3.970031023025512584e-01,3.969631433486938699e-01,3.969231367111206166e-01,3.968831300735473633e-01,3.968431711196899192e-01,3.968031883239745983e-01,3.967632293701172097e-01,3.967232942581176980e-01,3.966833353042602539e-01,3.966434001922607422e-01,3.966034889221191628e-01,3.965635538101196511e-01,3.965236425399780162e-01,3.964837551116943137e-01,3.964438438415527344e-01,3.964039564132690319e-01,3.963640928268432617e-01,3.963242053985595592e-01,1.892248630523681585e-01,1.867870330810546819e-01,1.844660878181457464e-01,1.858885407447815052e-01,3.961249828338623269e-01,3.960851430892944336e-01,3.960453271865844727e-01,3.960055351257324441e-01,3.959657192230224831e-01,3.959259271621703991e-01,3.958861589431762473e-01,3.958463668823242188e-01,3.958065986633300670e-01,3.957668542861938477e-01,3.957270860671996959e-01,3.956873416900634766e-01,3.956475734710693248e-01,3.956078767776489147e-01,3.955681562423706277e-01,3.955284118652343528e-01,3.954887390136718750e-01,3.954490423202514648e-01,3.954093217849731223e-01,3.953696727752685769e-01,3.953299999237060436e-01,3.952903032302856334e-01,3.952506780624389648e-01,3.952110290527343639e-01,3.951713800430297630e-01,3.951317548751830944e-01,3.950921297073364258e-01,3.950525045394897572e-01,3.950129270553588978e-01,3.949733018875122292e-01,1.192087054252624484e-01,1.158915400505065862e-01,1.130976796150207492e-01,1.104353308677673284e-01,1.091236233711242731e-01,1.080783367156982477e-01,1.070528984069824274e-01,1.060295343399047796e-01,1.050194859504699763e-01,1.043558359146118109e-01,1.042245268821716253e-01,1.043491840362548856e-01
3.555462121963500755e-01,3.555141210556030384e-01,3.554820537567138783e-01,3.554499864578247181e-01,3.554179430007934348e-01,3.553858757019042747e-01,3.553538084030151145e-01,3.553217887878418191e-01,3.552897214889526589e-01,3.552577257156371848e-01,3.552256822586059570e-01,3.551936388015747292e-01,3.551616430282592551e-01,3.551296234130859597e-01,3.550976276397704856e-01,3.550656080245971902e-01,3.550336122512817161e-01,3.550016403198242299e-01,3.549696445465088113e-01,3.549376964569092019e-01,3.549057483673095925e-01,3.548737764358520508e-01,3.548418283462524414e-01,3.548098564147948997e-01,3.547779083251952903e-01,3.547459363937378041e-01,3.547140359878540039e-01,3.546820878982543945e-01,3.546501398086547852e-01,3.546182394027709850e-01,3.545863151550293080e-01,3.545543909072875755e-01,3.545225143432617076e-01,1.990675926208496094e-01,1.930393576622009277e-01,1.915369153022766224e-01,1.906553387641906627e-01,1.884001731872558538e-01,3.543312072753906361e-01,3.542993307113647683e-01,3.542674541473388450e-01,3.542356252670287864e-01,3.542037725448608509e-01,3.541719198226928600e-01,3.541401147842407338e-01,3.541082620620727428e-01,3.540764331817626842e-01,3.540446281433105580e-01,3.540127992630004994e-01,3.539809942245483176e-01,3.539492130279541238e-01,3.539174079895019420e-01,3.538856029510498158e-01,3.538538455963134988e-01,3.538220643997192494e-01,3.537902593612670676e-01,3.537585258483886830e-01,3.537267446517944336e-01,3.536949872970581166e-01,3.536632537841796764e-01,3.536314964294433594e-01,3.535997390747070424e-01,3.535680532455444114e-01,3.535362958908080944e-01,3.535045623779297097e-01,3.534728765487670787e-01,3.534411668777465709e-01,3.534094333648681863e-01,1.197749853134155301e-01,1.163501381874084417e-01,1.134361863136291448e-01,1.107580900192260687e-01,1.091997504234313993e-01,1.081530213356018122e-01,1.071261644363403348e-01,1.060974955558776911e-01,1.050861597061157199e-01,1.042910575866699274e-01,1.040781617164611844e-01,1.041695356369018582e-01
3.215086460113525391e-01,3.214823961257934348e-01,3.214561939239501953e-01,3.214299440383910911e-01,3.214037179946899192e-01,3.213775157928466797e-01,3.213512897491455078e-01,3.213251113891601451e-01,3.212988853454589733e-01,3.212726831436157338e-01,3.212465047836303711e-01,3.212203025817871316e-01,3.211941480636596458e-01,3.211679458618164062e-01,3.211417675018310436e-01,3.211156129837036133e-01,3.210894346237182506e-01,3.210632801055908203e-01,3.210371017456054576e-01,3.210109472274780273e-01,3.209848165512084739e-01,3.209586381912231667e-01,3.209324836730956809e-01,3.209064006805419922e-01,3.208802461624145619e-01,3.208541393280029408e-01,3.208280086517333873e-01,3.208018779754638894e-01,3.207757711410522683e-01,3.207496404647827148e-01,3.207235336303710938e-01,3.206974506378174050e-01,3.206713438034057839e-01,1.988008499145507701e-01,1.938361048698425404e-01,1.930292248725891113e-01,1.923764824867248424e-01,1.944082736968994196e-01,3.205147981643676758e-01,3.204887151718139870e-01,3.204626798629760520e-01,3.204365968704223633e-01,3.204105377197265514e-01,3.203845024108886719e-01,3.203584432601928600e-01,3.203323841094970481e-01,3.203063488006591686e-01,3.202803134918212891e-01,3.202542543411254772e-01,3.202282667160034069e-01,3.202022314071655273e-01,3.201761960983276478e-01,3.201501846313476451e-01,3.201241731643676980e-01,3.200981616973876953e-01,3.200721740722656250e-01,3.200461626052856223e-01,3.200201511383056752e-01,3.199941396713256725e-01,3.199681758880615345e-01,3.199421882629394642e-01,3.199162006378173939e-01,3.198902368545532005e-01,3.198642492294311301e-01,3.198382854461669922e-01,3.198123455047607311e-01,3.197863817214965931e-01,3.197604179382323997e-01,1.203466653823852539e-01,1.168895363807678223e-01,1.137767553329467746e-01,1.110827326774597168e-01,1.092759728431701716e-01,1.082277894020080566e-01,1.071978688240051297e-01,1.061655521392822210e-01,1.051529049873352051e-01,1.042263507843017578e-01,1.040137290954589872e-01,1.039905071258544894e-01
2.934187173843383900e-01,2.933968782424926647e-01,2.933750152587890625e-01,2.933531761169433372e-01,2.933313369750976674e-01,2.933095216751098744e-01,2.932876825332641491e-01,2.932658433914184792e-01,2.932440280914306863e-01,2.932221889495849609e-01,2.932003736495971680e-01,2.931785583496093750e-01,2.931567430496215820e-01,2.931349277496337891e-01,2.931131124496459961e-01,2.930913209915161355e-01,2.930695295333862194e-01,2.930477142333984264e-01,2.930259466171264426e-01,2.930041313171386497e-01,2.929823637008667214e-01,2.929605722427368053e-01,2.929387807846069447e-01,2.929170131683349609e-01,2.928952217102051003e-01,2.928734540939331166e-01,2.928516864776611328e-01,2.928299665451049583e-01,2.928081989288330300e-01,2.927864313125610463e-01,2.927646875381469949e-01,2.927429199218750111e-01,2.927211761474609597e-01,1.991228580474853627e-01,1.937049031257629395e-01,1.916579604148864746e-01,1.905037403106689398e-01,1.913325786590576172e-01,2.925907373428344727e-01,2.925689935684204213e-01,2.925472974777221791e-01,2.925255775451660045e-01,2.925038337707519531e-01,2.924821376800537109e-01,2.924604177474975364e-01,2.924386978149414174e-01,2.924170255661010520e-01,2.923953056335449330e-01,2.923736095428466908e-01,2.923519372940063255e-01,2.923302173614502064e-01,2.923085212707519642e-01,2.922868728637695312e-01,2.922651767730712891e-01,2.922434806823730469e-01,2.922218322753906139e-01,2.922001361846923717e-01,2.921784639358520619e-01,2.921568155288696289e-01,2.921351432800293191e-01,2.921134710311889537e-01,2.920918464660644531e-01,2.920701742172241433e-01,2.920485258102417103e-01,2.920268774032592773e-01,2.920052289962768444e-01,2.919835805892944114e-01,2.919619560241699108e-01,1.209238409996032659e-01,1.174339294433593694e-01,1.141398191452026312e-01,1.114092826843261774e-01,1.093523144721984808e-01,1.083026647567748996e-01,1.072673320770263644e-01,1.062336802482604925e-01,1.052197575569152888e-01,1.042249917984008761e-01,1.039493680000305176e-01,1.038120985031127930e-01
2.698427915573120006e-01,2.698243141174316295e-01,2.698058366775512584e-01,2.697873592376708873e-01,2.697688817977905162e-01,2.697504043579101451e-01,2.697319507598877064e-01,2.697134971618652122e-01,2.696950435638427734e-01,2.696765661239624023e-01,2.696581125259399636e-01,2.696396589279174694e-01,2.696212053298950306e-01,2.696027755737304688e-01,2.695843219757080300e-01,2.695658683776855358e-01,2.695474386215209739e-01,2.695289850234985352e-01,2.695105552673339733e-01,2.694921255111694114e-01,2.694736957550049050e-01,2.694552659988403431e-01,2.694368362426757812e-01,2.694184303283691517e-01,2.694000005722045898e-01,2.693815708160400280e-01,2.693631649017333984e-01,2.693447589874267689e-01,2.693263292312622070e-01,2.693079471588134544e-01,2.692895174026489480e-01,2.692711591720581277e-01,2.692527532577514426e-01,1.983800411224365123e-01,1.927438616752624456e-01,1.903342723846435658e-01,1.890793800354003962e-01,1.891432046890258734e-01,1.908679246902465765e-01,2.691240072250365989e-01,2.691056251525879017e-01,2.690872430801391491e-01,2.690688848495483287e-01,2.690505027770996316e-01,2.690321207046508789e-01,2.690137624740600586e-01,2.689953804016113059e-01,2.689770221710204856e-01,2.689586639404296653e-01,2.689403057098388450e-01,2.689219236373901478e-01,2.689035892486572044e-01,2.688852310180663840e-01,2.688668727874755637e-01,2.688485383987426758e-01,2.688301801681518555e-01,2.688118457794189675e-01,2.687935113906860241e-01,2.687751770019531361e-01,2.687568187713623158e-01,2.687385082244873047e-01,2.687201738357544167e-01,2.687018394470214733e-01,2.686835050582885853e-01,2.686651945114135742e-01,2.686468839645385631e-01,2.686285495758056752e-01,2.686102390289306641e-01,2.685919284820556530e-01,1.179834365844726618e-01,1.146588563919067327e-01,1.117377638816833552e-01,1.094287514686584500e-01,1.083776593208312933e-01,1.073368906974792453e-01,1.063019037246704102e-01,1.052866816520690862e-01,1.042906641960144043e-01,1.038850903511047419e-01,1.036738514900207575e-01
2.497736930847168080e-01,2.497578859329223633e-01,2.497420549392700140e-01,2.497262001037597601e-01,2.497103929519653431e-01,2.496945619583129938e-01,2.496787548065185491e-01,2.496629238128661998e-01,2.496470928192138783e-01,2.496312856674194336e-01,2.496154785156249889e-01,2.495996713638305720e-01,2.495838403701782227e-01,2.495680332183837780e-01,2.495522499084472656e-01,2.495364189147949163e-01,2.495206356048584040e-01,2.495048284530639593e-01,2.494890213012695424e-01,2.494732379913330023e-01,2.494574308395385853e-01,2.494416475296020452e-01,2.494258642196655329e-01,2.494100570678710882e-01,2.493942737579345759e-01,2.493784904479980358e-01,2.493627071380615234e-01,2.493469238281250111e-01,2.493311405181884710e-01,2.493153810501098633e-01,2.492995977401733509e-01,2.492838144302368109e-01,2.492680549621582031e-01,2.492522716522216908e-01,1.908847093582153320e-01,1.889257788658142145e-01,1.878542065620422419e-01,1.874132990837097112e-01,1.880202054977417048e-01,1.909927368164062444e-01,2.491419792175292858e-01,2.491262197494506780e-01,2.491104841232299749e-01,2.490947246551513672e-01,2.490789651870727595e-01,2.490632295608520563e-01,2.490474939346313532e-01,2.490317344665527455e-01,2.490159988403320424e-01,2.490002632141113392e-01,2.489845275878906361e-01,2.489687919616699330e-01,2.489530563354492299e-01,2.489373207092285267e-01,2.489216089248657282e-01,2.489058732986450251e-01,2.488901615142822266e-01,2.488744497299194280e-01,2.488587141036987249e-01,2.488430023193359264e-01,2.488272905349731556e-01,2.488115787506103571e-01,2.487958431243896540e-01,2.487801551818847601e-01,2.487644433975219616e-01,2.487487316131591908e-01,2.487330436706542969e-01,2.487173318862914984e-01,2.487016201019286998e-01,1.185381054878234808e-01,1.151826381683349609e-01,1.120681881904602023e-01,1.095053076744079562e-01,1.084527373313903809e-01,1.074065327644348200e-01,1.063702106475830078e-01,1.053536891937255915e-01,1.043564081192016602e-01,1.038208842277526800e-01,1.036099076271057157e-01
2.324831724166870062e-01,2.324694871902465709e-01,2.324557542800903265e-01,2.324420452117919866e-01,2.324283361434936468e-01,2.324146270751953069e-01,2.324008941650390625e-01,2.323872089385986273e-01,2.323734998703002874e-01,2.323597908020019476e-01,2.323460817337036077e-01,2.323323726654052679e-01,2.323186874389648326e-01,2.323050022125244252e-01,2.322913169860839899e-01,2.322776079177856501e-01,2.322638988494873102e-01,2.322502374649047796e-01,2.322365283966064398e-01,2.322228431701660045e-01,2.322091579437255970e-01,2.321954727172851618e-01,2.321817874908447266e-01,2.321681022644042913e-01,2.321544408798217884e-01,2.321407556533813532e-01,2.321270704269409180e-01,2.321134090423583873e-01,2.320997238159179799e-01,2.320860624313354492e-01,2.320723772048950140e-01,2.320587158203125111e-01,2.320450544357299805e-01,2.320313930511474498e-01,1.893305540084838923e-01,1.869620800018310658e-01,1.861092209815979059e-01,1.856333374977111872e-01,1.857713818550109919e-01,1.866973519325256237e-01,2.319357872009277233e-01,2.319221496582031250e-01,2.319084882736205944e-01,2.318948507308959961e-01,2.318811893463134655e-01,2.318675518035888672e-01,2.318538904190063366e-01,2.318402528762817383e-01,2.318266153335571400e-01,2.318129777908325140e-01,2.317993402481079157e-01,2.317857027053832897e-01,2.317720651626586914e-01,2.317584276199340931e-01,2.317447900772094671e-01,2.317311525344848688e-01,2.317175388336181752e-01,2.317039012908935491e-01,2.316902875900268555e-01,2.316766738891601618e-01,2.316630363464355358e-01,2.316494226455688421e-01,2.316358089447021484e-01,2.316221952438354548e-01,2.316085577011108287e-01,2.315949678421020397e-01,2.315813541412353460e-01,2.315677165985107477e-01,2.315541267395019587e-01,1.190980195999145480e-01,1.157112360000610296e-01,1.125117421150207547e-01,1.097705602645873968e-01,1.085279345512390192e-01,1.074762701988220270e-01,1.064386129379272516e-01,1.054207801818847628e-01,1.044222354888915960e-01,1.037567734718322782e-01,1.035460472106933538e-01
2.174315214157104548e-01,2.174195289611816351e-01,2.174075365066528431e-01,2.173955440521240234e-01,2.173835515975952037e-01,2.173715591430664118e-01,2.173595666885375921e-01,2.173475742340088002e-01,2.173355817794799805e-01,2.173235893249511608e-01,2.173116207122802734e-01,2.172996282577514537e-01,2.172876596450805664e-01,2.172756671905517467e-01,2.172636747360229548e-01,2.172517061233520397e-01,2.172397136688232477e-01,2.172277450561523326e-01,2.172157764434814453e-01,2.172037839889526256e-01,2.171918153762817383e-01,2.171798467636108509e-01,2.171678781509399359e-01,2.171559095382690485e-01,2.171439409255981334e-01,2.171319723129272461e-01,2.171200037002563588e-01,2.171080589294433483e-01,2.170960903167724609e-01,2.170841217041015736e-01,2.170721769332885631e-01,2.170602083206176758e-01,2.170482397079467884e-01,2.170362949371337780e-01,2.170243501663207952e-01,1.844835638999939020e-01,1.838267803192138727e-01,1.836178541183471624e-01,1.837862610816955455e-01,1.848677873611450084e-01,1.857960224151611328e-01,2.169406890869140514e-01,2.169287681579589733e-01,2.169168472290038951e-01,2.169049024581909124e-01,2.168929576873779297e-01,2.168810129165649470e-01,2.168690681457519642e-01,2.168571472167968861e-01,2.168452024459838756e-01,2.168332815170287975e-01,2.168213367462158148e-01,2.168093919754028320e-01,2.167974710464477539e-01,2.167855501174926758e-01,2.167736053466796931e-01,2.167616844177246149e-01,2.167497634887695368e-01,2.167378425598144587e-01,2.167259216308593806e-01,2.167140007019043024e-01,2.167020797729492243e-01,2.166901588439941462e-01,2.166782379150390681e-01,2.166663169860839899e-01,2.166544198989868164e-01,2.166424989700317383e-01,2.166305780410766602e-01,2.166186809539794866e-01,1.196632504463195773e-01,1.162446975708007757e-01,1.130160450935363825e-01,1.100894331932067843e-01,1.086032271385192899e-01,1.075461030006408664e-01,1.065070867538452093e-01,1.054879665374755804e-01,1.044881582260131780e-01,1.036927223205566378e-01,1.034822702407836859e-01
2.042103528976440541e-01,2.041997671127319391e-01,2.041891813278198242e-01,2.041785955429077093e-01,2.041680097579955944e-01,2.041574478149414118e-01,2.041468620300292969e-01,2.041362762451171819e-01,2.041257143020629994e-01,2.041151285171508845e-01,2.041045665740966741e-01,2.040939807891845592e-01,2.040834188461303766e-01,2.040728569030761663e-01,2.040622711181640514e-01,2.040517091751098688e-01,2.040411472320556585e-01,2.040305852890014759e-01,2.040200233459472656e-01,2.040094614028930553e-01,2.039988994598388727e-01,2.039883375167846624e-01,2.039777755737304799e-01,2.039672136306762695e-01,2.039566516876220592e-01,2.039461135864257812e-01,2.039355516433715709e-01,2.039249897003173884e-01,2.039144277572631780e-01,2.039038896560669001e-01,2.038933277130126898e-01,2.038827896118164118e-01,2.038722276687622015e-01,2.038616895675659235e-01,2.038511276245117132e-01,1.826508402824401911e-01,1.817585945129394642e-01,1.816107630729675293e-01,1.815712928771972545e-01,1.814325213432312067e-01,1.829344868659973089e-01,1.816495776176452748e-01,2.037667989730835016e-01,2.037562608718871959e-01,2.037457227706909180e-01,2.037351846694946400e-01,2.037246704101562389e-01,2.037141323089599609e-01,2.037035942077636830e-01,2.036930799484252819e-01,2.036825418472290039e-01,2.036720037460327259e-01,2.036614894866943248e-01,2.036509513854980469e-01,2.036404371261596735e-01,2.036299228668213002e-01,2.036193847656249944e-01,2.036088705062866211e-01,2.035983562469482477e-01,2.035878181457519420e-01,2.035773038864135687e-01,2.035667896270751953e-01,2.035562753677368220e-01,2.035457372665405162e-01,2.035352468490600475e-01,2.035247087478637695e-01,2.035141944885253962e-01,2.035037040710449274e-01,2.034931898117065541e-01,2.034826755523681530e-01,1.167830944061279269e-01,1.135248899459838923e-01,1.104435563087463323e-01,1.086768984794616727e-01,1.076160192489623996e-01,1.065756678581237793e-01,1.055552244186401395e-01,1.045541524887085016e-01,1.036287546157836914e-01,1.034185647964477595e-01
1.925048828125000000e-01,1.924954771995544545e-01,1.924860715866088812e-01,1.924766540527343694e-01,1.924672484397888239e-01,1.924578666687011830e-01,1.924484610557556097e-01,1.924390554428100641e-01,1.924296498298644909e-01,1.924202561378479115e-01,1.924108505249023382e-01,1.924014687538146973e-01,1.923920750617980902e-01,1.923826813697814830e-01,1.923732757568359375e-01,1.923638820648193304e-01,1.923545122146606556e-01,1.923451185226440485e-01,1.923357248306274414e-01,1.923263311386108343e-01,1.923169374465942272e-01,1.923075675964355524e-01,1.922981858253479115e-01,1.922887921333313044e-01,1.922793984413146973e-01,1.922700166702270563e-01,1.922606468200683538e-01,1.922512650489807129e-01,1.922418832778930720e-01,1.922325015068054310e-01,1.922231197357177623e-01,1.922137618064880260e-01,1.922043800354003851e-01,1.921949982643127441e-01,1.921856164932251032e-01,1.921762466430664007e-01,1.798300147056579590e-01,1.800416231155395619e-01,1.784619450569152888e-01,1.775433421134948730e-01,1.778374791145324596e-01,1.784346222877502552e-01,1.774635076522827204e-01,1.921012878417968639e-01,1.920919299125671276e-01,1.920825600624084528e-01,1.920732140541076549e-01,1.920638442039489802e-01,1.920544743537902777e-01,1.920451283454895075e-01,1.920357704162597712e-01,1.920264244079589733e-01,1.920170664787292369e-01,1.920076966285705622e-01,1.919983386993408259e-01,1.919889807701110895e-01,1.919796228408813532e-01,1.919702649116516169e-01,1.919609308242797852e-01,1.919515728950500488e-01,1.919422149658203125e-01,1.919328689575195424e-01,1.919235110282898060e-01,1.919141530990600697e-01,1.919048309326171764e-01,1.918954730033874401e-01,1.918861269950866699e-01,1.918767809867858998e-01,1.918674349784851019e-01,1.918580889701843317e-01,1.918487548828125000e-01,1.170755505561828641e-01,1.109294533729553167e-01,1.087482929229736384e-01,1.076860308647155789e-01,1.066443204879760770e-01,1.056225895881652832e-01,1.069217443466186496e-01,1.065050959587097168e-01,1.033549308776855469e-01
