6.196225166320801225e-01,6.353407382965088335e-01,6.518771648406982422e-01,6.692974567413330078e-01,6.876743316650391069e-01,7.070888519287109597e-01,7.276314258575439231e-01,7.494033813476562722e-01,7.725183486938476118e-01,7.971047401428222878e-01,8.233075141906738281e-01,8.512915611267090066e-01,1.000000000000000000e+00,1.000000000000000000e+00,1.000000000000000000e+00,1.000000000000000000e+00,1.000000000000000000e+00,1.000000000000000000e+00,1.000000000000000000e+00,1.000000000000000000e+00,1.000000000000000000e+00,1.000000000000000000e+00,1.000000000000000000e+00,1.000000000000000000e+00,1.000000000000000000e+00,1.000000000000000000e+00,1.000000000000000000e+00,1.000000000000000000e+00,1.000000000000000000e+00,1.000000000000000000e+00,1.000000000000000000e+00,1.000000000000000000e+00,1.000000000000000000e+00,1.000000000000000000e+00,1.000000000000000000e+00,1.000000000000000000e+00,1.000000000000000000e+00,1.000000000000000000e+00,1.000000000000000000e+00,1.000000000000000000e+00,1.000000000000000000e+00,1.000000000000000000e+00,1.000000000000000000e+00,1.000000000000000000e+00,1.000000000000000000e+00,1.000000000000000000e+00,1.000000000000000000e+00,1.000000000000000000e+00,1.000000000000000000e+00,1.000000000000000000e+00,1.000000000000000000e+00,1.000000000000000000e+00,1.000000000000000000e+00,1.000000000000000000e+00,1.000000000000000000e+00,1.000000000000000000e+00,5.151910781860351562e-01,5.087825775146483931e-01,5.093300342559814453e-01,1.000000000000000000e+00,1.000000000000000000e+00,1.000000000000000000e+00,1.000000000000000000e+00,1.000000000000000000e+00,1.000000000000000000e+00,1.000000000000000000e+00,1.000000000000000000e+00,1.000000000000000000e+00,1.000000000000000000e+00,1.000000000000000000e+00,1.000000000000000000e+00,1.000000000000000000e+00,1.000000000000000000e+00,1.000000000000000000e+00,8.535179138183593972e-01,8.288456916809081587e-01,8.055598258972167525e-01,7.835441589355468528e-01,7.626902103424072488e-01,7.429173946380615012e-01
6.196068286895751731e-01,6.353241920471190962e-01,6.518598079681396928e-01,6.692790985107421875e-01,6.876550197601318803e-01,7.070683479309082253e-01,7.276098251342772993e-01,7.493803501129150391e-01,7.724939823150634988e-01,7.970787048339843528e-01,8.232797622680664285e-01,8.512619018554687944e-01,8.812130928039551003e-01,1.000000000000000000e+00,1.000000000000000000e+00,1.000000000000000000e+00,1.000000000000000000e+00,1.000000000000000000e+00,1.000000000000000000e+00,1.000000000000000000e+00,1.000000000000000000e+00,1.000000000000000000e+00,1.000000000000000000e+00,1.000000000000000000e+00,1.000000000000000000e+00,1.000000000000000000e+00,1.000000000000000000e+00,1.000000000000000000e+00,1.000000000000000000e+00,1.000000000000000000e+00,1.000000000000000000e+00,1.000000000000000000e+00,1.000000000000000000e+00,1.000000000000000000e+00,1.000000000000000000e+00,1.000000000000000000e+00,1.000000000000000000e+00,1.000000000000000000e+00,1.000000000000000000e+00,1.000000000000000000e+00,1.000000000000000000e+00,1.000000000000000000e+00,1.000000000000000000e+00,1.000000000000000000e+00,1.000000000000000000e+00,1.000000000000000000e+00,1.000000000000000000e+00,1.000000000000000000e+00,1.000000000000000000e+00,1.000000000000000000e+00,1.000000000000000000e+00,1.000000000000000000e+00,1.000000000000000000e+00,1.000000000000000000e+00,1.000000000000000000e+00,1.000000000000000000e+00,5.142444610595703347e-01,5.086075782775878462e-01,5.092773437500000000e-01,1.000000000000000000e+00,1.000000000000000000e+00,1.000000000000000000e+00,1.000000000000000000e+00,1.000000000000000000e+00,1.000000000000000000e+00,1.000000000000000000e+00,1.000000000000000000e+00,1.000000000000000000e+00,1.000000000000000000e+00,1.000000000000000000e+00,1.000000000000000000e+00,1.000000000000000000e+00,1.000000000000000000e+00,8.797453880310058816e-01,8.535569190979004350e-01,8.288825035095215288e-01,8.055902481079101340e-01,7.835627079010010210e-01,7.627077102661132812e-01,7.429339885711669922e-01
6.195911407470703347e-01,6.353077411651610884e-01,6.518424987792968972e-01,6.692608356475829856e-01,6.876357078552246538e-01,7.070479393005371094e-01,7.275881767272949219e-01,7.493574619293212891e-01,7.724696159362792747e-01,7.970527648925781472e-01,8.232521057128906472e-01,8.512323379516602007e-01,8.811813354492187278e-01,9.133147239685058816e-01,1.000000000000000000e+00,1.000000000000000000e+00,1.000000000000000000e+00,1.000000000000000000e+00,1.000000000000000000e+00,1.000000000000000000e+00,1.000000000000000000e+00,1.000000000000000000e+00,1.000000000000000000e+00,1.000000000000000000e+00,1.000000000000000000e+00,1.000000000000000000e+00,1.000000000000000000e+00,1.000000000000000000e+00,1.000000000000000000e+00,1.000000000000000000e+00,1.000000000000000000e+00,1.000000000000000000e+00,1.000000000000000000e+00,1.000000000000000000e+00,1.000000000000000000e+00,1.000000000000000000e+00,1.000000000000000000e+00,1.000000000000000000e+00,1.000000000000000000e+00,1.000000000000000000e+00,1.000000000000000000e+00,1.000000000000000000e+00,1.000000000000000000e+00,1.000000000000000000e+00,1.000000000000000000e+00,1.000000000000000000e+00,1.000000000000000000e+00,1.000000000000000000e+00,1.000000000000000000e+00,1.000000000000000000e+00,1.000000000000000000e+00,1.000000000000000000e+00,1.000000000000000000e+00,1.000000000000000000e+00,1.000000000000000000e+00,5.290964603424072044e-01,5.154241561889648660e-01,5.104837417602539062e-01,5.108196735382080078e-01,1.000000000000000000e+00,1.000000000000000000e+00,1.000000000000000000e+00,1.000000000000000000e+00,1.000000000000000000e+00,1.000000000000000000e+00,1.000000000000000000e+00,1.000000000000000000e+00,1.000000000000000000e+00,1.000000000000000000e+00,1.000000000000000000e+00,1.000000000000000000e+00,1.000000000000000000e+00,9.076359748840332475e-01,8.797868728637695535e-01,8.535960197448730913e-01,8.289128303527831809e-01,8.056097984313964622e-01,7.835812091827392134e-01,7.627253055572509322e-01,7.429506778717041016e-01
6.195754528045653853e-01,6.352912425994873269e-01,6.518251419067382368e-01,6.692425251007080300e-01,6.876163959503174272e-01,7.070275306701659934e-01,7.275665760040282981e-01,7.493345260620116743e-01,7.724452972412109153e-01,7.970268249511718306e-01,8.232244491577148660e-01,8.512026786804198775e-01,8.811496734619140847e-01,9.132805824279784934e-01,9.478435516357421875e-01,1.000000000000000000e+00,1.000000000000000000e+00,1.000000000000000000e+00,1.000000000000000000e+00,1.000000000000000000e+00,1.000000000000000000e+00,1.000000000000000000e+00,1.000000000000000000e+00,1.000000000000000000e+00,1.000000000000000000e+00,1.000000000000000000e+00,1.000000000000000000e+00,1.000000000000000000e+00,1.000000000000000000e+00,1.000000000000000000e+00,1.000000000000000000e+00,1.000000000000000000e+00,1.000000000000000000e+00,1.000000000000000000e+00,1.000000000000000000e+00,1.000000000000000000e+00,1.000000000000000000e+00,1.000000000000000000e+00,1.000000000000000000e+00,1.000000000000000000e+00,1.000000000000000000e+00,1.000000000000000000e+00,1.000000000000000000e+00,1.000000000000000000e+00,1.000000000000000000e+00,1.000000000000000000e+00,1.000000000000000000e+00,1.000000000000000000e+00,1.000000000000000000e+00,1.000000000000000000e+00,1.000000000000000000e+00,1.000000000000000000e+00,1.000000000000000000e+00,1.000000000000000000e+00,1.000000000000000000e+00,1.000000000000000000e+00,5.189829349517822710e-01,5.122954845428466797e-01,5.128637790679931863e-01,1.000000000000000000e+00,1.000000000000000000e+00,1.000000000000000000e+00,1.000000000000000000e+00,1.000000000000000000e+00,1.000000000000000000e+00,1.000000000000000000e+00,1.000000000000000000e+00,1.000000000000000000e+00,1.000000000000000000e+00,1.000000000000000000e+00,1.000000000000000000e+00,9.373528480529784712e-01,9.076801300048827903e-01,8.798284530639648438e-01,8.536261558532715066e-01,8.289335250854492632e-01,8.056293487548827903e-01,7.835997581481933816e-01,7.627428054809570757e-01,7.429673194885253462e-01
6.195601940155028853e-01,6.352747917175293191e-01,6.518077373504638228e-01,6.692242622375488281e-01,6.875970363616943359e-01,7.070071220397948775e-01,7.275448799133300559e-01,7.493115901947021706e-01,7.724208354949950728e-01,7.970008850097656250e-01,8.231966972351074663e-01,8.511731147766112837e-01,8.811179161071777122e-01,9.132465362548828347e-01,9.478068351745605469e-01,9.850857734680176225e-01,1.000000000000000000e+00,1.000000000000000000e+00,1.000000000000000000e+00,1.000000000000000000e+00,1.000000000000000000e+00,1.000000000000000000e+00,1.000000000000000000e+00,1.000000000000000000e+00,1.000000000000000000e+00,1.000000000000000000e+00,1.000000000000000000e+00,1.000000000000000000e+00,1.000000000000000000e+00,1.000000000000000000e+00,1.000000000000000000e+00,1.000000000000000000e+00,1.000000000000000000e+00,1.000000000000000000e+00,1.000000000000000000e+00,1.000000000000000000e+00,1.000000000000000000e+00,1.000000000000000000e+00,1.000000000000000000e+00,1.000000000000000000e+00,1.000000000000000000e+00,1.000000000000000000e+00,1.000000000000000000e+00,1.000000000000000000e+00,1.000000000000000000e+00,1.000000000000000000e+00,1.000000000000000000e+00,1.000000000000000000e+00,1.000000000000000000e+00,1.000000000000000000e+00,1.000000000000000000e+00,1.000000000000000000e+00,1.000000000000000000e+00,1.000000000000000000e+00,1.000000000000000000e+00,1.000000000000000000e+00,5.279489994049072488e-01,5.169006347656249778e-01,1.000000000000000000e+00,1.000000000000000000e+00,1.000000000000000000e+00,1.000000000000000000e+00,1.000000000000000000e+00,1.000000000000000000e+00,1.000000000000000000e+00,1.000000000000000000e+00,1.000000000000000000e+00,1.000000000000000000e+00,1.000000000000000000e+00,1.000000000000000000e+00,9.690814971923827903e-01,9.373999595642089622e-01,9.077242851257324441e-01,8.798583030700684038e-01,8.536480903625488503e-01,8.289543151855468528e-01,8.056489944458007368e-01,7.836182594299316850e-01,7.627604007720947266e-01,7.429840087890624556e-01
6.195468902587890625e-01,6.352587223052978960e-01,6.517903804779052734e-01,6.692059516906738725e-01,6.875777244567871094e-01,7.069867134094238725e-01,7.275232791900634322e-01,7.492886543273925559e-01,7.723964691162109597e-01,7.969749927520751731e-01,8.231690406799316850e-01,8.511434555053710715e-01,8.810861587524414507e-01,9.132124900817870650e-01,9.477701187133789062e-01,9.850461959838867632e-01,1.000000000000000000e+00,1.000000000000000000e+00,1.000000000000000000e+00,1.000000000000000000e+00,1.000000000000000000e+00,1.000000000000000000e+00,1.000000000000000000e+00,1.000000000000000000e+00,1.000000000000000000e+00,1.000000000000000000e+00,1.000000000000000000e+00,1.000000000000000000e+00,1.000000000000000000e+00,1.000000000000000000e+00,1.000000000000000000e+00,1.000000000000000000e+00,1.000000000000000000e+00,1.000000000000000000e+00,1.000000000000000000e+00,1.000000000000000000e+00,1.000000000000000000e+00,1.000000000000000000e+00,1.000000000000000000e+00,1.000000000000000000e+00,1.000000000000000000e+00,1.000000000000000000e+00,1.000000000000000000e+00,1.000000000000000000e+00,1.000000000000000000e+00,1.000000000000000000e+00,1.000000000000000000e+00,1.000000000000000000e+00,1.000000000000000000e+00,1.000000000000000000e+00,1.000000000000000000e+00,1.000000000000000000e+00,1.000000000000000000e+00,1.000000000000000000e+00,1.000000000000000000e+00,5.185553550720214400e-01,5.130739688873291460e-01,5.259264945983886941e-01,5.159065246582030806e-01,1.000000000000000000e+00,1.000000000000000000e+00,1.000000000000000000e+00,1.000000000000000000e+00,1.000000000000000000e+00,1.000000000000000000e+00,1.000000000000000000e+00,1.000000000000000000e+00,1.000000000000000000e+00,1.000000000000000000e+00,1.000000000000000000e+00,9.691318511962890847e-01,9.374469757080078347e-01,9.077538490295410378e-01,8.798816680908203569e-01,8.536701202392578125e-01,8.289750099182129350e-01,8.056685447692870650e-01,7.836368083953857422e-01,7.627779006958007590e-01,7.430006027221679465e-01
6.195334911346435103e-01,6.352446556091309038e-01,6.517734527587890625e-01,6.691876411437988059e-01,6.875584125518798828e-01,7.069662570953368919e-01,7.275016784667969194e-01,7.492656707763671875e-01,7.723721027374267356e-01,7.969489574432373491e-01,8.231412887573241743e-01,8.511138916015624778e-01,8.810544013977050781e-01,9.131783485412597878e-01,9.477334022521972656e-01,9.850065231323241743e-01,1.000000000000000000e+00,1.000000000000000000e+00,1.000000000000000000e+00,1.000000000000000000e+00,1.000000000000000000e+00,1.000000000000000000e+00,1.000000000000000000e+00,1.000000000000000000e+00,1.000000000000000000e+00,1.000000000000000000e+00,1.000000000000000000e+00,1.000000000000000000e+00,1.000000000000000000e+00,1.000000000000000000e+00,1.000000000000000000e+00,1.000000000000000000e+00,1.000000000000000000e+00,1.000000000000000000e+00,1.000000000000000000e+00,1.000000000000000000e+00,1.000000000000000000e+00,1.000000000000000000e+00,1.000000000000000000e+00,1.000000000000000000e+00,1.000000000000000000e+00,1.000000000000000000e+00,1.000000000000000000e+00,1.000000000000000000e+00,1.000000000000000000e+00,1.000000000000000000e+00,1.000000000000000000e+00,1.000000000000000000e+00,1.000000000000000000e+00,1.000000000000000000e+00,1.000000000000000000e+00,1.000000000000000000e+00,5.169566631317138450e-01,5.151383876800537109e-01,5.161510944366455300e-01,5.116582393646240678e-01,5.118261814117431863e-01,5.110419273376465288e-01,5.121479988098144309e-01,5.150790214538574219e-01,5.199831962585449441e-01,5.246342658996582253e-01,1.000000000000000000e+00,1.000000000000000000e+00,1.000000000000000000e+00,1.000000000000000000e+00,1.000000000000000000e+00,1.000000000000000000e+00,1.000000000000000000e+00,1.000000000000000000e+00,9.691821098327636497e-01,9.374761581420898438e-01,9.077787399291992188e-01,8.799050331115723100e-01,8.536920547485351562e-01,8.289958000183105247e-01,8.056880950927733931e-01,7.836553096771240456e-01,7.627954959869385210e-01,7.430172920227050559e-01
6.195200920104980691e-01,6.352305889129639116e-01,6.517586708068847656e-01,6.691697597503661887e-01,6.875391006469726562e-01,7.069458484649657759e-01,7.274800777435302956e-01,7.492427349090575728e-01,7.723477363586426225e-01,7.969230175018310325e-01,8.231136322021483931e-01,8.510843276977538840e-01,8.810227394104004350e-01,9.131443023681640181e-01,9.476966857910156250e-01,9.849668502807616965e-01,1.000000000000000000e+00,1.000000000000000000e+00,1.000000000000000000e+00,1.000000000000000000e+00,1.000000000000000000e+00,1.000000000000000000e+00,1.000000000000000000e+00,1.000000000000000000e+00,1.000000000000000000e+00,1.000000000000000000e+00,1.000000000000000000e+00,1.000000000000000000e+00,1.000000000000000000e+00,1.000000000000000000e+00,1.000000000000000000e+00,1.000000000000000000e+00,1.000000000000000000e+00,1.000000000000000000e+00,1.000000000000000000e+00,1.000000000000000000e+00,1.000000000000000000e+00,1.000000000000000000e+00,1.000000000000000000e+00,1.000000000000000000e+00,1.000000000000000000e+00,1.000000000000000000e+00,1.000000000000000000e+00,1.000000000000000000e+00,1.000000000000000000e+00,1.000000000000000000e+00,1.000000000000000000e+00,1.000000000000000000e+00,1.000000000000000000e+00,1.000000000000000000e+00,1.000000000000000000e+00,1.000000000000000000e+00,5.157493591308593972e-01,5.159884929656982644e-01,5.122573852539062944e-01,5.072293758392334428e-01,5.041614055633545366e-01,5.025880813598633257e-01,5.060465812683105913e-01,5.051841259002685103e-01,5.121284484863281028e-01,5.271558284759521040e-01,5.300302028656005415e-01,1.000000000000000000e+00,1.000000000000000000e+00,1.000000000000000000e+00,1.000000000000000000e+00,1.000000000000000000e+00,1.000000000000000000e+00,1.000000000000000000e+00,9.692107200622558372e-01,9.375026702880859819e-01,9.078036308288573997e-01,8.799283981323242632e-01,8.537140846252441184e-01,8.290164947509766069e-01,8.057077407836914507e-01,7.836739063262939675e-01,7.628130435943603072e-01,7.430339336395264116e-01
6.195067405700683816e-01,6.352165699005126731e-01,6.517438411712646040e-01,6.691541194915771040e-01,6.875201702117920144e-01,7.069254398345947710e-01,7.274583816528320535e-01,7.492197990417480691e-01,7.723233222961425337e-01,7.968970775604248269e-01,8.230859756469726118e-01,8.510546684265136719e-01,8.809909820556640625e-01,9.131101608276367410e-01,9.476599693298339844e-01,9.849271774291992188e-01,1.000000000000000000e+00,1.000000000000000000e+00,1.000000000000000000e+00,1.000000000000000000e+00,1.000000000000000000e+00,1.000000000000000000e+00,1.000000000000000000e+00,1.000000000000000000e+00,1.000000000000000000e+00,1.000000000000000000e+00,1.000000000000000000e+00,1.000000000000000000e+00,1.000000000000000000e+00,1.000000000000000000e+00,1.000000000000000000e+00,1.000000000000000000e+00,1.000000000000000000e+00,1.000000000000000000e+00,1.000000000000000000e+00,1.000000000000000000e+00,1.000000000000000000e+00,1.000000000000000000e+00,1.000000000000000000e+00,1.000000000000000000e+00,1.000000000000000000e+00,1.000000000000000000e+00,1.000000000000000000e+00,1.000000000000000000e+00,1.000000000000000000e+00,1.000000000000000000e+00,1.000000000000000000e+00,1.000000000000000000e+00,1.000000000000000000e+00,1.000000000000000000e+00,1.000000000000000000e+00,1.000000000000000000e+00,5.180966854095458984e-01,5.171479701995849165e-01,5.132315635681152788e-01,5.069050312042235884e-01,5.041998863220215066e-01,5.035894870758056419e-01,5.044759750366211160e-01,5.050630569458007812e-01,5.104528903961181863e-01,5.307954311370849387e-01,1.000000000000000000e+00,1.000000000000000000e+00,1.000000000000000000e+00,1.000000000000000000e+00,1.000000000000000000e+00,1.000000000000000000e+00,1.000000000000000000e+00,1.000000000000000000e+00,9.692390441894531694e-01,9.375291824340820090e-01,9.078285217285155806e-01,8.799517631530762163e-01,8.537361145019530806e-01,8.290372848510741965e-01,8.057272911071777788e-01,7.836923599243164062e-01,7.628305435180664507e-01,7.430506229400635210e-01
6.194933414459228294e-01,6.352025032043456809e-01,6.517290592193603072e-01,6.691385746002197488e-01,6.875036716461181419e-01,7.069053173065185103e-01,7.274367809295654297e-01,7.491969108581543191e-01,7.722989559173584206e-01,7.968711376190185103e-01,8.230583190917968306e-01,8.510251045227050781e-01,8.809593200683594194e-01,9.130761146545409712e-01,9.476233482360839622e-01,9.848875999450683594e-01,1.000000000000000000e+00,1.000000000000000000e+00,1.000000000000000000e+00,1.000000000000000000e+00,1.000000000000000000e+00,1.000000000000000000e+00,1.000000000000000000e+00,1.000000000000000000e+00,1.000000000000000000e+00,1.000000000000000000e+00,1.000000000000000000e+00,1.000000000000000000e+00,1.000000000000000000e+00,1.000000000000000000e+00,1.000000000000000000e+00,1.000000000000000000e+00,1.000000000000000000e+00,1.000000000000000000e+00,1.000000000000000000e+00,1.000000000000000000e+00,1.000000000000000000e+00,1.000000000000000000e+00,1.000000000000000000e+00,1.000000000000000000e+00,1.000000000000000000e+00,1.000000000000000000e+00,1.000000000000000000e+00,1.000000000000000000e+00,1.000000000000000000e+00,1.000000000000000000e+00,1.000000000000000000e+00,1.000000000000000000e+00,1.000000000000000000e+00,1.000000000000000000e+00,1.000000000000000000e+00,1.000000000000000000e+00,5.215755939483642800e-01,5.178995132446289062e-01,5.157163143157958984e-01,5.084928512573242410e-01,5.061375617980956587e-01,5.024460792541504128e-01,5.031893730163574663e-01,5.046745777130127175e-01,5.132650852203368697e-01,5.316901206970214844e-01,1.000000000000000000e+00,1.000000000000000000e+00,1.000000000000000000e+00,1.000000000000000000e+00,1.000000000000000000e+00,1.000000000000000000e+00,1.000000000000000000e+00,1.000000000000000000e+00,9.692673683166503906e-01,9.375556945800781472e-01,9.078533172607421431e-01,8.799751281738281694e-01,8.537580490112304243e-01,8.290579795837402788e-01,8.057469367980957253e-01,7.837109565734863281e-01,7.628476142883300337e-01,7.430660247802733931e-01
6.194799423217773882e-01,6.351884365081786887e-01,6.517142295837402566e-01,6.691229820251465288e-01,6.874872207641601340e-01,7.068879604339599609e-01,7.274154663085937722e-01,7.491739749908447044e-01,7.722745895385741965e-01,7.968452453613281694e-01,8.230306625366210493e-01,8.509955406188964844e-01,8.809276580810546653e-01,9.130420684814453125e-01,9.475866317749023215e-01,9.848480224609375000e-01,1.000000000000000000e+00,1.000000000000000000e+00,1.000000000000000000e+00,1.000000000000000000e+00,1.000000000000000000e+00,1.000000000000000000e+00,1.000000000000000000e+00,1.000000000000000000e+00,1.000000000000000000e+00,1.000000000000000000e+00,1.000000000000000000e+00,1.000000000000000000e+00,1.000000000000000000e+00,1.000000000000000000e+00,1.000000000000000000e+00,1.000000000000000000e+00,1.000000000000000000e+00,1.000000000000000000e+00,1.000000000000000000e+00,1.000000000000000000e+00,1.000000000000000000e+00,1.000000000000000000e+00,1.000000000000000000e+00,1.000000000000000000e+00,1.000000000000000000e+00,1.000000000000000000e+00,1.000000000000000000e+00,1.000000000000000000e+00,1.000000000000000000e+00,1.000000000000000000e+00,1.000000000000000000e+00,1.000000000000000000e+00,1.000000000000000000e+00,1.000000000000000000e+00,1.000000000000000000e+00,1.000000000000000000e+00,5.224702358245849609e-01,5.180112361907959206e-01,5.194681644439697044e-01,5.103698730468749778e-01,5.056135177612304243e-01,5.028793334960937056e-01,5.024368762969970703e-01,5.045803070068359819e-01,5.127512931823730025e-01,5.332810878753662109e-01,1.000000000000000000e+00,1.000000000000000000e+00,1.000000000000000000e+00,1.000000000000000000e+00,1.000000000000000000e+00,1.000000000000000000e+00,1.000000000000000000e+00,1.000000000000000000e+00,9.692957878112793413e-01,9.375822067260741743e-01,9.078782081604004350e-01,8.799984931945801225e-01,8.537800788879394975e-01,8.290783882141112837e-01,8.057653427124022993e-01,7.837275981903075728e-01,7.628631591796875000e-01,7.430808067321776900e-01
6.194666385650634544e-01,6.351743698120116965e-01,6.516993999481200950e-01,6.691073417663574441e-01,6.874707221984863725e-01,7.068705558776855469e-01,7.273970127105713335e-01,7.491513252258300559e-01,7.722502708435058372e-01,7.968192100524902344e-01,8.230029106140136497e-01,8.509658813476562722e-01,8.808959007263184038e-01,9.130080223083496538e-01,9.475499153137206809e-01,9.848083496093750222e-01,1.000000000000000000e+00,1.000000000000000000e+00,1.000000000000000000e+00,1.000000000000000000e+00,1.000000000000000000e+00,1.000000000000000000e+00,1.000000000000000000e+00,1.000000000000000000e+00,1.000000000000000000e+00,1.000000000000000000e+00,1.000000000000000000e+00,1.000000000000000000e+00,1.000000000000000000e+00,1.000000000000000000e+00,1.000000000000000000e+00,1.000000000000000000e+00,1.000000000000000000e+00,1.000000000000000000e+00,1.000000000000000000e+00,1.000000000000000000e+00,1.000000000000000000e+00,1.000000000000000000e+00,1.000000000000000000e+00,1.000000000000000000e+00,1.000000000000000000e+00,1.000000000000000000e+00,1.000000000000000000e+00,1.000000000000000000e+00,1.000000000000000000e+00,1.000000000000000000e+00,1.000000000000000000e+00,1.000000000000000000e+00,1.000000000000000000e+00,1.000000000000000000e+00,1.000000000000000000e+00,1.000000000000000000e+00,5.227444648742676225e-01,5.171936035156250444e-01,5.176102161407470925e-01,5.117465972900390181e-01,5.057034969329834428e-01,5.030489921569823997e-01,5.026139259338379128e-01,5.045353412628174050e-01,5.117739677429199441e-01,5.339447975158690962e-01,1.000000000000000000e+00,1.000000000000000000e+00,1.000000000000000000e+00,1.000000000000000000e+00,1.000000000000000000e+00,1.000000000000000000e+00,1.000000000000000000e+00,1.000000000000000000e+00,9.693241119384765625e-01,9.376088142395019309e-01,9.079030036926269975e-01,8.800209045410156694e-01,8.538002014160156472e-01,8.290967941284179688e-01,8.057826995849609597e-01,7.837440013885498269e-01,7.628787517547607200e-01,7.430955410003662331e-01
6.194532394409180132e-01,6.351603031158447044e-01,6.516846656799316628e-01,6.690917491912842241e-01,6.874542713165283647e-01,7.068531513214111328e-01,7.273785591125487837e-01,7.491317749023437278e-01,7.722260951995849609e-01,7.967932701110840288e-01,8.229752540588378684e-01,8.509363174438476785e-01,8.808642387390136497e-01,9.129739761352538840e-01,9.475132942199706587e-01,9.847686767578125444e-01,1.000000000000000000e+00,1.000000000000000000e+00,1.000000000000000000e+00,1.000000000000000000e+00,1.000000000000000000e+00,1.000000000000000000e+00,1.000000000000000000e+00,1.000000000000000000e+00,1.000000000000000000e+00,1.000000000000000000e+00,1.000000000000000000e+00,1.000000000000000000e+00,1.000000000000000000e+00,1.000000000000000000e+00,1.000000000000000000e+00,1.000000000000000000e+00,1.000000000000000000e+00,1.000000000000000000e+00,1.000000000000000000e+00,1.000000000000000000e+00,1.000000000000000000e+00,1.000000000000000000e+00,1.000000000000000000e+00,1.000000000000000000e+00,1.000000000000000000e+00,1.000000000000000000e+00,1.000000000000000000e+00,1.000000000000000000e+00,1.000000000000000000e+00,1.000000000000000000e+00,1.000000000000000000e+00,1.000000000000000000e+00,1.000000000000000000e+00,1.000000000000000000e+00,1.000000000000000000e+00,1.000000000000000000e+00,5.234677791595458984e-01,5.177049160003661665e-01,5.197981834411621316e-01,5.111175537109374778e-01,5.043903350830077903e-01,5.020110130310058150e-01,5.033642292022705300e-01,5.027030467987060325e-01,5.081547260284423606e-01,5.371358871459961382e-01,1.000000000000000000e+00,1.000000000000000000e+00,1.000000000000000000e+00,1.000000000000000000e+00,1.000000000000000000e+00,1.000000000000000000e+00,1.000000000000000000e+00,1.000000000000000000e+00,9.693518638610839622e-01,9.376335144042968750e-01,9.079252243041991965e-01,8.800415992736816406e-01,8.538197517395019753e-01,8.291152000427246538e-01,8.058001518249511275e-01,7.837604522705078347e-01,7.628942966461181863e-01,7.431103706359862837e-01
6.194398880004883257e-01,6.351462364196777122e-01,6.516698837280273660e-01,6.690761566162108931e-01,6.874378681182861106e-01,7.068356990814208540e-01,7.273601055145263450e-01,7.491121768951416460e-01,7.722053050994872603e-01,7.967675685882568137e-01,8.229475975036620872e-01,8.509067535400390847e-01,8.808324813842773882e-01,9.129399299621582253e-01,9.474765777587890181e-01,9.847290992736816850e-01,1.000000000000000000e+00,1.000000000000000000e+00,1.000000000000000000e+00,1.000000000000000000e+00,1.000000000000000000e+00,1.000000000000000000e+00,1.000000000000000000e+00,1.000000000000000000e+00,1.000000000000000000e+00,1.000000000000000000e+00,1.000000000000000000e+00,1.000000000000000000e+00,1.000000000000000000e+00,1.000000000000000000e+00,1.000000000000000000e+00,1.000000000000000000e+00,1.000000000000000000e+00,1.000000000000000000e+00,1.000000000000000000e+00,1.000000000000000000e+00,1.000000000000000000e+00,1.000000000000000000e+00,1.000000000000000000e+00,1.000000000000000000e+00,1.000000000000000000e+00,1.000000000000000000e+00,1.000000000000000000e+00,1.000000000000000000e+00,1.000000000000000000e+00,1.000000000000000000e+00,1.000000000000000000e+00,1.000000000000000000e+00,1.000000000000000000e+00,1.000000000000000000e+00,1.000000000000000000e+00,1.000000000000000000e+00,5.246575832366943137e-01,5.189229011535644309e-01,5.207608699798583762e-01,5.092725276947021040e-01,5.026675701141357644e-01,5.009108543395995872e-01,5.010602951049805132e-01,5.014478206634521706e-01,5.058990478515624778e-01,5.409835338592529075e-01,1.000000000000000000e+00,1.000000000000000000e+00,1.000000000000000000e+00,1.000000000000000000e+00,1.000000000000000000e+00,1.000000000000000000e+00,1.000000000000000000e+00,1.000000000000000000e+00,9.693769454956054910e-01,9.376570701599120650e-01,9.079472541809081587e-01,8.800623893737793413e-01,8.538392066955566850e-01,8.291336059570312278e-01,8.058175086975097878e-01,7.837768554687499778e-01,7.629098892211914062e-01,7.431251049041748269e-01
6.194264888763427734e-01,6.351321697235107200e-01,6.516550540924072044e-01,6.690605163574219194e-01,6.874213695526123491e-01,7.068182945251464400e-01,7.273417472839355247e-01,7.490926265716553178e-01,7.721846103668212891e-01,7.967454433441162331e-01,8.229200363159179243e-01,8.508771896362304910e-01,8.808008193969726340e-01,9.129058837890624556e-01,9.474399566650391069e-01,9.846894264221190962e-01,1.000000000000000000e+00,1.000000000000000000e+00,1.000000000000000000e+00,1.000000000000000000e+00,1.000000000000000000e+00,1.000000000000000000e+00,1.000000000000000000e+00,1.000000000000000000e+00,1.000000000000000000e+00,1.000000000000000000e+00,1.000000000000000000e+00,1.000000000000000000e+00,1.000000000000000000e+00,1.000000000000000000e+00,1.000000000000000000e+00,1.000000000000000000e+00,1.000000000000000000e+00,1.000000000000000000e+00,1.000000000000000000e+00,1.000000000000000000e+00,1.000000000000000000e+00,1.000000000000000000e+00,1.000000000000000000e+00,1.000000000000000000e+00,1.000000000000000000e+00,1.000000000000000000e+00,1.000000000000000000e+00,1.000000000000000000e+00,1.000000000000000000e+00,1.000000000000000000e+00,1.000000000000000000e+00,1.000000000000000000e+00,1.000000000000000000e+00,1.000000000000000000e+00,1.000000000000000000e+00,1.000000000000000000e+00,1.000000000000000000e+00,5.139680385589600053e-01,5.180557250976562944e-01,5.106255531311034712e-01,5.051305294036865234e-01,5.028998374938964400e-01,5.017169952392578347e-01,5.037757873535155806e-01,5.100564479827880415e-01,5.421147346496582031e-01,1.000000000000000000e+00,1.000000000000000000e+00,1.000000000000000000e+00,1.000000000000000000e+00,1.000000000000000000e+00,1.000000000000000000e+00,1.000000000000000000e+00,1.000000000000000000e+00,9.694021224975586382e-01,9.376805305480957475e-01,9.079692840576172319e-01,8.800830841064453125e-01,8.538587570190430132e-01,8.291520118713379128e-01,8.058348655700683372e-01,7.837933540344238503e-01,7.629254341125488725e-01,7.431398391723632590e-01
6.194131374359130859e-01,6.351181507110595925e-01,6.516402721405029075e-01,6.690449237823485884e-01,6.874048709869384766e-01,7.068008899688720259e-01,7.273232936859130859e-01,7.490730285644531250e-01,7.721638202667235884e-01,7.967232704162597878e-01,8.228964805603027344e-01,8.508476257324218972e-01,8.807691574096679910e-01,9.128718376159667969e-01,9.474032402038574663e-01,9.846498489379882368e-01,1.000000000000000000e+00,1.000000000000000000e+00,1.000000000000000000e+00,1.000000000000000000e+00,1.000000000000000000e+00,1.000000000000000000e+00,1.000000000000000000e+00,1.000000000000000000e+00,1.000000000000000000e+00,1.000000000000000000e+00,1.000000000000000000e+00,1.000000000000000000e+00,1.000000000000000000e+00,1.000000000000000000e+00,1.000000000000000000e+00,1.000000000000000000e+00,1.000000000000000000e+00,1.000000000000000000e+00,1.000000000000000000e+00,1.000000000000000000e+00,1.000000000000000000e+00,1.000000000000000000e+00,1.000000000000000000e+00,1.000000000000000000e+00,1.000000000000000000e+00,1.000000000000000000e+00,1.000000000000000000e+00,1.000000000000000000e+00,1.000000000000000000e+00,1.000000000000000000e+00,1.000000000000000000e+00,1.000000000000000000e+00,1.000000000000000000e+00,1.000000000000000000e+00,1.000000000000000000e+00,1.000000000000000000e+00,1.000000000000000000e+00,5.075736045837402344e-01,5.101609706878662553e-01,5.100176811218262163e-01,5.054463386535644753e-01,5.036953449249267356e-01,5.040087223052978072e-01,5.059839248657226340e-01,5.098166942596435991e-01,5.401885986328125444e-01,1.000000000000000000e+00,1.000000000000000000e+00,1.000000000000000000e+00,1.000000000000000000e+00,1.000000000000000000e+00,1.000000000000000000e+00,1.000000000000000000e+00,1.000000000000000000e+00,9.694272041320800559e-01,9.377040863037109375e-01,9.079914093017578125e-01,8.801037788391112837e-01,8.538782119750976118e-01,8.291703224182128684e-01,8.058522224426269975e-01,7.838097095489502397e-01,7.629409313201904741e-01,7.431546211242675559e-01
6.193997383117675337e-01,6.351040840148926003e-01,6.516254425048828569e-01,6.690293788909912331e-01,6.873884201049804688e-01,7.067835330963134766e-01,7.273048877716064009e-01,7.490534782409667969e-01,7.721430301666259988e-01,7.967011451721190962e-01,8.228728294372558150e-01,8.508224487304687500e-01,8.807374000549316184e-01,9.128377914428711382e-01,9.473665237426758257e-01,9.846101760864257590e-01,1.000000000000000000e+00,1.000000000000000000e+00,1.000000000000000000e+00,1.000000000000000000e+00,1.000000000000000000e+00,1.000000000000000000e+00,1.000000000000000000e+00,1.000000000000000000e+00,1.000000000000000000e+00,1.000000000000000000e+00,1.000000000000000000e+00,1.000000000000000000e+00,1.000000000000000000e+00,1.000000000000000000e+00,1.000000000000000000e+00,1.000000000000000000e+00,1.000000000000000000e+00,1.000000000000000000e+00,1.000000000000000000e+00,1.000000000000000000e+00,1.000000000000000000e+00,1.000000000000000000e+00,1.000000000000000000e+00,1.000000000000000000e+00,1.000000000000000000e+00,1.000000000000000000e+00,1.000000000000000000e+00,1.000000000000000000e+00,1.000000000000000000e+00,1.000000000000000000e+00,1.000000000000000000e+00,1.000000000000000000e+00,1.000000000000000000e+00,1.000000000000000000e+00,1.000000000000000000e+00,1.000000000000000000e+00,1.000000000000000000e+00,5.019071102142333984e-01,5.036246776580810547e-01,5.095243930816650835e-01,5.065679550170898438e-01,5.086790561676025613e-01,5.083859443664551225e-01,5.051141262054443803e-01,4.991387844085693470e-01,5.070709705352782759e-01,1.000000000000000000e+00,1.000000000000000000e+00,1.000000000000000000e+00,1.000000000000000000e+00,1.000000000000000000e+00,1.000000000000000000e+00,1.000000000000000000e+00,1.000000000000000000e+00,9.694523811340332031e-01,9.377276420593261275e-01,9.080134391784667747e-01,8.801244735717773660e-01,8.538977622985839400e-01,8.291887283325195535e-01,8.058695793151855469e-01,7.838261127471923828e-01,7.629565715789794478e-01,7.431693553924560991e-01
6.193863391876220925e-01,6.350900173187256081e-01,6.516106605529785600e-01,6.690137863159180132e-01,6.873719215393065962e-01,7.067661285400390625e-01,7.272864341735839622e-01,7.490340232849120872e-01,7.721222400665282981e-01,7.966790199279785156e-01,8.228492736816406250e-01,8.507971763610839844e-01,8.807103157043456587e-01,9.128037452697753684e-01,9.473299026489258035e-01,9.845705986022948997e-01,1.000000000000000000e+00,1.000000000000000000e+00,1.000000000000000000e+00,1.000000000000000000e+00,1.000000000000000000e+00,1.000000000000000000e+00,1.000000000000000000e+00,1.000000000000000000e+00,1.000000000000000000e+00,1.000000000000000000e+00,1.000000000000000000e+00,1.000000000000000000e+00,1.000000000000000000e+00,1.000000000000000000e+00,1.000000000000000000e+00,1.000000000000000000e+00,1.000000000000000000e+00,1.000000000000000000e+00,1.000000000000000000e+00,1.000000000000000000e+00,1.000000000000000000e+00,1.000000000000000000e+00,1.000000000000000000e+00,1.000000000000000000e+00,1.000000000000000000e+00,1.000000000000000000e+00,1.000000000000000000e+00,1.000000000000000000e+00,1.000000000000000000e+00,1.000000000000000000e+00,1.000000000000000000e+00,1.000000000000000000e+00,1.000000000000000000e+00,1.000000000000000000e+00,1.000000000000000000e+00,1.000000000000000000e+00,1.000000000000000000e+00,4.991281032562255859e-01,4.990053653717040905e-01,5.085355281829834206e-01,5.054007053375244585e-01,5.111579895019531250e-01,5.062426090240478294e-01,4.970894336700439342e-01,4.930242538452148660e-01,4.985475063323974720e-01,1.000000000000000000e+00,1.000000000000000000e+00,1.000000000000000000e+00,1.000000000000000000e+00,1.000000000000000000e+00,1.000000000000000000e+00,1.000000000000000000e+00,1.000000000000000000e+00,9.694774627685547319e-01,9.377511024475098100e-01,9.080354690551757368e-01,8.801452636718749556e-01,8.539172172546386497e-01,8.292071342468261275e-01,8.058869361877440962e-01,7.838425636291503906e-01,7.629720687866210493e-01,7.431841850280761497e-01
6.193730354309081587e-01,6.350759506225586160e-01,6.515958786010742632e-01,6.689981460571289285e-01,6.873554706573485884e-01,7.067486763000487837e-01,7.272679805755615234e-01,7.490144252777100053e-01,7.721014499664307085e-01,7.966569900512695535e-01,8.228257179260254350e-01,8.507719039916992188e-01,8.806833267211914285e-01,9.127745628356933594e-01,9.472931861877441628e-01,9.845309257507324219e-01,1.000000000000000000e+00,1.000000000000000000e+00,1.000000000000000000e+00,1.000000000000000000e+00,1.000000000000000000e+00,1.000000000000000000e+00,1.000000000000000000e+00,1.000000000000000000e+00,1.000000000000000000e+00,1.000000000000000000e+00,1.000000000000000000e+00,1.000000000000000000e+00,1.000000000000000000e+00,1.000000000000000000e+00,1.000000000000000000e+00,1.000000000000000000e+00,1.000000000000000000e+00,1.000000000000000000e+00,1.000000000000000000e+00,1.000000000000000000e+00,1.000000000000000000e+00,1.000000000000000000e+00,1.000000000000000000e+00,1.000000000000000000e+00,1.000000000000000000e+00,1.000000000000000000e+00,1.000000000000000000e+00,1.000000000000000000e+00,1.000000000000000000e+00,1.000000000000000000e+00,1.000000000000000000e+00,1.000000000000000000e+00,1.000000000000000000e+00,1.000000000000000000e+00,1.000000000000000000e+00,1.000000000000000000e+00,1.000000000000000000e+00,4.927393913269043080e-01,4.871976375579833984e-01,5.075039863586425781e-01,5.037676811218261275e-01,5.097290992736815962e-01,5.043894290924072488e-01,4.942755222320556752e-01,4.904863357543945424e-01,4.937207221984863392e-01,1.000000000000000000e+00,1.000000000000000000e+00,1.000000000000000000e+00,1.000000000000000000e+00,1.000000000000000000e+00,1.000000000000000000e+00,1.000000000000000000e+00,1.000000000000000000e+00,9.695026397705077681e-01,9.377746582031250000e-01,9.080574989318848100e-01,8.801658630371094194e-01,8.539366722106933594e-01,8.292254447937011941e-01,8.059042930603027566e-01,7.838589668273925337e-01,7.629877090454101340e-01,7.431989192962646928e-01
6.193703651428222878e-01,6.350669384002685103e-01,6.515810966491699663e-01,6.689825534820557085e-01,6.873390674591064453e-01,7.067312717437743697e-01,7.272495269775390847e-01,7.489948749542236772e-01,7.720806598663330078e-01,7.966348648071288618e-01,8.228020668029785156e-01,8.507467269897460715e-01,8.806563377380370872e-01,9.127454757690429688e-01,9.472617149353027566e-01,9.844913482666015625e-01,1.000000000000000000e+00,1.000000000000000000e+00,1.000000000000000000e+00,1.000000000000000000e+00,1.000000000000000000e+00,1.000000000000000000e+00,1.000000000000000000e+00,1.000000000000000000e+00,1.000000000000000000e+00,1.000000000000000000e+00,1.000000000000000000e+00,1.000000000000000000e+00,1.000000000000000000e+00,1.000000000000000000e+00,1.000000000000000000e+00,1.000000000000000000e+00,1.000000000000000000e+00,1.000000000000000000e+00,1.000000000000000000e+00,1.000000000000000000e+00,1.000000000000000000e+00,1.000000000000000000e+00,1.000000000000000000e+00,1.000000000000000000e+00,1.000000000000000000e+00,1.000000000000000000e+00,1.000000000000000000e+00,1.000000000000000000e+00,1.000000000000000000e+00,1.000000000000000000e+00,1.000000000000000000e+00,1.000000000000000000e+00,1.000000000000000000e+00,1.000000000000000000e+00,1.000000000000000000e+00,1.000000000000000000e+00,1.000000000000000000e+00,4.873120784759521484e-01,5.121052265167236328e-01,5.080784797668457253e-01,5.042212486267090288e-01,5.097195625305175337e-01,5.036440849304198997e-01,4.914769649505615345e-01,4.882760524749755748e-01,4.893814563751220925e-01,1.000000000000000000e+00,1.000000000000000000e+00,1.000000000000000000e+00,1.000000000000000000e+00,1.000000000000000000e+00,1.000000000000000000e+00,1.000000000000000000e+00,1.000000000000000000e+00,9.695278167724609153e-01,9.377981185913085715e-01,9.080795288085937722e-01,8.801865577697753906e-01,8.539562225341796875e-01,8.292438507080077681e-01,8.059216499328613059e-01,7.838754653930664062e-01,7.630032539367676003e-01,7.432137489318847434e-01
6.193704128265380415e-01,6.350670814514159934e-01,6.515799522399902122e-01,6.689745426177978738e-01,6.873233795166016069e-01,7.067138671874999556e-01,7.272311687469482644e-01,7.489753246307373491e-01,7.720598697662353072e-01,7.966127395629882812e-01,8.227784156799315962e-01,8.507215499877929243e-01,8.806292533874511275e-01,9.127164840698241965e-01,9.472305297851562056e-01,9.844573020935059038e-01,1.000000000000000000e+00,1.000000000000000000e+00,1.000000000000000000e+00,1.000000000000000000e+00,1.000000000000000000e+00,1.000000000000000000e+00,1.000000000000000000e+00,1.000000000000000000e+00,1.000000000000000000e+00,1.000000000000000000e+00,1.000000000000000000e+00,1.000000000000000000e+00,1.000000000000000000e+00,1.000000000000000000e+00,1.000000000000000000e+00,1.000000000000000000e+00,1.000000000000000000e+00,1.000000000000000000e+00,1.000000000000000000e+00,1.000000000000000000e+00,1.000000000000000000e+00,1.000000000000000000e+00,1.000000000000000000e+00,1.000000000000000000e+00,1.000000000000000000e+00,1.000000000000000000e+00,1.000000000000000000e+00,1.000000000000000000e+00,1.000000000000000000e+00,1.000000000000000000e+00,1.000000000000000000e+00,1.000000000000000000e+00,1.000000000000000000e+00,1.000000000000000000e+00,1.000000000000000000e+00,1.000000000000000000e+00,1.000000000000000000e+00,4.840432643890381081e-01,4.740874290466308705e-01,5.092577934265136719e-01,5.054942607879638894e-01,5.112739562988281028e-01,5.026797294616699441e-01,4.893788337707519753e-01,4.854960441589355469e-01,4.852665424346923606e-01,1.000000000000000000e+00,1.000000000000000000e+00,1.000000000000000000e+00,1.000000000000000000e+00,1.000000000000000000e+00,1.000000000000000000e+00,1.000000000000000000e+00,1.000000000000000000e+00,9.695528984069824441e-01,9.378215789794921431e-01,9.081015586853027344e-01,8.802073478698730913e-01,8.539756774902343972e-01,8.292622566223144531e-01,8.059390068054199663e-01,7.838918685913085493e-01,7.630188465118408203e-01,7.432284832000732866e-01
6.193672180175781028e-01,6.350671291351318581e-01,6.515800952911376953e-01,6.689746856689453569e-01,6.873234272003173606e-01,7.067071437835693581e-01,7.272159576416015181e-01,7.489557743072510210e-01,7.720391750335693359e-01,7.965906143188477007e-01,8.227548599243164062e-01,8.506962776184081587e-01,8.806022644042968972e-01,9.126874923706054243e-01,9.471992492675781472e-01,9.844235420227051003e-01,1.000000000000000000e+00,1.000000000000000000e+00,1.000000000000000000e+00,1.000000000000000000e+00,1.000000000000000000e+00,1.000000000000000000e+00,1.000000000000000000e+00,1.000000000000000000e+00,1.000000000000000000e+00,1.000000000000000000e+00,1.000000000000000000e+00,1.000000000000000000e+00,1.000000000000000000e+00,1.000000000000000000e+00,1.000000000000000000e+00,1.000000000000000000e+00,1.000000000000000000e+00,1.000000000000000000e+00,1.000000000000000000e+00,1.000000000000000000e+00,1.000000000000000000e+00,1.000000000000000000e+00,1.000000000000000000e+00,1.000000000000000000e+00,1.000000000000000000e+00,1.000000000000000000e+00,1.000000000000000000e+00,1.000000000000000000e+00,1.000000000000000000e+00,1.000000000000000000e+00,1.000000000000000000e+00,1.000000000000000000e+00,1.000000000000000000e+00,1.000000000000000000e+00,1.000000000000000000e+00,1.000000000000000000e+00,1.000000000000000000e+00,4.841011047363281139e-01,5.181672096252440962e-01,5.105555057525634766e-01,5.075068473815917969e-01,5.126960754394531694e-01,5.045073509216309038e-01,4.879062652587890514e-01,4.829677104949950950e-01,4.800173282623291238e-01,5.377322673797607644e-01,1.000000000000000000e+00,1.000000000000000000e+00,1.000000000000000000e+00,1.000000000000000000e+00,1.000000000000000000e+00,1.000000000000000000e+00,1.000000000000000000e+00,9.695779800415038618e-01,9.378451347351074441e-01,9.081235885620116965e-01,8.802280426025390625e-01,8.539952278137207253e-01,8.292806625366211382e-01,8.059563636779785156e-01,7.839083194732665572e-01,7.630343914031982866e-01,7.432432651519775835e-01
6.193539619445800337e-01,6.350558757781982200e-01,6.515747547149658425e-01,6.689747810363769753e-01,6.873235702514648438e-01,7.067072391510009766e-01,7.272160530090332475e-01,7.489507675170898882e-01,7.720246791839600053e-01,7.965684890747070090e-01,8.227313041687012163e-01,8.506711006164551225e-01,8.805752754211425559e-01,9.126584053039550337e-01,9.471678733825683594e-01,9.843896865844726785e-01,1.000000000000000000e+00,1.000000000000000000e+00,1.000000000000000000e+00,1.000000000000000000e+00,1.000000000000000000e+00,1.000000000000000000e+00,1.000000000000000000e+00,1.000000000000000000e+00,1.000000000000000000e+00,1.000000000000000000e+00,1.000000000000000000e+00,1.000000000000000000e+00,1.000000000000000000e+00,1.000000000000000000e+00,1.000000000000000000e+00,1.000000000000000000e+00,1.000000000000000000e+00,1.000000000000000000e+00,1.000000000000000000e+00,1.000000000000000000e+00,1.000000000000000000e+00,1.000000000000000000e+00,1.000000000000000000e+00,1.000000000000000000e+00,1.000000000000000000e+00,1.000000000000000000e+00,1.000000000000000000e+00,1.000000000000000000e+00,1.000000000000000000e+00,1.000000000000000000e+00,1.000000000000000000e+00,1.000000000000000000e+00,1.000000000000000000e+00,1.000000000000000000e+00,1.000000000000000000e+00,1.000000000000000000e+00,1.000000000000000000e+00,1.000000000000000000e+00,5.217246532440185103e-01,5.118978500366211382e-01,5.092962265014648882e-01,1.000000000000000000e+00,1.000000000000000000e+00,4.867214202880859597e-01,4.794944286346435325e-01,4.775456428527832253e-01,5.356723785400390181e-01,1.000000000000000000e+00,1.000000000000000000e+00,1.000000000000000000e+00,1.000000000000000000e+00,1.000000000000000000e+00,1.000000000000000000e+00,1.000000000000000000e+00,9.696031570434570090e-01,9.378686904907226340e-01,9.081457138061523882e-01,8.802487373352050337e-01,8.540146827697754350e-01,8.292990684509277122e-01,8.059738159179687944e-01,7.839247226715088113e-01,7.630499839782715066e-01,7.432579994201660156e-01
6.193407058715820757e-01,6.350419521331787109e-01,6.515600204467772993e-01,6.689604282379150169e-01,6.873156070709228738e-01,7.067064762115478072e-01,7.272161006927490012e-01,7.489508152008056419e-01,7.720247745513916238e-01,7.965656280517577903e-01,8.227178573608397993e-01,8.506458282470703569e-01,8.805481910705565962e-01,9.126294136047363725e-01,9.471366882324219194e-01,9.843560218811034934e-01,1.000000000000000000e+00,1.000000000000000000e+00,1.000000000000000000e+00,1.000000000000000000e+00,1.000000000000000000e+00,1.000000000000000000e+00,1.000000000000000000e+00,1.000000000000000000e+00,1.000000000000000000e+00,1.000000000000000000e+00,1.000000000000000000e+00,1.000000000000000000e+00,1.000000000000000000e+00,1.000000000000000000e+00,1.000000000000000000e+00,1.000000000000000000e+00,1.000000000000000000e+00,1.000000000000000000e+00,1.000000000000000000e+00,1.000000000000000000e+00,1.000000000000000000e+00,1.000000000000000000e+00,1.000000000000000000e+00,1.000000000000000000e+00,1.000000000000000000e+00,1.000000000000000000e+00,1.000000000000000000e+00,1.000000000000000000e+00,1.000000000000000000e+00,1.000000000000000000e+00,1.000000000000000000e+00,1.000000000000000000e+00,1.000000000000000000e+00,1.000000000000000000e+00,1.000000000000000000e+00,1.000000000000000000e+00,1.000000000000000000e+00,1.000000000000000000e+00,5.257090568542480691e-01,5.125637531280518022e-01,5.108979701995849387e-01,1.000000000000000000e+00,1.000000000000000000e+00,4.855014324188232644e-01,4.765024185180664062e-01,4.749802112579345481e-01,1.000000000000000000e+00,1.000000000000000000e+00,1.000000000000000000e+00,1.000000000000000000e+00,1.000000000000000000e+00,1.000000000000000000e+00,1.000000000000000000e+00,1.000000000000000000e+00,9.696283340454101562e-01,9.378922462463379350e-01,9.081677436828613503e-01,8.802695274353027344e-01,8.540342330932617632e-01,8.293174743652343972e-01,8.059911727905273438e-01,7.839411258697509544e-01,7.630655288696288618e-01,7.432727336883544478e-01
6.193274497985840066e-01,6.350280284881592019e-01,6.515453338623047319e-01,6.689448833465576616e-01,6.872992992401123491e-01,7.066892147064208762e-01,7.272050380706787109e-01,7.489475727081298384e-01,7.720248699188232422e-01,7.965657234191894087e-01,8.227179527282715288e-01,8.506458282470703569e-01,8.805362701416015181e-01,9.126038551330566406e-01,9.471054077148437500e-01,9.843221664428710715e-01,1.000000000000000000e+00,1.000000000000000000e+00,1.000000000000000000e+00,1.000000000000000000e+00,1.000000000000000000e+00,1.000000000000000000e+00,1.000000000000000000e+00,1.000000000000000000e+00,1.000000000000000000e+00,1.000000000000000000e+00,1.000000000000000000e+00,1.000000000000000000e+00,1.000000000000000000e+00,1.000000000000000000e+00,1.000000000000000000e+00,1.000000000000000000e+00,1.000000000000000000e+00,1.000000000000000000e+00,1.000000000000000000e+00,1.000000000000000000e+00,1.000000000000000000e+00,1.000000000000000000e+00,1.000000000000000000e+00,1.000000000000000000e+00,1.000000000000000000e+00,1.000000000000000000e+00,1.000000000000000000e+00,1.000000000000000000e+00,1.000000000000000000e+00,1.000000000000000000e+00,1.000000000000000000e+00,1.000000000000000000e+00,1.000000000000000000e+00,1.000000000000000000e+00,1.000000000000000000e+00,1.000000000000000000e+00,1.000000000000000000e+00,1.000000000000000000e+00,5.321802139282226785e-01,5.134305000305176003e-01,5.125097751617431197e-01,1.000000000000000000e+00,1.000000000000000000e+00,4.853260993957519420e-01,4.764293670654297097e-01,4.748016357421874778e-01,1.000000000000000000e+00,1.000000000000000000e+00,1.000000000000000000e+00,1.000000000000000000e+00,1.000000000000000000e+00,1.000000000000000000e+00,1.000000000000000000e+00,1.000000000000000000e+00,9.696534156799316850e-01,9.379157066345215066e-01,9.081897735595703125e-01,8.802902221679687056e-01,8.540536880493163618e-01,8.293358802795409712e-01,8.060084342956542747e-01,7.839575767517089622e-01,7.630815029144286665e-01,7.432887077331542525e-01
6.193141460418700728e-01,6.350140571594238281e-01,6.515306949615478072e-01,6.689294338226318137e-01,6.872828960418700950e-01,7.066719532012939453e-01,7.271867275238037553e-01,7.489281654357909934e-01,7.720097541809082253e-01,7.965592861175536665e-01,8.227181434631347656e-01,8.506459236145019753e-01,8.805364608764648660e-01,9.126040458679198775e-01,9.470955848693847212e-01,9.842967033386230691e-01,1.000000000000000000e+00,1.000000000000000000e+00,1.000000000000000000e+00,1.000000000000000000e+00,1.000000000000000000e+00,1.000000000000000000e+00,1.000000000000000000e+00,1.000000000000000000e+00,1.000000000000000000e+00,1.000000000000000000e+00,1.000000000000000000e+00,1.000000000000000000e+00,1.000000000000000000e+00,1.000000000000000000e+00,1.000000000000000000e+00,1.000000000000000000e+00,1.000000000000000000e+00,1.000000000000000000e+00,1.000000000000000000e+00,1.000000000000000000e+00,1.000000000000000000e+00,1.000000000000000000e+00,1.000000000000000000e+00,1.000000000000000000e+00,1.000000000000000000e+00,1.000000000000000000e+00,1.000000000000000000e+00,1.000000000000000000e+00,1.000000000000000000e+00,1.000000000000000000e+00,1.000000000000000000e+00,1.000000000000000000e+00,1.000000000000000000e+00,1.000000000000000000e+00,1.000000000000000000e+00,1.000000000000000000e+00,1.000000000000000000e+00,1.000000000000000000e+00,1.000000000000000000e+00,5.150194644927978960e-01,5.133306026458740456e-01,1.000000000000000000e+00,1.000000000000000000e+00,4.876066684722900613e-01,4.793469905853271484e-01,4.772667407989502064e-01,1.000000000000000000e+00,1.000000000000000000e+00,1.000000000000000000e+00,1.000000000000000000e+00,1.000000000000000000e+00,1.000000000000000000e+00,1.000000000000000000e+00,1.000000000000000000e+00,9.696785926818847212e-01,9.379392623901366965e-01,9.082118988037108931e-01,8.803109169006347878e-01,8.540732383728026900e-01,8.293541908264160378e-01,8.060267448425293413e-01,7.839757442474365456e-01,7.630990982055664285e-01,7.433054447174072266e-01
6.193008422851562500e-01,6.350001335144043191e-01,6.515160083770752397e-01,6.689139366149902122e-01,6.872665405273437056e-01,7.066545963287353960e-01,7.271684646606445535e-01,7.489088058471680132e-01,7.719891548156738725e-01,7.965373516082763228e-01,8.226981163024902344e-01,8.506355285644531250e-01,8.805365562438964844e-01,9.126042366027832253e-01,9.470957756042480691e-01,9.842969894409179243e-01,1.000000000000000000e+00,1.000000000000000000e+00,1.000000000000000000e+00,1.000000000000000000e+00,1.000000000000000000e+00,1.000000000000000000e+00,1.000000000000000000e+00,1.000000000000000000e+00,1.000000000000000000e+00,1.000000000000000000e+00,1.000000000000000000e+00,1.000000000000000000e+00,1.000000000000000000e+00,1.000000000000000000e+00,1.000000000000000000e+00,1.000000000000000000e+00,1.000000000000000000e+00,1.000000000000000000e+00,1.000000000000000000e+00,1.000000000000000000e+00,1.000000000000000000e+00,1.000000000000000000e+00,1.000000000000000000e+00,1.000000000000000000e+00,1.000000000000000000e+00,1.000000000000000000e+00,1.000000000000000000e+00,1.000000000000000000e+00,1.000000000000000000e+00,1.000000000000000000e+00,1.000000000000000000e+00,1.000000000000000000e+00,1.000000000000000000e+00,1.000000000000000000e+00,1.000000000000000000e+00,1.000000000000000000e+00,1.000000000000000000e+00,1.000000000000000000e+00,5.342587471008301003e-01,5.179644584655761497e-01,5.166472911834716353e-01,1.000000000000000000e+00,1.000000000000000000e+00,4.898731708526611328e-01,4.827687740325927734e-01,4.828697681427002175e-01,1.000000000000000000e+00,1.000000000000000000e+00,1.000000000000000000e+00,1.000000000000000000e+00,1.000000000000000000e+00,1.000000000000000000e+00,1.000000000000000000e+00,1.000000000000000000e+00,9.697037696838378684e-01,9.379628181457519975e-01,9.082339286804199663e-01,8.803321838378905806e-01,8.540943145751953569e-01,8.293750762939453569e-01,8.060464859008789062e-01,7.839944362640380859e-01,7.631167888641356978e-01,7.433222293853759544e-01
6.192875862121581809e-01,6.349861145019530806e-01,6.515013217926025613e-01,6.688984870910644753e-01,6.872502326965331809e-01,7.066373348236083540e-01,7.271501064300537331e-01,7.488893985748290572e-01,7.719685554504394087e-01,7.965154170989989790e-01,8.226746559143066628e-01,8.506105422973633257e-01,8.805103302001953125e-01,9.125886917114257590e-01,9.470927238464355025e-01,9.842971801757812722e-01,1.000000000000000000e+00,1.000000000000000000e+00,1.000000000000000000e+00,1.000000000000000000e+00,1.000000000000000000e+00,1.000000000000000000e+00,1.000000000000000000e+00,1.000000000000000000e+00,1.000000000000000000e+00,1.000000000000000000e+00,1.000000000000000000e+00,1.000000000000000000e+00,1.000000000000000000e+00,1.000000000000000000e+00,1.000000000000000000e+00,1.000000000000000000e+00,1.000000000000000000e+00,1.000000000000000000e+00,1.000000000000000000e+00,1.000000000000000000e+00,1.000000000000000000e+00,1.000000000000000000e+00,1.000000000000000000e+00,1.000000000000000000e+00,1.000000000000000000e+00,1.000000000000000000e+00,1.000000000000000000e+00,1.000000000000000000e+00,1.000000000000000000e+00,1.000000000000000000e+00,1.000000000000000000e+00,1.000000000000000000e+00,1.000000000000000000e+00,1.000000000000000000e+00,1.000000000000000000e+00,1.000000000000000000e+00,1.000000000000000000e+00,1.000000000000000000e+00,5.390350818634033203e-01,5.259342193603515625e-01,1.000000000000000000e+00,1.000000000000000000e+00,1.000000000000000000e+00,4.903771400451660267e-01,4.852012634277343972e-01,4.861543178558349609e-01,1.000000000000000000e+00,1.000000000000000000e+00,1.000000000000000000e+00,1.000000000000000000e+00,1.000000000000000000e+00,1.000000000000000000e+00,1.000000000000000000e+00,1.000000000000000000e+00,9.697288513183593972e-01,9.379876136779785600e-01,9.082583427429199441e-01,8.803557395935058816e-01,8.541163444519043191e-01,8.293959617614745650e-01,8.060661315917968528e-01,7.840130329132080078e-01,7.631344318389892134e-01,7.433389663696289285e-01
6.192743301391601118e-01,6.349721908569335715e-01,6.514865875244140181e-01,6.688829898834228738e-01,6.872338771820067915e-01,7.066200733184814231e-01,7.271317958831786665e-01,7.488699436187744585e-01,7.719479560852050559e-01,7.964934825897216353e-01,8.226511955261230913e-01,8.505854606628417969e-01,8.804834365844727007e-01,9.125598907470703347e-01,9.470617294311522993e-01,9.842749595642089622e-01,1.000000000000000000e+00,1.000000000000000000e+00,1.000000000000000000e+00,1.000000000000000000e+00,1.000000000000000000e+00,1.000000000000000000e+00,1.000000000000000000e+00,1.000000000000000000e+00,1.000000000000000000e+00,1.000000000000000000e+00,1.000000000000000000e+00,1.000000000000000000e+00,1.000000000000000000e+00,1.000000000000000000e+00,1.000000000000000000e+00,1.000000000000000000e+00,1.000000000000000000e+00,1.000000000000000000e+00,1.000000000000000000e+00,1.000000000000000000e+00,1.000000000000000000e+00,1.000000000000000000e+00,1.000000000000000000e+00,1.000000000000000000e+00,1.000000000000000000e+00,1.000000000000000000e+00,1.000000000000000000e+00,1.000000000000000000e+00,1.000000000000000000e+00,1.000000000000000000e+00,1.000000000000000000e+00,1.000000000000000000e+00,1.000000000000000000e+00,1.000000000000000000e+00,1.000000000000000000e+00,1.000000000000000000e+00,1.000000000000000000e+00,5.648133754730224609e-01,5.489478111267089844e-01,5.491429328918456809e-01,1.000000000000000000e+00,1.000000000000000000e+00,1.000000000000000000e+00,4.900953292846679799e-01,4.853422641754150391e-01,4.864123344421386608e-01,1.000000000000000000e+00,1.000000000000000000e+00,1.000000000000000000e+00,1.000000000000000000e+00,1.000000000000000000e+00,1.000000000000000000e+00,1.000000000000000000e+00,1.000000000000000000e+00,9.697573661804199663e-01,9.380142211914062056e-01,9.082833290100097434e-01,8.803791999816894531e-01,8.541384696960448997e-01,8.294167518615722656e-01,8.060859680175781472e-01,7.840316772460937944e-01,7.631521224975585938e-01,7.433557510375976562e-01
6.192610740661621538e-01,6.349582672119140625e-01,6.514719009399414507e-01,6.688674926757812722e-01,6.872175693511962669e-01,7.066028118133544922e-01,7.271135330200195757e-01,7.488505363464355025e-01,7.719272613525390847e-01,7.964715957641601562e-01,8.226278305053711382e-01,8.505603790283202681e-01,8.804566383361815962e-01,9.125309944152831809e-01,9.470307350158690962e-01,9.842414855957031250e-01,1.000000000000000000e+00,1.000000000000000000e+00,1.000000000000000000e+00,1.000000000000000000e+00,1.000000000000000000e+00,1.000000000000000000e+00,1.000000000000000000e+00,1.000000000000000000e+00,1.000000000000000000e+00,1.000000000000000000e+00,1.000000000000000000e+00,1.000000000000000000e+00,1.000000000000000000e+00,1.000000000000000000e+00,1.000000000000000000e+00,1.000000000000000000e+00,1.000000000000000000e+00,1.000000000000000000e+00,1.000000000000000000e+00,1.000000000000000000e+00,1.000000000000000000e+00,1.000000000000000000e+00,1.000000000000000000e+00,1.000000000000000000e+00,1.000000000000000000e+00,1.000000000000000000e+00,1.000000000000000000e+00,1.000000000000000000e+00,1.000000000000000000e+00,1.000000000000000000e+00,1.000000000000000000e+00,1.000000000000000000e+00,1.000000000000000000e+00,1.000000000000000000e+00,1.000000000000000000e+00,1.000000000000000000e+00,1.000000000000000000e+00,5.729449748992919700e-01,5.574327945709228738e-01,1.000000000000000000e+00,1.000000000000000000e+00,1.000000000000000000e+00,1.000000000000000000e+00,4.898843288421630970e-01,4.853831291198730247e-01,4.973144054412841908e-01,1.000000000000000000e+00,1.000000000000000000e+00,1.000000000000000000e+00,1.000000000000000000e+00,1.000000000000000000e+00,1.000000000000000000e+00,1.000000000000000000e+00,1.000000000000000000e+00,9.697859764099121538e-01,9.380410194396973100e-01,9.083084106445312722e-01,8.804027557373046431e-01,8.541606903076172097e-01,8.294377326965332031e-01,8.061056137084960938e-01,7.840503692626953347e-01,7.631698131561279741e-01,7.433725357055663840e-01
6.192478179931640847e-01,6.349442958831786887e-01,6.514572620391845259e-01,6.688519954681396706e-01,6.872011661529541238e-01,7.065855503082275613e-01,7.270952701568603738e-01,7.488311767578125222e-01,7.719066619873047319e-01,7.964495658874511941e-01,8.226044654846191850e-01,8.505353927612304688e-01,8.804298400878906028e-01,9.125022888183593750e-01,9.469996452331542747e-01,9.842079162597656694e-01,1.000000000000000000e+00,1.000000000000000000e+00,1.000000000000000000e+00,1.000000000000000000e+00,1.000000000000000000e+00,1.000000000000000000e+00,1.000000000000000000e+00,1.000000000000000000e+00,1.000000000000000000e+00,1.000000000000000000e+00,1.000000000000000000e+00,1.000000000000000000e+00,1.000000000000000000e+00,1.000000000000000000e+00,1.000000000000000000e+00,1.000000000000000000e+00,1.000000000000000000e+00,1.000000000000000000e+00,1.000000000000000000e+00,1.000000000000000000e+00,1.000000000000000000e+00,1.000000000000000000e+00,1.000000000000000000e+00,1.000000000000000000e+00,1.000000000000000000e+00,1.000000000000000000e+00,1.000000000000000000e+00,1.000000000000000000e+00,1.000000000000000000e+00,1.000000000000000000e+00,1.000000000000000000e+00,1.000000000000000000e+00,1.000000000000000000e+00,1.000000000000000000e+00,1.000000000000000000e+00,1.000000000000000000e+00,1.000000000000000000e+00,5.822723388671875444e-01,5.686181545257568137e-01,1.000000000000000000e+00,1.000000000000000000e+00,1.000000000000000000e+00,1.000000000000000000e+00,4.899620532989502064e-01,4.853546619415283203e-01,1.000000000000000000e+00,1.000000000000000000e+00,1.000000000000000000e+00,1.000000000000000000e+00,1.000000000000000000e+00,1.000000000000000000e+00,1.000000000000000000e+00,1.000000000000000000e+00,1.000000000000000000e+00,9.698144912719726118e-01,9.380677223205566850e-01,9.083334922790526900e-01,8.804263114929199441e-01,8.541828155517577903e-01,8.294585227966309038e-01,8.061253547668456587e-01,7.840689659118652566e-01,7.631874561309814897e-01,7.433892726898193581e-01
6.192345142364501509e-01,6.349303722381591797e-01,6.514425754547119585e-01,6.688365459442138228e-01,6.871848583221435991e-01,7.065682411193847656e-01,7.270770072937011719e-01,7.488117694854736772e-01,7.718860626220702681e-01,7.964276313781738503e-01,8.225810050964355025e-01,8.505104064941406694e-01,8.804030418395996094e-01,9.124733924865722212e-01,9.469686508178710715e-01,9.841743469238281028e-01,1.000000000000000000e+00,1.000000000000000000e+00,1.000000000000000000e+00,1.000000000000000000e+00,1.000000000000000000e+00,1.000000000000000000e+00,1.000000000000000000e+00,1.000000000000000000e+00,1.000000000000000000e+00,1.000000000000000000e+00,1.000000000000000000e+00,1.000000000000000000e+00,1.000000000000000000e+00,1.000000000000000000e+00,1.000000000000000000e+00,1.000000000000000000e+00,1.000000000000000000e+00,1.000000000000000000e+00,1.000000000000000000e+00,1.000000000000000000e+00,1.000000000000000000e+00,1.000000000000000000e+00,1.000000000000000000e+00,1.000000000000000000e+00,1.000000000000000000e+00,1.000000000000000000e+00,1.000000000000000000e+00,1.000000000000000000e+00,1.000000000000000000e+00,1.000000000000000000e+00,1.000000000000000000e+00,1.000000000000000000e+00,1.000000000000000000e+00,1.000000000000000000e+00,1.000000000000000000e+00,1.000000000000000000e+00,1.000000000000000000e+00,5.947480678558350053e-01,1.000000000000000000e+00,1.000000000000000000e+00,1.000000000000000000e+00,1.000000000000000000e+00,1.000000000000000000e+00,4.905729770660400280e-01,4.855305194854736550e-01,1.000000000000000000e+00,1.000000000000000000e+00,1.000000000000000000e+00,1.000000000000000000e+00,1.000000000000000000e+00,1.000000000000000000e+00,1.000000000000000000e+00,1.000000000000000000e+00,1.000000000000000000e+00,9.698430061340331809e-01,9.380943298339843306e-01,9.083584785461426003e-01,8.804497718811035156e-01,8.542049407958984819e-01,8.294794082641601118e-01,8.061450004577637163e-01,7.840876579284667969e-01,7.632051467895507590e-01,7.434060573577880859e-01
6.192212581634521928e-01,6.349164009094238059e-01,6.514278888702392800e-01,6.688210964202880859e-01,6.871685028076172097e-01,7.065509796142578347e-01,7.270586490631103516e-01,7.487924098968505859e-01,7.718654632568359153e-01,7.964056968688965066e-01,8.225576400756835493e-01,8.504853248596191406e-01,8.803762435913086160e-01,9.124445915222167969e-01,9.469375610351562500e-01,9.841408729553222656e-01,1.000000000000000000e+00,1.000000000000000000e+00,1.000000000000000000e+00,1.000000000000000000e+00,1.000000000000000000e+00,1.000000000000000000e+00,1.000000000000000000e+00,1.000000000000000000e+00,1.000000000000000000e+00,1.000000000000000000e+00,1.000000000000000000e+00,1.000000000000000000e+00,1.000000000000000000e+00,1.000000000000000000e+00,1.000000000000000000e+00,1.000000000000000000e+00,1.000000000000000000e+00,1.000000000000000000e+00,1.000000000000000000e+00,1.000000000000000000e+00,1.000000000000000000e+00,1.000000000000000000e+00,1.000000000000000000e+00,1.000000000000000000e+00,1.000000000000000000e+00,1.000000000000000000e+00,1.000000000000000000e+00,1.000000000000000000e+00,1.000000000000000000e+00,1.000000000000000000e+00,1.000000000000000000e+00,1.000000000000000000e+00,1.000000000000000000e+00,1.000000000000000000e+00,1.000000000000000000e+00,1.000000000000000000e+00,1.000000000000000000e+00,5.974976062774658425e-01,5.981140136718750000e-01,1.000000000000000000e+00,1.000000000000000000e+00,1.000000000000000000e+00,1.000000000000000000e+00,4.911707878112793191e-01,4.857065677642822266e-01,1.000000000000000000e+00,1.000000000000000000e+00,1.000000000000000000e+00,1.000000000000000000e+00,1.000000000000000000e+00,1.000000000000000000e+00,1.000000000000000000e+00,1.000000000000000000e+00,1.000000000000000000e+00,9.698715209960937500e-01,9.381210327148437056e-01,9.083834648132323997e-01,8.804733276367187056e-01,8.542270660400390625e-01,8.295002937316894309e-01,8.061647415161132812e-01,7.841062545776367188e-01,7.632227897644042747e-01,7.434227943420410600e-01
6.192080020904541238e-01,6.349024295806884322e-01,6.514131546020507368e-01,6.688055992126464844e-01,6.871521949768066850e-01,7.065337181091309038e-01,7.270403385162353960e-01,7.487729072570801225e-01,7.718448638916015625e-01,7.963837623596191628e-01,8.225341796874999778e-01,8.504603385925293413e-01,8.803493499755858931e-01,9.124157905578613725e-01,9.469065666198730469e-01,9.709865570068358931e-01,9.707448005676269087e-01,9.705031394958496538e-01,9.702615737915039062e-01,9.700201988220215066e-01,9.697789192199707253e-01,9.695377349853515625e-01,9.692966461181640181e-01,9.690557479858398215e-01,9.688149452209472434e-01,9.685742378234862837e-01,9.683337211608886719e-01,9.680932044982910600e-01,9.678528785705566850e-01,9.676126480102539285e-01,9.673726081848144087e-01,9.671325683593750000e-01,9.668927192687988281e-01,9.666529655456542747e-01,9.664133071899414507e-01,9.661738395690917525e-01,9.659344673156737837e-01,9.656951904296875444e-01,9.654560089111328125e-01,9.652171134948730469e-01,9.649781227111816628e-01,9.647393226623535156e-01,9.645007133483887163e-01,9.642621040344238059e-01,9.640236854553222434e-01,9.637854576110840288e-01,9.635472297668457031e-01,9.633090972900391069e-01,9.630710601806640181e-01,9.628333091735840066e-01,9.625955581665038840e-01,9.623579025268554910e-01,9.621204376220703347e-01,5.981084346771240456e-01,5.959228992462157759e-01,9.614087104797363059e-01,9.611716270446777344e-01,9.609347343444823997e-01,9.606979370117187944e-01,4.917700290679931641e-01,4.874507427215576394e-01,9.599883079528808150e-01,9.597518920898437944e-01,9.595156669616698997e-01,9.592795372009277344e-01,9.590435981750488059e-01,9.588077545166016069e-01,9.585720062255859153e-01,9.583364486694335715e-01,9.581008911132812278e-01,9.578655242919922319e-01,9.381477355957030806e-01,9.084085464477539285e-01,8.804967880249023882e-01,8.542491912841796431e-01,8.295211791992187500e-01,8.061844825744628462e-01,7.841249465942382590e-01,7.632404804229736550e-01,7.434395790100097878e-01
6.191947460174560547e-01,6.348885059356689231e-01,6.513985157012939231e-01,6.687901020050048828e-01,6.871358871459960493e-01,7.065164566040038618e-01,7.270220756530761941e-01,7.487535476684570312e-01,7.542320728302002175e-01,7.540862083435058150e-01,7.539403438568115234e-01,7.537945747375488503e-01,7.536489009857177956e-01,7.535031795501708762e-01,7.533576011657714400e-01,7.532120227813721147e-01,7.530665397644042969e-01,7.529211521148682085e-01,7.527757167816162553e-01,7.526304244995116743e-01,7.524851799011230691e-01,7.523399353027343528e-01,7.521947860717773660e-01,7.520497322082519975e-01,7.519046306610107644e-01,7.517596721649170144e-01,7.516147613525390181e-01,7.514698505401611328e-01,7.513250350952148660e-01,7.511803150177002175e-01,7.510355472564697044e-01,7.508909225463866743e-01,7.507463455200195090e-01,7.506017684936523438e-01,7.504572868347167969e-01,7.503129005432128684e-01,7.501684665679931863e-01,7.500241756439208762e-01,7.498799324035644309e-01,7.497356891632079856e-01,7.495915412902831587e-01,7.494474887847900613e-01,7.493033885955810991e-01,7.491594314575195090e-01,7.490154266357421653e-01,7.488716125488281694e-01,7.487277984619140625e-01,7.485839843749999556e-01,7.484403133392334428e-01,7.482966899871825728e-01,7.481530189514160600e-01,7.480095386505126731e-01,7.478660583496093972e-01,5.970795631408691850e-01,5.952770233154296431e-01,7.474359512329101785e-01,7.472926139831542747e-01,7.471494197845458540e-01,7.470062732696532981e-01,4.926167964935302956e-01,4.918869018554687389e-01,7.465771675109863503e-01,7.464341640472411665e-01,7.462913036346435769e-01,7.461484909057617410e-01,7.460056781768799050e-01,7.458629608154296875e-01,7.457203388214110884e-01,7.455776691436767356e-01,7.454351425170898660e-01,7.452926635742187500e-01,7.451501369476318803e-01,7.450078010559082475e-01,7.448654651641846147e-01,7.447231292724609819e-01,7.445809364318847212e-01,7.444386959075928178e-01,7.442965984344482866e-01,7.441545486450195090e-01,7.434563636779785156e-01
6.166876316070556419e-01,6.165900230407714844e-01,6.164925575256348100e-01,6.163950443267822710e-01,6.162976264953613503e-01,6.162002086639404297e-01,6.161027908325195090e-01,6.160054206848144531e-01,6.159081459045410156e-01,6.158108234405517134e-01,6.157135963439941406e-01,6.156163215637207031e-01,6.155191421508788840e-01,6.154220104217529297e-01,6.153248310089111106e-01,6.152277469635010210e-01,6.151307106018066850e-01,6.150336265563964844e-01,6.149366378784180132e-01,6.148396492004394309e-01,6.147426605224609597e-01,6.146457672119141069e-01,6.145489215850830078e-01,6.144520282745361550e-01,6.143552303314209206e-01,6.142584323883056863e-01,6.141616344451904519e-01,6.140649318695068359e-01,6.139682292938232200e-01,6.138715267181396040e-01,6.137748718261718528e-01,6.136783123016357200e-01,6.135816574096679688e-01,6.134851455688477007e-01,6.133886337280273215e-01,6.132921218872070535e-01,6.131956577301025391e-01,6.130992889404296431e-01,6.130028247833252397e-01,6.129065036773682085e-01,6.128100872039794478e-01,6.127138137817382812e-01,6.126175403594971147e-01,6.125212669372558372e-01,6.124250888824462891e-01,6.123289108276367410e-01,6.122326850891113281e-01,6.121366024017333984e-01,6.120405197143554688e-01,6.119443893432616743e-01,6.118484020233154741e-01,6.117524147033691628e-01,6.116563796997069868e-01,6.115604400634765403e-01,6.114645481109619585e-01,6.113686084747314009e-01,6.112728118896484375e-01,6.111769676208496094e-01,6.110811710357666460e-01,4.843095302581786887e-01,4.782041072845458762e-01,6.107939243316650169e-01,6.106982707977295366e-01,6.106026649475098100e-01,6.105070114135742188e-01,6.104114055633544922e-01,6.103158950805663840e-01,6.102203369140625222e-01,6.101248264312744141e-01,6.100294113159179243e-01,6.099339008331299272e-01,6.098385334014893022e-01,6.097431182861328125e-01,6.096477985382080522e-01,6.095524787902831809e-01,6.094571590423584206e-01,6.093619346618652788e-01,6.092667102813720259e-01,6.091714859008788840e-01,6.090763092041016069e-01
5.210142135620117188e-01,5.209445476531981978e-01,5.208749771118164062e-01,5.208054065704346147e-01,5.207357883453369585e-01,5.206662654876709206e-01,5.205967426300048828e-01,5.205272197723388450e-01,5.204576969146728072e-01,5.203882217407226340e-01,5.203187465667724609e-01,5.202493190765380415e-01,5.201799392700194868e-01,5.201105117797851785e-01,5.200411319732666238e-01,5.199717998504638228e-01,5.199024200439452681e-01,5.198331356048584428e-01,5.197638034820556419e-01,5.196945190429687056e-01,5.196252346038818803e-01,5.195559978485106978e-01,5.194867610931396262e-01,5.194175720214844194e-01,5.193483829498291016e-01,5.192791938781737837e-01,5.192100524902343306e-01,5.191409111022948775e-01,5.190717697143554243e-01,5.190026760101318359e-01,5.189336299896240012e-01,5.188645362854004128e-01,5.187954902648925781e-01,5.187264919281006081e-01,5.186574459075927734e-01,5.185884475708008035e-01,5.185194492340088335e-01,5.184505462646484819e-01,5.183815956115722656e-01,5.183126449584960493e-01,5.182437896728515625e-01,5.181748867034912109e-01,5.181060314178467241e-01,5.180371761322021262e-01,5.179683685302733931e-01,5.178995609283447710e-01,5.178307533264160378e-01,5.177619934082031694e-01,5.176932334899901900e-01,5.176245212554931863e-01,5.175558090209960715e-01,5.174870967864990678e-01,5.174184322357178178e-01,5.173497676849365678e-01,5.172811031341553178e-01,5.172124862670898215e-01,5.171439170837401900e-01,5.170753002166748047e-01,5.170067310333251731e-01,4.757513523101806752e-01,4.605991363525390736e-01,4.672399520874023215e-01,5.167326450347899947e-01,5.166641235351562278e-01,5.165956974029540794e-01,5.165272712707519309e-01,5.164587974548340288e-01,5.163904190063476340e-01,5.163219928741454856e-01,5.162536621093749556e-01,5.161853313446045366e-01,5.161169528961181419e-01,5.160486221313476118e-01,5.159803390502929465e-01,5.159120559692382812e-01,5.158438205718993697e-01,5.157755851745605691e-01,5.157073020935059038e-01,5.156391143798828569e-01,5.155709266662598100e-01
4.510395526885986328e-01,4.509873867034911998e-01,4.509352207183837669e-01,4.508830547332763894e-01,4.508309364318847656e-01,4.507788181304931419e-01,4.507266998291015736e-01,4.506745815277099498e-01,4.506225109100341908e-01,4.505703926086425670e-01,4.505183219909668080e-01,4.504662513732909934e-01,4.504141807556152344e-01,4.503621578216552845e-01,4.503101348876953347e-01,4.502581119537353294e-01,4.502061367034911887e-01,4.501541614532470481e-01,4.501021862030029075e-01,4.500502109527587669e-01,4.499982833862304910e-01,4.499463558197021595e-01,4.498944282531738281e-01,4.498425006866454967e-01,4.497906208038330300e-01,4.497387409210205078e-01,4.496868610382079856e-01,4.496349811553955189e-01,4.495831489562988059e-01,4.495313167572021484e-01,4.494794845581054910e-01,4.494276523590087780e-01,4.493758201599121205e-01,4.493240356445312722e-01,4.492722988128662331e-01,4.492205142974853294e-01,4.491687774658202903e-01,4.491169929504394420e-01,4.490652561187744030e-01,4.490135669708251731e-01,4.489618778228759988e-01,4.489101409912109597e-01,4.488584518432617299e-01,4.488068103790283092e-01,4.487551212310790794e-01,4.487034797668457142e-01,4.486518383026122936e-01,4.486001968383789285e-01,4.485486030578613170e-01,4.484970092773437611e-01,4.484454154968261497e-01,4.483938694000244030e-01,4.483422756195068470e-01,4.482907295227051003e-01,4.482391834259032981e-01,4.481876850128173606e-01,4.481361389160156139e-01,4.480846405029296764e-01,4.480331420898437389e-01,4.479816436767578014e-01,4.479301929473876731e-01,4.478787422180176003e-01,4.478272914886474720e-01,4.477758407592773438e-01,4.477243900299072155e-01,4.476729869842529519e-01,4.476216316223144420e-01,4.475702285766601785e-01,4.475188255310058594e-01,4.474674701690674050e-01,4.474161148071288951e-01,4.473648071289062500e-01,4.473134517669677956e-01,4.472621440887450950e-01,4.472108364105224498e-01,4.471595287322998047e-01,4.471082210540771595e-01,4.470569610595703236e-01,4.470057487487792969e-01,4.469544887542724609e-01
3.976353168487548606e-01,3.975947380065917858e-01,3.975542306900024525e-01,3.975136756896972545e-01,3.974731445312499889e-01,3.974325895309448464e-01,3.973921298980712669e-01,3.973515987396240012e-01,3.973110914230346680e-01,3.972706317901611439e-01,3.972301483154296875e-01,3.971896648406982311e-01,3.971491813659667747e-01,3.971087694168090598e-01,3.970683097839355358e-01,3.970278501510620117e-01,3.969874143600463645e-01,3.969469785690307728e-01,3.969065666198730580e-01,3.968661785125732200e-01,3.968257665634155051e-01,3.967853546142577903e-01,3.967450141906738170e-01,3.967046260833740345e-01,3.966642618179321289e-01,3.966239213943481556e-01,3.965835809707641824e-01,3.965432167053222767e-01,3.965029239654541127e-01,3.964625835418701394e-01,3.964222669601440430e-01,3.963819265365600697e-01,3.963416814804077148e-01,3.963013648986816184e-01,3.962610721588134544e-01,3.962208271026611550e-01,3.961805582046508678e-01,3.961402893066406361e-01,3.961000680923462136e-01,3.960597991943359264e-01,3.960195541381835715e-01,3.959793806076049583e-01,3.959391355514526589e-01,3.958989143371581809e-01,3.958587408065795676e-01,3.958185434341430775e-01,3.957783460617065319e-01,3.957381963729858509e-01,3.956980228424072377e-01,3.956578493118286244e-01,3.956177234649658203e-01,3.955775737762451394e-01,3.955374240875244030e-01,3.954973220825195312e-01,3.954571962356567272e-01,3.954170703887939231e-01,3.953769922256469838e-01,3.953368902206421120e-01,3.952967882156371848e-01,3.952567338943481223e-01,3.952166557312011830e-01,3.951765775680541881e-01,3.951365709304809348e-01,3.950964927673339955e-01,3.950564384460449330e-01,3.950164556503296120e-01,3.949764251708984264e-01,3.949363946914672963e-01,3.948964118957519753e-01,3.948564052581787220e-01,3.948163986206054688e-01,3.947764635086059570e-01,3.947364568710327037e-01,3.946964979171753152e-01,3.946565628051758035e-01,3.946166038513183594e-01,3.945766448974609153e-01,3.945367574691772683e-01,3.944968223571777566e-01,3.944568872451782449e-01
3.555386066436767578e-01,3.555061578750610130e-01,3.554737806320190652e-01,3.554413557052612527e-01,3.554089546203613170e-01,3.553765773773193137e-01,3.553441762924194336e-01,3.553117752075195535e-01,3.552793741226196178e-01,3.552470445632934792e-01,3.552146434783935436e-01,3.551822900772094727e-01,3.551499605178832786e-01,3.551175832748413308e-01,3.550852298736572044e-01,3.550528764724731334e-01,3.550205707550048717e-01,3.549882411956787331e-01,3.549559116363525391e-01,3.549236059188842773e-01,3.548912525177002064e-01,3.548589468002319447e-01,3.548266410827636830e-01,3.547943592071532981e-01,3.547620773315429688e-01,3.547297716140747070e-01,3.546975374221801869e-01,3.546652555465698020e-01,3.546329736709594727e-01,3.546007394790649525e-01,3.545684814453125000e-01,3.545362234115600475e-01,3.545040130615234597e-01,3.544717550277710072e-01,3.544395208358764870e-01,3.544073343276977761e-01,3.543751001358032005e-01,3.543428897857666127e-01,3.543107032775879017e-01,3.542784929275512584e-01,3.542462825775146706e-01,3.542141199111938366e-01,3.541819334030151256e-01,3.541497468948364147e-01,3.541176080703735130e-01,3.540854454040527344e-01,3.540532588958740234e-01,3.540211439132690541e-01,3.539889812469482200e-01,3.539568424224853738e-01,3.539247274398803489e-01,3.538925886154175027e-01,3.538604497909546009e-01,3.538283586502075084e-01,3.537962436676025391e-01,3.537641286849975697e-01,3.537320137023926003e-01,3.536999464035034402e-01,3.536678552627563477e-01,3.536357402801513783e-01,3.536036968231200950e-01,3.535716295242309348e-01,3.535395383834838978e-01,3.535075187683105469e-01,3.534754514694213867e-01,3.534433841705322266e-01,3.534113645553588756e-01,3.533793210983276478e-01,3.533473014831542969e-01,3.533152818679809459e-01,3.532832622528075950e-01,3.532512426376342995e-01,3.532192707061767578e-01,3.531872510910034069e-01,3.531552553176879883e-01,3.531232833862304465e-01,3.530912876129150280e-01,3.530593156814575417e-01,3.530273675918579324e-01,3.529953956604003906e-01
3.215019464492797630e-01,3.214754343032836803e-01,3.214489459991455300e-01,3.214224338531493919e-01,3.213959217071533092e-01,3.213694572448730358e-01,3.213429689407348855e-01,3.213164567947387473e-01,3.212899684906005970e-01,3.212635278701782005e-01,3.212370395660400502e-01,3.212105512619018444e-01,3.211841106414795033e-01,3.211576461791992299e-01,3.211311817169189564e-01,3.211047649383544922e-01,3.210783004760742188e-01,3.210518598556518777e-01,3.210253953933716042e-01,3.209990024566650169e-01,3.209725618362426758e-01,3.209461212158203347e-01,3.209197282791137473e-01,3.208932399749755970e-01,3.208668470382690652e-01,3.208404302597046009e-01,3.208140134811401367e-01,3.207876443862914817e-01,3.207612514495849498e-01,3.207348346710204856e-01,3.207084894180297630e-01,3.206820964813232311e-01,3.206557035446166992e-01,3.206293582916259766e-01,3.206029653549194447e-01,3.205765962600707897e-01,3.205502748489379994e-01,3.205239057540893444e-01,3.204975366592407449e-01,3.204712152481078991e-01,3.204448699951171764e-01,3.204185247421264537e-01,3.203922033309936634e-01,3.203658819198608176e-01,3.203395366668700950e-01,3.203132390975952370e-01,3.202869176864623912e-01,3.202605962753296009e-01,3.202342987060546875e-01,3.202080011367797741e-01,3.201816797256469838e-01,3.201554059982300027e-01,3.201291084289550892e-01,3.201028347015381081e-01,3.200765609741210715e-01,3.200502872467040905e-01,3.200239896774291770e-01,3.199977397918701283e-01,3.199714660644531472e-01,3.199451923370361106e-01,3.199189662933349387e-01,3.198927164077758900e-01,3.198664426803589089e-01,3.198402404785156139e-01,3.198139905929565652e-01,3.197877407073974609e-01,3.197615385055542214e-01,3.197352886199951172e-01,3.197090625762939453e-01,3.196828842163085826e-01,3.196566581726074108e-01,3.196304321289062389e-01,3.196042537689208762e-01,3.195780515670776367e-01,3.195518493652343972e-01,3.195256710052490345e-01,3.194994688034057395e-01,3.194732904434204324e-01,3.194471359252929465e-01,3.194209575653076394e-01
2.934127807617187278e-01,2.933907032012939564e-01,2.933686256408691295e-01,2.933465480804443581e-01,2.933244705200195312e-01,2.933024168014526367e-01,2.932803392410278098e-01,2.932582616806030384e-01,2.932362318038940208e-01,2.932141780853271262e-01,2.931921005249023549e-01,2.931700468063354603e-01,2.931480169296264426e-01,2.931259632110595481e-01,2.931039333343505859e-01,2.930819034576416238e-01,2.930598735809326061e-01,2.930378437042236439e-01,2.930158138275146262e-01,2.929938077926635964e-01,2.929717779159545787e-01,2.929497480392456166e-01,2.929277658462524636e-01,2.929057359695434459e-01,2.928837299346923606e-01,2.928617477416992076e-01,2.928397417068481223e-01,2.928177118301391602e-01,2.927957057952880748e-01,2.927736997604369895e-01,2.927517414093017689e-01,2.927297592163086160e-01,2.927077770233154075e-01,2.926858186721801869e-01,2.926638364791870339e-01,2.926418542861938255e-01,2.926198959350586049e-01,2.925979375839233287e-01,2.925759553909301758e-01,2.925540208816528320e-01,2.925320625305175559e-01,2.925101041793823353e-01,2.924881935119628684e-01,2.924662351608276478e-01,2.924443006515503041e-01,2.924223661422729603e-01,2.924004316329956166e-01,2.923784971237182728e-01,2.923565626144409291e-01,2.923346519470214622e-01,2.923127412796020508e-01,2.922908067703247070e-01,2.922689199447631725e-01,2.922469854354858287e-01,2.922250747680664174e-01,2.922031879425048828e-01,2.921813011169433483e-01,2.921593904495239369e-01,2.921375036239624023e-01,2.921156167984008678e-01,2.920937299728393333e-01,2.920718431472778542e-01,2.920499563217163197e-01,2.920280933380127175e-01,2.920062303543090598e-01,2.919843435287475808e-01,2.919624805450439231e-01,2.919406175613403209e-01,2.919187545776367188e-01,2.918968915939331166e-01,2.918750524520873912e-01,2.918532133102417214e-01,2.918313503265380637e-01,2.918095111846923939e-01,2.917876720428466686e-01,2.917658329010009988e-01,2.917440176010132058e-01,2.917221784591674805e-01,2.917003393173217551e-01,2.916785240173339622e-01
2.698374509811401478e-01,2.698187828063964844e-01,2.698000907897949441e-01,2.697814226150512806e-01,2.697627782821655495e-01,2.697441101074218861e-01,2.697254419326782227e-01,2.697067737579345592e-01,2.696881294250488281e-01,2.696694612503051647e-01,2.696507930755615012e-01,2.696321725845337025e-01,2.696135044097900391e-01,2.695948600769043080e-01,2.695762157440185769e-01,2.695575952529907227e-01,2.695389509201049916e-01,2.695203065872192605e-01,2.695016860961914062e-01,2.694830656051635520e-01,2.694644212722778209e-01,2.694458007812500222e-01,2.694272041320801003e-01,2.694085597991943137e-01,2.693899393081665150e-01,2.693713426589965931e-01,2.693527221679687389e-01,2.693341255187988170e-01,2.693155050277710183e-01,2.692969083786010964e-01,2.692783117294311745e-01,2.692596912384033203e-01,2.692410707473754661e-01,2.692224740982055442e-01,2.692039012908935547e-01,2.691853046417236328e-01,2.691667079925537109e-01,2.691481590270995983e-01,2.691295623779296764e-01,2.691109657287597545e-01,2.690924167633056419e-01,2.690738439559936523e-01,2.690552711486816628e-01,2.690366983413696178e-01,2.690181255340576283e-01,2.689995765686035156e-01,2.689810276031494030e-01,2.689624547958374134e-01,2.689439058303833008e-01,2.689253568649291881e-01,2.689068078994750755e-01,2.688882589340210183e-01,2.688697099685669056e-01,2.688511610031127930e-01,2.688326358795166127e-01,2.688141107559204324e-01,2.687955617904663197e-01,2.687770128250122070e-01,2.687585115432739036e-01,2.687399864196777233e-01,2.687214374542236106e-01,2.687029361724853627e-01,2.686844110488891824e-01,2.686658859252929465e-01,2.686473846435546986e-01,2.686288833618163951e-01,2.686103582382202148e-01,2.685918569564819114e-01,2.685733556747436634e-01,2.685548543930053600e-01,2.685363531112671120e-01,2.685178518295288086e-01,2.684993505477905051e-01,2.684808731079101340e-01,2.684623956680297630e-01,2.684438943862915150e-01,2.684254169464111439e-01,2.684069395065307728e-01,2.683884620666504017e-01,2.683699846267700306e-01
2.497688531875610352e-01,2.497528553009033259e-01,2.497368574142456166e-01,2.497208595275878795e-01,2.497048854827880748e-01,2.496888875961303655e-01,2.496728897094726562e-01,2.496569156646728516e-01,2.496409177780151423e-01,2.496249198913574330e-01,2.496089220046996959e-01,2.495929718017578236e-01,2.495769739151000866e-01,2.495609998703002819e-01,2.495450496673584095e-01,2.495290517807006725e-01,2.495130777359008678e-01,2.494971036911010631e-01,2.494811534881591908e-01,2.494651794433593861e-01,2.494492292404174860e-01,2.494332790374755859e-01,2.494173049926757812e-01,2.494013547897338812e-01,2.493853807449340765e-01,2.493694543838501088e-01,2.493534803390503041e-01,2.493375301361084040e-01,2.493216037750244085e-01,2.493056535720825084e-01,2.492897033691406361e-01,2.492737531661987360e-01,2.492578268051147405e-01,2.492419004440307728e-01,2.492259263992309681e-01,2.492100000381469727e-01,2.491940736770629772e-01,2.491781473159790095e-01,2.491622209548950140e-01,2.491462945938110463e-01,2.491303682327270508e-01,2.491144657135009877e-01,2.490985393524169922e-01,2.490826129913329967e-01,2.490667104721069336e-01,2.490507841110229381e-01,2.490348815917968750e-01,2.490189790725708119e-01,2.490030765533447210e-01,2.489871740341186579e-01,2.489712715148925670e-01,2.489553689956665039e-01,2.489394664764404408e-01,2.489235877990722545e-01,2.489076852798461914e-01,2.488917827606201283e-01,2.488759279251098744e-01,2.488600254058837835e-01,2.488441467285156250e-01,2.488282680511474665e-01,2.488123893737793080e-01,2.487964868545532171e-01,2.487806320190429632e-01,2.487647533416748047e-01,2.487488746643066462e-01,2.487330198287963923e-01,2.487171411514282338e-01,2.487012624740600475e-01,2.486854076385497936e-01,2.486695528030395397e-01,2.486536741256713812e-01,2.486378431320190319e-01,2.486219882965087780e-01,2.486061096191406194e-01,2.485902786254882701e-01,2.485744237899780162e-01,2.485585689544677623e-01,2.485427379608154408e-01,2.485268831253051869e-01,2.485110282897949330e-01
2.324787616729736273e-01,2.324648857116699274e-01,2.324510097503661998e-01,2.324371814727783092e-01,2.324233055114746094e-01,2.324094533920288141e-01,2.323956012725830189e-01,2.323817491531371959e-01,2.323678970336914007e-01,2.323540449142456055e-01,2.323401927947998102e-01,2.323263645172119196e-01,2.323125123977661244e-01,2.322986602783203014e-01,2.322848320007324108e-01,2.322709798812866155e-01,2.322571277618408203e-01,2.322433233261108343e-01,2.322294712066650391e-01,2.322156429290771484e-01,2.322017908096313532e-01,2.321879863739013672e-01,2.321741580963134766e-01,2.321603298187255859e-01,2.321465015411376953e-01,2.321326732635498047e-01,2.321188449859619141e-01,2.321050167083740234e-01,2.320912122726440374e-01,2.320774078369140514e-01,2.320635795593261608e-01,2.320497751235962025e-01,2.320359468460083119e-01,2.320221424102783259e-01,2.320083379745483398e-01,2.319945335388183538e-01,2.319807291030883678e-01,2.319669246673584095e-01,2.319530963897705189e-01,2.319392919540405329e-01,2.319254875183105469e-01,2.319117069244384655e-01,2.318979024887085072e-01,2.318840980529785212e-01,2.318703174591064398e-01,2.318565368652343861e-01,2.318427324295044001e-01,2.318289518356323187e-01,2.318151712417602650e-01,2.318013668060302790e-01,2.317876100540161022e-01,2.317738294601440485e-01,2.317600250244140625e-01,2.317462682723999134e-01,2.317324876785278320e-01,2.317187070846557506e-01,2.317049503326416016e-01,2.316911697387695201e-01,2.316773891448974665e-01,2.316636562347412220e-01,2.316498756408691406e-01,2.316361188888549916e-01,2.316223621368408148e-01,2.316086053848266657e-01,2.315948247909545843e-01,2.315810918807983398e-01,2.315673351287841908e-01,2.315535783767700140e-01,2.315398216247558649e-01,2.315260648727416881e-01,2.315123081207275391e-01,2.314985752105712946e-01,2.314848423004150502e-01,2.314710855484008734e-01,2.314573287963867243e-01,2.314435958862304799e-01,2.314298629760742076e-01,2.314161062240600586e-01,2.314023971557617188e-01,2.313886642456054743e-01
2.174274444580078236e-01,2.174153089523315485e-01,2.174031972885131780e-01,2.173910856246948353e-01,2.173789501190185602e-01,2.173668146133422852e-01,2.173547267913818470e-01,2.173425912857055720e-01,2.173304796218872015e-01,2.173183441162109264e-01,2.173062562942504883e-01,2.172941446304321178e-01,2.172820091247558705e-01,2.172699213027954046e-01,2.172578096389770619e-01,2.172456979751586914e-01,2.172335863113403209e-01,2.172214984893798828e-01,2.172093868255615123e-01,2.171972751617431696e-01,2.171851873397827037e-01,2.171730995178222656e-01,2.171609878540038951e-01,2.171488761901855524e-01,2.171368122100830189e-01,2.171247005462646484e-01,2.171126127243042103e-01,2.171005249023437444e-01,2.170884370803833063e-01,2.170763492584228405e-01,2.170642614364624023e-01,2.170521736145019642e-01,2.170400857925414984e-01,2.170279979705810602e-01,2.170159339904785267e-01,2.170038461685180609e-01,2.169917583465576227e-01,2.169796943664550892e-01,2.169676303863525280e-01,2.169555425643920898e-01,2.169434547424316517e-01,2.169313907623290905e-01,2.169193029403686523e-01,2.169072151184082142e-01,2.168951511383056530e-01,2.168830871582031194e-01,2.168710231781005859e-01,2.168589591979980524e-01,2.168468952178955189e-01,2.168348312377929576e-01,2.168227672576904241e-01,2.168107271194457952e-01,2.167986631393432617e-01,2.167865991592407282e-01,2.167745590209960993e-01,2.167624950408935658e-01,2.167504549026489369e-01,2.167384147644043080e-01,2.167263507843017467e-01,2.167143106460571178e-01,2.167022705078124889e-01,2.166902303695678600e-01,2.166781663894653265e-01,2.166661500930786022e-01,2.166540861129760687e-01,2.166420459747314398e-01,2.166300296783447155e-01,2.166179895401000866e-01,2.166059494018554576e-01,2.165939092636108287e-01,2.165818691253661998e-01,2.165698528289795033e-01,2.165578126907348744e-01,2.165457963943481501e-01,2.165337562561035212e-01,2.165217399597167969e-01,2.165097236633300726e-01,2.164976835250854437e-01,2.164856672286987194e-01,2.164736509323120228e-01
2.042065620422363337e-01,2.041958570480346680e-01,2.041851758956909069e-01,2.041744709014892689e-01,2.041637897491455078e-01,2.041530847549438421e-01,2.041424036026001088e-01,2.041317224502563477e-01,2.041210174560546819e-01,2.041103363037109486e-01,2.040996551513671875e-01,2.040889739990234264e-01,2.040782690048217884e-01,2.040676116943359319e-01,2.040569305419921986e-01,2.040462255477905329e-01,2.040355682373046764e-01,2.040248870849609431e-01,2.040142059326171819e-01,2.040035247802734486e-01,2.039928674697875921e-01,2.039821863174438588e-01,2.039715051651000977e-01,2.039608478546142689e-01,2.039501667022705078e-01,2.039394855499267467e-01,2.039288282394409180e-01,2.039181709289550892e-01,2.039074897766113281e-01,2.038968324661254994e-01,2.038861751556396429e-01,2.038755178451538141e-01,2.038648366928100530e-01,2.038541793823242243e-01,2.038435220718383678e-01,2.038328647613525391e-01,2.038222074508667103e-01,2.038115501403808538e-01,2.038008928298950251e-01,2.037902355194091686e-01,2.037795782089233398e-01,2.037689447402954157e-01,2.037582874298095592e-01,2.037476301193237305e-01,2.037369966506958063e-01,2.037263393402099498e-01,2.037156820297241211e-01,2.037050247192382924e-01,2.036943912506103405e-01,2.036837577819824163e-01,2.036731004714965876e-01,2.036624670028686634e-01,2.036518335342407116e-01,2.036411762237548828e-01,2.036305665969848633e-01,2.036199092864990345e-01,2.036092758178710826e-01,2.035986661911010631e-01,2.035880088806152344e-01,2.035773754119873102e-01,2.035667419433593861e-01,2.035561323165893666e-01,2.035454988479614147e-01,2.035348653793334905e-01,2.035242557525634710e-01,2.035136222839355469e-01,2.035029888153076227e-01,2.034923791885376032e-01,2.034817457199096791e-01,2.034711360931396595e-01,2.034605264663696400e-01,2.034498929977416881e-01,2.034392833709716686e-01,2.034286737442016491e-01,2.034180641174316295e-01,2.034074306488037054e-01,2.033968448638915905e-01,2.033862113952636663e-01,2.033756017684936468e-01,2.033650159835815319e-01
