6.199504852294921431e-01,6.356828212738037109e-01,6.522345066070556197e-01,6.696710586547851562e-01,6.880655765533447710e-01,7.074990749359131303e-01,7.280622959136963113e-01,7.498565673828124778e-01,7.729938030242919922e-01,7.976042270660400613e-01,8.238331794738769087e-01,8.518459320068358931e-01,8.818306922912597656e-01,9.140034675598144309e-01,9.486125946044922097e-01,9.859460830688476785e-01,1.000000000000000000e+00,1.000000000000000000e+00,1.000000000000000000e+00,1.000000000000000000e+00,1.000000000000000000e+00,1.000000000000000000e+00,1.000000000000000000e+00,2.851920604705810436e-01,2.834020376205444447e-01,2.852958679199218972e-01,2.827938556671142356e-01,2.746102571487426536e-01,2.681764125823974387e-01,2.668123483657837136e-01,2.666600227355956920e-01,2.665034055709838978e-01,2.713986396789550559e-01,3.051677942276000977e-01,3.065959930419921986e-01,3.082368850708007701e-01,3.203429460525512584e-01,1.000000000000000000e+00,3.413432598114013450e-01,3.353721857070922630e-01,1.000000000000000000e+00,1.000000000000000000e+00,1.000000000000000000e+00,1.000000000000000000e+00,1.000000000000000000e+00,1.000000000000000000e+00,1.000000000000000000e+00,1.000000000000000000e+00,1.000000000000000000e+00,1.000000000000000000e+00,1.000000000000000000e+00,1.000000000000000000e+00,1.000000000000000000e+00,1.000000000000000000e+00,1.000000000000000000e+00,1.000000000000000000e+00,1.000000000000000000e+00,1.000000000000000000e+00,1.000000000000000000e+00,1.000000000000000000e+00,1.000000000000000000e+00,1.000000000000000000e+00,1.000000000000000000e+00,1.000000000000000000e+00,1.000000000000000000e+00,1.000000000000000000e+00,1.000000000000000000e+00,1.000000000000000000e+00,1.000000000000000000e+00,1.000000000000000000e+00,9.682926177978515847e-01,9.366428375244140181e-01,9.069965362548828569e-01,8.791707992553711160e-01,8.530018806457519975e-01,8.283456802368164285e-01,8.050748825073241743e-01,7.830758571624756303e-01,7.622471809387206809e-01,7.424976825714111328e-01
6.199372768402099387e-01,6.356688976287842019e-01,6.522198677062988059e-01,6.696556568145751731e-01,6.880492687225341353e-01,7.074818611145019531e-01,7.280440330505371094e-01,7.498373031616211160e-01,7.729754447937011719e-01,7.975846767425537331e-01,8.238123893737793191e-01,8.518236160278320757e-01,8.818068504333496094e-01,9.139778137207030806e-01,9.485850334167480469e-01,9.859162330627441184e-01,1.000000000000000000e+00,1.000000000000000000e+00,1.000000000000000000e+00,1.000000000000000000e+00,1.000000000000000000e+00,1.000000000000000000e+00,1.000000000000000000e+00,2.834064006805420144e-01,2.801033020019531028e-01,2.836637496948242188e-01,2.847666263580322377e-01,2.753550052642822488e-01,2.689995050430297741e-01,2.645275354385375755e-01,2.642851114273071511e-01,2.640431642532348744e-01,2.669414520263672097e-01,2.751444578170776367e-01,3.064170837402343528e-01,3.078968524932861328e-01,3.196800947189331055e-01,1.000000000000000000e+00,1.000000000000000000e+00,3.287163496017456166e-01,3.321042299270630105e-01,1.000000000000000000e+00,1.000000000000000000e+00,1.000000000000000000e+00,1.000000000000000000e+00,1.000000000000000000e+00,1.000000000000000000e+00,1.000000000000000000e+00,1.000000000000000000e+00,1.000000000000000000e+00,1.000000000000000000e+00,1.000000000000000000e+00,1.000000000000000000e+00,1.000000000000000000e+00,1.000000000000000000e+00,1.000000000000000000e+00,1.000000000000000000e+00,1.000000000000000000e+00,1.000000000000000000e+00,1.000000000000000000e+00,1.000000000000000000e+00,1.000000000000000000e+00,1.000000000000000000e+00,1.000000000000000000e+00,1.000000000000000000e+00,1.000000000000000000e+00,1.000000000000000000e+00,1.000000000000000000e+00,1.000000000000000000e+00,1.000000000000000000e+00,9.683217048645019753e-01,9.366719245910644087e-01,9.070256233215332475e-01,8.791982650756835493e-01,8.530277252197265847e-01,8.283700942993164062e-01,8.050979614257812722e-01,7.830976963043212447e-01,7.622677803039550337e-01,7.425173282623290794e-01
6.199240207672118697e-01,6.356550693511963113e-01,6.522052288055419922e-01,6.696402072906494363e-01,6.880329608917236106e-01,7.074645996093750222e-01,7.280257701873779075e-01,7.498179435729980247e-01,7.729548931121825728e-01,7.975652694702148882e-01,8.237915992736816184e-01,8.518013954162597656e-01,8.817830085754394531e-01,9.139521598815918413e-01,9.485574722290038840e-01,9.858864784240722878e-01,1.000000000000000000e+00,1.000000000000000000e+00,1.000000000000000000e+00,1.000000000000000000e+00,1.000000000000000000e+00,1.000000000000000000e+00,1.000000000000000000e+00,2.815096139907836692e-01,2.793513298034667747e-01,1.000000000000000000e+00,2.820421218872070090e-01,2.776365280151367188e-01,2.699474334716797097e-01,2.635817527770996094e-01,2.618654966354370117e-01,2.616279125213623047e-01,2.627604246139526589e-01,2.706809520721435436e-01,3.065505504608154186e-01,3.080316066741943248e-01,3.200545310974121094e-01,1.000000000000000000e+00,1.000000000000000000e+00,3.431756973266601451e-01,3.317362785339355580e-01,1.000000000000000000e+00,1.000000000000000000e+00,1.000000000000000000e+00,1.000000000000000000e+00,1.000000000000000000e+00,1.000000000000000000e+00,1.000000000000000000e+00,1.000000000000000000e+00,1.000000000000000000e+00,1.000000000000000000e+00,1.000000000000000000e+00,1.000000000000000000e+00,1.000000000000000000e+00,1.000000000000000000e+00,1.000000000000000000e+00,1.000000000000000000e+00,1.000000000000000000e+00,1.000000000000000000e+00,1.000000000000000000e+00,1.000000000000000000e+00,1.000000000000000000e+00,1.000000000000000000e+00,1.000000000000000000e+00,1.000000000000000000e+00,1.000000000000000000e+00,1.000000000000000000e+00,1.000000000000000000e+00,1.000000000000000000e+00,1.000000000000000000e+00,9.683550834655761941e-01,9.367031097412109597e-01,9.070548057556152566e-01,8.792258262634277122e-01,8.530535697937011719e-01,8.283945083618163840e-01,8.051209449768066406e-01,7.831195354461669700e-01,7.622884750366211160e-01,7.425368785858154075e-01
6.199108123779296653e-01,6.356411457061768022e-01,6.521905899047851785e-01,6.696247577667235884e-01,6.880166530609130859e-01,7.074473857879638450e-01,7.280076503753661887e-01,7.497985839843750444e-01,7.729343414306640847e-01,7.975432872772216797e-01,8.237707138061522993e-01,8.517791748046874556e-01,8.817592620849609153e-01,9.139266014099121094e-01,9.485299110412597212e-01,9.858566284179687278e-01,1.000000000000000000e+00,1.000000000000000000e+00,1.000000000000000000e+00,1.000000000000000000e+00,1.000000000000000000e+00,1.000000000000000000e+00,1.000000000000000000e+00,2.833118915557861217e-01,2.814695835113525391e-01,2.775095462799072044e-01,2.810589075088500977e-01,2.800654888153076283e-01,2.709078788757324219e-01,2.647891044616699219e-01,2.603462934494018555e-01,2.592564582824706809e-01,2.590236186981201283e-01,2.661861419677734597e-01,3.066841363906860352e-01,3.081665039062500000e-01,3.208363771438598744e-01,1.000000000000000000e+00,1.000000000000000000e+00,1.000000000000000000e+00,3.248222112655639870e-01,3.283416032791137695e-01,1.000000000000000000e+00,1.000000000000000000e+00,1.000000000000000000e+00,1.000000000000000000e+00,1.000000000000000000e+00,1.000000000000000000e+00,1.000000000000000000e+00,1.000000000000000000e+00,1.000000000000000000e+00,1.000000000000000000e+00,1.000000000000000000e+00,1.000000000000000000e+00,1.000000000000000000e+00,1.000000000000000000e+00,1.000000000000000000e+00,1.000000000000000000e+00,1.000000000000000000e+00,1.000000000000000000e+00,1.000000000000000000e+00,1.000000000000000000e+00,1.000000000000000000e+00,1.000000000000000000e+00,1.000000000000000000e+00,1.000000000000000000e+00,1.000000000000000000e+00,1.000000000000000000e+00,1.000000000000000000e+00,1.000000000000000000e+00,9.683883666992187944e-01,9.367342948913573997e-01,9.070840835571288840e-01,8.792532920837402566e-01,8.530795097351073775e-01,8.284188270568847434e-01,8.051440238952636275e-01,7.831412792205810769e-01,7.623091697692870872e-01,7.425565242767333540e-01
6.198976516723633257e-01,6.356272697448730469e-01,6.521759510040283647e-01,6.696093559265137163e-01,6.880003929138183150e-01,7.074301719665527788e-01,7.279893875122069868e-01,7.497792243957519531e-01,7.729137897491454856e-01,7.975213527679443359e-01,8.237474441528320757e-01,8.517569541931152566e-01,8.817353248596191406e-01,9.139009475708007590e-01,9.485022544860839400e-01,9.858268737792968972e-01,1.000000000000000000e+00,1.000000000000000000e+00,1.000000000000000000e+00,1.000000000000000000e+00,1.000000000000000000e+00,1.000000000000000000e+00,1.000000000000000000e+00,2.817593097686767467e-01,2.787312269210815430e-01,2.746312141418457142e-01,1.000000000000000000e+00,1.000000000000000000e+00,2.731928586959838645e-01,2.657131195068359597e-01,2.589910507202148326e-01,2.576948165893554465e-01,2.566989421844482200e-01,2.616157770156860574e-01,2.678354501724243275e-01,3.083014965057372936e-01,3.221020460128783958e-01,1.000000000000000000e+00,1.000000000000000000e+00,1.000000000000000000e+00,3.462543249130248801e-01,3.338407039642333762e-01,1.000000000000000000e+00,1.000000000000000000e+00,1.000000000000000000e+00,1.000000000000000000e+00,1.000000000000000000e+00,1.000000000000000000e+00,1.000000000000000000e+00,1.000000000000000000e+00,1.000000000000000000e+00,1.000000000000000000e+00,1.000000000000000000e+00,1.000000000000000000e+00,1.000000000000000000e+00,1.000000000000000000e+00,1.000000000000000000e+00,1.000000000000000000e+00,1.000000000000000000e+00,1.000000000000000000e+00,1.000000000000000000e+00,1.000000000000000000e+00,1.000000000000000000e+00,1.000000000000000000e+00,1.000000000000000000e+00,1.000000000000000000e+00,1.000000000000000000e+00,1.000000000000000000e+00,1.000000000000000000e+00,1.000000000000000000e+00,9.684217453002930132e-01,9.367654800415039507e-01,9.071132659912108931e-01,8.792807579040526900e-01,8.531053543090820757e-01,8.284433364868164507e-01,8.051671028137207253e-01,7.831631183624268022e-01,7.623297691345214400e-01,7.425761222839355469e-01
6.198843955993652566e-01,6.356133460998535378e-01,6.521613121032714400e-01,6.695939064025878684e-01,6.879840850830077903e-01,7.074130058288574663e-01,7.279711246490478960e-01,7.497598648071288618e-01,7.728931903839111328e-01,7.974994659423828569e-01,8.237240791320801225e-01,8.517320632934570757e-01,8.817115783691406028e-01,9.138753890991211382e-01,9.484746932983398882e-01,9.857970237731933372e-01,1.000000000000000000e+00,1.000000000000000000e+00,1.000000000000000000e+00,1.000000000000000000e+00,1.000000000000000000e+00,1.000000000000000000e+00,1.000000000000000000e+00,2.803312063217163197e-01,2.764364957809448131e-01,1.000000000000000000e+00,1.000000000000000000e+00,1.000000000000000000e+00,2.754507303237915261e-01,2.668013811111450417e-01,2.601277828216552734e-01,2.563669443130492942e-01,2.551627397537231667e-01,2.573953866958618164e-01,2.632087707519531472e-01,3.084347486495971902e-01,1.000000000000000000e+00,1.000000000000000000e+00,1.000000000000000000e+00,1.000000000000000000e+00,1.000000000000000000e+00,3.399747371673583762e-01,1.000000000000000000e+00,1.000000000000000000e+00,1.000000000000000000e+00,1.000000000000000000e+00,1.000000000000000000e+00,1.000000000000000000e+00,1.000000000000000000e+00,1.000000000000000000e+00,1.000000000000000000e+00,1.000000000000000000e+00,1.000000000000000000e+00,1.000000000000000000e+00,1.000000000000000000e+00,1.000000000000000000e+00,1.000000000000000000e+00,1.000000000000000000e+00,1.000000000000000000e+00,1.000000000000000000e+00,1.000000000000000000e+00,1.000000000000000000e+00,1.000000000000000000e+00,1.000000000000000000e+00,1.000000000000000000e+00,1.000000000000000000e+00,1.000000000000000000e+00,1.000000000000000000e+00,1.000000000000000000e+00,1.000000000000000000e+00,9.684550285339355025e-01,9.367966651916503906e-01,9.071426391601562500e-01,8.793082237243652344e-01,8.531311988830566628e-01,8.284676551818848100e-01,8.051901817321777122e-01,7.831848621368407981e-01,7.623504638671875222e-01,7.425957202911377397e-01
6.198711872100830522e-01,6.355994224548340288e-01,6.521466732025146262e-01,6.695784568786621316e-01,6.879677772521972656e-01,7.073957920074462891e-01,7.279529094696044478e-01,7.497405529022216353e-01,7.728726387023925337e-01,7.974775791168212669e-01,8.237007141113281694e-01,8.517070770263671653e-01,8.816848754882812278e-01,9.138497352600097878e-01,9.484471321105957253e-01,9.857672691345215066e-01,1.000000000000000000e+00,1.000000000000000000e+00,1.000000000000000000e+00,1.000000000000000000e+00,1.000000000000000000e+00,1.000000000000000000e+00,1.000000000000000000e+00,1.000000000000000000e+00,1.000000000000000000e+00,1.000000000000000000e+00,1.000000000000000000e+00,1.000000000000000000e+00,1.000000000000000000e+00,2.688589811325073353e-01,2.613428115844726451e-01,2.558062314987182839e-01,2.543112516403198131e-01,2.559690475463867188e-01,2.607761621475219727e-01,3.084027290344238392e-01,1.000000000000000000e+00,1.000000000000000000e+00,1.000000000000000000e+00,1.000000000000000000e+00,1.000000000000000000e+00,1.000000000000000000e+00,1.000000000000000000e+00,1.000000000000000000e+00,1.000000000000000000e+00,1.000000000000000000e+00,1.000000000000000000e+00,1.000000000000000000e+00,1.000000000000000000e+00,1.000000000000000000e+00,1.000000000000000000e+00,1.000000000000000000e+00,1.000000000000000000e+00,1.000000000000000000e+00,1.000000000000000000e+00,1.000000000000000000e+00,1.000000000000000000e+00,1.000000000000000000e+00,1.000000000000000000e+00,1.000000000000000000e+00,1.000000000000000000e+00,1.000000000000000000e+00,1.000000000000000000e+00,1.000000000000000000e+00,1.000000000000000000e+00,1.000000000000000000e+00,1.000000000000000000e+00,1.000000000000000000e+00,1.000000000000000000e+00,1.000000000000000000e+00,9.684885025024414507e-01,9.368278503417968306e-01,9.071718215942382590e-01,8.793357849121093972e-01,8.531571388244628684e-01,8.284920692443847878e-01,8.052131652832030806e-01,7.832067012786865234e-01,7.623710632324218750e-01,7.426153182983398215e-01
6.198579311370849831e-01,6.355855464935302734e-01,6.521320343017578125e-01,6.695630550384521484e-01,6.879515647888183594e-01,7.073785781860351118e-01,7.279346466064453569e-01,7.497211933135986550e-01,7.728520870208740456e-01,7.974557876586914062e-01,8.236773490905762163e-01,8.516820907592773660e-01,8.816581726074218528e-01,9.138212203979492188e-01,9.484195709228515625e-01,9.857374191284179465e-01,1.000000000000000000e+00,1.000000000000000000e+00,1.000000000000000000e+00,1.000000000000000000e+00,1.000000000000000000e+00,1.000000000000000000e+00,1.000000000000000000e+00,1.000000000000000000e+00,1.000000000000000000e+00,1.000000000000000000e+00,1.000000000000000000e+00,1.000000000000000000e+00,1.000000000000000000e+00,2.702145338058471458e-01,2.626957893371582031e-01,2.558195352554321067e-01,2.541405916213989036e-01,2.549225330352783425e-01,2.590368509292602650e-01,3.084084749221801536e-01,1.000000000000000000e+00,1.000000000000000000e+00,1.000000000000000000e+00,1.000000000000000000e+00,1.000000000000000000e+00,1.000000000000000000e+00,1.000000000000000000e+00,1.000000000000000000e+00,1.000000000000000000e+00,1.000000000000000000e+00,1.000000000000000000e+00,1.000000000000000000e+00,1.000000000000000000e+00,1.000000000000000000e+00,1.000000000000000000e+00,1.000000000000000000e+00,1.000000000000000000e+00,1.000000000000000000e+00,1.000000000000000000e+00,1.000000000000000000e+00,1.000000000000000000e+00,1.000000000000000000e+00,1.000000000000000000e+00,1.000000000000000000e+00,1.000000000000000000e+00,1.000000000000000000e+00,1.000000000000000000e+00,1.000000000000000000e+00,1.000000000000000000e+00,1.000000000000000000e+00,1.000000000000000000e+00,1.000000000000000000e+00,1.000000000000000000e+00,1.000000000000000000e+00,9.685217857360839400e-01,9.368591308593750000e-01,9.072010993957519975e-01,8.793632507324218306e-01,8.531829833984374556e-01,8.285164833068847656e-01,8.052362442016601785e-01,7.832285404205322488e-01,7.623917579650878462e-01,7.426349163055420144e-01
6.198370933532715288e-01,6.355681419372558594e-01,6.521173954010009988e-01,6.695476055145264116e-01,6.879352569580078347e-01,7.073613166809081809e-01,7.279164314270019087e-01,7.497018337249755637e-01,7.728315353393554465e-01,7.974339008331299272e-01,8.236540794372558816e-01,8.516571044921874556e-01,8.816313743591308594e-01,9.137925148010254128e-01,9.483888626098633257e-01,9.857076644897461160e-01,1.000000000000000000e+00,1.000000000000000000e+00,1.000000000000000000e+00,1.000000000000000000e+00,1.000000000000000000e+00,1.000000000000000000e+00,1.000000000000000000e+00,1.000000000000000000e+00,1.000000000000000000e+00,1.000000000000000000e+00,1.000000000000000000e+00,1.000000000000000000e+00,1.000000000000000000e+00,1.000000000000000000e+00,2.632797002792358620e-01,2.566997766494750755e-01,2.546387195587158092e-01,2.558530807495117410e-01,2.601074934005737083e-01,3.084142684936523326e-01,1.000000000000000000e+00,1.000000000000000000e+00,1.000000000000000000e+00,1.000000000000000000e+00,1.000000000000000000e+00,1.000000000000000000e+00,1.000000000000000000e+00,1.000000000000000000e+00,1.000000000000000000e+00,1.000000000000000000e+00,1.000000000000000000e+00,1.000000000000000000e+00,1.000000000000000000e+00,1.000000000000000000e+00,1.000000000000000000e+00,1.000000000000000000e+00,1.000000000000000000e+00,1.000000000000000000e+00,1.000000000000000000e+00,1.000000000000000000e+00,1.000000000000000000e+00,1.000000000000000000e+00,1.000000000000000000e+00,1.000000000000000000e+00,1.000000000000000000e+00,1.000000000000000000e+00,1.000000000000000000e+00,1.000000000000000000e+00,1.000000000000000000e+00,1.000000000000000000e+00,1.000000000000000000e+00,1.000000000000000000e+00,1.000000000000000000e+00,1.000000000000000000e+00,9.685551643371581587e-01,9.368903160095214400e-01,9.072303771972656250e-01,8.793908119201659934e-01,8.532089233398437722e-01,8.285408973693847434e-01,8.052592277526855469e-01,7.832502841949462447e-01,7.624125003814696822e-01,7.426545619964599609e-01
6.198140144348144309e-01,6.355438709259033647e-01,6.520929336547851562e-01,6.695268154144287109e-01,6.879185676574707253e-01,7.073441028594971147e-01,7.278981685638428178e-01,7.496824741363525835e-01,7.728110790252685769e-01,7.974120140075683372e-01,8.236307144165039285e-01,8.516322135925292747e-01,8.816046714782714844e-01,9.137637138366698775e-01,9.483579635620117410e-01,9.856744766235351340e-01,1.000000000000000000e+00,1.000000000000000000e+00,1.000000000000000000e+00,1.000000000000000000e+00,1.000000000000000000e+00,1.000000000000000000e+00,1.000000000000000000e+00,1.000000000000000000e+00,1.000000000000000000e+00,1.000000000000000000e+00,1.000000000000000000e+00,1.000000000000000000e+00,1.000000000000000000e+00,2.713232994079589622e-01,2.622575044631957897e-01,2.583611726760864369e-01,2.562094926834106445e-01,2.579282760620117410e-01,2.622124671936035267e-01,3.084200143814087025e-01,1.000000000000000000e+00,1.000000000000000000e+00,1.000000000000000000e+00,1.000000000000000000e+00,1.000000000000000000e+00,1.000000000000000000e+00,1.000000000000000000e+00,1.000000000000000000e+00,1.000000000000000000e+00,1.000000000000000000e+00,1.000000000000000000e+00,1.000000000000000000e+00,1.000000000000000000e+00,1.000000000000000000e+00,1.000000000000000000e+00,1.000000000000000000e+00,1.000000000000000000e+00,1.000000000000000000e+00,1.000000000000000000e+00,1.000000000000000000e+00,1.000000000000000000e+00,1.000000000000000000e+00,1.000000000000000000e+00,1.000000000000000000e+00,1.000000000000000000e+00,1.000000000000000000e+00,1.000000000000000000e+00,1.000000000000000000e+00,1.000000000000000000e+00,1.000000000000000000e+00,1.000000000000000000e+00,1.000000000000000000e+00,1.000000000000000000e+00,1.000000000000000000e+00,9.685884475708007590e-01,9.369215011596679910e-01,9.072596549987792525e-01,8.794182777404785378e-01,8.532347679138183594e-01,8.285653114318847212e-01,8.052824020385742632e-01,7.832721710205078347e-01,7.624330997467041460e-01,7.426741600036621538e-01
6.197933673858642134e-01,6.355196952819823775e-01,6.520674228668212891e-01,6.694999694824218528e-01,6.878902435302733931e-01,7.073193073272705522e-01,7.278778076171874556e-01,7.496631622314453569e-01,7.727904796600342241e-01,7.973901271820068581e-01,8.236073493957519753e-01,8.516072273254394753e-01,8.815778732299804910e-01,9.137351036071776900e-01,9.483269691467285378e-01,9.856410980224609153e-01,1.000000000000000000e+00,1.000000000000000000e+00,1.000000000000000000e+00,1.000000000000000000e+00,1.000000000000000000e+00,1.000000000000000000e+00,1.000000000000000000e+00,1.000000000000000000e+00,1.000000000000000000e+00,1.000000000000000000e+00,1.000000000000000000e+00,1.000000000000000000e+00,1.000000000000000000e+00,2.692220926284790150e-01,2.626150608062743919e-01,2.605767250061035156e-01,2.586592435836791992e-01,2.615475416183471458e-01,2.676244974136352539e-01,3.081499099731445090e-01,1.000000000000000000e+00,1.000000000000000000e+00,1.000000000000000000e+00,1.000000000000000000e+00,1.000000000000000000e+00,1.000000000000000000e+00,1.000000000000000000e+00,1.000000000000000000e+00,1.000000000000000000e+00,1.000000000000000000e+00,1.000000000000000000e+00,1.000000000000000000e+00,1.000000000000000000e+00,1.000000000000000000e+00,1.000000000000000000e+00,1.000000000000000000e+00,1.000000000000000000e+00,1.000000000000000000e+00,1.000000000000000000e+00,1.000000000000000000e+00,1.000000000000000000e+00,1.000000000000000000e+00,1.000000000000000000e+00,1.000000000000000000e+00,1.000000000000000000e+00,1.000000000000000000e+00,1.000000000000000000e+00,1.000000000000000000e+00,1.000000000000000000e+00,1.000000000000000000e+00,1.000000000000000000e+00,1.000000000000000000e+00,1.000000000000000000e+00,1.000000000000000000e+00,9.686219215393065962e-01,9.369526863098144309e-01,9.072889328002929910e-01,8.794458389282227007e-01,8.532606124877929465e-01,8.285897254943848100e-01,8.053053855895996316e-01,7.832940101623535600e-01,7.624537944793701172e-01,7.426937580108642356e-01
6.197801589965820090e-01,6.355037212371825728e-01,6.520458221435546653e-01,6.694731235504149947e-01,6.878618717193603072e-01,7.072893142700195090e-01,7.278460979461669478e-01,7.496335029602050337e-01,7.727655887603759322e-01,7.973682403564452681e-01,8.235840797424316406e-01,8.515822410583495650e-01,8.815511703491211160e-01,9.137063026428222656e-01,9.482959747314453347e-01,9.856077194213866965e-01,1.000000000000000000e+00,1.000000000000000000e+00,1.000000000000000000e+00,1.000000000000000000e+00,1.000000000000000000e+00,1.000000000000000000e+00,1.000000000000000000e+00,1.000000000000000000e+00,1.000000000000000000e+00,1.000000000000000000e+00,1.000000000000000000e+00,1.000000000000000000e+00,1.000000000000000000e+00,2.679255247116089089e-01,2.640565872192383035e-01,2.628306150436401367e-01,2.611562728881836049e-01,2.652698040008544811e-01,3.057142019271850697e-01,3.087213516235351451e-01,1.000000000000000000e+00,1.000000000000000000e+00,1.000000000000000000e+00,1.000000000000000000e+00,1.000000000000000000e+00,1.000000000000000000e+00,1.000000000000000000e+00,1.000000000000000000e+00,1.000000000000000000e+00,1.000000000000000000e+00,1.000000000000000000e+00,1.000000000000000000e+00,1.000000000000000000e+00,1.000000000000000000e+00,1.000000000000000000e+00,1.000000000000000000e+00,1.000000000000000000e+00,1.000000000000000000e+00,1.000000000000000000e+00,1.000000000000000000e+00,1.000000000000000000e+00,1.000000000000000000e+00,1.000000000000000000e+00,1.000000000000000000e+00,1.000000000000000000e+00,1.000000000000000000e+00,1.000000000000000000e+00,1.000000000000000000e+00,1.000000000000000000e+00,1.000000000000000000e+00,1.000000000000000000e+00,1.000000000000000000e+00,1.000000000000000000e+00,1.000000000000000000e+00,9.686552047729491965e-01,9.369839668273926003e-01,9.073182106018066184e-01,8.794733047485351340e-01,8.532865524291992632e-01,8.286141395568847878e-01,8.053284645080566184e-01,7.833157539367675559e-01,7.624744892120360884e-01,7.427134037017821822e-01
6.197669506072998047e-01,6.354898452758789285e-01,6.520312786102294700e-01,6.694567680358887163e-01,6.878393173217773882e-01,7.072598934173583984e-01,7.278143405914306863e-01,7.495998382568359597e-01,7.727298259735106978e-01,7.973326206207275169e-01,8.235535621643066406e-01,8.515573501586913840e-01,8.815244674682617410e-01,9.136775970458984597e-01,9.482650756835937500e-01,9.855742454528808594e-01,1.000000000000000000e+00,1.000000000000000000e+00,1.000000000000000000e+00,1.000000000000000000e+00,1.000000000000000000e+00,1.000000000000000000e+00,1.000000000000000000e+00,1.000000000000000000e+00,1.000000000000000000e+00,1.000000000000000000e+00,1.000000000000000000e+00,1.000000000000000000e+00,1.000000000000000000e+00,2.690593957901000755e-01,2.655220985412597434e-01,2.651238441467285156e-01,2.645893096923828125e-01,2.721623897552490345e-01,3.078494548797607311e-01,3.105144262313842551e-01,1.000000000000000000e+00,1.000000000000000000e+00,1.000000000000000000e+00,1.000000000000000000e+00,1.000000000000000000e+00,1.000000000000000000e+00,1.000000000000000000e+00,1.000000000000000000e+00,1.000000000000000000e+00,1.000000000000000000e+00,1.000000000000000000e+00,1.000000000000000000e+00,1.000000000000000000e+00,1.000000000000000000e+00,1.000000000000000000e+00,1.000000000000000000e+00,1.000000000000000000e+00,1.000000000000000000e+00,1.000000000000000000e+00,1.000000000000000000e+00,1.000000000000000000e+00,1.000000000000000000e+00,1.000000000000000000e+00,1.000000000000000000e+00,1.000000000000000000e+00,1.000000000000000000e+00,1.000000000000000000e+00,1.000000000000000000e+00,1.000000000000000000e+00,1.000000000000000000e+00,1.000000000000000000e+00,1.000000000000000000e+00,1.000000000000000000e+00,1.000000000000000000e+00,9.686885833740234153e-01,9.370151519775390403e-01,9.073474884033203569e-01,8.795007705688476785e-01,8.533124923706054688e-01,8.286385536193847656e-01,8.053515434265137163e-01,7.833376407623291460e-01,7.624951362609863059e-01,7.427330493927002397e-01
6.197536945343017356e-01,6.354759216308594194e-01,6.520166397094726562e-01,6.694414138793944868e-01,6.878230571746826172e-01,7.072426319122314675e-01,7.277907371520996316e-01,7.495685100555420366e-01,7.726939678192138450e-01,7.972944259643555132e-01,8.235128402709961382e-01,8.515143394470214844e-01,8.814869880676269309e-01,9.136466979980468750e-01,9.482341766357421653e-01,9.855408668518066406e-01,1.000000000000000000e+00,1.000000000000000000e+00,1.000000000000000000e+00,1.000000000000000000e+00,1.000000000000000000e+00,1.000000000000000000e+00,1.000000000000000000e+00,1.000000000000000000e+00,1.000000000000000000e+00,1.000000000000000000e+00,1.000000000000000000e+00,1.000000000000000000e+00,1.000000000000000000e+00,2.705635547637939564e-01,2.678303241729736439e-01,2.674574375152588002e-01,2.694332838058471902e-01,2.780354261398315652e-01,3.113777399063110130e-01,1.000000000000000000e+00,1.000000000000000000e+00,1.000000000000000000e+00,1.000000000000000000e+00,1.000000000000000000e+00,1.000000000000000000e+00,1.000000000000000000e+00,1.000000000000000000e+00,1.000000000000000000e+00,1.000000000000000000e+00,1.000000000000000000e+00,1.000000000000000000e+00,1.000000000000000000e+00,1.000000000000000000e+00,1.000000000000000000e+00,1.000000000000000000e+00,1.000000000000000000e+00,1.000000000000000000e+00,1.000000000000000000e+00,1.000000000000000000e+00,1.000000000000000000e+00,1.000000000000000000e+00,1.000000000000000000e+00,1.000000000000000000e+00,1.000000000000000000e+00,1.000000000000000000e+00,1.000000000000000000e+00,1.000000000000000000e+00,1.000000000000000000e+00,1.000000000000000000e+00,1.000000000000000000e+00,1.000000000000000000e+00,1.000000000000000000e+00,1.000000000000000000e+00,1.000000000000000000e+00,9.687219619750976340e-01,9.370464324951172097e-01,9.073767662048339844e-01,8.795283317565918413e-01,8.533383369445800559e-01,8.286629676818847434e-01,8.053746223449707031e-01,7.833593845367431419e-01,7.625153064727783203e-01,7.427508831024169922e-01
6.197405338287353960e-01,6.354620456695556641e-01,6.520020008087158425e-01,6.694259643554687500e-01,6.878067970275878462e-01,7.072254180908202903e-01,7.277725219726562944e-01,7.495491981506348100e-01,7.726693153381347656e-01,7.972609996795654297e-01,8.234722137451171431e-01,8.514708518981933816e-01,8.814404487609863725e-01,9.135966300964355469e-01,9.481879234313964622e-01,9.855017662048339844e-01,1.000000000000000000e+00,1.000000000000000000e+00,1.000000000000000000e+00,1.000000000000000000e+00,1.000000000000000000e+00,1.000000000000000000e+00,1.000000000000000000e+00,1.000000000000000000e+00,1.000000000000000000e+00,1.000000000000000000e+00,1.000000000000000000e+00,1.000000000000000000e+00,2.824641942977905162e-01,2.720545291900634544e-01,2.691890478134155162e-01,2.689457178115844949e-01,2.725172758102417103e-01,3.130834579467773326e-01,1.000000000000000000e+00,1.000000000000000000e+00,1.000000000000000000e+00,1.000000000000000000e+00,1.000000000000000000e+00,1.000000000000000000e+00,1.000000000000000000e+00,1.000000000000000000e+00,1.000000000000000000e+00,1.000000000000000000e+00,1.000000000000000000e+00,1.000000000000000000e+00,1.000000000000000000e+00,1.000000000000000000e+00,1.000000000000000000e+00,1.000000000000000000e+00,1.000000000000000000e+00,1.000000000000000000e+00,1.000000000000000000e+00,1.000000000000000000e+00,1.000000000000000000e+00,1.000000000000000000e+00,1.000000000000000000e+00,1.000000000000000000e+00,1.000000000000000000e+00,1.000000000000000000e+00,1.000000000000000000e+00,1.000000000000000000e+00,1.000000000000000000e+00,1.000000000000000000e+00,1.000000000000000000e+00,1.000000000000000000e+00,1.000000000000000000e+00,1.000000000000000000e+00,1.000000000000000000e+00,1.000000000000000000e+00,9.687553405761718528e-01,9.370776176452636497e-01,9.074060440063476118e-01,8.795557975769042747e-01,8.533642768859863725e-01,8.286873817443847212e-01,8.053962707519530806e-01,7.833786010742187500e-01,7.625327110290527344e-01,7.427673816680908647e-01
6.197273254394530806e-01,6.354482173919677734e-01,6.519873619079590288e-01,6.694105625152587669e-01,6.877905368804931863e-01,7.072082996368408425e-01,7.277542591094970925e-01,7.495298385620117188e-01,7.726487636566161665e-01,7.972392082214355691e-01,8.234462738037109375e-01,8.514349937438965288e-01,8.813938140869140847e-01,9.135466575622558372e-01,9.481340408325195090e-01,9.854434967041015847e-01,1.000000000000000000e+00,1.000000000000000000e+00,1.000000000000000000e+00,1.000000000000000000e+00,1.000000000000000000e+00,1.000000000000000000e+00,1.000000000000000000e+00,1.000000000000000000e+00,1.000000000000000000e+00,1.000000000000000000e+00,1.000000000000000000e+00,1.000000000000000000e+00,2.773181438446045144e-01,2.735653162002563699e-01,2.707000732421874778e-01,2.703157663345336914e-01,2.752294778823852761e-01,3.170701503753662331e-01,1.000000000000000000e+00,1.000000000000000000e+00,1.000000000000000000e+00,1.000000000000000000e+00,1.000000000000000000e+00,1.000000000000000000e+00,1.000000000000000000e+00,1.000000000000000000e+00,1.000000000000000000e+00,1.000000000000000000e+00,1.000000000000000000e+00,1.000000000000000000e+00,1.000000000000000000e+00,1.000000000000000000e+00,1.000000000000000000e+00,1.000000000000000000e+00,1.000000000000000000e+00,1.000000000000000000e+00,1.000000000000000000e+00,1.000000000000000000e+00,1.000000000000000000e+00,1.000000000000000000e+00,1.000000000000000000e+00,1.000000000000000000e+00,1.000000000000000000e+00,1.000000000000000000e+00,1.000000000000000000e+00,1.000000000000000000e+00,1.000000000000000000e+00,1.000000000000000000e+00,1.000000000000000000e+00,1.000000000000000000e+00,1.000000000000000000e+00,1.000000000000000000e+00,1.000000000000000000e+00,1.000000000000000000e+00,9.687887191772460715e-01,9.371088981628418191e-01,9.074353218078613503e-01,8.795825004577636497e-01,8.533877372741699441e-01,8.287080764770508035e-01,8.054157257080077903e-01,7.833969593048095703e-01,7.625501632690430132e-01,7.427840232849121094e-01
6.197141170501708762e-01,6.354342937469482644e-01,6.519728183746338335e-01,6.693951129913330300e-01,6.877742290496826616e-01,7.071910858154296653e-01,7.277361392974853738e-01,7.495105266571044922e-01,7.726282119750976785e-01,7.972173690795898438e-01,8.234230041503906028e-01,8.514101028442382368e-01,8.813665390014648882e-01,9.135079383850097656e-01,9.480823516845703347e-01,9.853853225708008035e-01,1.000000000000000000e+00,1.000000000000000000e+00,1.000000000000000000e+00,1.000000000000000000e+00,1.000000000000000000e+00,1.000000000000000000e+00,1.000000000000000000e+00,1.000000000000000000e+00,1.000000000000000000e+00,1.000000000000000000e+00,1.000000000000000000e+00,1.000000000000000000e+00,2.788846969604492076e-01,2.751487970352172741e-01,2.722755193710327259e-01,2.716998815536498801e-01,2.778242826461791992e-01,3.275274038314819336e-01,1.000000000000000000e+00,1.000000000000000000e+00,1.000000000000000000e+00,1.000000000000000000e+00,1.000000000000000000e+00,1.000000000000000000e+00,1.000000000000000000e+00,1.000000000000000000e+00,1.000000000000000000e+00,1.000000000000000000e+00,1.000000000000000000e+00,1.000000000000000000e+00,1.000000000000000000e+00,1.000000000000000000e+00,1.000000000000000000e+00,1.000000000000000000e+00,1.000000000000000000e+00,1.000000000000000000e+00,1.000000000000000000e+00,1.000000000000000000e+00,1.000000000000000000e+00,1.000000000000000000e+00,1.000000000000000000e+00,1.000000000000000000e+00,1.000000000000000000e+00,1.000000000000000000e+00,1.000000000000000000e+00,1.000000000000000000e+00,1.000000000000000000e+00,1.000000000000000000e+00,1.000000000000000000e+00,1.000000000000000000e+00,1.000000000000000000e+00,1.000000000000000000e+00,1.000000000000000000e+00,1.000000000000000000e+00,9.688220977783202903e-01,9.371381759643554465e-01,9.074609756469727007e-01,8.796056747436523660e-01,8.534095764160156694e-01,8.287286758422851562e-01,8.054351806640625000e-01,7.834154605865478738e-01,7.625675678253174272e-01,7.428005218505859819e-01
6.197008609771728072e-01,6.354204177856445090e-01,6.519581794738769087e-01,6.693797588348389116e-01,6.877579689025878906e-01,7.071738719940185991e-01,7.277179241180420366e-01,7.494912624359131303e-01,7.726076602935790794e-01,7.971954822540283647e-01,8.233996391296386497e-01,8.513852119445800559e-01,8.813398361206055132e-01,9.134792327880859597e-01,9.480513572692871316e-01,9.853433609008789285e-01,1.000000000000000000e+00,1.000000000000000000e+00,1.000000000000000000e+00,1.000000000000000000e+00,1.000000000000000000e+00,1.000000000000000000e+00,1.000000000000000000e+00,1.000000000000000000e+00,1.000000000000000000e+00,1.000000000000000000e+00,1.000000000000000000e+00,1.000000000000000000e+00,2.804690599441528320e-01,2.767507553100586049e-01,2.738694190979004128e-01,2.730982303619384766e-01,2.803088188171386497e-01,1.000000000000000000e+00,1.000000000000000000e+00,1.000000000000000000e+00,1.000000000000000000e+00,1.000000000000000000e+00,1.000000000000000000e+00,1.000000000000000000e+00,1.000000000000000000e+00,1.000000000000000000e+00,1.000000000000000000e+00,1.000000000000000000e+00,1.000000000000000000e+00,1.000000000000000000e+00,1.000000000000000000e+00,1.000000000000000000e+00,1.000000000000000000e+00,1.000000000000000000e+00,1.000000000000000000e+00,1.000000000000000000e+00,1.000000000000000000e+00,1.000000000000000000e+00,1.000000000000000000e+00,1.000000000000000000e+00,1.000000000000000000e+00,1.000000000000000000e+00,1.000000000000000000e+00,1.000000000000000000e+00,1.000000000000000000e+00,1.000000000000000000e+00,1.000000000000000000e+00,1.000000000000000000e+00,1.000000000000000000e+00,1.000000000000000000e+00,1.000000000000000000e+00,1.000000000000000000e+00,1.000000000000000000e+00,1.000000000000000000e+00,9.688502311706542747e-01,9.371644020080566184e-01,9.074855804443359153e-01,8.796288490295409712e-01,8.534313201904296653e-01,8.287492752075195090e-01,8.054546356201172097e-01,7.834338188171386941e-01,7.625849723815918413e-01,7.428170680999756081e-01
6.196877002716064675e-01,6.354064941406250000e-01,6.519435405731200950e-01,6.693643569946289285e-01,6.877417564392089844e-01,7.071566581726074219e-01,7.276996612548828347e-01,7.494719505310059038e-01,7.725872039794922097e-01,7.971735954284667747e-01,8.233763694763183150e-01,8.513602256774902566e-01,8.813131332397461382e-01,9.134505271911621538e-01,9.480205535888671653e-01,9.853099822998047097e-01,1.000000000000000000e+00,1.000000000000000000e+00,1.000000000000000000e+00,1.000000000000000000e+00,1.000000000000000000e+00,1.000000000000000000e+00,1.000000000000000000e+00,1.000000000000000000e+00,1.000000000000000000e+00,1.000000000000000000e+00,1.000000000000000000e+00,1.000000000000000000e+00,2.820924997329711803e-01,2.783714532852172852e-01,2.754820823669433816e-01,2.751290082931518444e-01,2.828508138656616322e-01,1.000000000000000000e+00,1.000000000000000000e+00,1.000000000000000000e+00,1.000000000000000000e+00,1.000000000000000000e+00,1.000000000000000000e+00,1.000000000000000000e+00,1.000000000000000000e+00,1.000000000000000000e+00,1.000000000000000000e+00,1.000000000000000000e+00,1.000000000000000000e+00,1.000000000000000000e+00,1.000000000000000000e+00,1.000000000000000000e+00,1.000000000000000000e+00,1.000000000000000000e+00,1.000000000000000000e+00,1.000000000000000000e+00,1.000000000000000000e+00,1.000000000000000000e+00,1.000000000000000000e+00,1.000000000000000000e+00,1.000000000000000000e+00,1.000000000000000000e+00,1.000000000000000000e+00,1.000000000000000000e+00,1.000000000000000000e+00,1.000000000000000000e+00,1.000000000000000000e+00,1.000000000000000000e+00,1.000000000000000000e+00,1.000000000000000000e+00,1.000000000000000000e+00,1.000000000000000000e+00,1.000000000000000000e+00,1.000000000000000000e+00,9.688782691955566406e-01,9.371907234191894087e-01,9.075102806091308594e-01,8.796521186828613059e-01,8.534532546997070090e-01,8.287697792053222434e-01,8.054740905761719194e-01,7.834522247314452681e-01,7.626023769378662553e-01,7.428335666656493697e-01
6.196744918823242632e-01,6.353926658630371094e-01,6.519289016723632812e-01,6.693489074707030806e-01,6.877254962921142134e-01,7.071394920349121094e-01,7.276814460754394975e-01,7.494525909423828125e-01,7.725666522979736106e-01,7.971518039703369141e-01,8.233530044555663618e-01,8.513353347778320757e-01,8.812864303588867632e-01,9.134219169616699663e-01,9.479895591735839622e-01,9.852766036987304910e-01,1.000000000000000000e+00,1.000000000000000000e+00,1.000000000000000000e+00,1.000000000000000000e+00,1.000000000000000000e+00,1.000000000000000000e+00,1.000000000000000000e+00,1.000000000000000000e+00,1.000000000000000000e+00,1.000000000000000000e+00,1.000000000000000000e+00,1.000000000000000000e+00,2.839850664138793834e-01,2.801853418350219727e-01,2.776922702789306752e-01,2.777953624725341686e-01,2.860080480575561412e-01,1.000000000000000000e+00,1.000000000000000000e+00,1.000000000000000000e+00,1.000000000000000000e+00,1.000000000000000000e+00,1.000000000000000000e+00,1.000000000000000000e+00,1.000000000000000000e+00,1.000000000000000000e+00,1.000000000000000000e+00,1.000000000000000000e+00,1.000000000000000000e+00,1.000000000000000000e+00,1.000000000000000000e+00,1.000000000000000000e+00,1.000000000000000000e+00,1.000000000000000000e+00,1.000000000000000000e+00,1.000000000000000000e+00,1.000000000000000000e+00,1.000000000000000000e+00,1.000000000000000000e+00,1.000000000000000000e+00,1.000000000000000000e+00,1.000000000000000000e+00,1.000000000000000000e+00,1.000000000000000000e+00,1.000000000000000000e+00,1.000000000000000000e+00,1.000000000000000000e+00,1.000000000000000000e+00,1.000000000000000000e+00,1.000000000000000000e+00,1.000000000000000000e+00,1.000000000000000000e+00,1.000000000000000000e+00,1.000000000000000000e+00,9.689064025878906250e-01,9.372171401977539285e-01,9.075349807739258035e-01,8.796752929687500222e-01,8.534750938415527344e-01,8.287903785705565962e-01,8.054935455322265181e-01,7.834705829620360884e-01,7.626198291778564231e-01,7.428501129150391069e-01
6.196612834930419478e-01,6.353787899017333540e-01,6.519143581390380859e-01,6.693335056304932085e-01,6.877091884613036887e-01,7.071222782135009322e-01,7.276632785797119141e-01,7.494332790374755859e-01,7.725461006164551225e-01,7.971299171447754350e-01,8.233297348022461382e-01,8.513103485107421653e-01,8.812597274780273882e-01,9.133932113647460493e-01,9.479587554931641069e-01,9.852432250976562722e-01,1.000000000000000000e+00,1.000000000000000000e+00,1.000000000000000000e+00,1.000000000000000000e+00,1.000000000000000000e+00,1.000000000000000000e+00,1.000000000000000000e+00,1.000000000000000000e+00,1.000000000000000000e+00,1.000000000000000000e+00,1.000000000000000000e+00,1.000000000000000000e+00,2.859230279922485574e-01,2.820748567581176647e-01,2.802643537521362083e-01,2.806432962417602650e-01,1.000000000000000000e+00,1.000000000000000000e+00,1.000000000000000000e+00,1.000000000000000000e+00,1.000000000000000000e+00,1.000000000000000000e+00,1.000000000000000000e+00,1.000000000000000000e+00,1.000000000000000000e+00,1.000000000000000000e+00,1.000000000000000000e+00,1.000000000000000000e+00,1.000000000000000000e+00,1.000000000000000000e+00,1.000000000000000000e+00,1.000000000000000000e+00,1.000000000000000000e+00,1.000000000000000000e+00,1.000000000000000000e+00,1.000000000000000000e+00,1.000000000000000000e+00,1.000000000000000000e+00,1.000000000000000000e+00,1.000000000000000000e+00,1.000000000000000000e+00,1.000000000000000000e+00,1.000000000000000000e+00,1.000000000000000000e+00,1.000000000000000000e+00,1.000000000000000000e+00,1.000000000000000000e+00,1.000000000000000000e+00,1.000000000000000000e+00,1.000000000000000000e+00,1.000000000000000000e+00,1.000000000000000000e+00,1.000000000000000000e+00,1.000000000000000000e+00,9.689346313476562278e-01,9.372434616088867188e-01,9.075596809387207475e-01,8.796984672546386275e-01,8.534968376159668413e-01,8.288109779357910600e-01,8.055129051208496094e-01,7.834889888763427734e-01,7.626372337341308372e-01,7.428666591644287331e-01
6.196480751037597434e-01,6.353648662567138450e-01,6.518997192382812722e-01,6.693181514739989790e-01,6.876929283142090288e-01,7.071051120758056197e-01,7.276450634002685769e-01,7.494140148162842241e-01,7.725255489349365234e-01,7.971080780029297097e-01,8.233064651489258035e-01,8.512854576110839844e-01,8.812330245971680132e-01,9.133645057678222434e-01,9.479277610778809038e-01,9.852098464965820535e-01,1.000000000000000000e+00,1.000000000000000000e+00,1.000000000000000000e+00,1.000000000000000000e+00,1.000000000000000000e+00,1.000000000000000000e+00,1.000000000000000000e+00,1.000000000000000000e+00,1.000000000000000000e+00,1.000000000000000000e+00,1.000000000000000000e+00,1.000000000000000000e+00,2.878875732421875000e-01,2.840414285659790261e-01,2.823143005371093750e-01,2.835502386093139426e-01,1.000000000000000000e+00,1.000000000000000000e+00,1.000000000000000000e+00,1.000000000000000000e+00,1.000000000000000000e+00,1.000000000000000000e+00,1.000000000000000000e+00,1.000000000000000000e+00,1.000000000000000000e+00,1.000000000000000000e+00,1.000000000000000000e+00,1.000000000000000000e+00,1.000000000000000000e+00,1.000000000000000000e+00,1.000000000000000000e+00,1.000000000000000000e+00,1.000000000000000000e+00,1.000000000000000000e+00,1.000000000000000000e+00,1.000000000000000000e+00,1.000000000000000000e+00,1.000000000000000000e+00,1.000000000000000000e+00,1.000000000000000000e+00,1.000000000000000000e+00,1.000000000000000000e+00,1.000000000000000000e+00,1.000000000000000000e+00,1.000000000000000000e+00,1.000000000000000000e+00,1.000000000000000000e+00,1.000000000000000000e+00,1.000000000000000000e+00,1.000000000000000000e+00,1.000000000000000000e+00,1.000000000000000000e+00,1.000000000000000000e+00,1.000000000000000000e+00,9.689627647399902122e-01,9.372697830200195090e-01,9.075843811035155806e-01,8.797216415405273438e-01,8.535186767578124556e-01,8.288315773010254128e-01,8.055323600769043191e-01,7.835073471069335938e-01,7.626547336578368697e-01,7.428831577301024947e-01
6.196349143981934038e-01,6.353509902954102007e-01,6.518850803375244585e-01,6.693027496337891069e-01,6.876767158508301225e-01,7.070878982543945535e-01,7.276268482208252397e-01,7.493947029113769975e-01,7.725051403045654075e-01,7.970861911773681197e-01,8.232831001281738503e-01,8.512605667114258035e-01,8.812063217163086382e-01,9.133358001708984375e-01,9.478969573974609375e-01,9.710425376892090066e-01,9.708026885986328347e-01,9.705629348754882812e-01,9.703232765197753462e-01,9.700838088989257590e-01,9.698443412780761719e-01,9.696050643920898215e-01,9.693659782409668191e-01,9.691268920898437056e-01,9.688879966735839400e-01,9.686491966247559038e-01,9.684103965759277566e-01,9.681718826293945757e-01,2.898793458938598855e-01,2.860355854034423717e-01,2.843944787979125755e-01,2.865180492401123158e-01,9.669806480407714400e-01,9.667428016662598100e-01,9.665049552917480691e-01,9.662673950195312944e-01,9.660298347473144087e-01,9.657924652099609819e-01,9.655551910400390625e-01,9.653180122375488725e-01,9.650809288024901900e-01,9.648440361022949663e-01,9.646071434020996316e-01,9.643704414367675337e-01,9.641338348388671653e-01,9.638974189758300337e-01,9.636610031127930132e-01,9.634247779846191184e-01,9.631886482238769531e-01,9.629526138305664062e-01,9.627166748046874778e-01,9.624809265136718972e-01,9.622452735900879350e-01,9.620097160339355913e-01,9.617742538452148660e-01,9.615388870239257590e-01,9.613037109375000000e-01,9.610686302185058594e-01,9.608336448669433372e-01,9.605987548828125444e-01,9.603639602661132590e-01,9.601293563842773215e-01,9.598949432373047319e-01,9.596604347229004128e-01,9.594262123107910600e-01,9.591919898986815962e-01,9.589579582214355913e-01,9.587240219116210938e-01,9.584901809692383257e-01,9.582564353942870650e-01,9.580228805541992632e-01,9.372960090637206809e-01,9.076089859008789062e-01,8.797448158264160600e-01,8.535405158996581809e-01,8.288520812988281472e-01,8.055519104003906472e-01,7.835257530212402788e-01,7.626721382141112837e-01,7.428997039794922319e-01
6.196217060089110884e-01,6.353371620178223100e-01,6.518704414367675337e-01,6.692873001098632590e-01,6.876604557037353516e-01,7.070707321166992410e-01,7.276086330413817915e-01,7.493753433227539062e-01,7.542595386505126509e-01,7.541147708892822488e-01,7.539700508117676003e-01,7.538255214691161887e-01,7.536808967590331587e-01,7.535363674163818581e-01,7.533918857574463113e-01,7.532475471496582475e-01,7.531031608581543191e-01,7.529588222503662553e-01,7.528146266937255637e-01,7.526704311370849831e-01,7.525262832641601562e-01,7.523822307586669478e-01,7.522382259368896040e-01,7.520942211151122603e-01,7.519503593444823997e-01,7.518064975738525391e-01,7.516626834869384322e-01,7.515189647674560547e-01,3.301425218582153542e-01,2.880579710006713756e-01,2.865055322647094838e-01,2.902524948120117076e-01,7.508010387420653853e-01,7.506576538085937278e-01,7.505142688751220703e-01,7.503709316253661665e-01,7.502277374267578569e-01,7.500845432281494363e-01,7.499413490295410156e-01,7.497983455657959428e-01,7.496552944183350053e-01,7.495122909545898215e-01,7.493693828582763672e-01,7.492265224456786665e-01,7.490836620330810769e-01,7.489409446716308594e-01,7.487982273101806419e-01,7.486555576324462891e-01,7.485130310058594194e-01,7.483704566955566850e-01,7.482279300689697044e-01,7.480855464935303178e-01,7.479431629180908203e-01,7.478008270263671875e-01,7.476585865020751731e-01,7.475163936614990234e-01,7.473741531372070090e-01,7.472321033477783425e-01,7.470900535583495650e-01,7.469480037689208984e-01,7.468060493469238503e-01,7.466641902923584206e-01,7.465223312377929910e-01,7.463805198669433150e-01,7.462388515472412331e-01,7.460971355438232866e-01,7.459555149078369585e-01,7.458139896392822488e-01,7.456724166870116743e-01,7.455309391021728294e-01,7.453896045684814675e-01,7.452482223510742410e-01,7.451068878173827681e-01,7.449656963348388894e-01,7.448244571685791460e-01,7.446833133697510210e-01,7.445422649383545144e-01,7.444012165069580078e-01,7.442602157592773660e-01,7.429162025451659934e-01
6.167007923126220925e-01,6.166040420532226118e-01,6.165072917938232422e-01,6.164106369018554910e-01,6.163139343261718750e-01,6.162173271179198775e-01,6.161207199096679910e-01,6.160241127014159934e-01,6.159276008605957253e-01,6.158310413360595925e-01,6.157345294952392134e-01,6.156381130218505637e-01,6.155416965484619141e-01,6.154452800750732644e-01,6.153488636016846147e-01,6.152525901794433372e-01,6.151562213897705522e-01,6.150599479675292747e-01,6.149637222290038618e-01,6.148674964904785600e-01,6.147712707519531472e-01,6.146751880645752175e-01,6.145790100097656694e-01,6.144829273223877397e-01,6.143868923187255637e-01,6.142908096313476340e-01,6.141947746276855691e-01,6.140988349914551225e-01,3.309680461883545144e-01,2.922059774398803600e-01,2.911019802093505748e-01,6.137152194976807085e-01,6.136193752288818803e-01,6.135236263275146706e-01,6.134278297424315962e-01,6.133320808410644975e-01,6.132364273071289062e-01,6.131407260894775613e-01,6.130450725555419700e-01,6.129494667053222434e-01,6.128538608551025169e-01,6.127583026885986550e-01,6.126627922058105469e-01,6.125672817230224387e-01,6.124718189239501953e-01,6.123764038085937056e-01,6.122809886932373269e-01,6.121855735778808372e-01,6.120902538299560769e-01,6.119949340820312056e-01,6.118996143341064453e-01,6.118043899536133035e-01,6.117091178894042969e-01,6.116138935089111550e-01,6.115187644958496316e-01,6.114235877990722434e-01,6.113284587860107200e-01,6.112334251403808150e-01,6.111383438110351562e-01,6.110433101654052512e-01,6.109482765197753462e-01,6.108533859252929243e-01,6.107583999633788840e-01,6.106634616851807085e-01,6.105686664581299050e-01,6.104737758636474831e-01,6.103789329528808150e-01,6.102841854095458762e-01,6.101894378662109375e-01,6.100946426391601340e-01,6.099999904632568137e-01,6.099053382873534934e-01,6.098106384277344194e-01,6.097160816192627175e-01,6.096214771270751509e-01,6.095269203186035600e-01,6.094324111938476118e-01,6.093379020690917747e-01,6.092434406280518022e-01,6.091490268707275835e-01
5.210244178771972212e-01,5.209553718566894975e-01,5.208862781524657981e-01,5.208172321319579634e-01,5.207482337951659934e-01,5.206792354583740234e-01,5.206102848052978072e-01,5.205413341522217019e-01,5.204723834991454856e-01,5.204034805297851340e-01,5.203345775604247825e-01,5.202656745910644309e-01,5.201968193054199441e-01,5.201279640197753462e-01,5.200591087341308594e-01,5.199903011322021262e-01,5.199214935302733931e-01,5.198527336120605247e-01,5.197839736938476562e-01,5.197152137756347878e-01,5.196465015411376731e-01,5.195778369903564231e-01,5.195091247558594194e-01,5.194404602050781694e-01,5.193717956542969194e-01,5.193031787872314231e-01,5.192345619201660378e-01,5.191659927368164062e-01,3.332358598709106445e-01,2.912421464920044167e-01,2.899384975433349498e-01,5.188917636871337447e-01,5.188232421874999778e-01,5.187547683715820757e-01,5.186862945556640625e-01,5.186178207397460493e-01,5.185494422912597656e-01,5.184810161590576172e-01,5.184125900268554688e-01,5.183442592620849387e-01,5.182758808135986550e-01,5.182075023651122603e-01,5.181392192840575950e-01,5.180708885192870650e-01,5.180026054382323997e-01,5.179343700408935991e-01,5.178660869598388228e-01,5.177978515625000222e-01,5.177296638488769753e-01,5.176614284515380637e-01,5.175932407379150169e-01,5.175251007080078347e-01,5.174569606781005415e-01,5.173888206481933594e-01,5.173207283020019309e-01,5.172526359558105025e-01,5.171845436096191850e-01,5.171165466308593750e-01,5.170484542846679465e-01,5.169804573059082475e-01,5.169124126434325728e-01,5.168444633483886275e-01,5.167765140533446822e-01,5.167085170745849831e-01,5.166406154632567915e-01,5.165727138519287109e-01,5.165048122406006303e-01,5.164369583129883035e-01,5.163691043853759766e-01,5.163012504577636497e-01,5.162334442138671875e-01,5.161656379699707253e-01,5.160978317260742632e-01,5.160300731658935547e-01,5.159623146057128462e-01,5.158945560455322488e-01,5.158268928527831587e-01,5.157591819763183150e-01,5.156914710998534712e-01,5.156238555908203569e-01
4.510478019714355691e-01,4.509960174560546653e-01,4.509443283081054910e-01,4.508925437927245872e-01,4.508408546447754128e-01,4.507891178131103738e-01,4.507374286651611439e-01,4.506857395172119141e-01,4.506340503692626842e-01,4.505824089050293191e-01,4.505307197570800892e-01,4.504790782928466686e-01,4.504274845123291127e-01,4.503758430480956920e-01,4.503242492675781361e-01,4.502726554870605247e-01,4.502210617065429688e-01,4.501694679260254128e-01,4.501179218292236106e-01,4.500663757324218639e-01,4.500148296356201172e-01,4.499633312225341797e-01,4.499117851257324330e-01,4.498602867126464955e-01,4.498088359832763672e-01,4.497573375701904297e-01,4.497058391571044922e-01,3.385918378829956277e-01,2.992686748504638783e-01,2.882169008255004994e-01,2.861815690994262695e-01,2.879339456558227539e-01,4.493972778320312611e-01,4.493459224700927512e-01,4.492945671081542969e-01,4.492431640624999778e-01,4.491918563842773326e-01,4.491405010223388783e-01,4.490891456604003684e-01,4.490378379821777233e-01,4.489865303039550781e-01,4.489352226257324330e-01,4.488839626312255970e-01,4.488327026367187611e-01,4.487814426422119252e-01,4.487302303314208984e-01,4.486789703369140625e-01,4.486277580261230358e-01,4.485765457153320090e-01,4.485253334045410378e-01,4.484741687774658203e-01,4.484230041503906028e-01,4.483718395233154408e-01,4.483206748962402233e-01,4.482695579528808705e-01,4.482183933258056530e-01,4.481672763824463002e-01,4.481162071228027566e-01,4.480650901794433483e-01,4.480140209197998047e-01,4.479629516601562611e-01,4.479118824005127175e-01,4.478608131408691184e-01,4.478097915649413840e-01,4.477587699890136497e-01,4.477077484130859153e-01,4.476567745208740456e-01,4.476058006286621205e-01,4.475548267364501953e-01,4.475038528442382701e-01,4.474528789520263450e-01,4.474019527435302845e-01,4.473510265350341686e-01,4.473001003265381081e-01,4.472491741180419922e-01,4.471982955932617410e-01,4.471474170684814342e-01,4.470965385437011830e-01,4.470456600189208762e-01,4.469948291778564342e-01
3.976421833038329967e-01,3.976019382476806419e-01,3.975617170333862194e-01,3.975214958190917969e-01,3.974812746047973744e-01,3.974411249160766380e-01,3.974009275436401478e-01,3.973607301712036022e-01,3.973205566406249889e-01,3.972803831100463756e-01,3.972402572631835715e-01,3.972001075744628906e-01,3.971599578857422097e-01,3.971198081970214733e-01,3.970796823501586692e-01,3.970396041870117299e-01,3.969994783401489258e-01,3.969593763351440541e-01,3.969192743301391824e-01,3.968791723251342551e-01,3.968390941619873158e-01,3.967990636825561301e-01,3.967590093612670676e-01,3.967189311981201283e-01,3.966788768768310658e-01,3.966388463973998801e-01,3.965988159179687500e-01,3.380141258239746094e-01,3.253143072128296120e-01,2.842248201370239369e-01,2.827925205230713002e-01,2.831612586975097434e-01,3.963587999343872181e-01,3.963188648223877064e-01,3.962789058685302623e-01,3.962389469146728738e-01,3.961989879608154297e-01,3.961590290069579856e-01,3.961190938949584739e-01,3.960792064666748269e-01,3.960392951965331920e-01,3.959993600845336803e-01,3.959594726562499778e-01,3.959195613861083984e-01,3.958796739578246959e-01,3.958398342132568581e-01,3.957999706268310325e-01,3.957600831985473855e-01,3.957202434539794922e-01,3.956803798675537220e-01,3.956405401229858287e-01,3.956007480621338002e-01,3.955609083175659069e-01,3.955210924148559459e-01,3.954812765121459850e-01,3.954414844512939564e-01,3.954016923904418723e-01,3.953619480133056530e-01,3.953221797943115012e-01,3.952823877334594727e-01,3.952426433563232533e-01,3.952028751373291016e-01,3.951631307601928822e-01,3.951233863830566628e-01,3.950837135314941295e-01,3.950439929962158425e-01,3.950042724609375000e-01,3.949645519256591575e-01,3.949248552322387473e-01,3.948851585388183372e-01,3.948455333709716686e-01,3.948058605194091908e-01,3.947661876678466575e-01,3.947265386581421120e-01,3.946868658065795787e-01,3.946472406387329102e-01,3.946076393127441184e-01,3.945680141448974498e-01,3.945283889770507812e-01,3.944887876510619895e-01
3.555444717407226785e-01,3.555123090744018444e-01,3.554801464080810658e-01,3.554479837417602317e-01,3.554158210754394531e-01,3.553837299346923606e-01,3.553515911102295144e-01,3.553194522857666127e-01,3.552873134613037109e-01,3.552551984786987416e-01,3.552230834960937722e-01,3.551909923553466797e-01,3.551589012145995872e-01,3.551267862319946178e-01,3.550946950912475808e-01,3.550626039505004883e-01,3.550305604934692605e-01,3.549984931945801003e-01,3.549664258956909402e-01,3.549343585968017800e-01,3.549022912979126199e-01,3.548702716827392689e-01,3.548382282257079856e-01,3.548061847686767578e-01,3.547741413116455300e-01,3.547421216964721791e-01,3.547100782394408958e-01,3.546781063079834095e-01,3.546460866928100586e-01,2.788388013839721569e-01,2.787693738937377930e-01,2.789728641510009766e-01,2.791882038116454967e-01,3.544861555099487194e-01,3.544541597366333008e-01,3.544221878051757590e-01,3.543902158737182728e-01,3.543582677841186634e-01,3.543262958526611217e-01,3.542943954467773215e-01,3.542624473571777122e-01,3.542304992675781028e-01,3.541985750198364258e-01,3.541666507720947488e-01,3.541347265243530162e-01,3.541028499603271484e-01,3.540709257125854714e-01,3.540390253067016713e-01,3.540071249008178711e-01,3.539752483367920033e-01,3.539433479309082031e-01,3.539114952087402122e-01,3.538796424865722767e-01,3.538477659225464089e-01,3.538158893585204856e-01,3.537840366363525502e-01,3.537521839141845592e-01,3.537203788757324330e-01,3.536885261535644420e-01,3.536566972732543834e-01,3.536248683929443248e-01,3.535930395126342662e-01,3.535612344741821400e-01,3.535294055938720814e-01,3.534976482391357644e-01,3.534658432006835826e-01,3.534340381622314564e-01,3.534022569656372070e-01,3.533704757690429576e-01,3.533386945724487083e-01,3.533069610595703236e-01,3.532752037048340066e-01,3.532434225082397572e-01,3.532116889953613170e-01,3.531799316406250000e-01,3.531481742858886830e-01,3.531164884567260520e-01,3.530847549438476674e-01,3.530530214309692272e-01,3.530213117599487194e-01
3.215070486068725697e-01,3.214807510375976562e-01,3.214544534683227428e-01,3.214281558990478294e-01,3.214018821716308483e-01,3.213755846023559348e-01,3.213493347167968861e-01,3.213230371475219727e-01,3.212967634201049916e-01,3.212705135345458873e-01,3.212442398071289062e-01,3.212180137634277344e-01,3.211917400360107533e-01,3.211654901504516491e-01,3.211392402648926003e-01,3.211129903793334961e-01,3.210867881774902566e-01,3.210605382919311523e-01,3.210343122482299805e-01,3.210080862045288086e-01,3.209818601608276367e-01,3.209556341171264648e-01,3.209294557571411022e-01,3.209032535552978627e-01,3.208770275115966908e-01,3.208508253097533958e-01,3.208246231079101562e-01,3.207984685897827259e-01,3.207722902297973633e-01,2.752190113067626842e-01,2.734946250915527566e-01,2.736945867538452259e-01,2.737459897994994895e-01,3.206414222717285378e-01,3.206152677536010520e-01,3.205890893936157449e-01,3.205629348754882590e-01,3.205367803573608287e-01,3.205106496810913308e-01,3.204845428466797097e-01,3.204583883285522239e-01,3.204322576522827259e-01,3.204061269760131725e-01,3.203799962997436745e-01,3.203538894653320535e-01,3.203278064727783092e-01,3.203016757965088113e-01,3.202755689620971902e-01,3.202494621276855691e-01,3.202233791351318248e-01,3.201972723007202037e-01,3.201712131500243919e-01,3.201451301574707031e-01,3.201190471649170144e-01,3.200929641723632701e-01,3.200668811798095814e-01,3.200408220291137695e-01,3.200147867202758900e-01,3.199887037277221458e-01,3.199626445770263894e-01,3.199366092681884544e-01,3.199105501174926980e-01,3.198845148086547630e-01,3.198584556579590066e-01,3.198324680328369363e-01,3.198064327239990012e-01,3.197803974151611217e-01,3.197543621063232422e-01,3.197283506393432395e-01,3.197023391723632924e-01,3.196763515472412220e-01,3.196503400802612194e-01,3.196243524551391491e-01,3.195983409881592019e-01,3.195723533630371316e-01,3.195463657379150613e-01,3.195204019546508678e-01,3.194944381713867299e-01,3.194684505462646595e-01,3.194424867630004661e-01
2.934172630310058483e-01,2.933953523635864369e-01,2.933734655380249023e-01,2.933515787124633678e-01,2.933296680450439564e-01,2.933077812194824219e-01,2.932858705520630105e-01,2.932640075683593528e-01,2.932421207427978738e-01,2.932202339172363392e-01,2.931983709335327370e-01,2.931764841079712025e-01,2.931546211242676003e-01,2.931327581405639426e-01,2.931108951568603405e-01,2.930890321731567383e-01,2.930671691894531361e-01,2.930453300476074108e-01,2.930234909057617410e-01,2.930016279220580833e-01,2.929797887802124134e-01,2.929579257965088113e-01,2.929361104965210183e-01,2.929142713546752930e-01,2.928924322128295676e-01,2.928706169128417747e-01,2.928487777709961049e-01,2.928269863128661887e-01,2.928051710128783958e-01,2.927833318710327259e-01,2.927615165710449330e-01,2.927397012710571400e-01,2.927179098129272239e-01,2.926961183547973633e-01,2.926743268966675027e-01,2.926525115966797097e-01,2.926307201385497936e-01,2.926089286804199330e-01,2.925871372222900169e-01,2.925653696060180886e-01,2.925436019897461049e-01,2.925218105316161887e-01,2.925000429153442605e-01,2.924782752990722767e-01,2.924565076828002930e-01,2.924347639083862416e-01,2.924129962921142578e-01,2.923912286758422741e-01,2.923694849014282227e-01,2.923477172851562389e-01,2.923259735107421875e-01,2.923042535781860130e-01,2.922825098037719616e-01,2.922607660293579102e-01,2.922390222549438588e-01,2.922173023223876842e-01,2.921955585479736328e-01,2.921738624572753906e-01,2.921521425247192161e-01,2.921304225921630970e-01,2.921087026596069225e-01,2.920869827270508035e-01,2.920652627944946289e-01,2.920435667037963867e-01,2.920218706130981445e-01,2.920001745223999023e-01,2.919784784317016602e-01,2.919567823410034180e-01,2.919350862503051758e-01,2.919133901596069336e-01,2.918917417526245006e-01,2.918700695037841908e-01,2.918483734130859486e-01,2.918267011642455833e-01,2.918050289154052734e-01,2.917833566665649636e-01,2.917617082595825306e-01,2.917400598526000977e-01,2.917183876037597878e-01,2.916967391967773549e-01
2.698414564132690652e-01,2.698229312896728294e-01,2.698044300079345814e-01,2.697859048843384011e-01,2.697673797607421653e-01,2.697488546371459850e-01,2.697303295135498047e-01,2.697118282318115012e-01,2.696933269500732533e-01,2.696748256683349498e-01,2.696563005447387695e-01,2.696377992630004661e-01,2.696192979812622181e-01,2.696008205413818470e-01,2.695823192596435436e-01,2.695638179779052956e-01,2.695453405380249245e-01,2.695268392562866211e-01,2.695083856582641824e-01,2.694898843765258789e-01,2.694714307785034402e-01,2.694529294967651367e-01,2.694344520568847656e-01,2.694159984588623269e-01,2.693975448608398326e-01,2.693790674209594616e-01,2.693605899810790905e-01,2.693421363830566517e-01,2.693236827850341575e-01,2.693052291870117188e-01,2.692867755889892800e-01,2.692683219909667858e-01,2.692498683929443470e-01,2.692314386367797852e-01,2.692129850387573464e-01,2.691945552825927845e-01,2.691761016845702903e-01,2.691576719284057839e-01,2.691392421722412220e-01,2.691208124160766602e-01,2.691023826599120983e-01,2.690839529037475364e-01,2.690655231475830300e-01,2.690471172332763450e-01,2.690286874771118386e-01,2.690102815628051536e-01,2.689918756484985241e-01,2.689734458923339622e-01,2.689550399780273326e-01,2.689366340637207031e-01,2.689182281494140736e-01,2.688998460769653209e-01,2.688814401626586914e-01,2.688630342483520619e-01,2.688446521759033092e-01,2.688262462615966797e-01,2.688078641891479270e-01,2.687894821166992299e-01,2.687711000442504772e-01,2.687527179718017800e-01,2.687343358993530273e-01,2.687159538269042747e-01,2.686975717544555775e-01,2.686792135238647572e-01,2.686608552932739369e-01,2.686424970626831166e-01,2.686241149902343639e-01,2.686057567596435436e-01,2.685873985290527233e-01,2.685690402984619030e-01,2.685507059097290150e-01,2.685323476791381947e-01,2.685139894485473744e-01,2.684956550598144309e-01,2.684772968292236106e-01,2.684589624404907227e-01,2.684406280517578347e-01,2.684222936630248912e-01,2.684039592742920033e-01,2.683856248855590598e-01
2.497724771499633678e-01,2.497565984725952093e-01,2.497407197952270508e-01,2.497248649597167969e-01,2.497090101242065430e-01,2.496931314468383845e-01,2.496772766113281306e-01,2.496613979339599720e-01,2.496455669403076227e-01,2.496296882629394642e-01,2.496138334274292103e-01,2.495979785919189564e-01,2.495821237564087025e-01,2.495662927627563532e-01,2.495504379272460993e-01,2.495345830917358454e-01,2.495187520980834961e-01,2.495028972625732422e-01,2.494870662689208929e-01,2.494712352752685436e-01,2.494554042816162220e-01,2.494395494461059681e-01,2.494237184524536188e-01,2.494079113006591741e-01,2.493920803070068248e-01,2.493762493133545033e-01,2.493604183197021540e-01,2.493445873260498047e-01,2.493287801742553600e-01,2.493129730224609431e-01,2.492971420288085938e-01,2.492813348770141491e-01,2.492655277252197321e-01,2.492496967315673828e-01,2.492339134216308705e-01,2.492181062698364258e-01,2.492022991180419811e-01,2.491864919662475641e-01,2.491706848144531194e-01,2.491549015045166071e-01,2.491391181945800670e-01,2.491233110427856501e-01,2.491075277328491100e-01,2.490917205810546931e-01,2.490759372711181530e-01,2.490601778030395452e-01,2.490443706512451283e-01,2.490285873413085882e-01,2.490128040313720759e-01,2.489970207214355358e-01,2.489812612533569280e-01,2.489655017852783203e-01,2.489497184753418080e-01,2.489339590072631725e-01,2.489181756973266602e-01,2.489024162292480524e-01,2.488866329193115123e-01,2.488708972930908092e-01,2.488551378250122015e-01,2.488393783569335938e-01,2.488236188888549860e-01,2.488078594207763783e-01,2.487920999526977428e-01,2.487763404846191351e-01,2.487606287002563366e-01,2.487448692321777288e-01,2.487291336059570257e-01,2.487133741378784180e-01,2.486976385116577148e-01,2.486819028854370117e-01,2.486661672592163086e-01,2.486504316329956055e-01,2.486346960067749023e-01,2.486189842224121038e-01,2.486032485961914007e-01,2.485875129699706976e-01,2.485718011856078991e-01,2.485560894012451283e-01,2.485403537750244252e-01,2.485246419906616266e-01
2.324820280075073353e-01,2.324682950973510631e-01,2.324545383453369141e-01,2.324407815933227650e-01,2.324270486831664928e-01,2.324132919311523438e-01,2.323995590209960993e-01,2.323858022689819225e-01,2.323720693588256780e-01,2.323583364486694336e-01,2.323446035385131891e-01,2.323308467864990123e-01,2.323171138763427679e-01,2.323033809661865234e-01,2.322896718978881836e-01,2.322759389877319391e-01,2.322622060775756947e-01,2.322484731674194225e-01,2.322347402572631780e-01,2.322210311889648382e-01,2.322073221206664984e-01,2.321935892105102539e-01,2.321798801422119141e-01,2.321661472320556696e-01,2.321524381637573298e-01,2.321387290954589899e-01,2.321250200271606501e-01,2.321113109588623102e-01,2.320976018905639704e-01,2.320838928222656306e-01,2.320701837539672907e-01,2.320564746856689509e-01,2.320427894592285156e-01,2.320290803909301758e-01,2.320153951644897405e-01,2.320016860961914007e-01,2.319880008697509655e-01,2.319742918014526256e-01,2.319606065750122181e-01,2.319469213485717829e-01,2.319332361221313477e-01,2.319195270538330078e-01,2.319058418273925726e-01,2.318921566009521373e-01,2.318784713745117299e-01,2.318648099899291992e-01,2.318511247634887640e-01,2.318374395370483287e-01,2.318237781524658259e-01,2.318100929260253906e-01,2.317964076995849554e-01,2.317827463150024525e-01,2.317690849304199219e-01,2.317553997039794866e-01,2.317417383193969838e-01,2.317280769348144531e-01,2.317144155502319225e-01,2.317007541656494196e-01,2.316870927810668890e-01,2.316734313964843861e-01,2.316597700119018555e-01,2.316461324691772572e-01,2.316324710845947266e-01,2.316188097000121959e-01,2.316051721572875977e-01,2.315915346145629994e-01,2.315778732299804688e-01,2.315642356872558705e-01,2.315505743026733398e-01,2.315369367599487416e-01,2.315232992172241155e-01,2.315096616744995173e-01,2.314960241317748912e-01,2.314823865890502930e-01,2.314687490463256947e-01,2.314551115036010687e-01,2.314414978027343750e-01,2.314278602600097767e-01,2.314142227172851507e-01,2.314006090164184570e-01
2.174304723739624023e-01,2.174184322357177734e-01,2.174063920974731445e-01,2.173943758010864202e-01,2.173823595046996959e-01,2.173703432083129994e-01,2.173583030700683705e-01,2.173462867736816462e-01,2.173342704772949219e-01,2.173222541809081976e-01,2.173102378845214733e-01,2.172982215881347767e-01,2.172862052917480524e-01,2.172741889953613281e-01,2.172621726989746038e-01,2.172501802444458119e-01,2.172381639480590876e-01,2.172261476516723633e-01,2.172141313552856390e-01,2.172021389007568470e-01,2.171901464462280273e-01,2.171781301498413030e-01,2.171661376953125111e-01,2.171541213989257868e-01,2.171421289443969671e-01,2.171301364898681752e-01,2.171181440353393555e-01,2.171061515808105358e-01,2.170941591262817438e-01,2.170821666717529241e-01,2.170701742172241322e-01,2.170581817626953125e-01,2.170461893081664928e-01,2.170342206954956055e-01,2.170222282409667858e-01,2.170102596282958984e-01,2.169982671737670787e-01,2.169862747192382868e-01,2.169743061065673717e-01,2.169623136520385798e-01,2.169503450393676647e-01,2.169383764266967773e-01,2.169263839721679576e-01,2.169144153594970703e-01,2.169024467468261830e-01,2.168904781341552679e-01,2.168785095214843806e-01,2.168665409088134655e-01,2.168545722961425781e-01,2.168426036834716908e-01,2.168306350708007757e-01,2.168186902999877930e-01,2.168067216873169056e-01,2.167947530746459905e-01,2.167828083038330078e-01,2.167708396911621205e-01,2.167588710784912054e-01,2.167469263076782227e-01,2.167349815368652399e-01,2.167230367660522572e-01,2.167110681533813421e-01,2.166991233825683594e-01,2.166871786117553766e-01,2.166752099990844616e-01,2.166632890701293834e-01,2.166513442993164007e-01,2.166393995285034180e-01,2.166274547576904352e-01,2.166155099868774525e-01,2.166035652160644420e-01,2.165916442871093639e-01,2.165796995162963812e-01,2.165677547454833984e-01,2.165558338165283203e-01,2.165438890457153376e-01,2.165319442749023549e-01,2.165200471878051813e-01,2.165081024169921986e-01,2.164961814880371205e-01,2.164842367172241100e-01
2.042093515396118109e-01,2.041987419128417913e-01,2.041881322860717718e-01,2.041774988174438477e-01,2.041668891906738281e-01,2.041563034057617132e-01,2.041456937789916937e-01,2.041350841522216741e-01,2.041244745254516546e-01,2.041138887405395397e-01,2.041032791137695201e-01,2.040926933288574330e-01,2.040820837020874134e-01,2.040714979171752985e-01,2.040608882904052790e-01,2.040503025054931641e-01,2.040397167205810491e-01,2.040291070938110296e-01,2.040185213088989147e-01,2.040079355239868275e-01,2.039973497390747126e-01,2.039867639541625977e-01,2.039761781692504827e-01,2.039655685424804632e-01,2.039549827575683483e-01,2.039444208145141657e-01,2.039338350296020508e-01,2.039232492446899359e-01,2.039126634597778209e-01,2.039020776748657338e-01,2.038914918899536188e-01,2.038809299468994085e-01,2.038703441619872936e-01,2.038597822189331110e-01,2.038491964340209961e-01,2.038386344909667858e-01,2.038280725479126032e-01,2.038174867630004883e-01,2.038069248199462780e-01,2.037963390350341908e-01,2.037857770919799805e-01,2.037752151489257701e-01,2.037646532058715876e-01,2.037540912628173773e-01,2.037435293197631947e-01,2.037329435348510798e-01,2.037224054336547741e-01,2.037118434906005915e-01,2.037012815475463812e-01,2.036907196044921986e-01,2.036801576614379883e-01,2.036696195602417103e-01,2.036590576171875000e-01,2.036484956741332897e-01,2.036379575729370117e-01,2.036273956298828014e-01,2.036168336868286188e-01,2.036062955856323131e-01,2.035957574844360352e-01,2.035851955413818248e-01,2.035746574401855469e-01,2.035641193389892689e-01,2.035535573959350586e-01,2.035430192947387806e-01,2.035324811935424749e-01,2.035219430923461970e-01,2.035114049911498912e-01,2.035008668899536133e-01,2.034903287887573353e-01,2.034797906875610296e-01,2.034692525863647516e-01,2.034587144851684459e-01,2.034481763839721680e-01,2.034376621246337946e-01,2.034271240234374889e-01,2.034165859222412109e-01,2.034060716629028376e-01,2.033955335617065319e-01,2.033850193023681585e-01,2.033744812011718806e-01
1.925039291381835938e-01,1.924944996833801159e-01,1.924850702285766657e-01,1.924756407737731878e-01,1.924662113189697377e-01,1.924567818641662598e-01,1.924473524093627819e-01,1.924379348754882701e-01,1.924285054206848200e-01,1.924190878868103083e-01,1.924096584320068304e-01,1.924002647399902233e-01,1.923908352851867731e-01,1.923814177513122614e-01,1.923720002174377497e-01,1.923625826835632380e-01,1.923531651496887263e-01,1.923437476158142145e-01,1.923343300819397028e-01,1.923249244689941295e-01,1.923155069351196178e-01,1.923061132431030384e-01,1.922967076301574652e-01,1.922872900962829534e-01,1.922778844833374079e-01,1.922684788703918346e-01,1.922590613365173229e-01,1.922496557235717773e-01,1.922402501106262318e-01,1.922308444976806585e-01,1.922214388847351130e-01,1.922120571136474720e-01,1.922026634216308649e-01,1.921932578086852916e-01,1.921838521957397461e-01,1.921744585037231390e-01,1.921650648117065319e-01,1.921556591987609863e-01,1.921462655067443792e-01,1.921368718147277721e-01,1.921274662017822266e-01,1.921180963516235241e-01,1.921087026596069447e-01,1.920993089675903376e-01,1.920899271965026966e-01,1.920805335044860895e-01,1.920711398124694824e-01,1.920617580413818415e-01,1.920523643493652344e-01,1.920429825782775934e-01,1.920335888862609863e-01,1.920242309570312500e-01,1.920148491859436091e-01,1.920054554939270020e-01,1.919960737228393610e-01,1.919866919517517201e-01,1.919773101806640514e-01,1.919679403305053766e-01,1.919585585594177357e-01,1.919491767883300670e-01,1.919398069381713923e-01,1.919304251670837513e-01,1.919210553169250488e-01,1.919116735458374079e-01,1.919023275375366100e-01,1.918929576873779352e-01,1.918835878372192327e-01,1.918742060661315918e-01,1.918648362159728893e-01,1.918554782867431530e-01,1.918461084365844782e-01,1.918367385864257757e-01,1.918273687362671009e-01,1.918180108070373646e-01,1.918086409568786621e-01,1.917992830276489258e-01,1.917899370193481556e-01,1.917805790901184193e-01,1.917712211608886830e-01,1.917618513107299805e-01
1.820676565170288030e-01,1.820592403411865345e-01,1.820508003234863337e-01,1.820423722267150990e-01,1.820339322090148981e-01,1.820255041122436634e-01,1.820170760154724010e-01,1.820086359977722279e-01,1.820002079010009655e-01,1.819917798042297308e-01,1.819833517074584961e-01,1.819749355316161998e-01,1.819665074348449652e-01,1.819580912590026966e-01,1.819496631622314342e-01,1.819412350654601995e-01,1.819328069686889648e-01,1.819243907928466686e-01,1.819159626960754339e-01,1.819075345993041992e-01,1.818991184234619030e-01,1.818907022476196345e-01,1.818822979927063044e-01,1.818738818168640081e-01,1.818654537200927734e-01,1.818570375442504772e-01,1.818486213684082087e-01,1.818402051925659124e-01,1.818317890167236439e-01,1.818233847618103138e-01,1.818149685859680176e-01,1.818065524101257213e-01,1.817981600761413574e-01,1.817897439002990612e-01,1.817813396453857311e-01,1.817729234695434626e-01,1.817645192146301325e-01,1.817561149597168024e-01,1.817476987838745062e-01,1.817392945289611761e-01,1.817308902740478460e-01,1.817224860191345159e-01,1.817141056060790905e-01,1.817057013511657604e-01,1.816972970962524303e-01,1.816888928413391002e-01,1.816804885864257701e-01,1.816720962524414062e-01,1.816636919975280762e-01,1.816552877426147461e-01,1.816468954086303822e-01,1.816385030746459905e-01,1.816301226615905651e-01,1.816217303276062012e-01,1.816133260726928711e-01,1.816049337387085072e-01,1.815965414047241155e-01,1.815881490707397516e-01,1.815797567367553600e-01,1.815713644027709961e-01,1.815629720687866322e-01,1.815545916557312067e-01,1.815461993217468151e-01,1.815378069877624512e-01,1.815294384956359919e-01,1.815210580825805664e-01,1.815126657485962025e-01,1.815042853355407770e-01,1.814959049224853516e-01,1.814875125885009877e-01,1.814791321754455622e-01,1.814707517623901367e-01,1.814623713493347112e-01,1.814539909362792858e-01,1.814456105232238881e-01,1.814372301101684626e-01,1.814288735389709417e-01,1.814205050468444824e-01,1.814121246337890569e-01,1.814037442207336315e-01
1.727047801017761175e-01,1.726971864700317383e-01,1.726896166801452637e-01,1.726820230484008845e-01,1.726744413375854437e-01,1.726668477058410645e-01,1.726592659950256237e-01,1.726516723632812444e-01,1.726440906524658314e-01,1.726365089416503906e-01,1.726289153099060114e-01,1.726213335990905706e-01,1.726137638092040960e-01,1.726061820983886830e-01,1.725986003875732422e-01,1.725910186767578014e-01,1.725834369659423884e-01,1.725758552551269476e-01,1.725682854652404730e-01,1.725607037544250599e-01,1.725531220436096191e-01,1.725455403327941784e-01,1.725379824638366699e-01,1.725304126739501953e-01,1.725228309631347545e-01,1.725152611732482799e-01,1.725076794624328669e-01,1.725001096725463923e-01,1.724925398826599177e-01,1.724849700927734431e-01,1.724774003028869684e-01,1.724698185920715277e-01,1.724622488021850530e-01,1.724547028541564830e-01,1.724471330642700084e-01,1.724395632743835338e-01,1.724319934844970592e-01,1.724244236946105846e-01,1.724168658256530762e-01,1.724092960357666016e-01,1.724017262458801270e-01,1.723941683769226185e-01,1.723865985870361439e-01,1.723790645599365123e-01,1.723714947700500377e-01,1.723639369010925293e-01,1.723563790321350209e-01,1.723488092422485463e-01,1.723412513732910101e-01,1.723336935043335016e-01,1.723261356353759655e-01,1.723185777664184570e-01,1.723110198974609486e-01,1.723034858703613170e-01,1.722959280014038086e-01,1.722883701324463002e-01,1.722808122634887640e-01,1.722732663154601940e-01,1.722657084465026855e-01,1.722581624984741155e-01,1.722506046295166071e-01,1.722430586814880371e-01,1.722355008125305287e-01,1.722279548645019587e-01,1.722204208374023549e-01,1.722128748893737848e-01,1.722053289413452148e-01,1.721977829933166448e-01,1.721902370452880748e-01,1.721826910972595326e-01,1.721751451492309626e-01,1.721675992012023926e-01,1.721600532531738226e-01,1.721525073051452526e-01,1.721449732780456487e-01,1.721374273300170787e-01,1.721299052238464411e-01,1.721223592758178711e-01,1.721148252487182673e-01,1.721072793006896973e-01
1.642577767372131459e-01,1.642509102821350098e-01,1.642440676689148060e-01,1.642372012138366699e-01,1.642303347587585338e-01,1.642234683036804255e-01,1.642166018486022894e-01,1.642097473144531194e-01,1.642028808593750111e-01,1.641960144042968750e-01,1.641891598701477051e-01,1.641822934150695690e-01,1.641754388809203991e-01,1.641685962677001953e-01,1.641617298126220592e-01,1.641548752784728893e-01,1.641480207443237194e-01,1.641411662101745494e-01,1.641342997550964411e-01,1.641274452209472712e-01,1.641205906867981013e-01,1.641137361526489313e-01,1.641068816184997614e-01,1.641000509262084961e-01,1.640931963920593262e-01,1.640863418579101562e-01,1.640794873237609863e-01,1.640726327896118164e-01,1.640657901763916127e-01,1.640589356422424427e-01,1.640520811080932728e-01,1.640452384948730413e-01,1.640383839607238714e-01,1.640315532684326061e-01,1.640247106552124023e-01,1.640178561210632324e-01,1.640110135078430287e-01,1.640041708946227972e-01,1.639973163604736273e-01,1.639904737472534235e-01,1.639836311340331920e-01,1.639767885208129883e-01,1.639699459075927845e-01,1.639631152153015192e-01,1.639562726020812877e-01,1.639494419097900502e-01,1.639425992965698187e-01,1.639357566833496149e-01,1.639289140701293834e-01,1.639220714569091797e-01,1.639152407646179144e-01,1.639083981513977106e-01,1.639015674591064453e-01,1.638947248458862416e-01,1.638879060745239147e-01,1.638810634613037109e-01,1.638742327690124456e-01,1.638674020767211803e-01,1.638605594635009766e-01,1.638537287712097112e-01,1.638468980789184459e-01,1.638400673866272084e-01,1.638332366943359431e-01,1.638264060020446777e-01,1.638195872306823786e-01,1.638127565383911133e-01,1.638059258460998480e-01,1.637990951538085826e-01,1.637922763824462835e-01,1.637854456901550182e-01,1.637786149978637806e-01,1.637717962265014537e-01,1.637649655342102162e-01,1.637581348419189509e-01,1.637513160705566517e-01,1.637444853782653864e-01,1.637376785278320257e-01,1.637308597564697266e-01,1.637240409851074274e-01,1.637172102928161621e-01
1.565985441207885798e-01,1.565922975540161022e-01,1.565860629081726185e-01,1.565798401832580455e-01,1.565735936164855957e-01,1.565673589706420843e-01,1.565611124038696345e-01,1.565548777580261230e-01,1.565486431121826116e-01,1.565424084663391002e-01,1.565361738204956166e-01,1.565299272537231390e-01,1.565236926078796276e-01,1.565174698829650823e-01,1.565112352371215709e-01,1.565050125122070257e-01,1.564987778663635143e-01,1.564925432205200306e-01,1.564863085746765192e-01,1.564800739288330078e-01,1.564738392829894964e-01,1.564676165580749512e-01,1.564613819122314398e-01,1.564551591873168945e-01,1.564489364624023493e-01,1.564427018165588379e-01,1.564364790916442927e-01,1.564302444458007812e-01,1.564240217208862360e-01,1.564177989959716908e-01,1.564115643501281794e-01,1.564053416252136341e-01,1.563991189002990612e-01,1.563928842544555775e-01,1.563866734504699707e-01,1.563804507255554255e-01,1.563742280006408802e-01,1.563680052757263073e-01,1.563617825508117620e-01,1.563555598258972168e-01,1.563493371009826716e-01,1.563431143760681263e-01,1.563368916511535534e-01,1.563306808471679743e-01,1.563244700431823675e-01,1.563182473182678223e-01,1.563120365142822155e-01,1.563058137893676702e-01,1.562995910644531250e-01,1.562933802604675182e-01,1.562871575355529730e-01,1.562809467315673939e-01,1.562747240066528209e-01,1.562685132026672419e-01,1.562623143196106013e-01,1.562561035156249944e-01,1.562498807907104492e-01,1.562436699867248424e-01,1.562374591827392634e-01,1.562312483787536566e-01,1.562250375747680775e-01,1.562188267707824707e-01,1.562126159667968639e-01,1.562064051628112848e-01,1.562002062797546442e-01,1.561939954757690374e-01,1.561877846717834584e-01,1.561815738677978516e-01,1.561753749847412109e-01,1.561691641807556041e-01,1.561629533767700251e-01,1.561567544937133845e-01,1.561505436897277777e-01,1.561443328857421986e-01,1.561381340026855580e-01,1.561319231986999512e-01,1.561257362365722767e-01,1.561195373535156361e-01,1.561133265495300293e-01,1.561071276664733887e-01
1.496217727661132701e-01,1.496160745620727650e-01,1.496103763580322321e-01,1.496046781539916992e-01,1.495989918708801325e-01,1.495933055877685658e-01,1.495876073837280329e-01,1.495819091796875000e-01,1.495762109756469671e-01,1.495705246925354004e-01,1.495648264884948675e-01,1.495591402053833008e-01,1.495534420013427679e-01,1.495477557182312012e-01,1.495420694351196345e-01,1.495363831520080677e-01,1.495306849479675348e-01,1.495249986648559681e-01,1.495193123817443737e-01,1.495136141777038685e-01,1.495079278945922741e-01,1.495022416114807073e-01,1.494965553283691406e-01,1.494908690452575739e-01,1.494851946830749456e-01,1.494795083999633789e-01,1.494738221168518122e-01,1.494681358337402455e-01,1.494624495506286510e-01,1.494567632675170843e-01,1.494510769844055176e-01,1.494453907012939509e-01,1.494397044181823841e-01,1.494340181350707897e-01,1.494283556938171276e-01,1.494226694107055609e-01,1.494169831275939941e-01,1.494113087654113659e-01,1.494056224822997991e-01,1.493999481201171986e-01,1.493942618370056041e-01,1.493885755538940374e-01,1.493829011917114369e-01,1.493772268295288086e-01,1.493715405464172419e-01,1.493658781051635798e-01,1.493602037429809515e-01,1.493545174598693848e-01,1.493488430976867565e-01,1.493431687355041559e-01,1.493374943733215277e-01,1.493318200111389271e-01,1.493261456489562988e-01,1.493204712867736705e-01,1.493147969245910700e-01,1.493091344833374079e-01,1.493034601211547796e-01,1.492977857589721791e-01,1.492921113967895508e-01,1.492864370346069225e-01,1.492807626724243220e-01,1.492751002311706598e-01,1.492694258689880316e-01,1.492637515068054310e-01,1.492580771446228027e-01,1.492524266242981068e-01,1.492467522621154785e-01,1.492410898208618164e-01,1.492354154586791881e-01,1.492297530174255260e-01,1.492240786552429255e-01,1.492184162139892634e-01,1.492127537727356013e-01,1.492070794105529730e-01,1.492014169692993109e-01,1.491957545280456487e-01,1.491901040077209528e-01,1.491844296455383245e-01,1.491787672042846624e-01,1.491731047630310003e-01
1.432401418685912975e-01,1.432349205017089955e-01,1.432296991348266657e-01,1.432244777679443359e-01,1.432192683219909723e-01,1.432140469551086426e-01,1.432088255882263128e-01,1.432036042213439830e-01,1.431983828544616810e-01,1.431931734085082897e-01,1.431879520416259877e-01,1.431827306747436579e-01,1.431775093078613281e-01,1.431722998619079645e-01,1.431670784950256348e-01,1.431618809700012096e-01,1.431566596031189076e-01,1.431514382362365778e-01,1.431462287902832142e-01,1.431410193443298229e-01,1.431357979774475209e-01,1.431305885314941295e-01,1.431253671646118275e-01,1.431201577186584362e-01,1.431149482727050726e-01,1.431097388267517090e-01,1.431045293807983454e-01,1.430993199348449818e-01,1.430941104888915905e-01,1.430889010429382269e-01,1.430836915969848633e-01,1.430784821510314997e-01,1.430732607841491699e-01,1.430680513381958063e-01,1.430628418922424427e-01,1.430576562881469838e-01,1.430524468421935924e-01,1.430472373962402288e-01,1.430420279502868652e-01,1.430368185043335016e-01,1.430316090583801381e-01,1.430264115333557129e-01,1.430212020874023493e-01,1.430159926414489857e-01,1.430107831954955944e-01,1.430055975914001354e-01,1.430003881454467718e-01,1.429951906204223744e-01,1.429899811744689830e-01,1.429847836494445856e-01,1.429795742034912220e-01,1.429743766784667969e-01,1.429691672325134333e-01,1.429639697074890081e-01,1.429587721824646107e-01,1.429535627365112194e-01,1.429483771324157604e-01,1.429431796073913630e-01,1.429379820823669378e-01,1.429327726364135742e-01,1.429275751113891491e-01,1.429223775863647516e-01,1.429171800613403265e-01,1.429119825363159291e-01,1.429067850112915039e-01,1.429015874862670787e-01,1.428964018821716198e-01,1.428912043571472223e-01,1.428860068321227972e-01,1.428808093070983998e-01,1.428756117820739746e-01,1.428704261779785156e-01,1.428652286529540905e-01,1.428600311279296931e-01,1.428548336029052679e-01,1.428496479988098089e-01,1.428444623947143499e-01,1.428392648696899525e-01,1.428340792655944935e-01,1.428288817405700684e-01
1.373806118965149037e-01,1.373758077621460016e-01,1.373710155487060658e-01,1.373662114143371638e-01,1.373614072799682617e-01,1.373566150665283259e-01,1.373518109321594238e-01,1.373470067977905218e-01,1.373422145843505859e-01,1.373374104499816839e-01,1.373326063156127819e-01,1.373278141021728460e-01,1.373230099678039440e-01,1.373182058334350697e-01,1.373134136199951061e-01,1.373086214065551702e-01,1.373038291931152344e-01,1.372990250587463323e-01,1.372942328453063965e-01,1.372894287109374944e-01,1.372846364974975586e-01,1.372798442840576227e-01,1.372750401496887207e-01,1.372702479362487848e-01,1.372654557228088490e-01,1.372606635093688854e-01,1.372558712959289495e-01,1.372510790824890137e-01,1.372462868690490778e-01,1.372414946556091420e-01,1.372366905212402399e-01,1.372318983078003041e-01,1.372271060943603405e-01,1.372223138809204046e-01,1.372175216674804688e-01,1.372127294540405329e-01,1.372079491615295355e-01,1.372031569480895996e-01,1.371983647346496638e-01,1.371935844421386663e-01,1.371887922286987305e-01,1.371840000152587946e-01,1.371792078018188588e-01,1.371744155883788951e-01,1.371696352958679255e-01,1.371648430824279896e-01,1.371600627899169922e-01,1.371552824974059948e-01,1.371504902839660589e-01,1.371456980705261230e-01,1.371409177780151256e-01,1.371361255645751898e-01,1.371313452720642201e-01,1.371265530586242565e-01,1.371217727661132868e-01,1.371169805526733509e-01,1.371122121810913197e-01,1.371074318885803223e-01,1.371026396751403864e-01,1.370978593826293890e-01,1.370930790901184193e-01,1.370882868766784557e-01,1.370835065841674860e-01,1.370787262916564886e-01,1.370739459991455189e-01,1.370691657066345215e-01,1.370643854141235241e-01,1.370596170425414928e-01,1.370548248291015569e-01,1.370500445365905873e-01,1.370452642440795898e-01,1.370404839515685924e-01,1.370357155799865612e-01,1.370309352874755915e-01,1.370261549949645941e-01,1.370213747024536244e-01,1.370166063308715931e-01,1.370118260383605957e-01,1.370070457458495983e-01,1.370022773742675670e-01
1.319816470146179255e-01,1.319772124290466420e-01,1.319727778434753307e-01,1.319683432579040472e-01,1.319639086723327637e-01,1.319594860076904186e-01,1.319550633430481013e-01,1.319506287574768177e-01,1.319461941719055065e-01,1.319417715072631891e-01,1.319373369216919056e-01,1.319329023361205944e-01,1.319284796714782770e-01,1.319240450859069935e-01,1.319196224212646484e-01,1.319151878356933649e-01,1.319107651710510198e-01,1.319063425064087025e-01,1.319019079208373912e-01,1.318974852561950739e-01,1.318930625915527288e-01,1.318886280059814453e-01,1.318842053413391002e-01,1.318797826766967829e-01,1.318753480911254994e-01,1.318709254264831543e-01,1.318665146827697754e-01,1.318620800971984919e-01,1.318576574325561468e-01,1.318532347679138295e-01,1.318488121032714844e-01,1.318443894386291393e-01,1.318399667739868220e-01,1.318355321884155384e-01,1.318311095237731934e-01,1.318266868591308483e-01,1.318222761154174694e-01,1.318178534507751520e-01,1.318134307861328069e-01,1.318090081214904896e-01,1.318045854568481445e-01,1.318001747131347656e-01,1.317957520484924205e-01,1.317913293838501032e-01,1.317869067192077581e-01,1.317824840545654408e-01,1.317780613899230957e-01,1.317736625671386830e-01,1.317692399024963379e-01,1.317648172378539928e-01,1.317604064941406139e-01,1.317559838294982966e-01,1.317515611648559515e-01,1.317471504211425726e-01,1.317427277565002552e-01,1.317383170127868763e-01,1.317338943481445312e-01,1.317294836044311523e-01,1.317250728607177734e-01,1.317206501960754284e-01,1.317162394523620494e-01,1.317118287086486705e-01,1.317074060440063532e-01,1.317029953002929743e-01,1.316985845565795954e-01,1.316941618919372503e-01,1.316897511482238714e-01,1.316853523254394587e-01,1.316809296607971136e-01,1.316765189170837347e-01,1.316721081733703558e-01,1.316676974296569769e-01,1.316632866859435980e-01,1.316588759422302191e-01,1.316544651985168402e-01,1.316500544548034612e-01,1.316456437110900823e-01,1.316412329673767034e-01,1.316368222236633245e-01,1.316324234008789118e-01
1.269909739494323730e-01,1.269868731498718373e-01,1.269827723503112737e-01,1.269786596298217718e-01,1.269745588302612360e-01,1.269704580307006725e-01,1.269663691520691029e-01,1.269622564315796009e-01,1.269581556320190374e-01,1.269540548324585016e-01,1.269499540328979381e-01,1.269458532333374023e-01,1.269417524337768666e-01,1.269376516342163030e-01,1.269335508346557673e-01,1.269294500350952037e-01,1.269253611564636341e-01,1.269212603569030706e-01,1.269171595573425348e-01,1.269130587577819713e-01,1.269089579582214355e-01,1.269048571586608998e-01,1.269007563591003362e-01,1.268966674804687389e-01,1.268925666809082031e-01,1.268884658813476674e-01,1.268843650817871038e-01,1.268802762031555065e-01,1.268761873245239369e-01,1.268720865249633734e-01,1.268679857254028376e-01,1.268638968467712402e-01,1.268597960472107045e-01,1.268557071685791071e-01,1.268516063690185436e-01,1.268475174903869740e-01,1.268434166908264105e-01,1.268393278121948131e-01,1.268352389335632435e-01,1.268311381340026800e-01,1.268270492553710826e-01,1.268229603767395131e-01,1.268188595771789495e-01,1.268147706985473522e-01,1.268106818199157826e-01,1.268065810203552191e-01,1.268024921417236217e-01,1.267984032630920521e-01,1.267943143844604548e-01,1.267902255058288574e-01,1.267861366271972601e-01,1.267820477485656627e-01,1.267779469490051270e-01,1.267738580703735296e-01,1.267697691917419323e-01,1.267656803131103627e-01,1.267615914344787653e-01,1.267575025558471680e-01,1.267534255981445368e-01,1.267493367195129395e-01,1.267452478408813421e-01,1.267411589622497448e-01,1.267370700836181752e-01,1.267329812049865778e-01,1.267288923263549805e-01,1.267248034477233831e-01,1.267207145690917858e-01,1.267166256904602162e-01,1.267125487327575573e-01,1.267084717750549261e-01,1.267043828964233287e-01,1.267002940177917591e-01,1.266962051391601618e-01,1.266921281814575306e-01,1.266880393028259333e-01,1.266839504241943359e-01,1.266798734664917048e-01,1.266757845878601074e-01,1.266717076301574763e-01,1.266676306724548451e-01
1.223639845848083496e-01,1.223601818084716769e-01,1.223563671112060519e-01,1.223525524139404269e-01,1.223487496376037542e-01,1.223449349403381292e-01,1.223411321640014704e-01,1.223373293876647977e-01,1.223335146903991727e-01,1.223297119140625000e-01,1.223258972167968750e-01,1.223220944404602023e-01,1.223182916641235296e-01,1.223144769668579046e-01,1.223106741905212458e-01,1.223068594932556208e-01,1.223030567169189481e-01,1.222992539405822754e-01,1.222954511642456027e-01,1.222916483879089300e-01,1.222878336906433050e-01,1.222840309143066462e-01,1.222802281379699735e-01,1.222764253616333008e-01,1.222726106643676758e-01,1.222688078880310031e-01,1.222650051116943304e-01,1.222612142562866239e-01,1.222574114799499512e-01,1.222535967826843262e-01,1.222497940063476535e-01,1.222459912300109808e-01,1.222421884536743220e-01,1.222383856773376493e-01,1.222345829010009766e-01,1.222307801246643039e-01,1.222269773483276312e-01,1.222231745719909723e-01,1.222193837165832520e-01,1.222155809402465793e-01,1.222117781639099066e-01,1.222079753875732477e-01,1.222041845321655273e-01,1.222003817558288546e-01,1.221965789794921819e-01,1.221927762031555231e-01,1.221889734268188504e-01,1.221851825714111300e-01,1.221813917160034235e-01,1.221775889396667508e-01,1.221737861633300781e-01,1.221699953079223577e-01,1.221661925315856989e-01,1.221623897552490262e-01,1.221585988998413058e-01,1.221547961235046331e-01,1.221510052680969266e-01,1.221472024917602539e-01,1.221434116363525335e-01,1.221396207809448270e-01,1.221358180046081543e-01,1.221320271492004339e-01,1.221282243728637751e-01,1.221244335174560547e-01,1.221206307411193820e-01,1.221168398857116755e-01,1.221130490303039551e-01,1.221092462539672824e-01,1.221054553985595759e-01,1.221016645431518555e-01,1.220978736877441351e-01,1.220940828323364286e-01,1.220902919769287082e-01,1.220864892005920355e-01,1.220826983451843289e-01,1.220789074897766086e-01,1.220751166343689020e-01,1.220713257789611816e-01,1.220675230026245089e-01,1.220637440681457547e-01
