6.199379444122314897e-01,6.356695175170898882e-01,6.522203445434570090e-01,6.696560382843017578e-01,6.880495548248291016e-01,7.074820041656494363e-01,7.280440330505371094e-01,7.498370647430420144e-01,7.729750156402588335e-01,7.975839138031005637e-01,8.238112449645995650e-01,8.518221855163574663e-01,8.818049430847167969e-01,9.139755249023437944e-01,9.485822677612304465e-01,9.859127998352050781e-01,1.000000000000000000e+00,1.000000000000000000e+00,1.000000000000000000e+00,1.000000000000000000e+00,1.000000000000000000e+00,1.000000000000000000e+00,1.000000000000000000e+00,1.000000000000000000e+00,1.000000000000000000e+00,1.000000000000000000e+00,1.000000000000000000e+00,1.000000000000000000e+00,1.000000000000000000e+00,1.000000000000000000e+00,1.000000000000000000e+00,1.000000000000000000e+00,1.000000000000000000e+00,1.000000000000000000e+00,1.000000000000000000e+00,1.652129411697387806e-01,1.615486860275268666e-01,1.576147556304931530e-01,1.545866727828979492e-01,1.514762997627258356e-01,1.506666183471679632e-01,1.502129435539245605e-01,1.498525381088256780e-01,1.501666903495788574e-01,1.548177123069763295e-01,1.590126156806945801e-01,1.000000000000000000e+00,1.000000000000000000e+00,1.000000000000000000e+00,1.000000000000000000e+00,1.000000000000000000e+00,1.000000000000000000e+00,1.000000000000000000e+00,1.000000000000000000e+00,1.000000000000000000e+00,1.000000000000000000e+00,1.000000000000000000e+00,1.000000000000000000e+00,1.000000000000000000e+00,1.357787728309631237e-01,1.307491064071655273e-01,1.277814626693725697e-01,1.267778515815734808e-01,1.257899045944213812e-01,1.248172163963317816e-01,1.236338615417480469e-01,1.226128101348877009e-01,1.225938558578491266e-01,1.225748896598815862e-01,1.232125639915466336e-01,1.240090608596801786e-01,9.366708755493163840e-01,9.070245742797851118e-01,8.791973114013671431e-01,8.530267715454101785e-01,8.283691406250000000e-01,8.050969123840332475e-01,7.830966472625732200e-01,7.622668266296386275e-01,7.425163269042969194e-01
6.199247837066650391e-01,6.356556892395019975e-01,6.522057056427001953e-01,6.696405887603760210e-01,6.880332469940185769e-01,7.074647903442382590e-01,7.280257701873779075e-01,7.498177051544189231e-01,7.729544639587402344e-01,7.975644111633301003e-01,8.237905502319335938e-01,8.518000602722167747e-01,8.817811965942382590e-01,9.139499664306640625e-01,9.485547065734862837e-01,9.858831405639648660e-01,1.000000000000000000e+00,1.000000000000000000e+00,1.000000000000000000e+00,1.000000000000000000e+00,1.000000000000000000e+00,1.000000000000000000e+00,1.000000000000000000e+00,1.000000000000000000e+00,1.000000000000000000e+00,1.000000000000000000e+00,1.000000000000000000e+00,1.000000000000000000e+00,1.000000000000000000e+00,1.000000000000000000e+00,1.000000000000000000e+00,1.000000000000000000e+00,1.000000000000000000e+00,1.000000000000000000e+00,1.000000000000000000e+00,1.661637783050537165e-01,1.624577045440673828e-01,1.586737990379333552e-01,1.555016636848449707e-01,1.523547291755676381e-01,1.514849424362182673e-01,1.510263323783874456e-01,1.505704879760742243e-01,1.515135765075683594e-01,1.557376980781555176e-01,1.599832892417907826e-01,1.000000000000000000e+00,1.000000000000000000e+00,1.000000000000000000e+00,1.000000000000000000e+00,1.000000000000000000e+00,1.000000000000000000e+00,1.000000000000000000e+00,1.000000000000000000e+00,1.000000000000000000e+00,1.000000000000000000e+00,1.000000000000000000e+00,1.000000000000000000e+00,1.000000000000000000e+00,1.358620643615722767e-01,1.308198094367981068e-01,1.282916307449340765e-01,1.272800326347351130e-01,1.262842655181884710e-01,1.252174496650695912e-01,1.238931655883789007e-01,1.232620000839233371e-01,1.232428312301635798e-01,1.232236742973327609e-01,1.237096548080444391e-01,1.245126128196716309e-01,9.367021560668945535e-01,9.070539474487304688e-01,8.792248725891113059e-01,8.530527114868163840e-01,8.283935546874999778e-01,8.051200866699218528e-01,7.831185817718505637e-01,7.622876167297363281e-01,7.425360679626464844e-01
6.199115276336669700e-01,6.356417655944823775e-01,6.521910667419433816e-01,6.696251869201660378e-01,6.880169391632080522e-01,7.074475288391113281e-01,7.280075550079345703e-01,7.497983455657959428e-01,7.729338645935058816e-01,7.975426197052002397e-01,8.237697601318358931e-01,8.517778396606445757e-01,8.817574501037597212e-01,9.139244079589843306e-01,9.485272407531738503e-01,9.858533859252929243e-01,1.000000000000000000e+00,1.000000000000000000e+00,1.000000000000000000e+00,1.000000000000000000e+00,1.000000000000000000e+00,1.000000000000000000e+00,1.000000000000000000e+00,1.000000000000000000e+00,1.000000000000000000e+00,1.000000000000000000e+00,1.000000000000000000e+00,1.000000000000000000e+00,1.000000000000000000e+00,1.000000000000000000e+00,1.000000000000000000e+00,1.000000000000000000e+00,1.000000000000000000e+00,1.000000000000000000e+00,1.000000000000000000e+00,1.671932220458984264e-01,1.633803606033325251e-01,1.597928404808044434e-01,1.564275503158569225e-01,1.532601356506347601e-01,1.522896409034729115e-01,1.518485546112060547e-01,1.513877511024475098e-01,1.525949478149414007e-01,1.566686749458313099e-01,1.000000000000000000e+00,1.000000000000000000e+00,1.000000000000000000e+00,1.000000000000000000e+00,1.000000000000000000e+00,1.000000000000000000e+00,1.000000000000000000e+00,1.000000000000000000e+00,1.000000000000000000e+00,1.000000000000000000e+00,1.000000000000000000e+00,1.000000000000000000e+00,1.000000000000000000e+00,1.000000000000000000e+00,1.359384179115295521e-01,1.308905959129333385e-01,1.288058996200561468e-01,1.277861952781677302e-01,1.267825126647949274e-01,1.254834771156310980e-01,1.241535902023315485e-01,1.239180803298950140e-01,1.238987207412719782e-01,1.238793611526489286e-01,1.242107748985290527e-01,1.250202655792236328e-01,9.367334365844726118e-01,9.070832252502440962e-01,8.792525291442870872e-01,8.530786514282227007e-01,8.284180641174316850e-01,8.051431655883789507e-01,7.831404209136962891e-01,7.623083114624022993e-01,7.425556659698486772e-01
6.198983192443847656e-01,6.356278419494628684e-01,6.521764278411865678e-01,6.696097373962401900e-01,6.880006790161132812e-01,7.074303150177001509e-01,7.279892921447753684e-01,7.497789859771728516e-01,7.729133129119872825e-01,7.975207805633545144e-01,8.237465858459472878e-01,8.517556190490722656e-01,8.817337036132812944e-01,9.138988494873047097e-01,9.484996795654296875e-01,9.858236312866210938e-01,1.000000000000000000e+00,1.000000000000000000e+00,1.000000000000000000e+00,1.000000000000000000e+00,1.000000000000000000e+00,1.000000000000000000e+00,1.000000000000000000e+00,1.000000000000000000e+00,1.000000000000000000e+00,1.000000000000000000e+00,1.000000000000000000e+00,1.000000000000000000e+00,1.000000000000000000e+00,1.000000000000000000e+00,1.000000000000000000e+00,1.000000000000000000e+00,1.000000000000000000e+00,1.000000000000000000e+00,1.000000000000000000e+00,1.684338331222534069e-01,1.645135164260864147e-01,1.608243703842163197e-01,1.574587225914001465e-01,1.543069243431091364e-01,1.530925750732421986e-01,1.524564027786254883e-01,1.520235776901245062e-01,1.539262652397155873e-01,1.579694867134094349e-01,1.000000000000000000e+00,1.000000000000000000e+00,1.000000000000000000e+00,1.000000000000000000e+00,1.000000000000000000e+00,1.000000000000000000e+00,1.000000000000000000e+00,1.000000000000000000e+00,1.000000000000000000e+00,1.000000000000000000e+00,1.000000000000000000e+00,1.000000000000000000e+00,1.000000000000000000e+00,1.000000000000000000e+00,1.360148549079895075e-01,1.309614658355712780e-01,1.293242931365966852e-01,1.282964110374450739e-01,1.271151304244995117e-01,1.257506251335143987e-01,1.246007680892944336e-01,1.245811939239502009e-01,1.245616197586059543e-01,1.245420575141906738e-01,1.247159719467163114e-01,1.255320906639099121e-01,9.367648124694823997e-01,9.071125984191894531e-01,8.792800903320312500e-01,8.531046867370605247e-01,8.284425735473632812e-01,8.051663398742675559e-01,7.831623554229736328e-01,7.623290538787841353e-01,7.425753116607666238e-01
6.198851108551025613e-01,6.356139659881592241e-01,6.521617889404296431e-01,6.695942878723144531e-01,6.879843711853027566e-01,7.074131011962890847e-01,7.279711246490478960e-01,7.497597217559814897e-01,7.728928565979004128e-01,7.974988937377929243e-01,8.237232208251953347e-01,8.517308235168457031e-01,8.817098617553711382e-01,9.138733863830565962e-01,9.484722137451171431e-01,9.857938766479492632e-01,1.000000000000000000e+00,1.000000000000000000e+00,1.000000000000000000e+00,1.000000000000000000e+00,1.000000000000000000e+00,1.000000000000000000e+00,1.000000000000000000e+00,1.000000000000000000e+00,1.000000000000000000e+00,1.000000000000000000e+00,1.000000000000000000e+00,1.000000000000000000e+00,1.000000000000000000e+00,1.000000000000000000e+00,1.000000000000000000e+00,1.000000000000000000e+00,1.000000000000000000e+00,1.000000000000000000e+00,1.000000000000000000e+00,1.690084934234619141e-01,1.654120564460754284e-01,1.619216084480285534e-01,1.585548639297485463e-01,1.553681015968322865e-01,1.542075753211974987e-01,1.532724618911743275e-01,1.526235461235046498e-01,1.554861426353454645e-01,1.592299342155456543e-01,1.000000000000000000e+00,1.000000000000000000e+00,1.000000000000000000e+00,1.000000000000000000e+00,1.000000000000000000e+00,1.000000000000000000e+00,1.000000000000000000e+00,1.000000000000000000e+00,1.000000000000000000e+00,1.000000000000000000e+00,1.000000000000000000e+00,1.000000000000000000e+00,1.000000000000000000e+00,1.410609841346740778e-01,1.360913634300232045e-01,1.310323953628539928e-01,1.298468947410583441e-01,1.287897825241088867e-01,1.273892760276794378e-01,1.260189175605773981e-01,1.252712249755859319e-01,1.252514481544494684e-01,1.252316594123840388e-01,1.252118825912475475e-01,1.252252936363220104e-01,9.684545516967772993e-01,9.367960929870605691e-01,9.071419715881348100e-01,8.793076515197754128e-01,8.531306266784668413e-01,8.284669876098632590e-01,8.051895141601562722e-01,7.831842422485351118e-01,7.623497962951659712e-01,7.425950527191161887e-01
6.198718547821044922e-01,6.356000423431396040e-01,6.521471500396728294e-01,6.695789337158203347e-01,6.879681587219238503e-01,7.073959350585937722e-01,7.279529094696044478e-01,7.497403621673583984e-01,7.728723049163818137e-01,7.974770069122314453e-01,8.236998558044433816e-01,8.517059326171875222e-01,8.816833496093750000e-01,9.138478279113769753e-01,9.484446525573730913e-01,9.857641220092773215e-01,1.000000000000000000e+00,1.000000000000000000e+00,1.000000000000000000e+00,1.000000000000000000e+00,1.000000000000000000e+00,1.000000000000000000e+00,1.000000000000000000e+00,1.000000000000000000e+00,1.000000000000000000e+00,1.000000000000000000e+00,1.000000000000000000e+00,1.000000000000000000e+00,1.000000000000000000e+00,1.000000000000000000e+00,1.000000000000000000e+00,1.000000000000000000e+00,1.000000000000000000e+00,1.000000000000000000e+00,1.000000000000000000e+00,1.690783619880676381e-01,1.650404930114746094e-01,1.617875933647155706e-01,1.587055563926696722e-01,1.564902424812316950e-01,1.553503274917602539e-01,1.543994903564453181e-01,1.536532282829284612e-01,1.573082208633422852e-01,1.611611843109130859e-01,1.000000000000000000e+00,1.000000000000000000e+00,1.000000000000000000e+00,1.000000000000000000e+00,1.000000000000000000e+00,1.000000000000000000e+00,1.000000000000000000e+00,1.000000000000000000e+00,1.000000000000000000e+00,1.000000000000000000e+00,1.000000000000000000e+00,1.000000000000000000e+00,1.000000000000000000e+00,1.410063028335571400e-01,1.361679673194885198e-01,1.314352989196777288e-01,1.303737282752990834e-01,1.290712118148803766e-01,1.276646256446838379e-01,1.262883543968200684e-01,1.259489417076110895e-01,1.259289264678954967e-01,1.259089469909668024e-01,1.258889436721801758e-01,1.258689522743225153e-01,9.684880256652832475e-01,9.368274688720703569e-01,9.071713447570800559e-01,8.793353080749511941e-01,8.531565666198730469e-01,8.284914970397949663e-01,8.052125930786132590e-01,7.832061767578124556e-01,7.623704910278320535e-01,7.426146984100341353e-01
6.198586940765380415e-01,6.355862140655517134e-01,6.521325588226318803e-01,6.695634841918944868e-01,6.879518508911133257e-01,7.073787212371825950e-01,7.279346466064453569e-01,7.497210025787353072e-01,7.728517055511474609e-01,7.974551200866699663e-01,8.236764907836914285e-01,8.516809463500976118e-01,8.816566467285156250e-01,9.138193130493164062e-01,9.484171867370605469e-01,9.857344627380371094e-01,1.000000000000000000e+00,1.000000000000000000e+00,1.000000000000000000e+00,1.000000000000000000e+00,1.000000000000000000e+00,1.000000000000000000e+00,1.000000000000000000e+00,1.000000000000000000e+00,1.000000000000000000e+00,1.000000000000000000e+00,1.000000000000000000e+00,1.000000000000000000e+00,1.000000000000000000e+00,1.000000000000000000e+00,1.000000000000000000e+00,1.000000000000000000e+00,1.000000000000000000e+00,1.000000000000000000e+00,1.000000000000000000e+00,1.688081979751586970e-01,1.649024724960327093e-01,1.620881557464599609e-01,1.597028136253356989e-01,1.579387068748474010e-01,1.567095875740051325e-01,1.555553436279296931e-01,1.567971467971801813e-01,1.608439803123474232e-01,1.000000000000000000e+00,1.000000000000000000e+00,1.000000000000000000e+00,1.000000000000000000e+00,1.000000000000000000e+00,1.000000000000000000e+00,1.000000000000000000e+00,1.000000000000000000e+00,1.000000000000000000e+00,1.000000000000000000e+00,1.000000000000000000e+00,1.000000000000000000e+00,1.000000000000000000e+00,1.000000000000000000e+00,1.409516453742981068e-01,1.361490249633789118e-01,1.319751262664795033e-01,1.307981491088867076e-01,1.293538808822631836e-01,1.279411554336547796e-01,1.266542553901672252e-01,1.266340255737304632e-01,1.266138076782226674e-01,1.265935897827148438e-01,1.265733838081359863e-01,1.265531659126281627e-01,9.685214996337890847e-01,9.368587493896484153e-01,9.072007179260254128e-01,8.793628692626953569e-01,8.531825065612792525e-01,8.285160064697265625e-01,8.052357673645019753e-01,7.832280158996581809e-01,7.623912811279296431e-01,7.426343917846679465e-01
6.198376655578613503e-01,6.355686664581299272e-01,6.521179676055908203e-01,6.695480823516846147e-01,6.879355430603026900e-01,7.073615074157715288e-01,7.279164314270019087e-01,7.497016906738280806e-01,7.728311538696288618e-01,7.974332332611083762e-01,8.236532211303710938e-01,8.516559600830078125e-01,8.816298484802246316e-01,9.137907028198242188e-01,9.483865737915039285e-01,9.857047080993652788e-01,1.000000000000000000e+00,1.000000000000000000e+00,1.000000000000000000e+00,1.000000000000000000e+00,1.000000000000000000e+00,1.000000000000000000e+00,1.000000000000000000e+00,1.000000000000000000e+00,1.000000000000000000e+00,1.000000000000000000e+00,1.000000000000000000e+00,1.000000000000000000e+00,1.000000000000000000e+00,1.000000000000000000e+00,1.000000000000000000e+00,1.000000000000000000e+00,1.000000000000000000e+00,1.000000000000000000e+00,1.726146936416625977e-01,1.684786438941955622e-01,1.649246454238891546e-01,1.624557375907897949e-01,1.603954434394836426e-01,1.596888065338134821e-01,1.583742260932922419e-01,1.570811271667480469e-01,1.604211568832397405e-01,1.646956801414489746e-01,1.000000000000000000e+00,1.000000000000000000e+00,1.000000000000000000e+00,1.000000000000000000e+00,1.000000000000000000e+00,1.000000000000000000e+00,1.000000000000000000e+00,1.000000000000000000e+00,1.000000000000000000e+00,1.000000000000000000e+00,1.000000000000000000e+00,1.000000000000000000e+00,1.000000000000000000e+00,1.000000000000000000e+00,1.408970475196838490e-01,1.360980868339538574e-01,1.325194239616394043e-01,1.310884475708007924e-01,1.296162247657775823e-01,1.280889511108398438e-01,1.266255140304565485e-01,1.265609502792358343e-01,1.265432476997375433e-01,1.265255331993103138e-01,1.265078186988830566e-01,1.264901161193847656e-01,9.685549736022949219e-01,9.368900299072265847e-01,9.072300910949706587e-01,8.793904304504394087e-01,8.532085418701171875e-01,8.285405158996581587e-01,8.052588462829589622e-01,7.832498550415039062e-01,7.624119758605957253e-01,7.426540374755858931e-01
6.198145389556884988e-01,6.355443000793457031e-01,6.520933151245117410e-01,6.695271492004394309e-01,6.879188537597655806e-01,7.073442459106444868e-01,7.278981685638428178e-01,7.496823310852051003e-01,7.728106021881103738e-01,7.974113464355468972e-01,8.236298561096191406e-01,8.516310691833496316e-01,8.816031455993652566e-01,9.137619018554687944e-01,9.483556747436523438e-01,9.856718063354492632e-01,1.000000000000000000e+00,1.000000000000000000e+00,1.000000000000000000e+00,1.000000000000000000e+00,1.000000000000000000e+00,1.000000000000000000e+00,1.000000000000000000e+00,1.000000000000000000e+00,1.000000000000000000e+00,1.000000000000000000e+00,1.000000000000000000e+00,1.000000000000000000e+00,1.000000000000000000e+00,1.000000000000000000e+00,1.000000000000000000e+00,1.000000000000000000e+00,1.000000000000000000e+00,1.000000000000000000e+00,1.722133517265319880e-01,1.681503653526306152e-01,1.653052210807800237e-01,1.630995512008666937e-01,1.618489503860473522e-01,1.614875435829162542e-01,1.601433277130127064e-01,1.599455118179321234e-01,1.641944169998169056e-01,1.000000000000000000e+00,1.000000000000000000e+00,1.000000000000000000e+00,1.000000000000000000e+00,1.000000000000000000e+00,1.000000000000000000e+00,1.000000000000000000e+00,1.000000000000000000e+00,1.000000000000000000e+00,1.000000000000000000e+00,1.000000000000000000e+00,1.000000000000000000e+00,1.000000000000000000e+00,1.000000000000000000e+00,1.000000000000000000e+00,1.408424973487854004e-01,1.360471963882446400e-01,1.328028321266174205e-01,1.312000155448913574e-01,1.296354174613952581e-01,1.281077027320861872e-01,1.266606092453002874e-01,1.263569355010986384e-01,1.263586401939392201e-01,1.263409852981567383e-01,1.263233304023742565e-01,1.263056874275207409e-01,9.685884475708007590e-01,9.369214057922363725e-01,9.072594642639160156e-01,8.794179916381835715e-01,8.532344818115233931e-01,8.285650253295898660e-01,8.052820205688476785e-01,7.832717895507812500e-01,7.624327659606933150e-01,7.426737785339355691e-01
6.197936534881591797e-01,6.355199813842773438e-01,6.520677089691162553e-01,6.695001602172852007e-01,6.878903865814208762e-01,7.073193073272705522e-01,7.278777122497558372e-01,7.496630668640136275e-01,7.727901458740233931e-01,7.973895549774170366e-01,8.236064910888671875e-01,8.516060829162597212e-01,8.815764427185058816e-01,9.137331962585448775e-01,9.483246803283691406e-01,9.856384277343750444e-01,1.000000000000000000e+00,1.000000000000000000e+00,1.000000000000000000e+00,1.000000000000000000e+00,1.000000000000000000e+00,1.000000000000000000e+00,1.000000000000000000e+00,1.000000000000000000e+00,1.000000000000000000e+00,1.000000000000000000e+00,1.000000000000000000e+00,1.000000000000000000e+00,1.000000000000000000e+00,1.000000000000000000e+00,1.000000000000000000e+00,1.000000000000000000e+00,1.000000000000000000e+00,1.000000000000000000e+00,1.718703746795654241e-01,1.682564616203308105e-01,1.658964157104492188e-01,1.642244577407837025e-01,1.635678887367248424e-01,1.633272647857665905e-01,1.619523882865905873e-01,1.636961817741394154e-01,1.702502846717834362e-01,1.000000000000000000e+00,1.000000000000000000e+00,1.000000000000000000e+00,1.000000000000000000e+00,1.000000000000000000e+00,1.000000000000000000e+00,1.000000000000000000e+00,1.000000000000000000e+00,1.000000000000000000e+00,1.000000000000000000e+00,1.000000000000000000e+00,1.000000000000000000e+00,1.000000000000000000e+00,1.000000000000000000e+00,1.000000000000000000e+00,1.409655690193176159e-01,1.365537166595459095e-01,1.328229904174804688e-01,1.312196850776672363e-01,1.296546220779419001e-01,1.281264543533325306e-01,1.266957283020019587e-01,1.260840415954589955e-01,1.261745929718017523e-01,1.261569738388061412e-01,1.261393785476684626e-01,1.261217713356018177e-01,9.686219215393065962e-01,9.369526863098144309e-01,9.072888374328613725e-01,8.794456481933593528e-01,8.532605171203613281e-01,8.285895347595214622e-01,8.053050994873046653e-01,7.832936286926269753e-01,7.624534606933593972e-01,7.426934242248535156e-01
6.197803020477294922e-01,6.355038166046143022e-01,6.520459175109862837e-01,6.694731235504149947e-01,6.878618240356445535e-01,7.072891712188720259e-01,7.278458595275878462e-01,7.496331691741943137e-01,7.727651119232177290e-01,7.973676681518554465e-01,8.235832214355468528e-01,8.515810966491699219e-01,8.815497398376465066e-01,9.137044906616210715e-01,9.482937812805175559e-01,9.856049537658690962e-01,1.000000000000000000e+00,1.000000000000000000e+00,1.000000000000000000e+00,1.000000000000000000e+00,1.000000000000000000e+00,1.000000000000000000e+00,1.000000000000000000e+00,1.000000000000000000e+00,1.000000000000000000e+00,1.000000000000000000e+00,1.000000000000000000e+00,1.000000000000000000e+00,1.000000000000000000e+00,1.000000000000000000e+00,1.000000000000000000e+00,1.000000000000000000e+00,1.000000000000000000e+00,1.793464422225952148e-01,1.715287685394287220e-01,1.687908768653869629e-01,1.670603632926940807e-01,1.653649806976318359e-01,1.653237223625182994e-01,1.652094006538391002e-01,1.638027787208557184e-01,1.676269650459289440e-01,1.000000000000000000e+00,1.000000000000000000e+00,1.000000000000000000e+00,1.000000000000000000e+00,1.000000000000000000e+00,1.000000000000000000e+00,1.000000000000000000e+00,1.000000000000000000e+00,1.000000000000000000e+00,1.000000000000000000e+00,1.000000000000000000e+00,1.000000000000000000e+00,1.000000000000000000e+00,1.000000000000000000e+00,1.000000000000000000e+00,1.000000000000000000e+00,1.417005538940429576e-01,1.372431755065917913e-01,1.330577850341796986e-01,1.312393546104431152e-01,1.296738266944885143e-01,1.281452059745788463e-01,1.267308592796325684e-01,1.258123159408569280e-01,1.259270071983337458e-01,1.259735107421874889e-01,1.259559631347656194e-01,1.259384155273437500e-01,1.259208679199218806e-01,9.369839668273926003e-01,9.073182106018066184e-01,8.794732093811035156e-01,8.532864570617675337e-01,8.286139488220214400e-01,8.053282737731933816e-01,7.833155632019043191e-01,7.624742507934569868e-01,7.427131175994873269e-01
6.197669982910156694e-01,6.354897975921630637e-01,6.520311355590819868e-01,6.694566249847412331e-01,6.878390312194824219e-01,7.072595119476318137e-01,7.278138637542724831e-01,7.495992660522461382e-01,7.727291107177733931e-01,7.973317623138427290e-01,8.235525131225586160e-01,8.515562057495117410e-01,8.815229415893555132e-01,9.136757850646972656e-01,9.482628822326659712e-01,9.855714797973632590e-01,1.000000000000000000e+00,1.000000000000000000e+00,1.000000000000000000e+00,1.000000000000000000e+00,1.000000000000000000e+00,1.000000000000000000e+00,1.000000000000000000e+00,1.000000000000000000e+00,1.000000000000000000e+00,1.000000000000000000e+00,1.000000000000000000e+00,1.000000000000000000e+00,1.000000000000000000e+00,1.000000000000000000e+00,1.000000000000000000e+00,1.000000000000000000e+00,1.000000000000000000e+00,1.777331471443176214e-01,1.717881441116332897e-01,1.699959516525268444e-01,1.682407855987548828e-01,1.671184539794921819e-01,1.671176791191101019e-01,1.671169400215148926e-01,1.671077251434326116e-01,1.000000000000000000e+00,1.000000000000000000e+00,1.000000000000000000e+00,1.000000000000000000e+00,1.000000000000000000e+00,1.000000000000000000e+00,1.000000000000000000e+00,1.000000000000000000e+00,1.000000000000000000e+00,1.000000000000000000e+00,1.000000000000000000e+00,1.000000000000000000e+00,1.000000000000000000e+00,1.000000000000000000e+00,1.000000000000000000e+00,1.000000000000000000e+00,1.000000000000000000e+00,1.424457430839538574e-01,1.379396200180053600e-01,1.337123036384582631e-01,1.312590360641479603e-01,1.296930432319641224e-01,1.281639695167541559e-01,1.267660260200500488e-01,1.255417704582214300e-01,1.256559729576110784e-01,1.257703781127929576e-01,1.257730722427368164e-01,1.257555842399597223e-01,1.257380843162536621e-01,9.370153427124023882e-01,9.073475837707519753e-01,8.795008659362792969e-01,8.533124923706054688e-01,8.286384582519531472e-01,8.053514480590819868e-01,7.833374500274657981e-01,7.624949455261230691e-01,7.427328109741211382e-01
6.197536468505859819e-01,6.354757785797119363e-01,6.520164012908935547e-01,6.694410800933837669e-01,6.878226280212402788e-01,7.072421550750732644e-01,7.277901172637939453e-01,7.495676994323730025e-01,7.726931571960449219e-01,7.972934722900391069e-01,8.235116958618163840e-01,8.515129089355468750e-01,8.814853668212890847e-01,9.136447906494140625e-01,9.482319831848144975e-01,9.855381965637206587e-01,1.000000000000000000e+00,1.000000000000000000e+00,1.000000000000000000e+00,1.000000000000000000e+00,1.000000000000000000e+00,1.000000000000000000e+00,1.000000000000000000e+00,1.000000000000000000e+00,1.000000000000000000e+00,1.000000000000000000e+00,1.000000000000000000e+00,1.000000000000000000e+00,1.000000000000000000e+00,1.000000000000000000e+00,1.000000000000000000e+00,1.000000000000000000e+00,1.000000000000000000e+00,1.775933265686035212e-01,1.730330467224120983e-01,1.712183475494384877e-01,1.694379806518554743e-01,1.689517736434936468e-01,1.689509987831115667e-01,1.689502239227294866e-01,1.754120349884033259e-01,1.000000000000000000e+00,1.000000000000000000e+00,1.000000000000000000e+00,1.000000000000000000e+00,1.000000000000000000e+00,1.000000000000000000e+00,1.000000000000000000e+00,1.000000000000000000e+00,1.000000000000000000e+00,1.000000000000000000e+00,1.000000000000000000e+00,1.000000000000000000e+00,1.000000000000000000e+00,1.000000000000000000e+00,1.000000000000000000e+00,1.000000000000000000e+00,1.000000000000000000e+00,1.000000000000000000e+00,1.386434078216552679e-01,1.343732953071594127e-01,1.312787175178527777e-01,1.297122597694397028e-01,1.281827449798584040e-01,1.268011927604675293e-01,1.254609704017639049e-01,1.253860950469970759e-01,1.255000114440917858e-01,1.255907177925109919e-01,1.255732774734497070e-01,1.255558371543884222e-01,9.370466232299804465e-01,9.073769569396972212e-01,8.795284271240234597e-01,8.533383369445800559e-01,8.286629676818847434e-01,8.053745269775390847e-01,7.833593845367431419e-01,7.625151157379150835e-01,7.427506923675537553e-01
6.197402954101562944e-01,6.354617595672606978e-01,6.520016193389892578e-01,6.694255352020264116e-01,6.878061771392822710e-01,7.072247505187988503e-01,7.277717113494872603e-01,7.495481967926025391e-01,7.726681709289551225e-01,7.972597599029540572e-01,8.234707832336425337e-01,8.514692306518554243e-01,8.814385414123535600e-01,9.135945320129394975e-01,9.481854438781738281e-01,9.854989051818847656e-01,1.000000000000000000e+00,1.000000000000000000e+00,1.000000000000000000e+00,1.000000000000000000e+00,1.000000000000000000e+00,1.000000000000000000e+00,1.000000000000000000e+00,1.000000000000000000e+00,1.000000000000000000e+00,1.000000000000000000e+00,1.000000000000000000e+00,1.000000000000000000e+00,1.000000000000000000e+00,1.000000000000000000e+00,1.000000000000000000e+00,1.000000000000000000e+00,1.000000000000000000e+00,1.780998110771179199e-01,1.741925477981567383e-01,1.723695278167724498e-01,1.705939650535583385e-01,1.703806519508361816e-01,1.704758048057556097e-01,1.705710530281066839e-01,1.782929420471191517e-01,1.000000000000000000e+00,1.000000000000000000e+00,1.000000000000000000e+00,1.000000000000000000e+00,1.000000000000000000e+00,1.000000000000000000e+00,1.000000000000000000e+00,1.000000000000000000e+00,1.000000000000000000e+00,1.000000000000000000e+00,1.000000000000000000e+00,1.000000000000000000e+00,1.000000000000000000e+00,1.000000000000000000e+00,1.000000000000000000e+00,1.000000000000000000e+00,1.000000000000000000e+00,1.000000000000000000e+00,1.393566966056823675e-01,1.350408554077148493e-01,1.312984108924865612e-01,1.297314882278442494e-01,1.282063126564025879e-01,1.268363833427429144e-01,1.254954338073730469e-01,1.251173734664917103e-01,1.252308011054992787e-01,1.253444433212280162e-01,1.253914952278137318e-01,1.253741145133972223e-01,9.370779991149902344e-01,9.074063301086425781e-01,8.795560836791992410e-01,8.533643722534179910e-01,8.286874771118164507e-01,8.053962707519530806e-01,7.833786010742187500e-01,7.625326156616211160e-01,7.427673816680908647e-01
6.197269916534423606e-01,6.354477405548095703e-01,6.519868850708008257e-01,6.694099426269530806e-01,6.877897739410400169e-01,7.072073936462401900e-01,7.277533531188964400e-01,7.495286941528320757e-01,7.726474285125732866e-01,7.972377300262450950e-01,8.234445571899413618e-01,8.514329910278319868e-01,8.813917160034179243e-01,9.135441780090332031e-01,9.481311798095702903e-01,9.854403495788573997e-01,1.000000000000000000e+00,1.000000000000000000e+00,1.000000000000000000e+00,1.000000000000000000e+00,1.000000000000000000e+00,1.000000000000000000e+00,1.000000000000000000e+00,1.000000000000000000e+00,1.000000000000000000e+00,1.000000000000000000e+00,1.000000000000000000e+00,1.000000000000000000e+00,1.000000000000000000e+00,1.000000000000000000e+00,1.000000000000000000e+00,1.000000000000000000e+00,1.000000000000000000e+00,1.786091804504394420e-01,1.753677010536193737e-01,1.735201358795165905e-01,1.717524886131286677e-01,1.714455008506775013e-01,1.715418457984924372e-01,1.719682216644287109e-01,1.808279037475585826e-01,1.000000000000000000e+00,1.000000000000000000e+00,1.000000000000000000e+00,1.000000000000000000e+00,1.000000000000000000e+00,1.000000000000000000e+00,1.000000000000000000e+00,1.000000000000000000e+00,1.000000000000000000e+00,1.000000000000000000e+00,1.000000000000000000e+00,1.000000000000000000e+00,1.000000000000000000e+00,1.000000000000000000e+00,1.000000000000000000e+00,1.000000000000000000e+00,1.000000000000000000e+00,1.000000000000000000e+00,1.400773644447326771e-01,1.357153773307800404e-01,1.316210031509399414e-01,1.297507166862487682e-01,1.282422900199890192e-01,1.268715977668762318e-01,1.255298972129821888e-01,1.248498082160949679e-01,1.249627470970153809e-01,1.250758886337280384e-01,1.251892566680908314e-01,1.251929044723510687e-01,1.251755714416503962e-01,9.074357032775879350e-01,8.795826911926269975e-01,8.533879280090331809e-01,8.287081718444824219e-01,8.054159164428711382e-01,7.833971500396728072e-01,7.625502109527587669e-01,7.427840232849121094e-01
6.197136402130126731e-01,6.354337215423584428e-01,6.519721031188965288e-01,6.693943977355957253e-01,6.877733230590820090e-01,7.071900367736816406e-01,7.277349472045898660e-01,7.495091915130615012e-01,7.726266860961914507e-01,7.972156524658202681e-01,8.234210014343261719e-01,8.514078140258789507e-01,8.813640594482421431e-01,9.135051727294921653e-01,9.480791091918945312e-01,9.853817939758300337e-01,1.000000000000000000e+00,1.000000000000000000e+00,1.000000000000000000e+00,1.000000000000000000e+00,1.000000000000000000e+00,1.000000000000000000e+00,1.000000000000000000e+00,1.000000000000000000e+00,1.000000000000000000e+00,1.000000000000000000e+00,1.000000000000000000e+00,1.000000000000000000e+00,1.000000000000000000e+00,1.000000000000000000e+00,1.000000000000000000e+00,1.000000000000000000e+00,1.000000000000000000e+00,1.791214704513549860e-01,1.765588164329528753e-01,1.746862053871154896e-01,1.729268670082092230e-01,1.725237607955932562e-01,1.726212978363036998e-01,1.744724273681640681e-01,1.831562161445617620e-01,1.000000000000000000e+00,1.000000000000000000e+00,1.000000000000000000e+00,1.000000000000000000e+00,1.000000000000000000e+00,1.000000000000000000e+00,1.000000000000000000e+00,1.000000000000000000e+00,1.000000000000000000e+00,1.000000000000000000e+00,1.000000000000000000e+00,1.000000000000000000e+00,1.000000000000000000e+00,1.000000000000000000e+00,1.000000000000000000e+00,1.000000000000000000e+00,1.000000000000000000e+00,1.000000000000000000e+00,1.408055186271667536e-01,1.363987803459167369e-01,1.322614312171936091e-01,1.297699570655822809e-01,1.282782912254333552e-01,1.269068360328674261e-01,1.255643844604492076e-01,1.245833754539489718e-01,1.246958374977111816e-01,1.248085021972656222e-01,1.249213695526123075e-01,1.250122189521789551e-01,1.249949336051940918e-01,9.074614524841309038e-01,8.796060562133789507e-01,8.534099578857421431e-01,8.287289619445801225e-01,8.054354667663574663e-01,7.834156036376953569e-01,7.625678062438965288e-01,7.428007125854492188e-01
6.197002887725829856e-01,6.354197025299072044e-01,6.519573688507079856e-01,6.693788528442382590e-01,6.877569198608398660e-01,7.071726799011230913e-01,7.277165412902831809e-01,7.494896888732910378e-01,7.726059913635253684e-01,7.971935749053955522e-01,8.233975410461426003e-01,8.513826370239258035e-01,8.813370704650879128e-01,9.134761810302733931e-01,9.480479240417480913e-01,9.853394508361816850e-01,1.000000000000000000e+00,1.000000000000000000e+00,1.000000000000000000e+00,1.000000000000000000e+00,1.000000000000000000e+00,1.000000000000000000e+00,1.000000000000000000e+00,1.000000000000000000e+00,1.000000000000000000e+00,1.000000000000000000e+00,1.000000000000000000e+00,1.000000000000000000e+00,1.000000000000000000e+00,1.000000000000000000e+00,1.000000000000000000e+00,1.000000000000000000e+00,1.000000000000000000e+00,1.797058343887329157e-01,1.777662277221679632e-01,1.759010434150695690e-01,1.741174101829528753e-01,1.736156463623046986e-01,1.737144470214843639e-01,1.770506620407104603e-01,1.000000000000000000e+00,1.000000000000000000e+00,1.000000000000000000e+00,1.000000000000000000e+00,1.000000000000000000e+00,1.000000000000000000e+00,1.000000000000000000e+00,1.000000000000000000e+00,1.000000000000000000e+00,1.000000000000000000e+00,1.000000000000000000e+00,1.000000000000000000e+00,1.000000000000000000e+00,1.000000000000000000e+00,1.000000000000000000e+00,1.000000000000000000e+00,1.000000000000000000e+00,1.000000000000000000e+00,1.000000000000000000e+00,1.000000000000000000e+00,1.370891094207763727e-01,1.329084634780883789e-01,1.297891974449157659e-01,1.283143281936645619e-01,1.269420981407165527e-01,1.255989193916320912e-01,1.243180871009826605e-01,1.244300723075866671e-01,1.245422601699829046e-01,1.246546506881713867e-01,1.247672438621520996e-01,1.248148322105407659e-01,9.074862480163574663e-01,8.796295166015625222e-01,8.534318923950194868e-01,8.287497520446777122e-01,8.054551124572754128e-01,7.834342002868652788e-01,7.625853061676025613e-01,7.428174018859863281e-01
6.196869850158691628e-01,6.354056835174560769e-01,6.519425868988036887e-01,6.693633079528809038e-01,6.877404689788818581e-01,7.071553230285644309e-01,7.276981830596923606e-01,7.494701862335204634e-01,7.725852489471435325e-01,7.971714973449707253e-01,8.233739852905272993e-01,8.513575553894042747e-01,8.813101768493651900e-01,9.134471893310547319e-01,9.480167388916015403e-01,9.853056907653808816e-01,1.000000000000000000e+00,1.000000000000000000e+00,1.000000000000000000e+00,1.000000000000000000e+00,1.000000000000000000e+00,1.000000000000000000e+00,1.000000000000000000e+00,1.000000000000000000e+00,1.000000000000000000e+00,1.000000000000000000e+00,1.000000000000000000e+00,1.000000000000000000e+00,1.000000000000000000e+00,1.000000000000000000e+00,1.000000000000000000e+00,1.000000000000000000e+00,1.000000000000000000e+00,1.809568166732788141e-01,1.789902448654174805e-01,1.771330237388610840e-01,1.753244519233703724e-01,1.747637271881103405e-01,1.748215079307556263e-01,1.796915173530578558e-01,1.000000000000000000e+00,1.000000000000000000e+00,1.000000000000000000e+00,1.000000000000000000e+00,1.000000000000000000e+00,1.000000000000000000e+00,1.000000000000000000e+00,1.000000000000000000e+00,1.000000000000000000e+00,1.000000000000000000e+00,1.000000000000000000e+00,1.000000000000000000e+00,1.000000000000000000e+00,1.000000000000000000e+00,1.000000000000000000e+00,1.000000000000000000e+00,1.000000000000000000e+00,1.000000000000000000e+00,1.000000000000000000e+00,1.000000000000000000e+00,1.377864599227905384e-01,1.335638284683227650e-01,1.298084497451782171e-01,1.283503532409668024e-01,1.269773721694946178e-01,1.256334424018859808e-01,1.243176698684692327e-01,1.241654396057128851e-01,1.242771506309509333e-01,1.243890523910522461e-01,1.245011687278747559e-01,1.246134877204894964e-01,9.075111389160156472e-01,8.796527862548828569e-01,8.534539222717285600e-01,8.287704467773437944e-01,8.054746627807617410e-01,7.834527492523193359e-01,7.626029014587402122e-01,7.428339958190918191e-01
6.196736335754394753e-01,6.353916645050048384e-01,6.519278526306152566e-01,6.693477153778075728e-01,6.877240657806396040e-01,7.071379661560058816e-01,7.276797771453857866e-01,7.494506835937500000e-01,7.725645065307616965e-01,7.971494674682617632e-01,8.233504295349121094e-01,8.513323783874511275e-01,8.812831878662109597e-01,9.134181976318359597e-01,9.479854583740234819e-01,9.852720260620116965e-01,1.000000000000000000e+00,1.000000000000000000e+00,1.000000000000000000e+00,1.000000000000000000e+00,1.000000000000000000e+00,1.000000000000000000e+00,1.000000000000000000e+00,1.000000000000000000e+00,1.000000000000000000e+00,1.000000000000000000e+00,1.000000000000000000e+00,1.000000000000000000e+00,1.000000000000000000e+00,1.000000000000000000e+00,1.000000000000000000e+00,1.000000000000000000e+00,1.000000000000000000e+00,1.822253227233886774e-01,1.802549362182617188e-01,1.783823966979980469e-01,1.765483617782592773e-01,1.760054111480712780e-01,1.759427905082702748e-01,1.819904923439025768e-01,1.000000000000000000e+00,1.000000000000000000e+00,1.000000000000000000e+00,1.000000000000000000e+00,1.000000000000000000e+00,1.000000000000000000e+00,1.000000000000000000e+00,1.000000000000000000e+00,1.000000000000000000e+00,1.000000000000000000e+00,1.000000000000000000e+00,1.000000000000000000e+00,1.000000000000000000e+00,1.000000000000000000e+00,1.000000000000000000e+00,1.000000000000000000e+00,1.000000000000000000e+00,1.000000000000000000e+00,1.000000000000000000e+00,1.000000000000000000e+00,1.384909510612487848e-01,1.342256903648376409e-01,1.302153110504150335e-01,1.283864259719848522e-01,1.270126581192016491e-01,1.256679892539978027e-01,1.243613481521606418e-01,1.239079952239990207e-01,1.240171313285827609e-01,1.241264581680297796e-01,1.242362260818481445e-01,1.243480563163757296e-01,9.075360298156738281e-01,8.796761512756348100e-01,8.534759521484375222e-01,8.287912368774413840e-01,8.054942131042480691e-01,7.834712505340576394e-01,7.626204967498779741e-01,7.428506851196289285e-01
6.196603298187255415e-01,6.353776454925537109e-01,6.519130706787109597e-01,6.693321704864502175e-01,6.877076625823974609e-01,7.071206092834472212e-01,7.276614189147949663e-01,7.494311809539795366e-01,7.725438117980957253e-01,7.971273899078369363e-01,8.233268737792969194e-01,8.513072013854980913e-01,8.812561988830566184e-01,9.133893013000488059e-01,9.479542732238769309e-01,9.852383613586426225e-01,1.000000000000000000e+00,1.000000000000000000e+00,1.000000000000000000e+00,1.000000000000000000e+00,1.000000000000000000e+00,1.000000000000000000e+00,1.000000000000000000e+00,1.000000000000000000e+00,1.000000000000000000e+00,1.000000000000000000e+00,1.000000000000000000e+00,1.000000000000000000e+00,1.000000000000000000e+00,1.000000000000000000e+00,1.000000000000000000e+00,1.000000000000000000e+00,1.000000000000000000e+00,1.835117578506469671e-01,1.815488934516906738e-01,1.796495079994201716e-01,1.777894616127014271e-01,1.772648692131042480e-01,1.770785212516784723e-01,1.843490481376647838e-01,1.000000000000000000e+00,1.000000000000000000e+00,1.000000000000000000e+00,1.000000000000000000e+00,1.000000000000000000e+00,1.000000000000000000e+00,1.000000000000000000e+00,1.000000000000000000e+00,1.000000000000000000e+00,1.000000000000000000e+00,1.000000000000000000e+00,1.000000000000000000e+00,1.000000000000000000e+00,1.000000000000000000e+00,1.000000000000000000e+00,1.000000000000000000e+00,1.000000000000000000e+00,1.000000000000000000e+00,1.000000000000000000e+00,1.000000000000000000e+00,1.392026662826538197e-01,1.348941445350647084e-01,1.308732390403747614e-01,1.285353422164917103e-01,1.271727800369262806e-01,1.258388280868530384e-01,1.245325565338134821e-01,1.237128853797912625e-01,1.238216757774353027e-01,1.239306569099426214e-01,1.240398406982421847e-01,1.241492033004760742e-01,9.075609207153320090e-01,8.796996116638183816e-01,8.534978866577148660e-01,8.288119316101074663e-01,8.055138587951660156e-01,7.834897994995116965e-01,7.626379966735840066e-01,7.428673744201660378e-01
6.196469783782958540e-01,6.353636264801025835e-01,6.518983364105224165e-01,6.693166255950927512e-01,6.876912117004394531e-01,7.071032524108886719e-01,7.276430130004882812e-01,7.494116783142089622e-01,7.725230693817138894e-01,7.971053123474121094e-01,8.233033180236816184e-01,8.512820243835449441e-01,8.812292098999023882e-01,9.133603096008300337e-01,9.479230880737304910e-01,9.852046966552734375e-01,1.000000000000000000e+00,1.000000000000000000e+00,1.000000000000000000e+00,1.000000000000000000e+00,1.000000000000000000e+00,1.000000000000000000e+00,1.000000000000000000e+00,1.000000000000000000e+00,1.000000000000000000e+00,1.000000000000000000e+00,1.000000000000000000e+00,1.000000000000000000e+00,1.000000000000000000e+00,1.000000000000000000e+00,1.000000000000000000e+00,1.000000000000000000e+00,1.000000000000000000e+00,1.848298430442810170e-01,1.828615665435791016e-01,1.809347629547119196e-01,1.790613889694213923e-01,1.785424828529357799e-01,1.784442067146301270e-01,1.869113206863403376e-01,1.000000000000000000e+00,1.000000000000000000e+00,1.000000000000000000e+00,1.000000000000000000e+00,1.000000000000000000e+00,1.000000000000000000e+00,1.000000000000000000e+00,1.000000000000000000e+00,1.000000000000000000e+00,1.000000000000000000e+00,1.000000000000000000e+00,1.000000000000000000e+00,1.000000000000000000e+00,1.000000000000000000e+00,1.000000000000000000e+00,1.000000000000000000e+00,1.000000000000000000e+00,1.000000000000000000e+00,1.000000000000000000e+00,1.000000000000000000e+00,1.000000000000000000e+00,1.356233119964599665e-01,1.315618157386779785e-01,1.287182211875915472e-01,1.273518204689025879e-01,1.260141134262084961e-01,1.247042179107666071e-01,1.235875248908996638e-01,1.236268281936645508e-01,1.237354636192321833e-01,1.238443017005920466e-01,1.239533305168151883e-01,9.075857162475585715e-01,8.797229766845703347e-01,8.535199165344238281e-01,8.288327217102050559e-01,8.055334091186523438e-01,7.835083484649658647e-01,7.626555919647216575e-01,7.428839683532715288e-01
6.196336746215820312e-01,6.353496074676513450e-01,6.518835544586181197e-01,6.693010807037353960e-01,6.876748085021973100e-01,7.070858478546142578e-01,7.276246547698974609e-01,7.493921756744384988e-01,7.725023746490478072e-01,7.970832824707031472e-01,8.232798576354980469e-01,8.512568473815917969e-01,8.812023162841796653e-01,9.133313179016113725e-01,9.478919029235839400e-01,9.709922790527343306e-01,9.707508087158203125e-01,9.705094337463379128e-01,9.702682495117187500e-01,9.700270652770995872e-01,9.697861671447753906e-01,9.695452690124511941e-01,9.693044662475586160e-01,9.690638542175292747e-01,9.688233375549316628e-01,9.685829162597656694e-01,9.683426856994629128e-01,9.681025505065917747e-01,9.678624153137207475e-01,9.676225662231445757e-01,9.673827171325684038e-01,9.671430587768554688e-01,9.669034004211425337e-01,1.863198995590210072e-01,1.843014955520629883e-01,1.823263406753539984e-01,1.805457115173339788e-01,1.800433397293090820e-01,1.809744238853454590e-01,1.901917695999145452e-01,9.649911880493163840e-01,9.647526741027832031e-01,9.645142555236816406e-01,9.642760276794433150e-01,9.640378952026367188e-01,9.637997627258301225e-01,9.635619163513183816e-01,9.633240699768066406e-01,9.630864143371582475e-01,9.628488540649413618e-01,9.626113891601562056e-01,9.623740196228027788e-01,9.621368408203124778e-01,9.618998527526855247e-01,9.616627693176269531e-01,9.614259719848632368e-01,9.611891746520996316e-01,9.609525680541992632e-01,9.607160568237305132e-01,9.604796409606933816e-01,9.602433204650878684e-01,1.363629102706909180e-01,1.322576642036437933e-01,1.289016485214233287e-01,1.275313615798950306e-01,1.261898994445800892e-01,1.248763680458068875e-01,1.235589861869812039e-01,1.234326004981994573e-01,1.235409021377563421e-01,1.236493825912475530e-01,1.237580657005310086e-01,9.076107025146484819e-01,8.797462463378906694e-01,8.535419464111327903e-01,8.288534164428711382e-01,8.055530548095702903e-01,7.835268497467040572e-01,7.626731872558594194e-01,7.429007053375243919e-01
6.196203231811523438e-01,6.353355884552002175e-01,6.518688201904296875e-01,6.692854881286620650e-01,6.876584053039550559e-01,7.070684909820557085e-01,7.276062488555907759e-01,7.493726730346679243e-01,7.542371749877929688e-01,7.540915012359619141e-01,7.539458274841308594e-01,7.538002014160156694e-01,7.536546707153319868e-01,7.535091876983642800e-01,7.533638000488280806e-01,7.532184600830078569e-01,7.530730724334716575e-01,7.529278278350830522e-01,7.527826309204102007e-01,7.526375293731689675e-01,7.524923324584961160e-01,7.523473262786865012e-01,7.522023677825927512e-01,7.520574569702148660e-01,7.519125461578368697e-01,7.517677307128906028e-01,7.516230106353759544e-01,7.514783382415771706e-01,7.513337135314941406e-01,7.511890411376953569e-01,7.510445117950439453e-01,7.509000778198242632e-01,7.507556915283203347e-01,1.878493070602416937e-01,1.857977986335754284e-01,1.837906360626220814e-01,1.821565389633178766e-01,1.820105552673339788e-01,1.837307810783386230e-01,7.497462272644043191e-01,7.496022701263427290e-01,7.494583606719971147e-01,7.493144512176513894e-01,7.491706371307372825e-01,7.490269184112549050e-01,7.488831996917724165e-01,7.487395286560059038e-01,7.485959529876708984e-01,7.484524250030517578e-01,7.483089447021484819e-01,7.481654644012450950e-01,7.480221271514893022e-01,7.478788375854492632e-01,7.477355957031249778e-01,7.475924015045165572e-01,7.474492073059082475e-01,7.473061084747314453e-01,7.471630573272705078e-01,7.470201015472411887e-01,7.468770980834961160e-01,7.467342376708984153e-01,1.371106266975402888e-01,1.329609155654907227e-01,1.290855884552001842e-01,1.277114033699035534e-01,1.263661742210388239e-01,1.250476956367492787e-01,1.237246632575988714e-01,1.232389688491821317e-01,1.233469367027282687e-01,1.234550833702087458e-01,1.235634207725524875e-01,7.450239181518554243e-01,7.448817729949951394e-01,7.447396755218506081e-01,7.445976257324218306e-01,7.444555282592772993e-01,7.443136215209961160e-01,7.441717147827148215e-01,7.429173946380615012e-01
6.166918754577637163e-01,6.165944576263427956e-01,6.164970874786377397e-01,6.163997650146484375e-01,6.163024425506591353e-01,6.162051677703856978e-01,6.161078453063965066e-01,6.160106658935546875e-01,6.159134387969971147e-01,6.158163070678710493e-01,6.157191276550293413e-01,6.156220436096191406e-01,6.155249595642089400e-01,6.154279232025146040e-01,6.153309345245361328e-01,6.152338981628417969e-01,6.151369571685790794e-01,6.150400638580322266e-01,6.149431705474853738e-01,6.148462772369385210e-01,6.147494316101074219e-01,6.146526336669921875e-01,6.145558834075928178e-01,6.144590854644775835e-01,6.143624305725097212e-01,6.142657279968262163e-01,6.141691207885742188e-01,6.140725135803222212e-01,6.139758586883544700e-01,6.138792991638183372e-01,6.137827873229980691e-01,6.136863231658935547e-01,6.135898113250732866e-01,1.894040107727050781e-01,1.873186111450195201e-01,1.853028059005737416e-01,1.837963581085205189e-01,1.840212345123291016e-01,1.865723729133605957e-01,6.129154205322265847e-01,6.128192424774170366e-01,6.127229690551757590e-01,6.126268386840820757e-01,6.125307083129882812e-01,6.124346256256103516e-01,6.123384952545165572e-01,6.122424602508544922e-01,6.121464729309081809e-01,6.120504856109618697e-01,6.119544982910156694e-01,6.118586063385009766e-01,6.117627143859862837e-01,6.116668701171874556e-01,6.115710258483886275e-01,6.114751815795897993e-01,6.113794326782227007e-01,6.112836837768554910e-01,6.111879825592041460e-01,6.110922813415526900e-01,6.109966278076172097e-01,6.109010219573974831e-01,1.381838440895080677e-01,1.336717009544372559e-01,1.297245383262634333e-01,1.278919577598571777e-01,1.265429377555847279e-01,1.252173900604248158e-01,1.238907814025878851e-01,1.231686949729919461e-01,1.231535792350769015e-01,1.232613921165466309e-01,1.233693838119506864e-01,6.097558498382568137e-01,6.096606254577636719e-01,6.095654487609862837e-01,6.094702243804931419e-01,6.093750953674316184e-01,6.092800140380859597e-01,6.091849327087401900e-01,6.090898513793945312e-01
5.210185527801514116e-01,5.209490299224853738e-01,5.208795547485352007e-01,5.208100318908691628e-01,5.207405567169189897e-01,5.206711292266845703e-01,5.206017017364501509e-01,5.205322742462158425e-01,5.204628944396972878e-01,5.203934669494628684e-01,5.203240871429443137e-01,5.202547550201416238e-01,5.201854228973388228e-01,5.201161384582519975e-01,5.200468063354491965e-01,5.199775695800781250e-01,5.199082851409911887e-01,5.198390960693359819e-01,5.197698116302490456e-01,5.197006225585937278e-01,5.196314334869385210e-01,5.195622920989990678e-01,5.194931030273437500e-01,5.194240093231201616e-01,5.193549156188964622e-01,5.192858219146728738e-01,5.192167282104491743e-01,5.191476821899414507e-01,5.190786361694336160e-01,5.190096378326416460e-01,5.189406394958495650e-01,5.188716411590575950e-01,5.188026905059814897e-01,1.909846901893615667e-01,1.888645052909851130e-01,1.868550300598144642e-01,1.854659676551818903e-01,1.860768556594848688e-01,1.895032405853271373e-01,5.183204650878906472e-01,5.182516098022460493e-01,5.181828498840331809e-01,5.181140422821044478e-01,5.180452823638915794e-01,5.179765224456787109e-01,5.179078102111815962e-01,5.178390979766845925e-01,5.177704334259033425e-01,5.177017211914062278e-01,5.176331043243408425e-01,5.175644874572753462e-01,5.174958705902099609e-01,5.174272537231445757e-01,5.173586845397949441e-01,5.172901153564453125e-01,5.172215938568115456e-01,5.171530723571777788e-01,5.170845508575439009e-01,5.170160293579101340e-01,5.169476032257079856e-01,5.168791294097900835e-01,1.393028616905212513e-01,1.343901038169860729e-01,1.304010510444641169e-01,1.280730247497558483e-01,1.267202138900756780e-01,1.253875494003295898e-01,1.240573406219482450e-01,1.231244564056396540e-01,1.229608297348022405e-01,1.230682969093322698e-01,1.231759667396545438e-01,5.160591125488280806e-01,5.159909248352050337e-01,5.159226894378662331e-01,5.158545017242431863e-01,5.157863616943358931e-01,5.157182216644287109e-01,5.156500816345215288e-01,5.155819416046142356e-01
4.510438442230224609e-01,4.509917259216308372e-01,4.509396553039550781e-01,4.508875370025634544e-01,4.508354663848876953e-01,4.507834434509277455e-01,4.507313728332519309e-01,4.506793498992919811e-01,4.506273269653320312e-01,4.505753040313720814e-01,4.505233287811279408e-01,4.504713535308838002e-01,4.504193305969238503e-01,4.503674030303955189e-01,4.503154277801513783e-01,4.502635002136230469e-01,4.502115726470947155e-01,4.501596450805663840e-01,4.501077175140381081e-01,4.500558376312255859e-01,4.500039577484130637e-01,4.499520778656005970e-01,4.499001979827880748e-01,4.498483657836914174e-01,4.497965335845947044e-01,4.497447013854980469e-01,4.496928691864013894e-01,4.496410846710204856e-01,4.495893001556396373e-01,4.495375633239745983e-01,4.494857788085937500e-01,4.494339942932129017e-01,4.493822574615478627e-01,1.925919532775878795e-01,1.904648065567016713e-01,1.884334921836852972e-01,1.871661901473999079e-01,1.881788969039916992e-01,1.928920388221740667e-01,4.490203857421875000e-01,4.489687442779540794e-01,4.489171504974365234e-01,4.488655090332031028e-01,4.488138675689697377e-01,4.487622737884521262e-01,4.487107276916503795e-01,4.486591339111328236e-01,4.486075401306152122e-01,4.485560417175292747e-01,4.485044956207275280e-01,4.484529495239257812e-01,4.484014511108398438e-01,4.483499526977539062e-01,4.482984542846679688e-01,4.482469558715820312e-01,4.481955051422119030e-01,4.481440544128417747e-01,4.480926036834717019e-01,4.480411529541015736e-01,4.479897499084472545e-01,4.479382991790771262e-01,4.478869438171386719e-01,1.352653145790100042e-01,1.310846447944641058e-01,1.282546043395996205e-01,1.268979668617248591e-01,1.255581617355346624e-01,1.242243647575378418e-01,1.230802536010742188e-01,1.227966547012329102e-01,1.228758215904235812e-01,1.229831457138061551e-01,4.473223686218261719e-01,4.472710609436035267e-01,4.472198486328125000e-01,4.471686363220214733e-01,4.471173763275146373e-01,4.470661640167236106e-01,4.470149517059326394e-01,4.469637870788574219e-01
3.976393938064575195e-01,3.975988864898681863e-01,3.975584268569946067e-01,3.975179195404052734e-01,3.974774599075317494e-01,3.974369764328002930e-01,3.973965406417846458e-01,3.973560810089111217e-01,3.973156690597534069e-01,3.972752094268798828e-01,3.972347974777221680e-01,3.971943616867065208e-01,3.971539735794067383e-01,3.971135616302490234e-01,3.970731973648071178e-01,3.970327854156494030e-01,3.969923973083496205e-01,3.969520568847656472e-01,3.969116687774658092e-01,3.968713521957397683e-01,3.968309640884399303e-01,3.967906236648559570e-01,3.967503309249877930e-01,3.967099905014038197e-01,3.966696500778198464e-01,3.966293811798095592e-01,3.965890645980835183e-01,3.965487957000732311e-01,3.965085029602050670e-01,3.964682102203369030e-01,3.964279651641845481e-01,3.963876962661743164e-01,3.963474750518798939e-01,1.942264795303344782e-01,1.921051263809204213e-01,1.900388360023498591e-01,1.888978719711303655e-01,1.903290033340453991e-01,3.961061477661133035e-01,3.960659265518188255e-01,3.960257768630981445e-01,3.959855794906615989e-01,3.959454059600829856e-01,3.959052801132202370e-01,3.958651065826416238e-01,3.958249807357788197e-01,3.957848310470580833e-01,3.957446813583374023e-01,3.957046031951904075e-01,3.956644773483276589e-01,3.956243515014648549e-01,3.955842733383178600e-01,3.955441713333129883e-01,3.955041408538818581e-01,3.954640388488769309e-01,3.954239606857299916e-01,3.953839302062988059e-01,3.953438758850097434e-01,3.953038692474365456e-01,3.952638149261474831e-01,3.952237844467162975e-01,3.951838016510009766e-01,1.363373637199401800e-01,1.317754507064819447e-01,1.284366965293884388e-01,1.270762324333190862e-01,1.257292389869689997e-01,1.243918299674987848e-01,1.230825662612915067e-01,1.227526903152465765e-01,1.226839423179626465e-01,1.227909326553344727e-01,3.947441816329956277e-01,3.947042465209961160e-01,3.946643590927124134e-01,3.946244478225707786e-01,3.945845365524291992e-01,3.945446729660034291e-01,3.945047855377197266e-01,3.944649457931518333e-01
3.555424690246581920e-01,3.555101156234741211e-01,3.554777383804321178e-01,3.554453849792480469e-01,3.554130077362060436e-01,3.553806781768799050e-01,3.553483009338379017e-01,3.553159952163696400e-01,3.552836418151855691e-01,3.552513122558593750e-01,3.552189826965331809e-01,3.551866769790649192e-01,3.551543474197387806e-01,3.551220655441283958e-01,3.550897359848022572e-01,3.550574541091918723e-01,3.550251483917236106e-01,3.549928903579712136e-01,3.549606084823608287e-01,3.549283504486083762e-01,3.548960685729980469e-01,3.548637866973877175e-01,3.548315525054931419e-01,3.547992706298828125e-01,3.547670125961303600e-01,3.547348022460937722e-01,3.547025442123413197e-01,3.546703577041626088e-01,3.546380996704101562e-01,3.546058893203735130e-01,3.545736789703369252e-01,3.545414686203002819e-01,3.545092582702636941e-01,2.029847621917724720e-01,1.937739253044128418e-01,1.916717886924743652e-01,1.906619071960449219e-01,1.922672390937805176e-01,3.543162107467651145e-01,3.542840242385864036e-01,3.542519092559814342e-01,3.542197465896606556e-01,3.541875839233398215e-01,3.541554689407348522e-01,3.541233301162719505e-01,3.540911912918091042e-01,3.540591001510620117e-01,3.540269613265991100e-01,3.539948940277099498e-01,3.539627790451049805e-01,3.539306640625000111e-01,3.538985967636108509e-01,3.538664817810058816e-01,3.538344383239745983e-01,3.538023471832275613e-01,3.537702798843384011e-01,3.537382364273071178e-01,3.537061691284179576e-01,3.536741018295287975e-01,3.536420822143554465e-01,3.536100387573242188e-01,3.535780191421508678e-01,1.374265789985656683e-01,1.324735760688781627e-01,1.286193132400512695e-01,1.272549867630004827e-01,1.259008049964904785e-01,1.245597481727600125e-01,1.232469558715820340e-01,1.227087378501892090e-01,1.224926590919494657e-01,1.225993156433105441e-01,3.532260656356811523e-01,3.531940937042236106e-01,3.531621694564819336e-01,3.531301975250243919e-01,3.530982494354247825e-01,3.530663251876831055e-01,3.530343770980834961e-01,3.530024766921996959e-01
3.215056419372558372e-01,3.214791536331176869e-01,3.214527130126952903e-01,3.214262247085571400e-01,3.213997840881347434e-01,3.213732957839965931e-01,3.213468790054321289e-01,3.213203907012939231e-01,3.212939739227295144e-01,3.212675094604492410e-01,3.212410926818847767e-01,3.212146520614623801e-01,3.211882352828979714e-01,3.211617946624755748e-01,3.211354017257690430e-01,3.211089611053467019e-01,3.210825681686401145e-01,3.210561513900757058e-01,3.210297584533691184e-01,3.210033416748047097e-01,3.209769725799560547e-01,3.209505796432495228e-01,3.209242105484008678e-01,3.208978176116943359e-01,3.208714246749878041e-01,3.208450555801391491e-01,3.208186864852905495e-01,3.207923173904418945e-01,3.207659721374511719e-01,3.207396030426025169e-01,3.207132577896117942e-01,3.206869125366210715e-01,3.206605434417724720e-01,2.031927585601806530e-01,1.973108530044555553e-01,1.961597800254821777e-01,1.957822084426879827e-01,3.205288887023926003e-01,3.205025911331176869e-01,3.204762697219848411e-01,3.204499483108520508e-01,3.204236507415771373e-01,3.203973531723022239e-01,3.203710794448852428e-01,3.203447580337524525e-01,3.203184604644775391e-01,3.202922105789184348e-01,3.202659130096435769e-01,3.202396154403686634e-01,3.202133655548095592e-01,3.201870918273925781e-01,3.201608657836914062e-01,3.201345920562744252e-01,3.201083183288574441e-01,3.200820922851562722e-01,3.200558423995971680e-01,3.200296163558959961e-01,3.200033664703368919e-01,3.199771165847778431e-01,3.199509143829345481e-01,3.199246644973754994e-01,3.198984384536743275e-01,1.385333180427551214e-01,1.334955215454101674e-01,1.292605876922607311e-01,1.274342656135559193e-01,1.260728120803832897e-01,1.247281193733215388e-01,1.234117984771728460e-01,1.226648330688476507e-01,1.223831534385681208e-01,1.224082946777343694e-01,3.196103334426879661e-01,3.195841550827026589e-01,3.195580005645751731e-01,3.195318460464477428e-01,3.195056915283203125e-01,3.194795608520507590e-01,3.194534063339233287e-01,3.194272518157958984e-01
2.934162616729736328e-01,2.933942317962646706e-01,2.933721542358398438e-01,2.933501243591308816e-01,2.933280706405639870e-01,2.933060646057129017e-01,2.932840108871460072e-01,2.932619810104369895e-01,2.932399511337280273e-01,2.932179450988769420e-01,2.931958913803100475e-01,2.931738853454589622e-01,2.931518554687500000e-01,2.931298732757568470e-01,2.931078433990478294e-01,2.930858612060546764e-01,2.930638313293457142e-01,2.930418491363525613e-01,2.930198431015014759e-01,2.929978609085083230e-01,2.929758548736572377e-01,2.929538965225219616e-01,2.929318904876708762e-01,2.929099321365356556e-01,2.928879499435425027e-01,2.928659677505492942e-01,2.928440093994140736e-01,2.928220272064209206e-01,2.928000688552856445e-01,2.927781105041503684e-01,2.927561283111572155e-01,2.927341938018798717e-01,2.927122354507446511e-01,2.037101745605468806e-01,1.980975151062011608e-01,1.974126100540161133e-01,1.968728899955749512e-01,1.987988233566284069e-01,2.925805807113647239e-01,2.925586700439453125e-01,2.925367355346679688e-01,2.925148248672485574e-01,2.924929141998290905e-01,2.924709796905517467e-01,2.924490928649902122e-01,2.924271583557128684e-01,2.924052715301513894e-01,2.923833608627319225e-01,2.923614501953125111e-01,2.923395633697509766e-01,2.923176765441894420e-01,2.922957658767700306e-01,2.922739028930664285e-01,2.922520160675048939e-01,2.922301530838012917e-01,2.922082662582397572e-01,2.921863794326782227e-01,2.921645164489746205e-01,2.921426534652710183e-01,2.921207904815673606e-01,2.920989274978637584e-01,2.920770645141601562e-01,1.396580338478088379e-01,1.345396041870117188e-01,1.299322485923767034e-01,1.276140332221984974e-01,1.262453079223632701e-01,1.248969316482543973e-01,1.235770702362060519e-01,1.226209521293640109e-01,1.223394751548767118e-01,1.222178697586059626e-01,1.261743664741516169e-01,2.918150424957275391e-01,2.917932271957397461e-01,2.917714357376098855e-01,2.917496204376220925e-01,2.917278051376342995e-01,2.917060136795043834e-01,2.916841983795165905e-01
2.698407649993896373e-01,2.698220968246459739e-01,2.698034763336181752e-01,2.697848081588745117e-01,2.697661876678466575e-01,2.697475194931030495e-01,2.697288990020751953e-01,2.697102546691894642e-01,2.696916341781616100e-01,2.696729898452758789e-01,2.696543693542480247e-01,2.696357488632202259e-01,2.696171283721923717e-01,2.695985078811645730e-01,2.695798873901367188e-01,2.695612668991088645e-01,2.695426702499389426e-01,2.695240497589111439e-01,2.695054531097412220e-01,2.694868326187133678e-01,2.694682598114013783e-01,2.694496393203735241e-01,2.694310665130615345e-01,2.694124698638916127e-01,2.693938493728637584e-01,2.693752765655517689e-01,2.693566799163818470e-01,2.693381071090698020e-01,2.693195104598998801e-01,2.693009614944458230e-01,2.692823648452759011e-01,2.692638158798217884e-01,2.692452192306518666e-01,2.044697761535644587e-01,1.981465935707092396e-01,1.957340955734253041e-01,1.942215919494628962e-01,1.947034120559692494e-01,2.691338300704956277e-01,2.691153049468993919e-01,2.690967321395874023e-01,2.690782070159912220e-01,2.690596342086791770e-01,2.690410852432251199e-01,2.690225601196288840e-01,2.690040111541748269e-01,2.689854621887207142e-01,2.689669370651245339e-01,2.689484119415282981e-01,2.689298868179321178e-01,2.689113616943359375e-01,2.688928127288818248e-01,2.688743114471435769e-01,2.688557863235473411e-01,2.688372850418090931e-01,2.688187599182129128e-01,2.688002347946166770e-01,2.687817335128784291e-01,2.687632322311401256e-01,2.687447071075439453e-01,2.687262296676635742e-01,2.687077045440673939e-01,2.686892271041870228e-01,1.356001496315002441e-01,1.307697057723999079e-01,1.277943134307861217e-01,1.264182686805725153e-01,1.250662207603454590e-01,1.237427949905395563e-01,1.225771069526672419e-01,1.222958326339721735e-01,1.220280408859252957e-01,1.253457784652710072e-01,2.684859275817871316e-01,2.684674501419067605e-01,2.684490203857421986e-01,2.684305429458618275e-01,2.684120655059814564e-01,2.683936357498168945e-01,2.683751583099365234e-01
2.497719764709472601e-01,2.497560262680053600e-01,2.497400283813476507e-01,2.497240781784057506e-01,2.497080802917480413e-01,2.496921300888061412e-01,2.496761560440063366e-01,2.496601819992065319e-01,2.496442079544067272e-01,2.496282577514648549e-01,2.496122837066650502e-01,2.495963335037231501e-01,2.495803833007812500e-01,2.495644330978393499e-01,2.495484828948974498e-01,2.495325326919555775e-01,2.495165824890136774e-01,2.495006322860717773e-01,2.494846820831298773e-01,2.494687557220459095e-01,2.494528055191040095e-01,2.494368791580200140e-01,2.494209289550781139e-01,2.494050025939941462e-01,2.493890523910522461e-01,2.493731260299682506e-01,2.493571996688842829e-01,2.493412733078002874e-01,2.493253469467163197e-01,2.493094205856323242e-01,2.492934942245483287e-01,2.492775678634643610e-01,2.492616653442382701e-01,2.043592453002929799e-01,1.969692349433898870e-01,1.941149473190307562e-01,1.925308704376220703e-01,1.920994997024536022e-01,1.928626179695129284e-01,2.491503000259399359e-01,2.491343975067138727e-01,2.491184949874877819e-01,2.491025924682617188e-01,2.490866899490356556e-01,2.490708112716674694e-01,2.490549087524414062e-01,2.490390300750732477e-01,2.490231513977050892e-01,2.490072488784789984e-01,2.489913702011108398e-01,2.489754915237426813e-01,2.489596128463745228e-01,2.489437341690063366e-01,2.489278554916381780e-01,2.489119768142700195e-01,2.488961219787597656e-01,2.488802433013916071e-01,2.488643884658813532e-01,2.488485097885131947e-01,2.488326311111450084e-01,2.488168001174926869e-01,2.488009214401245006e-01,2.487850666046142467e-01,2.487692117691039928e-01,1.317714452743530273e-01,1.279750943183898815e-01,1.265917062759399359e-01,1.252359628677368053e-01,1.239089727401733454e-01,1.226097941398620605e-01,1.222522258758544922e-01,1.219724297523498563e-01,2.486265897750854492e-01,2.486107826232910045e-01,2.485949277877807506e-01,2.485790967941284291e-01,2.485632896423339844e-01,2.485474586486816351e-01,2.485316276550292858e-01,2.485157966613769642e-01
2.324817419052123968e-01,2.324678897857666016e-01,2.324540376663208063e-01,2.324402093887329157e-01,2.324263811111450251e-01,2.324125289916992299e-01,2.323987007141113392e-01,2.323848485946655162e-01,2.323710203170776256e-01,2.323571920394897350e-01,2.323433637619018444e-01,2.323295354843139537e-01,2.323157310485839955e-01,2.323018789291381725e-01,2.322880744934082142e-01,2.322742462158203236e-01,2.322604417800903376e-01,2.322466135025024470e-01,2.322328090667724609e-01,2.322189807891845703e-01,2.322051763534545843e-01,2.321913480758666937e-01,2.321775436401367076e-01,2.321637392044067494e-01,2.321499347686767634e-01,2.321361303329467773e-01,2.321223258972167913e-01,2.321085214614868053e-01,2.320947170257568470e-01,2.320809364318847656e-01,2.320671319961547796e-01,2.320533275604247936e-01,2.320395469665527399e-01,2.320257425308227539e-01,1.953444838523864802e-01,1.924046516418456976e-01,1.908346176147460993e-01,1.899585962295532171e-01,1.899213552474975641e-01,1.905969381332397461e-01,2.319292545318603627e-01,2.319154739379882812e-01,2.319016933441161998e-01,2.318879127502441462e-01,2.318741321563720648e-01,2.318603754043579157e-01,2.318465948104858343e-01,2.318328380584716852e-01,2.318190574645996038e-01,2.318052768707275502e-01,2.317915201187133734e-01,2.317777633666992243e-01,2.317640066146850475e-01,2.317502498626708984e-01,2.317364692687988170e-01,2.317227363586425726e-01,2.317089557647705189e-01,2.316951990127563421e-01,2.316814661026000977e-01,2.316677093505859486e-01,2.316539764404296764e-01,2.316402196884155273e-01,2.316264629364013783e-01,2.316127300262451061e-01,1.361083388328552246e-01,1.317011356353759710e-01,1.285318732261657715e-01,1.270755290985107477e-01,1.258903026580810436e-01,1.253567218780517467e-01,1.245582222938537570e-01,2.315028429031372181e-01,2.314891099929809459e-01,2.314754009246826061e-01,2.314616680145263616e-01,2.314479351043701172e-01,2.314342260360717773e-01,2.314204931259155329e-01,2.314067602157592884e-01,2.313930511474609486e-01
2.174302816390991100e-01,2.174181699752807673e-01,2.174060583114623968e-01,2.173939704895019587e-01,2.173818588256835882e-01,2.173697471618652455e-01,2.173576354980468750e-01,2.173455476760864369e-01,2.173334360122680664e-01,2.173213481903076283e-01,2.173092603683471624e-01,2.172971487045288197e-01,2.172850608825683538e-01,2.172729730606079157e-01,2.172608852386474498e-01,2.172487974166870117e-01,2.172366857528686412e-01,2.172246217727661077e-01,2.172125339508056696e-01,2.172004461288452037e-01,2.171883583068847656e-01,2.171762704849243275e-01,2.171641826629638616e-01,2.171521186828613281e-01,2.171400308609008900e-01,2.171279430389404241e-01,2.171158790588378906e-01,2.171037912368774525e-01,2.170917272567748912e-01,2.170796632766723577e-01,2.170675992965698242e-01,2.170555114746093861e-01,2.170434713363647572e-01,2.170313835144042913e-01,1.956734180450439564e-01,1.900160908699035645e-01,1.884244561195373424e-01,1.877266168594360352e-01,1.873060226440429743e-01,1.877876520156860352e-01,1.884880185127258412e-01,2.169348955154419001e-01,2.169228553771972712e-01,2.169107913970947377e-01,2.168987512588501088e-01,2.168866872787475475e-01,2.168746471405029186e-01,2.168625831604003851e-01,2.168505430221557562e-01,2.168385028839111273e-01,2.168264627456664984e-01,2.168144226074218694e-01,2.168023586273193359e-01,2.167903423309326116e-01,2.167782783508300781e-01,2.167662620544433538e-01,2.167542219161987249e-01,2.167421817779540960e-01,2.167301416397094671e-01,2.167181015014648382e-01,2.167060852050781139e-01,2.166940450668334850e-01,2.166820287704467884e-01,2.166700124740600641e-01,1.355083584785461426e-01,1.310796260833740345e-01,1.281130194664001354e-01,1.268349528312683050e-01,1.254732847213745062e-01,1.247838735580444336e-01,1.239783525466919001e-01,1.233506321907043429e-01,2.165618181228637640e-01,2.165497779846191351e-01,2.165377855300903431e-01,2.165257692337036188e-01,2.165137529373168945e-01,2.165017604827880748e-01,2.164897441864013783e-01,2.164777278900146540e-01
2.042092800140380970e-01,2.041985750198364313e-01,2.041879177093505748e-01,2.041772127151489369e-01,2.041665554046630804e-01,2.041558742523193470e-01,2.041451930999755859e-01,2.041345119476318248e-01,2.041238546371459961e-01,2.041131734848022350e-01,2.041025161743164062e-01,2.040918350219726451e-01,2.040811777114868164e-01,2.040704965591430553e-01,2.040598392486572266e-01,2.040491580963134655e-01,2.040385007858276367e-01,2.040278434753418080e-01,2.040171861648559515e-01,2.040065050125122181e-01,2.039958477020263616e-01,2.039851903915405329e-01,2.039745330810546764e-01,2.039638757705688477e-01,2.039532184600830189e-01,2.039425611495971624e-01,2.039319038391113337e-01,2.039212703704834095e-01,2.039106130599975530e-01,2.038999557495117243e-01,2.038892984390258678e-01,2.038786649703979437e-01,2.038680076599121149e-01,2.038573741912841908e-01,2.038467168807983343e-01,1.873349308967590388e-01,1.853067398071289174e-01,1.849678039550781139e-01,1.847368121147155706e-01,1.854984521865844782e-01,1.863430261611938588e-01,1.843306422233581543e-01,2.037616014480590765e-01,2.037509679794311523e-01,2.037403345108032282e-01,2.037297248840332087e-01,2.037190675735473522e-01,2.037084341049194280e-01,2.036978244781494085e-01,2.036871910095214844e-01,2.036765575408935602e-01,2.036659240722656361e-01,2.036552906036376842e-01,2.036446809768676647e-01,2.036340475082397405e-01,2.036234378814697210e-01,2.036128044128417969e-01,2.036021947860717773e-01,2.035915851593017578e-01,2.035809516906738337e-01,2.035703420639038141e-01,2.035597324371337946e-01,2.035490989685058705e-01,2.035384893417358509e-01,1.348944783210754284e-01,1.304600358009338490e-01,1.281132221221923939e-01,1.264164328575134166e-01,1.251822471618652399e-01,1.242162585258483887e-01,1.232372879981994684e-01,1.228316187858581598e-01,2.034430265426635798e-01,2.034324169158935602e-01,2.034218072891235407e-01,2.034112215042114258e-01,2.034006118774414062e-01,2.033900260925292913e-01,2.033794164657592718e-01,2.033688306808471569e-01
1.925039291381835938e-01,1.924944400787353405e-01,1.924849390983581487e-01,1.924754619598388616e-01,1.924659609794616699e-01,1.924564719200134166e-01,1.924469828605651911e-01,1.924375057220459040e-01,1.924280166625976507e-01,1.924185276031494252e-01,1.924090385437011719e-01,1.923995733261108509e-01,1.923900842666625977e-01,1.923806071281433105e-01,1.923711180686950573e-01,1.923616528511047363e-01,1.923521757125854492e-01,1.923426866531371959e-01,1.923332095146179088e-01,1.923237562179565541e-01,1.923142671585083008e-01,1.923047900199890137e-01,1.922953128814697266e-01,1.922858595848083441e-01,1.922763824462890569e-01,1.922669053077697698e-01,1.922574400901794489e-01,1.922479629516601618e-01,1.922385096549987793e-01,1.922290444374084584e-01,1.922195672988891713e-01,1.922101020812988226e-01,1.922006607055664062e-01,1.921911835670471191e-01,1.921817183494567982e-01,1.921722531318664495e-01,1.834354400634765625e-01,1.830585002899169922e-01,1.809258341789245494e-01,1.802775621414184626e-01,1.805844783782958873e-01,1.818184494972228948e-01,1.796445369720459095e-01,1.920966029167175404e-01,1.920871734619140625e-01,1.920777201652526800e-01,1.920682668685912975e-01,1.920588016510009766e-01,1.920493721961974987e-01,1.920399188995361439e-01,1.920304656028747614e-01,1.920210242271423451e-01,1.920115709304809626e-01,1.920021414756774847e-01,1.919927000999450684e-01,1.919832468032836859e-01,1.919738054275512695e-01,1.919643521308898870e-01,1.919549107551574707e-01,1.919454932212829590e-01,1.919360518455505427e-01,1.919266104698181263e-01,1.919171690940856823e-01,1.919077277183532659e-01,1.342356562614440973e-01,1.307287693023681530e-01,1.281169056892395020e-01,1.258745312690734974e-01,1.246676683425903265e-01,1.235778808593750028e-01,1.226079821586608942e-01,1.213276743888855036e-01,1.211382985115051214e-01,1.204161286354064886e-01,1.224866032600402804e-01,1.917945861816406361e-01,1.917851567268371582e-01,1.917757391929626465e-01,1.917663097381591686e-01,1.917569041252136230e-01
1.820677399635314830e-01,1.820592403411865345e-01,1.820507645606994629e-01,1.820422768592834528e-01,1.820337772369384766e-01,1.820252895355224665e-01,1.820168137550353948e-01,1.820083260536193848e-01,1.819998383522033747e-01,1.819913387298583984e-01,1.819828748703002930e-01,1.819743871688842829e-01,1.819658994674682728e-01,1.819574117660522350e-01,1.819489479064941295e-01,1.819404602050781194e-01,1.819319844245910756e-01,1.819234967231750377e-01,1.819150328636169323e-01,1.819065570831298884e-01,1.818980693817138783e-01,1.818895936012268066e-01,1.818811297416687012e-01,1.818726539611816295e-01,1.818641781806945856e-01,1.818557024002075140e-01,1.818472266197204701e-01,1.818387746810913030e-01,1.818302989006042591e-01,1.818218231201171875e-01,1.818133473396301159e-01,1.818048954010009766e-01,1.817964315414428711e-01,1.817879557609557994e-01,1.817794919013976940e-01,1.817710399627685547e-01,1.817625761032104492e-01,1.796884894371032770e-01,1.794914484024047741e-01,1.795909166336059626e-01,1.786018967628479059e-01,1.787681460380554088e-01,1.797369360923767034e-01,1.817033529281616155e-01,1.816949009895324763e-01,1.816864371299743708e-01,1.816779732704162653e-01,1.816695332527160645e-01,1.816610813140869252e-01,1.816526174545288197e-01,1.816441655158996527e-01,1.816357254981994518e-01,1.816272735595703125e-01,1.816188216209411732e-01,1.816103577613830677e-01,1.816019058227539007e-01,1.815934777259826660e-01,1.815850257873535267e-01,1.815765738487243597e-01,1.815681219100952204e-01,1.815596699714660534e-01,1.815512299537658802e-01,1.815428018569946178e-01,1.815343499183654785e-01,1.336720347404480036e-01,1.310162067413330189e-01,1.284418106079101562e-01,1.259829163551330622e-01,1.240827322006225614e-01,1.229117751121520941e-01,1.219522595405578558e-01,1.206065058708190862e-01,1.194185972213745173e-01,1.185828089714050237e-01,1.177737593650817899e-01,1.173164010047912653e-01,1.814246535301208552e-01,1.814162373542785589e-01,1.814078092575073242e-01,1.813993692398071234e-01
1.727048993110656683e-01,1.726972818374633845e-01,1.726896405220031683e-01,1.726819872856140137e-01,1.726743459701537975e-01,1.726667284965515137e-01,1.726590871810912975e-01,1.726514458656311091e-01,1.726438045501708929e-01,1.726361870765686091e-01,1.726285457611083929e-01,1.726209044456482045e-01,1.726132750511169545e-01,1.726056575775146429e-01,1.725980162620544545e-01,1.725903868675232045e-01,1.725827455520629883e-01,1.725751280784607045e-01,1.725674986839294545e-01,1.725598692893982045e-01,1.725522398948669545e-01,1.725446224212646429e-01,1.725369930267333929e-01,1.725293636322021429e-01,1.725217342376708929e-01,1.725141048431396429e-01,1.725064992904662975e-01,1.724988698959350475e-01,1.724912405014037975e-01,1.724836230278015137e-01,1.724760055541992299e-01,1.724683880805969183e-01,1.724607586860656683e-01,1.724531412124633845e-01,1.724455356597900391e-01,1.724379181861877552e-01,1.724302887916565052e-01,1.724226713180541937e-01,1.724150776863098145e-01,1.724074482917785645e-01,1.723998308181762806e-01,1.723922133445739691e-01,1.723846197128295898e-01,1.723770022392273060e-01,1.723693847656249944e-01,1.723617792129516491e-01,1.723541736602783314e-01,1.723465681076049860e-01,1.723389506340026744e-01,1.723313450813293568e-01,1.723237514495849498e-01,1.723161339759826660e-01,1.723085284233093206e-01,1.723009109497070368e-01,1.722933292388915960e-01,1.722857117652893122e-01,1.722781062126159668e-01,1.722705006599426214e-01,1.722628951072692760e-01,1.722553133964538630e-01,1.722477078437805176e-01,1.722401022911071722e-01,1.722324967384338268e-01,1.722248911857605091e-01,1.336217641830444447e-01,1.308876276016235352e-01,1.285853028297424261e-01,1.262137055397033747e-01,1.241811156272888128e-01,1.223412156105041504e-01,1.213035345077514704e-01,1.198978543281555148e-01,1.186927199363708441e-01,1.172028422355651800e-01,1.161617517471313504e-01,1.152434825897216825e-01,1.146845817565917969e-01,1.143802404403686523e-01,1.721109867095947377e-01,1.721033930778503307e-01
1.642579555511474720e-01,1.642510414123535267e-01,1.642441272735595814e-01,1.642372131347656361e-01,1.642303228378295954e-01,1.642234086990356501e-01,1.642164945602417048e-01,1.642095804214477595e-01,1.642026901245117188e-01,1.641957759857177734e-01,1.641888737678527943e-01,1.641819596290588490e-01,1.641750693321228083e-01,1.641681551933288630e-01,1.641612529754638561e-01,1.641543507575988770e-01,1.641474604606628362e-01,1.641405463218688909e-01,1.641336441040039118e-01,1.641267418861389049e-01,1.641198515892028920e-01,1.641129493713378851e-01,1.641060471534729059e-01,1.640991449356078991e-01,1.640922427177429199e-01,1.640853643417358454e-01,1.640784621238708385e-01,1.640715599060058594e-01,1.640646576881408802e-01,1.640577793121337780e-01,1.640508770942687988e-01,1.640439867973327581e-01,1.640370845794677790e-01,1.640302062034607045e-01,1.640233159065246638e-01,1.640164136886596569e-01,1.640095233917236439e-01,1.640026450157165416e-01,1.639957547187805287e-01,1.639888525009155218e-01,1.639819622039794811e-01,1.639750957489013727e-01,1.639682054519653320e-01,1.639613151550292913e-01,1.639544248580932506e-01,1.639475464820861761e-01,1.639406561851501354e-01,1.639337658882141224e-01,1.639268755912780817e-01,1.639200091361999456e-01,1.639131188392639049e-01,1.639062404632568304e-01,1.638993501663207897e-01,1.638924837112426813e-01,1.638856053352356068e-01,1.638787150382995661e-01,1.638718366622924916e-01,1.638649702072143555e-01,1.638580799102783148e-01,1.638512015342712402e-01,1.638443231582641657e-01,1.638374447822570912e-01,1.638305783271789551e-01,1.638236999511718806e-01,1.332040071487426702e-01,1.307447075843811146e-01,1.285625457763671931e-01,1.263309240341186634e-01,1.246195554733276339e-01,1.226011633872985812e-01,1.207103610038757352e-01,1.194207191467285128e-01,1.182250976562500000e-01,1.165680646896362360e-01,1.152135610580444364e-01,1.140529990196228055e-01,1.129436135292053167e-01,1.119543075561523493e-01,1.112786173820495550e-01,1.106844663619995089e-01
1.565987467765808105e-01,1.565924644470214899e-01,1.565861821174621693e-01,1.565799117088317871e-01,1.565736293792724665e-01,1.565673470497131459e-01,1.565610647201537975e-01,1.565547943115234431e-01,1.565485119819641224e-01,1.565422296524047741e-01,1.565359473228454534e-01,1.565296888351440374e-01,1.565234065055847168e-01,1.565171241760253962e-01,1.565108418464660756e-01,1.565045833587646595e-01,1.564983010292053112e-01,1.564920306205749567e-01,1.564857482910156361e-01,1.564794898033142201e-01,1.564732193946838379e-01,1.564669370651245173e-01,1.564606666564941351e-01,1.564544081687927191e-01,1.564481377601623646e-01,1.564418554306030162e-01,1.564355850219726618e-01,1.564293146133422796e-01,1.564230561256408636e-01,1.564167857170105091e-01,1.564105153083801270e-01,1.564042448997497448e-01,1.563979864120483287e-01,1.563917279243469127e-01,1.563854575157165583e-01,1.563791871070861761e-01,1.563729286193847601e-01,1.563666701316833441e-01,1.563603997230529896e-01,1.563541293144226074e-01,1.563478827476501576e-01,1.563416123390197754e-01,1.563353538513183594e-01,1.563290834426879772e-01,1.563228368759155273e-01,1.563165783882141113e-01,1.563103199005126953e-01,1.563040494918823131e-01,1.562978029251098633e-01,1.562915444374084473e-01,1.562852859497070312e-01,1.562790274620056152e-01,1.562727808952331654e-01,1.562665224075317494e-01,1.562602639198303334e-01,1.562540054321289174e-01,1.562477588653564398e-01,1.562415003776550237e-01,1.562352418899536077e-01,1.562289953231811579e-01,1.562227487564086803e-01,1.562164902687072643e-01,1.562102437019348145e-01,1.562039852142333984e-01,1.328525662422180287e-01,1.306603908538818415e-01,1.285393714904785045e-01,1.266205191612243541e-01,1.249071121215820368e-01,1.232225537300109808e-01,1.215016007423400934e-01,1.198280692100524847e-01,1.182000160217285128e-01,1.164151430130004883e-01,1.148435592651367160e-01,1.133433341979980524e-01,1.120710611343383734e-01,1.108611226081848145e-01,1.096795201301574707e-01,1.086454510688781711e-01
1.496219992637634333e-01,1.496162533760070912e-01,1.496105313301086537e-01,1.496047973632812500e-01,1.495990633964538463e-01,1.495933294296264704e-01,1.495876073837280329e-01,1.495818734169006292e-01,1.495761394500732533e-01,1.495704054832458496e-01,1.495646834373474121e-01,1.495589494705200084e-01,1.495532155036926325e-01,1.495474815368652288e-01,1.495417594909667913e-01,1.495360374450683538e-01,1.495303034782409779e-01,1.495245695114135742e-01,1.495188593864441029e-01,1.495131254196166992e-01,1.495073914527892955e-01,1.495016694068908580e-01,1.494959473609924205e-01,1.494902253150939830e-01,1.494845032691955455e-01,1.494787693023681696e-01,1.494730472564697321e-01,1.494673371315002330e-01,1.494616031646728571e-01,1.494558811187744196e-01,1.494501590728759821e-01,1.494444489479064830e-01,1.494387149810791071e-01,1.494329929351806696e-01,1.494272708892822321e-01,1.494215607643127330e-01,1.494158387184142955e-01,1.494101166725158580e-01,1.494043946266174205e-01,1.493986964225769154e-01,1.493929743766784779e-01,1.493872523307800404e-01,1.493815302848816029e-01,1.493758201599121038e-01,1.493701100349426325e-01,1.493643879890441950e-01,1.493586659431457575e-01,1.493529677391052246e-01,1.493472456932067871e-01,1.493415355682373158e-01,1.493358135223388783e-01,1.493301153182983454e-01,1.493244051933288463e-01,1.493186831474304088e-01,1.493129730224609375e-01,1.493072748184204046e-01,1.493015527725219671e-01,1.492958426475524958e-01,1.492901325225829967e-01,1.492844343185424916e-01,1.492787241935729925e-01,1.492730140686035212e-01,1.492673039436340221e-01,1.492616057395935170e-01,1.340467810630798229e-01,1.308186411857605036e-01,1.286659121513366588e-01,1.267804384231567272e-01,1.251157760620117132e-01,1.237367510795593234e-01,1.221240639686584500e-01,1.205193519592285128e-01,1.188859343528747559e-01,1.172750115394592257e-01,1.155140399932861328e-01,1.132622599601745550e-01,1.114032983779907199e-01,1.097737312316894587e-01,1.087398648262023898e-01,1.076228380203247126e-01
1.432403802871703991e-01,1.432351350784301647e-01,1.432298779487609919e-01,1.432246208190917913e-01,1.432193636894226185e-01,1.432141184806823841e-01,1.432088613510131836e-01,1.432036042213439830e-01,1.431983470916748102e-01,1.431931018829345759e-01,1.431878566741943415e-01,1.431825995445251409e-01,1.431773424148559681e-01,1.431720972061157338e-01,1.431668519973754994e-01,1.431615948677062988e-01,1.431563377380370983e-01,1.431511044502258301e-01,1.431458473205566295e-01,1.431406021118163951e-01,1.431353449821472223e-01,1.431301116943359264e-01,1.431248545646667536e-01,1.431196093559265192e-01,1.431143641471862848e-01,1.431091070175170843e-01,1.431038737297058161e-01,1.430986285209655817e-01,1.430933713912963812e-01,1.430881261825561468e-01,1.430828928947448786e-01,1.430776476860046442e-01,1.430724024772644098e-01,1.430671572685241755e-01,1.430619239807128795e-01,1.430566787719726451e-01,1.430514335632324108e-01,1.430461883544921764e-01,1.430409550666809082e-01,1.430357098579406738e-01,1.430304646492004395e-01,1.430252194404602051e-01,1.430199980735778753e-01,1.430147528648376409e-01,1.430095076560974066e-01,1.430042624473571722e-01,1.429990410804748424e-01,1.429937958717346080e-01,1.429885625839233398e-01,1.429833173751831055e-01,1.429780840873718373e-01,1.429728507995605413e-01,1.429676055908203069e-01,1.429623723030090388e-01,1.429571509361267090e-01,1.429519057273864746e-01,1.429466724395752064e-01,1.429414391517639105e-01,1.429362058639526423e-01,1.429309725761413463e-01,1.429257392883300781e-01,1.429205060005188099e-01,1.429152846336364802e-01,1.429100513458251842e-01,1.429048061370849498e-01,1.310738325119018555e-01,1.289086341857910156e-01,1.269096374511718694e-01,1.254622340202331543e-01,1.240756034851074191e-01,1.227504611015319824e-01,1.213435769081115667e-01,1.199685692787170466e-01,1.188914656639099149e-01,1.169123291969299261e-01,1.147301077842712430e-01,1.114816665649414062e-01,1.096958398818969754e-01,1.081462621688842746e-01,1.069695830345153836e-01
1.373808860778808483e-01,1.373760461807251032e-01,1.373712182044982966e-01,1.373663783073425237e-01,1.373615503311157171e-01,1.373567104339599720e-01,1.373518824577331654e-01,1.373470425605773926e-01,1.373422265052795521e-01,1.373373866081237793e-01,1.373325586318969727e-01,1.373277187347411998e-01,1.373229026794433594e-01,1.373180627822875866e-01,1.373132348060607799e-01,1.373083949089050348e-01,1.373035788536071666e-01,1.372987508773803600e-01,1.372939109802246149e-01,1.372890830039978083e-01,1.372842669486999401e-01,1.372794389724731334e-01,1.372745990753173884e-01,1.372697710990905817e-01,1.372649431228637751e-01,1.372601270675659069e-01,1.372552990913391002e-01,1.372504711151122936e-01,1.372456431388854869e-01,1.372408270835876465e-01,1.372359991073608398e-01,1.372311711311340332e-01,1.372263431549072266e-01,1.372215270996093861e-01,1.372167110443115179e-01,1.372118830680847112e-01,1.372070550918579046e-01,1.372022390365600641e-01,1.371974110603332575e-01,1.371925950050353893e-01,1.371877670288085826e-01,1.371829509735107422e-01,1.371781349182129017e-01,1.371733069419860951e-01,1.371684908866882269e-01,1.371636748313903864e-01,1.371588587760925182e-01,1.371540307998657116e-01,1.371492147445678711e-01,1.371443986892700306e-01,1.371395826339721624e-01,1.371347665786743220e-01,1.371299386024475153e-01,1.371251344680786133e-01,1.371203184127807728e-01,1.371154904365539662e-01,1.371106743812560980e-01,1.371058702468871959e-01,1.371010541915893555e-01,1.370962381362915150e-01,1.370914220809936468e-01,1.370866179466247448e-01,1.370817899703979381e-01,1.370769858360290638e-01,1.370721697807311956e-01,1.370673656463622936e-01,1.370625495910644531e-01,1.370577335357666127e-01,1.370529174804687444e-01,1.370481133460998424e-01,1.370432972908020020e-01,1.370384812355041615e-01,1.370336771011352595e-01,1.370288610458373912e-01,1.370240569114685170e-01,1.370192527770996149e-01,1.370144367218017467e-01,1.106987118721008273e-01,1.081641077995300348e-01,1.067283630371093778e-01
1.319819211959838978e-01,1.319774627685546819e-01,1.319729924201965277e-01,1.319685459136962780e-01,1.319640755653381237e-01,1.319596171379089355e-01,1.319551587104797474e-01,1.319507002830505316e-01,1.319462418556213434e-01,1.319417715072631891e-01,1.319373130798339733e-01,1.319328665733337513e-01,1.319284081459045355e-01,1.319239377975463812e-01,1.319194793701171931e-01,1.319150328636169434e-01,1.319105744361877552e-01,1.319061160087585394e-01,1.319016575813293513e-01,1.318972110748291016e-01,1.318927526473999134e-01,1.318882942199706976e-01,1.318838357925415095e-01,1.318793892860412598e-01,1.318749308586120716e-01,1.318704724311828558e-01,1.318660140037536677e-01,1.318615555763244518e-01,1.318571090698242299e-01,1.318526506423950140e-01,1.318482041358947643e-01,1.318437457084655762e-01,1.318392992019653265e-01,1.318348407745361384e-01,1.318303942680358887e-01,1.318259358406067006e-01,1.318214893341064509e-01,1.318170428276062012e-01,1.318125844001770131e-01,1.318081378936767634e-01,1.318036913871765137e-01,1.317992329597473256e-01,1.317947864532470759e-01,1.317903280258178600e-01,1.317858934402465765e-01,1.317814469337463268e-01,1.317769885063171387e-01,1.317725419998168890e-01,1.317680954933166393e-01,1.317636489868164174e-01,1.317592024803161677e-01,1.317547559738159180e-01,1.317503094673156683e-01,1.317458629608154186e-01,1.317414164543151966e-01,1.317369699478149470e-01,1.317325353622436634e-01,1.317280769348144476e-01,1.317236304283141979e-01,1.317191839218139759e-01,1.317147493362426647e-01,1.317103028297424427e-01,1.317058563232421931e-01,1.317014098167419434e-01,1.316969752311706598e-01,1.316925287246704102e-01,1.316880822181701605e-01,1.316836476325988770e-01,1.316792130470275934e-01,1.316747665405273438e-01,1.316703200340270941e-01,1.316658735275268444e-01,1.316614389419555609e-01,1.316570043563842773e-01,1.316525578498840277e-01,1.316481232643127441e-01,1.316436767578124944e-01,1.316392421722412109e-01,1.316348075866699274e-01,1.066851258277893011e-01
1.269912600517272838e-01,1.269871354103088434e-01,1.269830107688903753e-01,1.269788742065429688e-01,1.269747376441955622e-01,1.269706130027770941e-01,1.269664883613586537e-01,1.269623517990112194e-01,1.269582271575927790e-01,1.269540905952453724e-01,1.269499778747558705e-01,1.269458413124084362e-01,1.269417166709899958e-01,1.269375801086425892e-01,1.269334673881530873e-01,1.269293308258056530e-01,1.269252061843872126e-01,1.269210696220398060e-01,1.269169569015503041e-01,1.269128322601318359e-01,1.269086956977844294e-01,1.269045710563659612e-01,1.269004583358764593e-01,1.268963217735290527e-01,1.268921971321105846e-01,1.268880724906921442e-01,1.268839478492736761e-01,1.268798351287841741e-01,1.268756985664367676e-01,1.268715739250182994e-01,1.268674492835998591e-01,1.268633365631103571e-01,1.268592119216918890e-01,1.268550872802734486e-01,1.268509626388549805e-01,1.268468499183654785e-01,1.268427252769470104e-01,1.268386006355285700e-01,1.268344759941101019e-01,1.268303632736205999e-01,1.268262386322021595e-01,1.268221259117126576e-01,1.268180012702941895e-01,1.268138885498046875e-01,1.268097639083862194e-01,1.268056392669677790e-01,1.268015265464782770e-01,1.267974138259887751e-01,1.267932891845703069e-01,1.267891764640808050e-01,1.267850518226623646e-01,1.267809391021728627e-01,1.267768263816833607e-01,1.267727017402648926e-01,1.267685890197753906e-01,1.267644762992858887e-01,1.267603516578674205e-01,1.267562389373779186e-01,1.267521262168884166e-01,1.267480134963989147e-01,1.267439007759094127e-01,1.267397761344909723e-01,1.267356634140014704e-01,1.267315506935119684e-01,1.267274379730224665e-01,1.267233252525329645e-01,1.267192006111144964e-01,1.267150998115539606e-01,1.267109870910644587e-01,1.267068743705749567e-01,1.267027497291564886e-01,1.266986370086669866e-01,1.266945362091064509e-01,1.266904234886169489e-01,1.266863107681274470e-01,1.266821980476379450e-01,1.266780853271484431e-01,1.266739726066589411e-01,1.266698598861694391e-01,1.266657590866088756e-01
1.223642826080322266e-01,1.223604559898376493e-01,1.223566174507141058e-01,1.223527789115905762e-01,1.223489403724670466e-01,1.223451137542724554e-01,1.223412752151489258e-01,1.223374485969543485e-01,1.223336100578308050e-01,1.223297834396362277e-01,1.223259449005126981e-01,1.223221063613891546e-01,1.223182797431945773e-01,1.223144531250000000e-01,1.223106145858764704e-01,1.223067879676818792e-01,1.223029494285583496e-01,1.222991228103637723e-01,1.222952961921691950e-01,1.222914576530456515e-01,1.222876191139221219e-01,1.222838044166564969e-01,1.222799658775329534e-01,1.222761392593383761e-01,1.222723007202148465e-01,1.222684741020202692e-01,1.222646474838256780e-01,1.222608208656311007e-01,1.222569823265075711e-01,1.222531557083129938e-01,1.222493410110473688e-01,1.222455024719238253e-01,1.222416758537292480e-01,1.222378492355346707e-01,1.222340226173400934e-01,1.222301959991455023e-01,1.222263693809509250e-01,1.222225427627563477e-01,1.222187161445617704e-01,1.222148895263671931e-01,1.222110629081726019e-01,1.222072362899780246e-01,1.222034096717834473e-01,1.221995830535888700e-01,1.221957564353942927e-01,1.221919298171997015e-01,1.221881151199340765e-01,1.221842885017394992e-01,1.221804618835449219e-01,1.221766352653503446e-01,1.221728205680847196e-01,1.221689939498901423e-01,1.221651673316955511e-01,1.221613407135009738e-01,1.221575260162353488e-01,1.221536993980407715e-01,1.221498847007751465e-01,1.221460580825805692e-01,1.221422433853149442e-01,1.221384167671203669e-01,1.221345901489257757e-01,1.221307754516601507e-01,1.221269607543945257e-01,1.221231341361999484e-01,1.221193075180053711e-01,1.221154928207397461e-01,1.221116781234741211e-01,1.221078515052795438e-01,1.221040368080139188e-01,1.221002101898193415e-01,1.220963954925537165e-01,1.220925807952880915e-01,1.220887541770935003e-01,1.220849394798278753e-01,1.220811128616332980e-01,1.220773100852966253e-01,1.220734834671020480e-01,1.220696687698364230e-01,1.220658540725707980e-01,1.220620393753051730e-01
1.180626273155212375e-01,1.180590510368347140e-01,1.180554747581481906e-01,1.180519104003906194e-01,1.180483460426330622e-01,1.180447697639465388e-01,1.180412054061889676e-01,1.180376291275024442e-01,1.180340647697448730e-01,1.180305004119873019e-01,1.180269241333007785e-01,1.180233597755432073e-01,1.180197954177856501e-01,1.180162191390991266e-01,1.180126547813415555e-01,1.180090904235839844e-01,1.180055260658264132e-01,1.180019617080688421e-01,1.179983854293823187e-01,1.179948210716247614e-01,1.179912567138671903e-01,1.179876923561096191e-01,1.179841279983520480e-01,1.179805517196655246e-01,1.179769873619079534e-01,1.179734230041503962e-01,1.179698705673217773e-01,1.179662942886352539e-01,1.179627299308776828e-01,1.179591774940490778e-01,1.179556131362915067e-01,1.179520368576049832e-01,1.179484724998474121e-01,1.179449200630187933e-01,1.179413557052612360e-01,1.179377913475036649e-01,1.179342269897460938e-01,1.179306626319885226e-01,1.179270982742309515e-01,1.179235339164733942e-01,1.179199695587158231e-01,1.179164171218872043e-01,1.179128527641296331e-01,1.179092884063720759e-01,1.179057240486145047e-01,1.179021716117858859e-01,1.178986072540283148e-01,1.178950548171997098e-01,1.178914904594421387e-01,1.178879380226135198e-01,1.178843736648559626e-01,1.178808093070983914e-01,1.178772449493408203e-01,1.178736925125122015e-01,1.178701400756835965e-01,1.178665757179260254e-01,1.178630113601684543e-01,1.178594589233398493e-01,1.178559064865112305e-01,1.178523421287536593e-01,1.178487777709960882e-01,1.178452253341674832e-01,1.178416728973388644e-01,1.178381085395812933e-01,1.178345561027526883e-01,1.178310036659240695e-01,1.178274393081664984e-01,1.178238868713378934e-01,1.178203344345092746e-01,1.178167819976806696e-01,1.178132176399230985e-01,1.178096652030944796e-01,1.178061127662658747e-01,1.178025484085083036e-01,1.177990078926086370e-01,1.177954435348510798e-01,1.177918910980224609e-01,1.177883386611938421e-01,1.177847862243652372e-01,1.177812337875366183e-01
