6.195315837860106978e-01,6.352426528930663618e-01,6.517713069915771484e-01,6.691854953765868919e-01,6.875562191009521040e-01,7.069640159606933594e-01,7.274993896484375222e-01,7.492633819580077903e-01,7.723697185516357200e-01,7.969465732574463335e-01,8.231388092041015403e-01,8.511113166809082253e-01,8.810518264770508257e-01,9.131756782531738059e-01,9.477306365966796653e-01,9.850037574768066850e-01,1.000000000000000000e+00,1.000000000000000000e+00,1.000000000000000000e+00,1.000000000000000000e+00,1.000000000000000000e+00,1.000000000000000000e+00,1.000000000000000000e+00,1.000000000000000000e+00,1.000000000000000000e+00,1.000000000000000000e+00,1.000000000000000000e+00,1.000000000000000000e+00,1.000000000000000000e+00,1.000000000000000000e+00,1.000000000000000000e+00,1.000000000000000000e+00,1.000000000000000000e+00,1.000000000000000000e+00,1.000000000000000000e+00,1.000000000000000000e+00,1.000000000000000000e+00,1.000000000000000000e+00,1.000000000000000000e+00,1.000000000000000000e+00,1.000000000000000000e+00,1.000000000000000000e+00,1.000000000000000000e+00,1.000000000000000000e+00,1.000000000000000000e+00,1.000000000000000000e+00,1.000000000000000000e+00,1.000000000000000000e+00,1.000000000000000000e+00,1.000000000000000000e+00,1.000000000000000000e+00,1.000000000000000000e+00,5.059039115905761275e-01,4.987558841705322377e-01,4.990993499755859153e-01,4.947767257690429688e-01,4.911989688873291127e-01,4.892768383026123158e-01,4.906551361083984486e-01,4.908638477325439342e-01,4.906517505645752175e-01,4.981183528900146595e-01,5.112785816192626509e-01,1.000000000000000000e+00,1.000000000000000000e+00,1.000000000000000000e+00,1.000000000000000000e+00,1.000000000000000000e+00,1.000000000000000000e+00,1.000000000000000000e+00,9.691828727722168191e-01,9.374770164489746316e-01,9.077795982360840066e-01,8.799059867858887163e-01,8.536931037902831809e-01,8.289968490600585493e-01,8.056893348693847656e-01,7.836565017700195535e-01,7.627967357635497825e-01,7.430185317993164285e-01
6.195182800292968750e-01,6.352286338806152344e-01,6.517565727233887163e-01,6.691675186157226562e-01,6.875368595123291238e-01,7.069436073303222434e-01,7.274776935577392800e-01,7.492403984069824219e-01,7.723452568054198775e-01,7.969205379486083984e-01,8.231110572814941406e-01,8.510816574096680132e-01,8.810200691223144531e-01,9.131415367126465288e-01,9.476939201354980247e-01,9.849639892578124778e-01,1.000000000000000000e+00,1.000000000000000000e+00,1.000000000000000000e+00,1.000000000000000000e+00,1.000000000000000000e+00,1.000000000000000000e+00,1.000000000000000000e+00,1.000000000000000000e+00,1.000000000000000000e+00,1.000000000000000000e+00,1.000000000000000000e+00,1.000000000000000000e+00,1.000000000000000000e+00,1.000000000000000000e+00,1.000000000000000000e+00,1.000000000000000000e+00,1.000000000000000000e+00,1.000000000000000000e+00,1.000000000000000000e+00,1.000000000000000000e+00,1.000000000000000000e+00,1.000000000000000000e+00,1.000000000000000000e+00,1.000000000000000000e+00,1.000000000000000000e+00,1.000000000000000000e+00,1.000000000000000000e+00,1.000000000000000000e+00,1.000000000000000000e+00,1.000000000000000000e+00,1.000000000000000000e+00,1.000000000000000000e+00,1.000000000000000000e+00,1.000000000000000000e+00,1.000000000000000000e+00,1.000000000000000000e+00,5.073046207427978072e-01,5.017624378204346147e-01,5.013466835021972434e-01,4.956995964050293080e-01,4.905218124389648660e-01,4.879666805267334206e-01,4.889511108398437722e-01,4.898915767669677623e-01,4.899477481842041127e-01,4.964254379272460826e-01,5.133172988891601118e-01,1.000000000000000000e+00,1.000000000000000000e+00,1.000000000000000000e+00,1.000000000000000000e+00,1.000000000000000000e+00,1.000000000000000000e+00,1.000000000000000000e+00,9.692115783691406250e-01,9.375036239624023882e-01,9.078046798706054243e-01,8.799295425415039062e-01,8.537153244018554910e-01,8.290177345275878684e-01,8.057089805603027122e-01,7.836751937866210938e-01,7.628144264221191628e-01,7.430353164672851562e-01
6.195049285888671875e-01,6.352146625518798606e-01,6.517418384552001731e-01,6.691519737243651900e-01,6.875178337097167525e-01,7.069231033325195090e-01,7.274559974670410378e-01,7.492174148559570535e-01,7.723208427429198997e-01,7.968945026397704634e-01,8.230834007263183594e-01,8.510519981384276900e-01,8.809883117675780806e-01,9.131073951721191406e-01,9.476571083068847656e-01,9.849242210388183816e-01,1.000000000000000000e+00,1.000000000000000000e+00,1.000000000000000000e+00,1.000000000000000000e+00,1.000000000000000000e+00,1.000000000000000000e+00,1.000000000000000000e+00,1.000000000000000000e+00,1.000000000000000000e+00,1.000000000000000000e+00,1.000000000000000000e+00,1.000000000000000000e+00,1.000000000000000000e+00,1.000000000000000000e+00,1.000000000000000000e+00,1.000000000000000000e+00,1.000000000000000000e+00,1.000000000000000000e+00,1.000000000000000000e+00,1.000000000000000000e+00,1.000000000000000000e+00,1.000000000000000000e+00,1.000000000000000000e+00,1.000000000000000000e+00,1.000000000000000000e+00,1.000000000000000000e+00,1.000000000000000000e+00,1.000000000000000000e+00,1.000000000000000000e+00,1.000000000000000000e+00,1.000000000000000000e+00,1.000000000000000000e+00,1.000000000000000000e+00,1.000000000000000000e+00,1.000000000000000000e+00,1.000000000000000000e+00,5.110138416290282981e-01,5.036299705505371538e-01,5.033429145812988725e-01,4.968779087066650391e-01,4.922088623046875222e-01,4.892530441284179688e-01,4.872487545013427512e-01,4.882909774780273549e-01,4.914681911468505859e-01,4.975518703460693470e-01,5.150404930114745872e-01,1.000000000000000000e+00,1.000000000000000000e+00,1.000000000000000000e+00,1.000000000000000000e+00,1.000000000000000000e+00,1.000000000000000000e+00,1.000000000000000000e+00,9.692401885986328125e-01,9.375303268432617632e-01,9.078297615051269531e-01,8.799530982971190962e-01,8.537373542785644531e-01,8.290386199951171875e-01,8.057287216186523882e-01,7.836938381195068803e-01,7.628320217132568137e-01,7.430521011352538840e-01
6.194915771484375000e-01,6.352006435394287331e-01,6.517270565032958762e-01,6.691364288330078347e-01,6.875014305114746094e-01,7.069029331207274947e-01,7.274343967437744141e-01,7.491943836212158203e-01,7.722964763641357866e-01,7.968685150146483931e-01,8.230556488037109597e-01,8.510223388671874778e-01,8.809564590454102007e-01,9.130732536315917525e-01,9.476203918457031250e-01,9.848845481872559038e-01,1.000000000000000000e+00,1.000000000000000000e+00,1.000000000000000000e+00,1.000000000000000000e+00,1.000000000000000000e+00,1.000000000000000000e+00,1.000000000000000000e+00,1.000000000000000000e+00,1.000000000000000000e+00,1.000000000000000000e+00,1.000000000000000000e+00,1.000000000000000000e+00,1.000000000000000000e+00,1.000000000000000000e+00,1.000000000000000000e+00,1.000000000000000000e+00,1.000000000000000000e+00,1.000000000000000000e+00,1.000000000000000000e+00,1.000000000000000000e+00,1.000000000000000000e+00,1.000000000000000000e+00,1.000000000000000000e+00,1.000000000000000000e+00,1.000000000000000000e+00,1.000000000000000000e+00,1.000000000000000000e+00,1.000000000000000000e+00,1.000000000000000000e+00,1.000000000000000000e+00,1.000000000000000000e+00,1.000000000000000000e+00,1.000000000000000000e+00,1.000000000000000000e+00,1.000000000000000000e+00,1.000000000000000000e+00,1.000000000000000000e+00,5.052217006683349387e-01,5.030973911285400169e-01,4.979637145996093639e-01,4.931693553924560436e-01,4.887589931488037220e-01,4.865461826324463113e-01,4.872349262237548606e-01,4.905639171600341686e-01,5.011033058166504128e-01,5.169157028198242410e-01,1.000000000000000000e+00,1.000000000000000000e+00,1.000000000000000000e+00,1.000000000000000000e+00,1.000000000000000000e+00,1.000000000000000000e+00,1.000000000000000000e+00,9.692687034606933816e-01,9.375570297241211382e-01,9.078547477722167525e-01,8.799765586853027788e-01,8.537595748901367632e-01,8.290595054626465066e-01,8.057484626770019531e-01,7.837125301361084206e-01,7.628491878509521262e-01,7.430675983428954856e-01
6.194782257080078125e-01,6.351865768432617410e-01,6.517123222351074441e-01,6.691208839416503684e-01,6.874850273132324663e-01,7.068855762481689453e-01,7.274129390716552734e-01,7.491714000701904519e-01,7.722720146179199441e-01,7.968424797058105691e-01,8.230278968811035600e-01,8.509926795959472656e-01,8.809247016906738281e-01,9.130391120910644753e-01,9.475835800170898660e-01,9.848447799682616965e-01,1.000000000000000000e+00,1.000000000000000000e+00,1.000000000000000000e+00,1.000000000000000000e+00,1.000000000000000000e+00,1.000000000000000000e+00,1.000000000000000000e+00,1.000000000000000000e+00,1.000000000000000000e+00,1.000000000000000000e+00,1.000000000000000000e+00,1.000000000000000000e+00,1.000000000000000000e+00,1.000000000000000000e+00,1.000000000000000000e+00,1.000000000000000000e+00,1.000000000000000000e+00,1.000000000000000000e+00,1.000000000000000000e+00,1.000000000000000000e+00,1.000000000000000000e+00,1.000000000000000000e+00,1.000000000000000000e+00,1.000000000000000000e+00,1.000000000000000000e+00,1.000000000000000000e+00,1.000000000000000000e+00,1.000000000000000000e+00,1.000000000000000000e+00,1.000000000000000000e+00,1.000000000000000000e+00,1.000000000000000000e+00,1.000000000000000000e+00,1.000000000000000000e+00,1.000000000000000000e+00,1.000000000000000000e+00,1.000000000000000000e+00,5.058106422424316628e-01,5.021748065948485884e-01,5.001796245574950950e-01,4.925478458404540794e-01,4.887191772460937611e-01,4.871038436889648660e-01,4.874743461608886941e-01,4.900852203369140403e-01,5.171751022338867410e-01,5.181482791900634544e-01,1.000000000000000000e+00,1.000000000000000000e+00,1.000000000000000000e+00,1.000000000000000000e+00,1.000000000000000000e+00,1.000000000000000000e+00,1.000000000000000000e+00,9.692972183227539507e-01,9.375837326049805132e-01,9.078797340393066628e-01,8.800001144409179688e-01,8.537817001342773438e-01,8.290801048278808594e-01,8.057669639587402566e-01,7.837291717529296653e-01,7.628647327423095925e-01,7.430822849273681641e-01
6.194649219512939897e-01,6.351725578308105025e-01,6.516975879669189009e-01,6.691053390502930132e-01,6.874686241149902122e-01,7.068682193756103960e-01,7.273945808410644531e-01,7.491486549377441850e-01,7.722476005554199663e-01,7.968165397644042525e-01,8.230001449584960493e-01,8.509630203247070535e-01,8.808929443359374556e-01,9.130049705505370872e-01,9.475467681884766069e-01,9.848051071166992188e-01,1.000000000000000000e+00,1.000000000000000000e+00,1.000000000000000000e+00,1.000000000000000000e+00,1.000000000000000000e+00,1.000000000000000000e+00,1.000000000000000000e+00,1.000000000000000000e+00,1.000000000000000000e+00,1.000000000000000000e+00,1.000000000000000000e+00,1.000000000000000000e+00,1.000000000000000000e+00,1.000000000000000000e+00,1.000000000000000000e+00,1.000000000000000000e+00,1.000000000000000000e+00,1.000000000000000000e+00,1.000000000000000000e+00,1.000000000000000000e+00,1.000000000000000000e+00,1.000000000000000000e+00,1.000000000000000000e+00,1.000000000000000000e+00,1.000000000000000000e+00,1.000000000000000000e+00,1.000000000000000000e+00,1.000000000000000000e+00,1.000000000000000000e+00,1.000000000000000000e+00,1.000000000000000000e+00,1.000000000000000000e+00,1.000000000000000000e+00,1.000000000000000000e+00,1.000000000000000000e+00,1.000000000000000000e+00,1.000000000000000000e+00,5.066125392913818359e-01,5.024604320526122603e-01,5.023277759552001731e-01,4.923182487487792747e-01,4.880393981933593972e-01,4.874535083770751842e-01,4.881435871124267800e-01,4.889756202697753684e-01,5.196995735168457031e-01,5.201991081237793413e-01,1.000000000000000000e+00,1.000000000000000000e+00,1.000000000000000000e+00,1.000000000000000000e+00,1.000000000000000000e+00,1.000000000000000000e+00,1.000000000000000000e+00,9.693257331848144087e-01,9.376104354858398882e-01,9.079047203063964622e-01,8.800226211547851340e-01,8.538018226623534934e-01,8.290984153747558150e-01,8.057843208312988059e-01,7.837455272674560547e-01,7.628802299499511941e-01,7.430970191955565962e-01
6.194516181945800559e-01,6.351585388183593750e-01,6.516827583312988503e-01,6.690897941589355469e-01,6.874522209167480691e-01,7.068509101867676003e-01,7.273762226104736328e-01,7.491291522979736106e-01,7.722233295440673606e-01,7.967905521392821822e-01,8.229723930358886497e-01,8.509333610534668413e-01,8.808611869812011941e-01,9.129709243774414285e-01,9.475100517272949663e-01,9.847654342651367410e-01,1.000000000000000000e+00,1.000000000000000000e+00,1.000000000000000000e+00,1.000000000000000000e+00,1.000000000000000000e+00,1.000000000000000000e+00,1.000000000000000000e+00,1.000000000000000000e+00,1.000000000000000000e+00,1.000000000000000000e+00,1.000000000000000000e+00,1.000000000000000000e+00,1.000000000000000000e+00,1.000000000000000000e+00,1.000000000000000000e+00,1.000000000000000000e+00,1.000000000000000000e+00,1.000000000000000000e+00,1.000000000000000000e+00,1.000000000000000000e+00,1.000000000000000000e+00,1.000000000000000000e+00,1.000000000000000000e+00,1.000000000000000000e+00,1.000000000000000000e+00,1.000000000000000000e+00,1.000000000000000000e+00,1.000000000000000000e+00,1.000000000000000000e+00,1.000000000000000000e+00,1.000000000000000000e+00,1.000000000000000000e+00,1.000000000000000000e+00,1.000000000000000000e+00,1.000000000000000000e+00,1.000000000000000000e+00,1.000000000000000000e+00,5.077050209045410600e-01,5.045568943023681641e-01,4.995765686035156250e-01,4.906893730163573997e-01,4.864432334899902455e-01,4.853635787963866965e-01,4.857014656066894753e-01,4.868411540985107533e-01,4.985025882720947044e-01,5.231113433837890625e-01,1.000000000000000000e+00,1.000000000000000000e+00,1.000000000000000000e+00,1.000000000000000000e+00,1.000000000000000000e+00,1.000000000000000000e+00,1.000000000000000000e+00,9.693536758422851562e-01,9.376353263854980691e-01,9.079269409179687722e-01,8.800433158874512163e-01,8.538213729858398215e-01,8.291168212890625000e-01,8.058016777038574663e-01,7.837619304656981978e-01,7.628957748413085493e-01,7.431118488311767578e-01
6.194382667541503684e-01,6.351445674896240012e-01,6.516680240631103072e-01,6.690742492675780806e-01,6.874358177185058150e-01,7.068335533142089400e-01,7.273578643798828125e-01,7.491096973419189009e-01,7.722026348114013894e-01,7.967646121978759766e-01,8.229446411132812500e-01,8.509037971496582475e-01,8.808294296264648215e-01,9.129366874694824219e-01,9.474732398986815962e-01,9.847256660461425337e-01,1.000000000000000000e+00,1.000000000000000000e+00,1.000000000000000000e+00,1.000000000000000000e+00,1.000000000000000000e+00,1.000000000000000000e+00,1.000000000000000000e+00,1.000000000000000000e+00,1.000000000000000000e+00,1.000000000000000000e+00,1.000000000000000000e+00,1.000000000000000000e+00,1.000000000000000000e+00,1.000000000000000000e+00,1.000000000000000000e+00,1.000000000000000000e+00,1.000000000000000000e+00,1.000000000000000000e+00,1.000000000000000000e+00,1.000000000000000000e+00,1.000000000000000000e+00,1.000000000000000000e+00,1.000000000000000000e+00,1.000000000000000000e+00,1.000000000000000000e+00,1.000000000000000000e+00,1.000000000000000000e+00,1.000000000000000000e+00,1.000000000000000000e+00,1.000000000000000000e+00,1.000000000000000000e+00,1.000000000000000000e+00,1.000000000000000000e+00,1.000000000000000000e+00,1.000000000000000000e+00,1.000000000000000000e+00,1.000000000000000000e+00,5.083559036254883257e-01,5.052154064178466797e-01,4.993093013763427734e-01,4.933048725128174050e-01,4.886100769042968639e-01,4.866735458374023549e-01,4.864603042602538840e-01,4.885700702667236106e-01,4.974093437194824219e-01,5.248500823974608931e-01,1.000000000000000000e+00,1.000000000000000000e+00,1.000000000000000000e+00,1.000000000000000000e+00,1.000000000000000000e+00,1.000000000000000000e+00,1.000000000000000000e+00,9.693786621093749556e-01,9.376587867736816406e-01,9.079488754272461160e-01,8.800640106201171875e-01,8.538408279418945312e-01,8.291351318359374556e-01,8.058190345764160156e-01,7.837784290313720703e-01,7.629113674163818803e-01,7.431265830993651900e-01
6.194249629974365456e-01,6.351305484771728738e-01,6.516532897949218750e-01,6.690586566925048606e-01,6.874194145202636719e-01,7.068161964416503906e-01,7.273394584655761275e-01,7.490901947021484375e-01,7.721819400787353072e-01,7.967425823211670144e-01,8.229169845581054688e-01,8.508740425109863059e-01,8.807975769042968306e-01,9.129025459289550337e-01,9.474365234374999556e-01,9.846859931945800559e-01,1.000000000000000000e+00,1.000000000000000000e+00,1.000000000000000000e+00,1.000000000000000000e+00,1.000000000000000000e+00,1.000000000000000000e+00,1.000000000000000000e+00,1.000000000000000000e+00,1.000000000000000000e+00,1.000000000000000000e+00,1.000000000000000000e+00,1.000000000000000000e+00,1.000000000000000000e+00,1.000000000000000000e+00,1.000000000000000000e+00,1.000000000000000000e+00,1.000000000000000000e+00,1.000000000000000000e+00,1.000000000000000000e+00,1.000000000000000000e+00,1.000000000000000000e+00,1.000000000000000000e+00,1.000000000000000000e+00,1.000000000000000000e+00,1.000000000000000000e+00,1.000000000000000000e+00,1.000000000000000000e+00,1.000000000000000000e+00,1.000000000000000000e+00,1.000000000000000000e+00,1.000000000000000000e+00,1.000000000000000000e+00,1.000000000000000000e+00,1.000000000000000000e+00,1.000000000000000000e+00,1.000000000000000000e+00,1.000000000000000000e+00,5.024129390716552956e-01,4.980890750885009766e-01,4.987757205963134766e-01,4.926879405975341797e-01,4.887856006622314231e-01,4.868220806121826283e-01,4.871755599975585715e-01,4.894647121429443470e-01,4.956727981567382590e-01,5.226263523101806197e-01,1.000000000000000000e+00,1.000000000000000000e+00,1.000000000000000000e+00,1.000000000000000000e+00,1.000000000000000000e+00,1.000000000000000000e+00,1.000000000000000000e+00,9.694038391113281028e-01,9.376822471618652122e-01,9.079710006713866965e-01,8.800847053527831587e-01,8.538602828979492410e-01,8.291535377502441406e-01,8.058363914489745650e-01,7.837947845458984597e-01,7.629269123077392356e-01,7.431413173675537331e-01
6.194116115570068581e-01,6.351165294647216353e-01,6.516385555267334428e-01,6.690431118011475053e-01,6.874030113220215288e-01,7.067988395690918413e-01,7.273211002349853072e-01,7.490706920623779741e-01,7.721611976623534712e-01,7.967205524444580522e-01,8.228934288024902788e-01,8.508444786071777122e-01,8.807659149169921875e-01,9.128684997558593750e-01,9.473998069763183150e-01,9.846462249755859597e-01,1.000000000000000000e+00,1.000000000000000000e+00,1.000000000000000000e+00,1.000000000000000000e+00,1.000000000000000000e+00,1.000000000000000000e+00,1.000000000000000000e+00,1.000000000000000000e+00,1.000000000000000000e+00,1.000000000000000000e+00,1.000000000000000000e+00,1.000000000000000000e+00,1.000000000000000000e+00,1.000000000000000000e+00,1.000000000000000000e+00,1.000000000000000000e+00,1.000000000000000000e+00,1.000000000000000000e+00,1.000000000000000000e+00,1.000000000000000000e+00,1.000000000000000000e+00,1.000000000000000000e+00,1.000000000000000000e+00,1.000000000000000000e+00,1.000000000000000000e+00,1.000000000000000000e+00,1.000000000000000000e+00,1.000000000000000000e+00,1.000000000000000000e+00,1.000000000000000000e+00,1.000000000000000000e+00,1.000000000000000000e+00,1.000000000000000000e+00,1.000000000000000000e+00,1.000000000000000000e+00,1.000000000000000000e+00,1.000000000000000000e+00,4.990701198577880970e-01,4.930472850799560436e-01,4.962403774261474609e-01,4.917418003082275613e-01,4.912737369537353294e-01,4.908652782440185436e-01,4.917543888092040794e-01,4.906781673431396262e-01,4.910415649414062722e-01,5.213546752929687500e-01,1.000000000000000000e+00,1.000000000000000000e+00,1.000000000000000000e+00,1.000000000000000000e+00,1.000000000000000000e+00,1.000000000000000000e+00,1.000000000000000000e+00,9.694290161132812500e-01,9.377058029174805132e-01,9.079930305480956587e-01,8.801054000854492410e-01,8.538798332214355691e-01,8.291719436645508257e-01,8.058537483215332253e-01,7.838111877441406028e-01,7.629424095153808372e-01,7.431560516357421653e-01
6.193983078002929243e-01,6.351025104522705078e-01,6.516238212585448997e-01,6.690275669097900391e-01,6.873865127563476562e-01,7.067815303802490456e-01,7.273027420043944868e-01,7.490512371063232644e-01,7.721405029296875000e-01,7.966985225677489790e-01,8.228699684143065962e-01,8.508193016052245650e-01,8.807340621948241965e-01,9.128343582153319868e-01,9.473629951477050559e-01,9.846065521240234819e-01,1.000000000000000000e+00,1.000000000000000000e+00,1.000000000000000000e+00,1.000000000000000000e+00,1.000000000000000000e+00,1.000000000000000000e+00,1.000000000000000000e+00,1.000000000000000000e+00,1.000000000000000000e+00,1.000000000000000000e+00,1.000000000000000000e+00,1.000000000000000000e+00,1.000000000000000000e+00,1.000000000000000000e+00,1.000000000000000000e+00,1.000000000000000000e+00,1.000000000000000000e+00,1.000000000000000000e+00,1.000000000000000000e+00,1.000000000000000000e+00,1.000000000000000000e+00,1.000000000000000000e+00,1.000000000000000000e+00,1.000000000000000000e+00,1.000000000000000000e+00,1.000000000000000000e+00,1.000000000000000000e+00,1.000000000000000000e+00,1.000000000000000000e+00,1.000000000000000000e+00,1.000000000000000000e+00,1.000000000000000000e+00,1.000000000000000000e+00,1.000000000000000000e+00,1.000000000000000000e+00,1.000000000000000000e+00,1.000000000000000000e+00,4.947391033172607311e-01,4.869020938873290794e-01,4.924820423126220481e-01,4.886693000793457253e-01,4.882348537445068137e-01,4.962318420410156139e-01,4.905025482177734486e-01,4.855583667755126731e-01,4.811161518096923606e-01,4.893877029418945424e-01,1.000000000000000000e+00,1.000000000000000000e+00,1.000000000000000000e+00,1.000000000000000000e+00,1.000000000000000000e+00,1.000000000000000000e+00,1.000000000000000000e+00,9.694540023803710493e-01,9.377292633056640847e-01,9.080150604248047319e-01,8.801260948181152122e-01,8.538992881774902788e-01,8.291902542114257812e-01,8.058711051940917747e-01,7.838276863098144753e-01,7.629580497741699219e-01,7.431708335876464622e-01
6.193850040435791016e-01,6.350885391235351340e-01,6.516090393066406028e-01,6.690120220184325728e-01,6.873701095581055132e-01,7.067641735076903853e-01,7.272843837738036665e-01,7.490317344665526900e-01,7.721198081970215288e-01,7.966764450073242632e-01,8.228464126586914062e-01,8.507941246032715288e-01,8.807070732116699663e-01,9.128002166748047097e-01,9.473262786865234153e-01,9.845668792724608931e-01,1.000000000000000000e+00,1.000000000000000000e+00,1.000000000000000000e+00,1.000000000000000000e+00,1.000000000000000000e+00,1.000000000000000000e+00,1.000000000000000000e+00,1.000000000000000000e+00,1.000000000000000000e+00,1.000000000000000000e+00,1.000000000000000000e+00,1.000000000000000000e+00,1.000000000000000000e+00,1.000000000000000000e+00,1.000000000000000000e+00,1.000000000000000000e+00,1.000000000000000000e+00,1.000000000000000000e+00,1.000000000000000000e+00,1.000000000000000000e+00,1.000000000000000000e+00,1.000000000000000000e+00,1.000000000000000000e+00,1.000000000000000000e+00,1.000000000000000000e+00,1.000000000000000000e+00,1.000000000000000000e+00,1.000000000000000000e+00,1.000000000000000000e+00,1.000000000000000000e+00,1.000000000000000000e+00,1.000000000000000000e+00,1.000000000000000000e+00,1.000000000000000000e+00,1.000000000000000000e+00,1.000000000000000000e+00,1.000000000000000000e+00,1.000000000000000000e+00,4.852441787719726785e-01,4.899095058441161887e-01,4.856518745422363503e-01,4.833496093749999889e-01,4.896747589111328236e-01,4.875936031341552845e-01,4.818062782287597656e-01,4.782890796661377064e-01,4.855701923370361328e-01,1.000000000000000000e+00,1.000000000000000000e+00,1.000000000000000000e+00,1.000000000000000000e+00,1.000000000000000000e+00,1.000000000000000000e+00,1.000000000000000000e+00,9.694791793823241965e-01,9.377527236938476562e-01,9.080370903015136941e-01,8.801467895507812944e-01,8.539187431335448775e-01,8.292086601257324663e-01,8.058883666992187056e-01,7.838440418243408647e-01,7.629735469818115234e-01,7.431855678558350053e-01
6.193716526031494141e-01,6.350745201110840066e-01,6.515943050384521706e-01,6.689965248107909712e-01,6.873537063598632590e-01,7.067467689514159712e-01,7.272660255432128462e-01,7.490122795104980913e-01,7.720991134643554465e-01,7.966544151306151900e-01,8.228229522705078347e-01,8.507690429687500000e-01,8.806800842285156250e-01,9.127710342407227007e-01,9.472895622253417747e-01,9.845271110534667969e-01,1.000000000000000000e+00,1.000000000000000000e+00,1.000000000000000000e+00,1.000000000000000000e+00,1.000000000000000000e+00,1.000000000000000000e+00,1.000000000000000000e+00,1.000000000000000000e+00,1.000000000000000000e+00,1.000000000000000000e+00,1.000000000000000000e+00,1.000000000000000000e+00,1.000000000000000000e+00,1.000000000000000000e+00,1.000000000000000000e+00,1.000000000000000000e+00,1.000000000000000000e+00,1.000000000000000000e+00,1.000000000000000000e+00,1.000000000000000000e+00,1.000000000000000000e+00,1.000000000000000000e+00,1.000000000000000000e+00,1.000000000000000000e+00,1.000000000000000000e+00,1.000000000000000000e+00,1.000000000000000000e+00,1.000000000000000000e+00,1.000000000000000000e+00,1.000000000000000000e+00,1.000000000000000000e+00,1.000000000000000000e+00,1.000000000000000000e+00,1.000000000000000000e+00,1.000000000000000000e+00,1.000000000000000000e+00,1.000000000000000000e+00,1.000000000000000000e+00,4.766897201538086160e-01,4.744938373565673606e-01,4.845864772796630859e-01,4.817441940307617410e-01,4.871288776397705300e-01,4.872477531433105358e-01,4.802309036254882590e-01,4.769613742828369141e-01,4.828359603881836049e-01,1.000000000000000000e+00,1.000000000000000000e+00,1.000000000000000000e+00,1.000000000000000000e+00,1.000000000000000000e+00,1.000000000000000000e+00,1.000000000000000000e+00,9.695042610168457253e-01,9.377761840820312278e-01,9.080591201782226562e-01,8.801674842834472656e-01,8.539382934570312056e-01,8.292270660400390403e-01,8.059058189392089844e-01,7.838604450225830078e-01,7.629890918731689897e-01,7.432003021240234375e-01
6.193689823150634322e-01,6.350655555725097656e-01,6.515795707702636275e-01,6.689809799194336160e-01,6.873373031616211160e-01,7.067294120788574219e-01,7.272476673126220259e-01,7.489927768707275169e-01,7.720784187316894753e-01,7.966323852539062278e-01,8.227993965148925337e-01,8.507438659667968528e-01,8.806531906127930132e-01,9.127421379089355469e-01,9.472580909729003684e-01,9.844874382019043191e-01,1.000000000000000000e+00,1.000000000000000000e+00,1.000000000000000000e+00,1.000000000000000000e+00,1.000000000000000000e+00,1.000000000000000000e+00,1.000000000000000000e+00,1.000000000000000000e+00,1.000000000000000000e+00,1.000000000000000000e+00,1.000000000000000000e+00,1.000000000000000000e+00,1.000000000000000000e+00,1.000000000000000000e+00,1.000000000000000000e+00,1.000000000000000000e+00,1.000000000000000000e+00,1.000000000000000000e+00,1.000000000000000000e+00,1.000000000000000000e+00,1.000000000000000000e+00,1.000000000000000000e+00,1.000000000000000000e+00,1.000000000000000000e+00,1.000000000000000000e+00,1.000000000000000000e+00,1.000000000000000000e+00,1.000000000000000000e+00,1.000000000000000000e+00,1.000000000000000000e+00,1.000000000000000000e+00,1.000000000000000000e+00,1.000000000000000000e+00,1.000000000000000000e+00,1.000000000000000000e+00,1.000000000000000000e+00,1.000000000000000000e+00,1.000000000000000000e+00,4.759034156799316628e-01,4.714462757110595703e-01,4.840618133544921653e-01,4.815469741821288840e-01,4.863610267639160156e-01,4.865688800811767689e-01,4.784792423248290794e-01,4.756464004516601785e-01,4.806987762451171986e-01,1.000000000000000000e+00,1.000000000000000000e+00,1.000000000000000000e+00,1.000000000000000000e+00,1.000000000000000000e+00,1.000000000000000000e+00,1.000000000000000000e+00,9.695294380187988725e-01,9.377997398376465288e-01,9.080811500549316184e-01,8.801881790161132368e-01,8.539577484130859153e-01,8.292453765869141069e-01,8.059231758117675337e-01,7.838769435882568803e-01,7.630046844482422097e-01,7.432151317596435991e-01
6.193690299987792969e-01,6.350656509399413840e-01,6.515785217285156028e-01,6.689730167388916460e-01,6.873217582702636497e-01,7.067120552062988725e-01,7.272292137145995872e-01,7.489733219146728072e-01,7.720577239990233931e-01,7.966103553771972656e-01,8.227758407592773438e-01,8.507187843322754350e-01,8.806262969970702903e-01,9.127132415771483931e-01,9.472269058227539285e-01,9.844533920288085493e-01,1.000000000000000000e+00,1.000000000000000000e+00,1.000000000000000000e+00,1.000000000000000000e+00,1.000000000000000000e+00,1.000000000000000000e+00,1.000000000000000000e+00,1.000000000000000000e+00,1.000000000000000000e+00,1.000000000000000000e+00,1.000000000000000000e+00,1.000000000000000000e+00,1.000000000000000000e+00,1.000000000000000000e+00,1.000000000000000000e+00,1.000000000000000000e+00,1.000000000000000000e+00,1.000000000000000000e+00,1.000000000000000000e+00,1.000000000000000000e+00,1.000000000000000000e+00,1.000000000000000000e+00,1.000000000000000000e+00,1.000000000000000000e+00,1.000000000000000000e+00,1.000000000000000000e+00,1.000000000000000000e+00,1.000000000000000000e+00,1.000000000000000000e+00,1.000000000000000000e+00,1.000000000000000000e+00,1.000000000000000000e+00,1.000000000000000000e+00,1.000000000000000000e+00,1.000000000000000000e+00,1.000000000000000000e+00,1.000000000000000000e+00,1.000000000000000000e+00,4.706250667572021706e-01,4.883247375488281028e-01,4.836300373077392356e-01,4.813498497009277566e-01,4.856163978576660267e-01,4.858468055725097545e-01,4.765835285186767467e-01,4.740122795104980691e-01,4.786017894744872825e-01,5.127763748168945312e-01,1.000000000000000000e+00,1.000000000000000000e+00,1.000000000000000000e+00,1.000000000000000000e+00,1.000000000000000000e+00,1.000000000000000000e+00,9.695545196533202903e-01,9.378232955932617188e-01,9.081031799316405806e-01,8.802088737487793191e-01,8.539772033691406250e-01,8.292637825012206809e-01,8.059404373168945757e-01,7.838932991027831587e-01,7.630202293395995650e-01,7.432298660278320312e-01
6.193657875061034934e-01,6.350656986236572488e-01,6.515785694122314675e-01,6.689731121063232644e-01,6.873218059539795144e-01,7.067054271697997825e-01,7.272141456604004350e-01,7.489538192749023438e-01,7.720370292663574219e-01,7.965883255004883035e-01,8.227523803710937722e-01,8.506936073303222878e-01,8.805993080139160600e-01,9.126843452453613503e-01,9.471957206726073775e-01,9.844197273254394753e-01,1.000000000000000000e+00,1.000000000000000000e+00,1.000000000000000000e+00,1.000000000000000000e+00,1.000000000000000000e+00,1.000000000000000000e+00,1.000000000000000000e+00,1.000000000000000000e+00,1.000000000000000000e+00,1.000000000000000000e+00,1.000000000000000000e+00,1.000000000000000000e+00,1.000000000000000000e+00,1.000000000000000000e+00,1.000000000000000000e+00,1.000000000000000000e+00,1.000000000000000000e+00,1.000000000000000000e+00,1.000000000000000000e+00,1.000000000000000000e+00,1.000000000000000000e+00,1.000000000000000000e+00,1.000000000000000000e+00,1.000000000000000000e+00,1.000000000000000000e+00,1.000000000000000000e+00,1.000000000000000000e+00,1.000000000000000000e+00,1.000000000000000000e+00,1.000000000000000000e+00,1.000000000000000000e+00,1.000000000000000000e+00,1.000000000000000000e+00,1.000000000000000000e+00,1.000000000000000000e+00,1.000000000000000000e+00,1.000000000000000000e+00,1.000000000000000000e+00,1.000000000000000000e+00,4.904823780059814342e-01,4.832609653472900169e-01,4.808792591094970814e-01,4.848740577697753795e-01,4.847006320953369252e-01,4.744723320007324108e-01,4.724347591400146484e-01,4.746669769287109597e-01,5.096241950988769087e-01,1.000000000000000000e+00,1.000000000000000000e+00,1.000000000000000000e+00,1.000000000000000000e+00,1.000000000000000000e+00,1.000000000000000000e+00,9.695796012878418191e-01,9.378467559814452903e-01,9.081252098083496538e-01,8.802295684814452903e-01,8.539967536926269531e-01,8.292821884155273660e-01,8.059578895568847434e-01,7.839097023010254128e-01,7.630357742309570312e-01,7.432446002960204634e-01
6.193525791168212891e-01,6.350544452667236106e-01,6.515731811523437500e-01,6.689731597900390181e-01,6.873219013214111328e-01,7.067055225372314009e-01,7.272142410278320535e-01,7.489488124847412109e-01,7.720226287841797097e-01,7.965662956237793413e-01,8.227289199829102007e-01,8.506684303283691406e-01,8.805724143981933372e-01,9.126553535461425781e-01,9.471645355224609375e-01,9.843860626220702903e-01,1.000000000000000000e+00,1.000000000000000000e+00,1.000000000000000000e+00,1.000000000000000000e+00,1.000000000000000000e+00,1.000000000000000000e+00,1.000000000000000000e+00,1.000000000000000000e+00,1.000000000000000000e+00,1.000000000000000000e+00,1.000000000000000000e+00,1.000000000000000000e+00,1.000000000000000000e+00,1.000000000000000000e+00,1.000000000000000000e+00,1.000000000000000000e+00,1.000000000000000000e+00,1.000000000000000000e+00,1.000000000000000000e+00,1.000000000000000000e+00,1.000000000000000000e+00,1.000000000000000000e+00,1.000000000000000000e+00,1.000000000000000000e+00,1.000000000000000000e+00,1.000000000000000000e+00,1.000000000000000000e+00,1.000000000000000000e+00,1.000000000000000000e+00,1.000000000000000000e+00,1.000000000000000000e+00,1.000000000000000000e+00,1.000000000000000000e+00,1.000000000000000000e+00,1.000000000000000000e+00,1.000000000000000000e+00,1.000000000000000000e+00,1.000000000000000000e+00,1.000000000000000000e+00,4.933656692504883035e-01,4.824810504913329967e-01,4.806133270263671653e-01,4.855178833007812722e-01,4.831582069396972434e-01,4.731854438781738503e-01,4.705144405364990456e-01,4.707963943481445201e-01,1.000000000000000000e+00,1.000000000000000000e+00,1.000000000000000000e+00,1.000000000000000000e+00,1.000000000000000000e+00,1.000000000000000000e+00,1.000000000000000000e+00,9.696047782897949663e-01,9.378702163696288618e-01,9.081472396850586160e-01,8.802502632141113725e-01,8.540162086486816628e-01,8.293004989624023215e-01,8.059751510620116743e-01,7.839261054992675559e-01,7.630513668060302512e-01,7.432594299316406250e-01
6.193393230438232200e-01,6.350405216217041016e-01,6.515584945678710715e-01,6.689587593078613059e-01,6.873138427734375444e-01,7.067046165466308594e-01,7.272142887115478072e-01,7.489489078521728294e-01,7.720227241516113281e-01,7.965633869171142578e-01,8.227154731750487837e-01,8.506433486938476118e-01,8.805455207824707253e-01,9.126264572143554243e-01,9.471334457397461160e-01,9.843523979187012163e-01,1.000000000000000000e+00,1.000000000000000000e+00,1.000000000000000000e+00,1.000000000000000000e+00,1.000000000000000000e+00,1.000000000000000000e+00,1.000000000000000000e+00,1.000000000000000000e+00,1.000000000000000000e+00,1.000000000000000000e+00,1.000000000000000000e+00,1.000000000000000000e+00,1.000000000000000000e+00,1.000000000000000000e+00,1.000000000000000000e+00,1.000000000000000000e+00,1.000000000000000000e+00,1.000000000000000000e+00,1.000000000000000000e+00,1.000000000000000000e+00,1.000000000000000000e+00,1.000000000000000000e+00,1.000000000000000000e+00,1.000000000000000000e+00,1.000000000000000000e+00,1.000000000000000000e+00,1.000000000000000000e+00,1.000000000000000000e+00,1.000000000000000000e+00,1.000000000000000000e+00,1.000000000000000000e+00,1.000000000000000000e+00,1.000000000000000000e+00,1.000000000000000000e+00,1.000000000000000000e+00,1.000000000000000000e+00,1.000000000000000000e+00,1.000000000000000000e+00,1.000000000000000000e+00,4.974952220916747936e-01,4.817677021026611217e-01,4.803477287292480247e-01,4.866694450378418191e-01,4.816344261169433483e-01,4.723636627197265736e-01,4.685142993927001731e-01,4.685554981231689342e-01,1.000000000000000000e+00,1.000000000000000000e+00,1.000000000000000000e+00,1.000000000000000000e+00,1.000000000000000000e+00,1.000000000000000000e+00,1.000000000000000000e+00,9.696298599243163840e-01,9.378937721252441628e-01,9.081692695617675781e-01,8.802709579467773438e-01,8.540356636047363725e-01,8.293189048767090066e-01,8.059925079345703347e-01,7.839425563812255637e-01,7.630669116973877175e-01,7.432741641998290572e-01
6.193261146545410156e-01,6.350266456604003462e-01,6.515439033508301225e-01,6.689433574676513228e-01,6.872975826263427734e-01,7.066873550415039285e-01,7.272030353546142800e-01,7.489454746246337891e-01,7.720228195190429465e-01,7.965634822845458762e-01,8.227156639099121316e-01,8.506432533264159934e-01,8.805335998535156472e-01,9.126009941101074219e-01,9.471022605895995650e-01,9.843187332153320312e-01,1.000000000000000000e+00,1.000000000000000000e+00,1.000000000000000000e+00,1.000000000000000000e+00,1.000000000000000000e+00,1.000000000000000000e+00,1.000000000000000000e+00,1.000000000000000000e+00,1.000000000000000000e+00,1.000000000000000000e+00,1.000000000000000000e+00,1.000000000000000000e+00,1.000000000000000000e+00,1.000000000000000000e+00,1.000000000000000000e+00,1.000000000000000000e+00,1.000000000000000000e+00,1.000000000000000000e+00,1.000000000000000000e+00,1.000000000000000000e+00,1.000000000000000000e+00,1.000000000000000000e+00,1.000000000000000000e+00,1.000000000000000000e+00,1.000000000000000000e+00,1.000000000000000000e+00,1.000000000000000000e+00,1.000000000000000000e+00,1.000000000000000000e+00,1.000000000000000000e+00,1.000000000000000000e+00,1.000000000000000000e+00,1.000000000000000000e+00,1.000000000000000000e+00,1.000000000000000000e+00,1.000000000000000000e+00,1.000000000000000000e+00,1.000000000000000000e+00,1.000000000000000000e+00,5.020142555236816184e-01,4.817736148834228516e-01,4.795310974121093639e-01,4.878264904022217019e-01,1.000000000000000000e+00,4.725379467010498158e-01,4.684565544128417858e-01,4.716441154479980580e-01,1.000000000000000000e+00,1.000000000000000000e+00,1.000000000000000000e+00,1.000000000000000000e+00,1.000000000000000000e+00,1.000000000000000000e+00,1.000000000000000000e+00,9.696549415588379128e-01,9.379172325134277344e-01,9.081912994384765403e-01,8.802916526794433150e-01,8.540551185607909712e-01,8.293373107910155806e-01,8.060099601745605025e-01,7.839589595794678178e-01,7.630827903747559038e-01,7.432899475097656250e-01
6.193128585815429465e-01,6.350126743316650835e-01,6.515292167663574441e-01,6.689278602600097212e-01,6.872812747955322488e-01,7.066701889038086160e-01,7.271848201751709428e-01,7.489261627197265625e-01,7.720076560974120650e-01,7.965570449829101340e-01,8.227157592773437500e-01,8.506433486938476118e-01,8.805336952209472656e-01,9.126011848449706587e-01,9.470925331115722656e-01,9.842934608459472656e-01,1.000000000000000000e+00,1.000000000000000000e+00,1.000000000000000000e+00,1.000000000000000000e+00,1.000000000000000000e+00,1.000000000000000000e+00,1.000000000000000000e+00,1.000000000000000000e+00,1.000000000000000000e+00,1.000000000000000000e+00,1.000000000000000000e+00,1.000000000000000000e+00,1.000000000000000000e+00,1.000000000000000000e+00,1.000000000000000000e+00,1.000000000000000000e+00,1.000000000000000000e+00,1.000000000000000000e+00,1.000000000000000000e+00,1.000000000000000000e+00,1.000000000000000000e+00,1.000000000000000000e+00,1.000000000000000000e+00,1.000000000000000000e+00,1.000000000000000000e+00,1.000000000000000000e+00,1.000000000000000000e+00,1.000000000000000000e+00,1.000000000000000000e+00,1.000000000000000000e+00,1.000000000000000000e+00,1.000000000000000000e+00,1.000000000000000000e+00,1.000000000000000000e+00,1.000000000000000000e+00,1.000000000000000000e+00,1.000000000000000000e+00,1.000000000000000000e+00,1.000000000000000000e+00,5.026923179626464622e-01,4.830644607543945201e-01,4.810706138610839622e-01,4.922540664672851451e-01,4.839285373687743919e-01,4.741837024688720925e-01,4.713597774505615123e-01,1.000000000000000000e+00,1.000000000000000000e+00,1.000000000000000000e+00,1.000000000000000000e+00,1.000000000000000000e+00,1.000000000000000000e+00,1.000000000000000000e+00,1.000000000000000000e+00,9.696801185607910600e-01,9.379407882690429243e-01,9.082133293151855025e-01,8.803124427795410156e-01,8.540746688842772993e-01,8.293556213378906472e-01,8.060281753540039507e-01,7.839770317077636719e-01,7.631003379821776900e-01,7.433066844940185991e-01
6.192996501922607422e-01,6.349987983703613281e-01,6.515146255493163840e-01,6.689124584197998491e-01,6.872650146484374778e-01,7.066529273986816850e-01,7.271665573120117410e-01,7.489068031311034712e-01,7.719870567321777122e-01,7.965351104736327903e-01,8.226956367492676003e-01,8.506329536437988725e-01,8.805337905883788840e-01,9.126012802124023882e-01,9.470926284790038840e-01,9.842935562133788840e-01,1.000000000000000000e+00,1.000000000000000000e+00,1.000000000000000000e+00,1.000000000000000000e+00,1.000000000000000000e+00,1.000000000000000000e+00,1.000000000000000000e+00,1.000000000000000000e+00,1.000000000000000000e+00,1.000000000000000000e+00,1.000000000000000000e+00,1.000000000000000000e+00,1.000000000000000000e+00,1.000000000000000000e+00,1.000000000000000000e+00,1.000000000000000000e+00,1.000000000000000000e+00,1.000000000000000000e+00,1.000000000000000000e+00,1.000000000000000000e+00,1.000000000000000000e+00,1.000000000000000000e+00,1.000000000000000000e+00,1.000000000000000000e+00,1.000000000000000000e+00,1.000000000000000000e+00,1.000000000000000000e+00,1.000000000000000000e+00,1.000000000000000000e+00,1.000000000000000000e+00,1.000000000000000000e+00,1.000000000000000000e+00,1.000000000000000000e+00,1.000000000000000000e+00,1.000000000000000000e+00,1.000000000000000000e+00,1.000000000000000000e+00,1.000000000000000000e+00,1.000000000000000000e+00,5.018093585968017578e-01,4.867032527923583762e-01,4.860781669616699441e-01,1.000000000000000000e+00,4.867495536804199441e-01,4.780032634735107422e-01,4.746387004852294922e-01,1.000000000000000000e+00,1.000000000000000000e+00,1.000000000000000000e+00,1.000000000000000000e+00,1.000000000000000000e+00,1.000000000000000000e+00,1.000000000000000000e+00,1.000000000000000000e+00,9.697052001953124778e-01,9.379642486572266069e-01,9.082353591918945757e-01,8.803336143493651900e-01,8.540956497192382368e-01,8.293763160705566184e-01,8.060477256774902788e-01,7.839956283569335938e-01,7.631179332733154519e-01,7.433232784271239790e-01
6.192863941192626731e-01,6.349848747253418191e-01,6.514999389648437056e-01,6.688970088958740012e-01,6.872487068176269531e-01,7.066357135772705078e-01,7.271483421325684038e-01,7.488874912261962447e-01,7.719665050506592241e-01,7.965132713317870650e-01,8.226722717285156472e-01,8.506079673767089622e-01,8.805075645446777122e-01,9.125856399536133035e-01,9.470894813537598100e-01,9.842936515808105025e-01,1.000000000000000000e+00,1.000000000000000000e+00,1.000000000000000000e+00,1.000000000000000000e+00,1.000000000000000000e+00,1.000000000000000000e+00,1.000000000000000000e+00,1.000000000000000000e+00,1.000000000000000000e+00,1.000000000000000000e+00,1.000000000000000000e+00,1.000000000000000000e+00,1.000000000000000000e+00,1.000000000000000000e+00,1.000000000000000000e+00,1.000000000000000000e+00,1.000000000000000000e+00,1.000000000000000000e+00,1.000000000000000000e+00,1.000000000000000000e+00,1.000000000000000000e+00,1.000000000000000000e+00,1.000000000000000000e+00,1.000000000000000000e+00,1.000000000000000000e+00,1.000000000000000000e+00,1.000000000000000000e+00,1.000000000000000000e+00,1.000000000000000000e+00,1.000000000000000000e+00,1.000000000000000000e+00,1.000000000000000000e+00,1.000000000000000000e+00,1.000000000000000000e+00,1.000000000000000000e+00,1.000000000000000000e+00,1.000000000000000000e+00,1.000000000000000000e+00,5.283507823944091353e-01,5.113159656524658425e-01,5.015362739562988503e-01,1.000000000000000000e+00,1.000000000000000000e+00,4.875090122222900391e-01,4.811069965362548828e-01,4.795354843139648660e-01,1.000000000000000000e+00,1.000000000000000000e+00,1.000000000000000000e+00,1.000000000000000000e+00,1.000000000000000000e+00,1.000000000000000000e+00,1.000000000000000000e+00,1.000000000000000000e+00,9.697303771972656250e-01,9.379889488220214400e-01,9.082596778869629350e-01,8.803569793701171431e-01,8.541175842285155806e-01,8.293971061706543191e-01,8.060672760009766069e-01,7.840141296386718972e-01,7.631354808807373491e-01,7.433399200439453347e-01
6.192731857299804688e-01,6.349709987640380637e-01,6.514853477478027566e-01,6.688816070556640181e-01,6.872323989868164285e-01,7.066184520721435769e-01,7.271300792694092019e-01,7.488680839538573997e-01,7.719459056854247603e-01,7.964913368225097212e-01,8.226490020751953125e-01,8.505829811096191628e-01,8.804807662963867188e-01,9.125569343566894975e-01,9.470584869384766069e-01,9.842714309692383035e-01,1.000000000000000000e+00,1.000000000000000000e+00,1.000000000000000000e+00,1.000000000000000000e+00,1.000000000000000000e+00,1.000000000000000000e+00,1.000000000000000000e+00,1.000000000000000000e+00,1.000000000000000000e+00,1.000000000000000000e+00,1.000000000000000000e+00,1.000000000000000000e+00,1.000000000000000000e+00,1.000000000000000000e+00,1.000000000000000000e+00,1.000000000000000000e+00,1.000000000000000000e+00,1.000000000000000000e+00,1.000000000000000000e+00,1.000000000000000000e+00,1.000000000000000000e+00,1.000000000000000000e+00,1.000000000000000000e+00,1.000000000000000000e+00,1.000000000000000000e+00,1.000000000000000000e+00,1.000000000000000000e+00,1.000000000000000000e+00,1.000000000000000000e+00,1.000000000000000000e+00,1.000000000000000000e+00,1.000000000000000000e+00,1.000000000000000000e+00,1.000000000000000000e+00,1.000000000000000000e+00,1.000000000000000000e+00,1.000000000000000000e+00,1.000000000000000000e+00,5.364921569824219194e-01,5.204853057861328347e-01,5.238456249237060103e-01,1.000000000000000000e+00,1.000000000000000000e+00,4.871350288391113059e-01,4.816900253295898215e-01,4.810039520263671986e-01,1.000000000000000000e+00,1.000000000000000000e+00,1.000000000000000000e+00,1.000000000000000000e+00,1.000000000000000000e+00,1.000000000000000000e+00,1.000000000000000000e+00,1.000000000000000000e+00,9.697587013244628462e-01,9.380154609680175781e-01,9.082845687866211160e-01,8.803803443908690962e-01,8.541396141052246538e-01,8.294178009033202903e-01,8.060869216918945535e-01,7.840326309204102007e-01,7.631529808044433816e-01,7.433566570281981978e-01
6.192599296569823997e-01,6.349570274353026900e-01,6.514706611633300781e-01,6.688661575317382812e-01,6.872160911560059038e-01,7.066012859344482644e-01,7.271118640899658647e-01,7.488487720489501731e-01,7.719254016876220259e-01,7.964694976806641069e-01,8.226256370544433594e-01,8.505580902099609819e-01,8.804540634155273438e-01,9.125282287597655806e-01,9.470275878906250222e-01,9.842380523681640847e-01,1.000000000000000000e+00,1.000000000000000000e+00,1.000000000000000000e+00,1.000000000000000000e+00,1.000000000000000000e+00,1.000000000000000000e+00,1.000000000000000000e+00,1.000000000000000000e+00,1.000000000000000000e+00,1.000000000000000000e+00,1.000000000000000000e+00,1.000000000000000000e+00,1.000000000000000000e+00,1.000000000000000000e+00,1.000000000000000000e+00,1.000000000000000000e+00,1.000000000000000000e+00,1.000000000000000000e+00,1.000000000000000000e+00,1.000000000000000000e+00,1.000000000000000000e+00,1.000000000000000000e+00,1.000000000000000000e+00,1.000000000000000000e+00,1.000000000000000000e+00,1.000000000000000000e+00,1.000000000000000000e+00,1.000000000000000000e+00,1.000000000000000000e+00,1.000000000000000000e+00,1.000000000000000000e+00,1.000000000000000000e+00,1.000000000000000000e+00,1.000000000000000000e+00,1.000000000000000000e+00,1.000000000000000000e+00,1.000000000000000000e+00,1.000000000000000000e+00,5.459277153015136275e-01,5.303108692169189453e-01,1.000000000000000000e+00,1.000000000000000000e+00,1.000000000000000000e+00,4.870187759399414174e-01,4.821568965911865456e-01,4.834120273590087891e-01,1.000000000000000000e+00,1.000000000000000000e+00,1.000000000000000000e+00,1.000000000000000000e+00,1.000000000000000000e+00,1.000000000000000000e+00,1.000000000000000000e+00,1.000000000000000000e+00,9.697870254516601785e-01,9.380420684814453347e-01,9.083094596862792969e-01,8.804037094116210493e-01,8.541616439819336160e-01,8.294385910034179910e-01,8.061064720153808816e-01,7.840512275695801225e-01,7.631706237792968972e-01,7.433732986450195535e-01
6.192467212677001953e-01,6.349431514739990456e-01,6.514560699462890181e-01,6.688507556915282981e-01,6.871998310089111328e-01,7.065840244293213335e-01,7.270936012268066628e-01,7.488294124603271928e-01,7.719048023223876731e-01,7.964475631713867632e-01,8.226022720336914062e-01,8.505331039428710715e-01,8.804272651672363503e-01,9.124994277954101562e-01,9.469965934753418191e-01,9.842046737670898660e-01,1.000000000000000000e+00,1.000000000000000000e+00,1.000000000000000000e+00,1.000000000000000000e+00,1.000000000000000000e+00,1.000000000000000000e+00,1.000000000000000000e+00,1.000000000000000000e+00,1.000000000000000000e+00,1.000000000000000000e+00,1.000000000000000000e+00,1.000000000000000000e+00,1.000000000000000000e+00,1.000000000000000000e+00,1.000000000000000000e+00,1.000000000000000000e+00,1.000000000000000000e+00,1.000000000000000000e+00,1.000000000000000000e+00,1.000000000000000000e+00,1.000000000000000000e+00,1.000000000000000000e+00,1.000000000000000000e+00,1.000000000000000000e+00,1.000000000000000000e+00,1.000000000000000000e+00,1.000000000000000000e+00,1.000000000000000000e+00,1.000000000000000000e+00,1.000000000000000000e+00,1.000000000000000000e+00,1.000000000000000000e+00,1.000000000000000000e+00,1.000000000000000000e+00,1.000000000000000000e+00,1.000000000000000000e+00,1.000000000000000000e+00,1.000000000000000000e+00,5.562946796417236328e-01,5.505109310150146928e-01,1.000000000000000000e+00,1.000000000000000000e+00,1.000000000000000000e+00,4.871335029602050781e-01,4.825762271881103294e-01,1.000000000000000000e+00,1.000000000000000000e+00,1.000000000000000000e+00,1.000000000000000000e+00,1.000000000000000000e+00,1.000000000000000000e+00,1.000000000000000000e+00,1.000000000000000000e+00,1.000000000000000000e+00,9.698154449462890181e-01,9.380685806274413618e-01,9.083343505859374778e-01,8.804270744323730025e-01,8.541835784912109597e-01,8.294592857360839622e-01,8.061260223388672097e-01,7.840697288513183150e-01,7.631881237030029297e-01,7.433898925781250444e-01
6.192334651947021262e-01,6.349292278289795366e-01,6.514413833618164507e-01,6.688352584838866965e-01,6.871835231781006081e-01,7.065668106079101562e-01,7.270754337310790794e-01,7.488101005554199663e-01,7.718842983245849387e-01,7.964257240295410378e-01,8.225789070129394531e-01,8.505081176757812722e-01,8.804005622863769753e-01,9.124707221984863503e-01,9.469656944274902344e-01,9.841711997985840288e-01,1.000000000000000000e+00,1.000000000000000000e+00,1.000000000000000000e+00,1.000000000000000000e+00,1.000000000000000000e+00,1.000000000000000000e+00,1.000000000000000000e+00,1.000000000000000000e+00,1.000000000000000000e+00,1.000000000000000000e+00,1.000000000000000000e+00,1.000000000000000000e+00,1.000000000000000000e+00,1.000000000000000000e+00,1.000000000000000000e+00,1.000000000000000000e+00,1.000000000000000000e+00,1.000000000000000000e+00,1.000000000000000000e+00,1.000000000000000000e+00,1.000000000000000000e+00,1.000000000000000000e+00,1.000000000000000000e+00,1.000000000000000000e+00,1.000000000000000000e+00,1.000000000000000000e+00,1.000000000000000000e+00,1.000000000000000000e+00,1.000000000000000000e+00,1.000000000000000000e+00,1.000000000000000000e+00,1.000000000000000000e+00,1.000000000000000000e+00,1.000000000000000000e+00,1.000000000000000000e+00,1.000000000000000000e+00,1.000000000000000000e+00,1.000000000000000000e+00,5.658804416656494363e-01,1.000000000000000000e+00,1.000000000000000000e+00,1.000000000000000000e+00,1.000000000000000000e+00,4.877757549285888783e-01,4.832159042358398215e-01,1.000000000000000000e+00,1.000000000000000000e+00,1.000000000000000000e+00,1.000000000000000000e+00,1.000000000000000000e+00,1.000000000000000000e+00,1.000000000000000000e+00,1.000000000000000000e+00,1.000000000000000000e+00,9.698437690734863503e-01,9.380950927734375000e-01,9.083591461181640403e-01,8.804504394531249556e-01,8.542056083679199219e-01,8.294800758361816628e-01,8.061456680297851562e-01,7.840882301330566184e-01,7.632056713104248269e-01,7.434065341949462891e-01
6.192202568054199219e-01,6.349153518676757812e-01,6.514267921447753906e-01,6.688199043273925781e-01,6.871672630310058372e-01,7.065495491027832253e-01,7.270571231842041238e-01,7.487907409667968750e-01,7.718636989593505859e-01,7.964037895202636941e-01,8.225555419921875000e-01,8.504832267761230913e-01,8.803738594055176003e-01,9.124420166015625444e-01,9.469347953796386497e-01,9.841378211975098100e-01,1.000000000000000000e+00,1.000000000000000000e+00,1.000000000000000000e+00,1.000000000000000000e+00,1.000000000000000000e+00,1.000000000000000000e+00,1.000000000000000000e+00,1.000000000000000000e+00,1.000000000000000000e+00,1.000000000000000000e+00,1.000000000000000000e+00,1.000000000000000000e+00,1.000000000000000000e+00,1.000000000000000000e+00,1.000000000000000000e+00,1.000000000000000000e+00,1.000000000000000000e+00,1.000000000000000000e+00,1.000000000000000000e+00,1.000000000000000000e+00,1.000000000000000000e+00,1.000000000000000000e+00,1.000000000000000000e+00,1.000000000000000000e+00,1.000000000000000000e+00,1.000000000000000000e+00,1.000000000000000000e+00,1.000000000000000000e+00,1.000000000000000000e+00,1.000000000000000000e+00,1.000000000000000000e+00,1.000000000000000000e+00,1.000000000000000000e+00,1.000000000000000000e+00,1.000000000000000000e+00,1.000000000000000000e+00,1.000000000000000000e+00,1.000000000000000000e+00,5.676885128021240678e-01,1.000000000000000000e+00,1.000000000000000000e+00,1.000000000000000000e+00,1.000000000000000000e+00,4.883908271789551003e-01,4.838572978973388894e-01,1.000000000000000000e+00,1.000000000000000000e+00,1.000000000000000000e+00,1.000000000000000000e+00,1.000000000000000000e+00,1.000000000000000000e+00,1.000000000000000000e+00,1.000000000000000000e+00,1.000000000000000000e+00,9.698720932006835715e-01,9.381216049194336382e-01,9.083840370178222212e-01,8.804738044738769087e-01,8.542276382446288840e-01,8.295007705688476340e-01,8.061652183532714844e-01,7.841068267822265403e-01,7.632233142852783425e-01,7.434232711791992632e-01
6.192070007324218528e-01,6.349014282226562722e-01,6.514121055603027122e-01,6.688044071197509766e-01,6.871509075164794478e-01,7.065323829650879128e-01,7.270389556884765403e-01,7.487714290618896484e-01,7.718431949615478516e-01,7.963819503784179688e-01,8.225322723388671653e-01,8.504582405090331809e-01,8.803470611572266069e-01,9.124133110046386275e-01,9.469038009643554465e-01,9.710172653198242410e-01,9.707759857177734597e-01,9.705347061157226785e-01,9.702936172485351340e-01,9.700527191162109375e-01,9.698118209838867410e-01,9.695711135864257812e-01,9.693305015563964400e-01,9.690899848937988281e-01,9.688496589660644531e-01,9.686094284057616965e-01,9.683692932128906694e-01,9.681292533874511497e-01,9.678894042968749778e-01,9.676495552062988059e-01,9.674098968505859819e-01,9.671703338623046653e-01,9.669309616088866965e-01,9.666915893554687278e-01,9.664525032043457253e-01,9.662133216857909934e-01,9.659744262695312278e-01,9.657356262207030806e-01,9.654969215393066628e-01,9.652583122253417525e-01,9.650197982788085715e-01,9.647814750671386275e-01,9.645432472229004128e-01,9.643051147460937056e-01,9.640670776367187278e-01,9.638292312622069868e-01,9.635914802551269753e-01,9.633537292480468528e-01,9.631162643432616965e-01,9.628787994384765403e-01,9.626415252685547319e-01,9.624043464660644309e-01,9.621672630310058594e-01,9.619302749633789062e-01,5.679057121276855913e-01,9.614567756652832031e-01,9.612201690673828347e-01,9.609836578369140847e-01,9.607473373413085715e-01,4.890074253082275502e-01,4.869122028350830189e-01,9.600388526916503462e-01,9.598030090332031472e-01,9.595671653747558372e-01,9.593315124511718750e-01,9.590959548950195312e-01,9.588604927062988059e-01,9.586252212524414285e-01,9.583900451660156694e-01,9.581549644470215288e-01,9.579199790954590066e-01,9.381481170654296653e-01,9.084089279174805132e-01,8.804971694946288618e-01,8.542495727539062278e-01,8.295215606689453347e-01,8.061848640441894309e-01,7.841253280639648438e-01,7.632408142089843750e-01,7.434399127960205078e-01
6.191938400268555132e-01,6.348875522613525169e-01,6.513975143432617632e-01,6.687890052795409934e-01,6.871346950531005415e-01,7.065151214599609819e-01,7.270206451416015847e-01,7.487520217895508035e-01,7.542509078979492410e-01,7.541052818298339400e-01,7.539597511291503684e-01,7.538142204284667969e-01,7.536687850952148438e-01,7.535233497619628906e-01,7.533780097961425559e-01,7.532327175140380859e-01,7.530875205993652344e-01,7.529423713684082475e-01,7.527972221374511497e-01,7.526521682739257812e-01,7.525072097778320312e-01,7.523622512817382812e-01,7.522173881530761497e-01,7.520725727081298828e-01,7.519278049468993697e-01,7.517829895019531028e-01,7.516383171081543191e-01,7.514937400817871538e-01,7.513491630554198775e-01,7.512046813964843306e-01,7.510602474212646484e-01,7.509158611297607200e-01,7.507715702056885210e-01,7.506272792816162109e-01,7.504830837249756303e-01,7.503388881683349387e-01,7.501947879791259766e-01,7.500506877899170144e-01,7.499066829681396706e-01,7.497627258300780806e-01,7.496188640594482200e-01,7.494750022888183594e-01,7.493312358856201172e-01,7.491875171661377397e-01,7.490438938140868697e-01,7.489002704620361106e-01,7.487566947937012163e-01,7.486132144927978294e-01,7.484697818756103072e-01,7.483263015747070312e-01,7.481829643249511275e-01,7.480397224426269531e-01,7.478964805603027788e-01,7.477533340454101118e-01,7.476102352142334206e-01,7.474671840667724831e-01,7.473241329193115456e-01,7.471811771392822266e-01,7.470383167266845259e-01,4.904248237609863392e-01,7.467526912689208540e-01,7.466098785400390181e-01,7.464672088623046653e-01,7.463245868682861772e-01,7.461820125579834428e-01,7.460394859313964622e-01,7.458970546722412109e-01,7.457546234130859597e-01,7.456122875213623269e-01,7.454699993133544478e-01,7.453277587890625444e-01,7.451855659484862837e-01,7.450433731079101340e-01,7.449012756347656028e-01,7.447592258453369363e-01,7.446172714233398882e-01,7.444753646850585938e-01,7.443335056304931641e-01,7.441916942596435991e-01,7.434565544128417525e-01
6.167001247406005415e-01,6.166028022766113503e-01,6.165054321289062944e-01,6.164081096649169922e-01,6.163108825683594194e-01,6.162136554718017356e-01,6.161164760589599165e-01,6.160192966461182085e-01,6.159221172332763894e-01,6.158249855041504350e-01,6.157279491424560991e-01,6.156309127807617632e-01,6.155338764190674272e-01,6.154368877410888450e-01,6.153399467468261275e-01,6.152430534362792747e-01,6.151461601257324219e-01,6.150492668151855691e-01,6.149524688720703347e-01,6.148556709289551003e-01,6.147588253021240012e-01,6.146621227264403853e-01,6.145654201507568803e-01,6.144687175750732644e-01,6.143720626831055132e-01,6.142754554748535156e-01,6.141788959503173828e-01,6.140823364257812500e-01,6.139858245849609819e-01,6.138893127441406028e-01,6.137928485870360884e-01,6.136964321136474387e-01,6.135999679565429243e-01,6.135035991668701394e-01,6.134072303771972434e-01,6.133109569549560769e-01,6.132146835327147993e-01,6.131184101104736328e-01,6.130222320556640847e-01,6.129260063171386719e-01,6.128298759460448775e-01,6.127337455749511941e-01,6.126376152038573997e-01,6.125415802001953347e-01,6.124454498291015403e-01,6.123494625091552290e-01,6.122534751892090288e-01,6.121575355529784712e-01,6.120615959167480247e-01,6.119657516479491965e-01,6.118698596954346147e-01,6.117740154266357866e-01,6.116782188415527122e-01,6.115824699401855025e-01,6.114867210388184038e-01,6.113910198211669478e-01,6.112952709197998491e-01,6.111996173858642578e-01,6.111040115356445312e-01,4.805486679077148326e-01,4.813702583312988170e-01,6.108173370361328347e-01,6.107218265533447266e-01,6.106263637542724831e-01,6.105309486389159934e-01,6.104355335235596147e-01,6.103401184082031250e-01,6.102447986602783647e-01,6.101494312286377397e-01,6.100541114807128684e-01,6.099588871002197266e-01,6.098636150360107200e-01,6.097684383392334428e-01,6.096732616424560547e-01,6.095781326293945312e-01,6.094830036163330078e-01,6.093879222869873491e-01,6.092928886413574441e-01,6.091978549957275391e-01,6.091028690338134988e-01
5.210241794586181197e-01,5.209547042846679465e-01,5.208852291107177734e-01,5.208157539367676003e-01,5.207463264465331809e-01,5.206768989562988725e-01,5.206075191497803178e-01,5.205380916595458984e-01,5.204687118530273438e-01,5.203993797302246538e-01,5.203300952911377175e-01,5.202607631683349165e-01,5.201914787292480913e-01,5.201222419738769087e-01,5.200530052185058372e-01,5.199837684631347656e-01,5.199144840240478294e-01,5.198452949523926225e-01,5.197761535644531694e-01,5.197069644927978516e-01,5.196378231048583984e-01,5.195687294006348100e-01,5.194996356964111106e-01,5.194305419921875222e-01,5.193614959716796875e-01,5.192924499511718528e-01,5.192234039306640181e-01,5.191544055938720481e-01,5.190853595733642134e-01,5.190164089202881081e-01,5.189474582672118919e-01,5.188785076141357866e-01,5.188096046447754350e-01,5.187407016754150835e-01,5.186718463897704856e-01,5.186029911041259988e-01,5.185341358184814009e-01,5.184653282165527788e-01,5.183965206146240456e-01,5.183277130126953125e-01,5.182589054107665794e-01,5.181901454925537109e-01,5.181214332580565962e-01,5.180527210235595925e-01,5.179840087890624778e-01,5.179153442382812278e-01,5.178466796874999778e-01,5.177780151367187278e-01,5.177093982696533425e-01,5.176407814025878462e-01,5.175722122192383257e-01,5.175036430358886941e-01,5.174350738525390625e-01,5.173665046691894309e-01,5.172980308532715288e-01,5.172295093536376509e-01,5.171610355377197488e-01,5.170925617218017356e-01,5.170241355895995872e-01,4.700798034667968972e-01,4.655809402465820312e-01,4.724384307861327903e-01,5.167505741119384766e-01,5.166821956634521928e-01,5.166138172149657981e-01,5.165455341339111328e-01,5.164772033691406028e-01,5.164089202880859375e-01,5.163406848907470259e-01,5.162724494934082253e-01,5.162042140960693137e-01,5.161359786987305132e-01,5.160677909851074663e-01,5.159996509552001731e-01,5.159315109252929910e-01,5.158633708953856978e-01,5.157951831817626509e-01,5.157270908355713335e-01,5.156589984893799050e-01,5.155909538269043413e-01
4.510478496551513783e-01,4.509957790374755637e-01,4.509437084197998047e-01,4.508916378021240456e-01,4.508395671844482311e-01,4.507875442504882812e-01,4.507355213165283314e-01,4.506835460662841908e-01,4.506315231323242410e-01,4.505795478820801003e-01,4.505275726318359597e-01,4.504755973815918191e-01,4.504236221313476785e-01,4.503716945648193470e-01,4.503197669982910156e-01,4.502678871154784934e-01,4.502159595489502175e-01,4.501640796661376953e-01,4.501122474670410378e-01,4.500603675842285156e-01,4.500085353851318581e-01,4.499567031860351451e-01,4.499048709869384877e-01,4.498530387878417747e-01,4.498012065887451172e-01,4.497494220733642689e-01,4.496976375579834206e-01,4.496459007263183816e-01,4.495941162109374778e-01,4.495423793792724387e-01,4.494906425476073997e-01,4.494389533996582253e-01,4.493872642517089955e-01,4.493355274200439564e-01,4.492838859558105358e-01,4.492321491241454967e-01,4.491805076599121316e-01,4.491288661956787109e-01,4.490772247314452903e-01,4.490255832672119252e-01,4.489739894866943137e-01,4.489223957061767578e-01,4.488708019256592019e-01,4.488192081451415905e-01,4.487676620483398438e-01,4.487161159515380970e-01,4.486645698547363503e-01,4.486130237579345481e-01,4.485615253448486106e-01,4.485099792480468639e-01,4.484585285186767356e-01,4.484070301055907981e-01,4.483555793762207253e-01,4.483041286468505970e-01,4.482526779174804688e-01,4.482012271881103405e-01,4.481498241424560769e-01,4.480984210968017578e-01,4.480470180511474387e-01,4.479955673217773660e-01,4.479442119598388561e-01,4.478928565979004017e-01,4.478415012359618919e-01,4.477901458740234375e-01,4.477388381958007924e-01,4.476875305175781472e-01,4.476362228393554465e-01,4.475849151611328014e-01,4.475336551666259655e-01,4.474823951721191295e-01,4.474311351776122936e-01,4.473798274993896484e-01,4.473286151885986217e-01,4.472774028778075950e-01,4.472261905670166238e-01,4.471749782562255970e-01,4.471238136291503795e-01,4.470726013183593528e-01,4.470214366912841908e-01,4.469703197479247825e-01
3.976423263549804799e-01,3.976018428802490234e-01,3.975613832473754994e-01,3.975209236145019753e-01,3.974804878234863281e-01,3.974400281906128041e-01,3.973995923995971569e-01,3.973591804504394420e-01,3.973187208175659180e-01,3.972783088684082031e-01,3.972378969192504883e-01,3.971975088119507058e-01,3.971571445465088002e-01,3.971167564392089622e-01,3.970763921737671120e-01,3.970360279083252064e-01,3.969956874847412331e-01,3.969553470611572044e-01,3.969150066375732311e-01,3.968746185302734486e-01,3.968343019485473522e-01,3.967940092086791881e-01,3.967536926269531472e-01,3.967133998870849831e-01,3.966731071472168191e-01,3.966328382492065319e-01,3.965925693511963002e-01,3.965523004531860130e-01,3.965120553970337136e-01,3.964718103408813588e-01,3.964315652847290039e-01,3.963913440704345814e-01,3.963511228561401589e-01,3.963109254837036133e-01,3.962707042694091908e-01,3.962305068969726451e-01,3.961903333663940319e-01,3.961501598358154186e-01,3.961099863052368053e-01,3.960698127746581920e-01,3.960296630859375111e-01,3.959895133972167747e-01,3.959493637084960938e-01,3.959091901779174805e-01,3.958690643310546764e-01,3.958289623260498047e-01,3.957888364791870006e-01,3.957487583160400613e-01,3.957086563110351340e-01,3.956685781478881947e-01,3.956284999847411998e-01,3.955884456634521373e-01,3.955483675003051980e-01,3.955083370208740123e-01,3.954682826995849498e-01,3.954282522201538197e-01,3.953882217407226340e-01,3.953482151031494363e-01,3.953082084655761830e-01,3.952682018280029297e-01,3.952281951904296764e-01,3.951882123947143555e-01,3.951482295989990345e-01,3.951082706451415905e-01,3.950683116912842019e-01,3.950283527374267578e-01,3.949883699417114369e-01,3.949484348297119252e-01,3.949084997177124134e-01,3.948685884475707786e-01,3.948286771774291992e-01,3.947887659072876199e-01,3.947488546371459850e-01,3.947089672088622825e-01,3.946691036224365123e-01,3.946292161941528098e-01,3.945893526077270397e-01,3.945495128631592019e-01,3.945096492767333762e-01,3.944698095321655384e-01
3.555447101593017800e-01,3.555123567581176536e-01,3.554800033569335826e-01,3.554476499557495117e-01,3.554152965545654408e-01,3.553829669952392467e-01,3.553506374359131081e-01,3.553183317184448464e-01,3.552860021591186523e-01,3.552536487579345814e-01,3.552213430404663197e-01,3.551890611648559348e-01,3.551567554473876731e-01,3.551244735717773438e-01,3.550921916961670144e-01,3.550599098205566295e-01,3.550276279449463002e-01,3.549953699111938477e-01,3.549630880355835183e-01,3.549308300018310658e-01,3.548985719680786133e-01,3.548663377761840931e-01,3.548341035842895730e-01,3.548018693923949973e-01,3.547696352005004772e-01,3.547374248504638894e-01,3.547052145004272461e-01,3.546730041503906028e-01,3.546408176422118919e-01,3.546086072921753041e-01,3.545764207839965931e-01,3.545442342758178822e-01,3.545120716094970481e-01,3.544798851013183372e-01,3.544477224349975586e-01,3.544155597686767800e-01,3.543834209442138783e-01,3.543512582778930442e-01,3.543190956115722656e-01,3.542869567871093639e-01,3.542548179626464622e-01,3.542227029800414928e-01,3.541905641555785911e-01,3.541584730148315541e-01,3.541263580322265847e-01,3.540942430496215598e-01,3.540621519088745228e-01,3.540300607681274303e-01,3.539979934692382701e-01,3.539659023284912331e-01,3.539338350296020730e-01,3.539017677307129128e-01,3.538697004318237527e-01,3.538376569747924694e-01,3.538055896759033092e-01,3.537735462188720814e-01,3.537415266036987305e-01,3.537094831466675027e-01,3.536774635314941517e-01,3.536454439163208008e-01,3.536134243011474498e-01,3.535814285278320312e-01,3.535493850708008035e-01,3.535173892974853294e-01,3.534853935241699108e-01,3.534533977508544922e-01,3.534214258193969505e-01,3.533894538879394642e-01,3.533574819564819225e-01,3.533255338668823131e-01,3.532935619354248269e-01,3.532616138458252175e-01,3.532296657562256081e-01,3.531977415084838756e-01,3.531657934188842662e-01,3.531338691711425892e-01,3.531019687652587891e-01,3.530700445175171120e-01,3.530381441116333119e-01,3.530062437057495117e-01
3.215073347091674805e-01,3.214808940887451394e-01,3.214544296264648660e-01,3.214279890060424694e-01,3.214015245437621959e-01,3.213750839233398549e-01,3.213486433029174583e-01,3.213222265243530495e-01,3.212957859039306530e-01,3.212693691253661887e-01,3.212429046630859153e-01,3.212164878845215066e-01,3.211900949478149192e-01,3.211636781692505105e-01,3.211372613906860463e-01,3.211108684539795144e-01,3.210844755172729270e-01,3.210580825805663951e-01,3.210316896438598633e-01,3.210052967071533314e-01,3.209789037704467995e-01,3.209525346755981445e-01,3.209261655807494895e-01,3.208997964859008900e-01,3.208734512329101674e-01,3.208470821380615123e-01,3.208207368850707897e-01,3.207943916320800670e-01,3.207680463790893444e-01,3.207417011260986217e-01,3.207153797149658314e-01,3.206890344619751088e-01,3.206627130508422630e-01,3.206363916397094727e-01,3.206100463867187500e-01,3.205837488174438366e-01,3.205574274063110463e-01,3.205311298370361328e-01,3.205048322677612194e-01,3.204785346984863059e-01,3.204522371292114480e-01,3.204259634017944114e-01,3.203996658325195535e-01,3.203733921051025169e-01,3.203471183776855358e-01,3.203208446502685547e-01,3.202945947647094505e-01,3.202683210372924694e-01,3.202420711517334206e-01,3.202158212661743164e-01,3.201895713806152122e-01,3.201633214950561634e-01,3.201370954513549916e-01,3.201108455657958873e-01,3.200846195220947155e-01,3.200583934783935436e-01,3.200321674346923717e-01,3.200059652328491322e-01,3.199797153472900280e-01,3.199534893035888561e-01,3.199272871017456166e-01,3.199010848999023215e-01,3.198749065399170144e-01,3.198487043380737194e-01,3.198225259780883567e-01,3.197963476181030495e-01,3.197701692581176869e-01,3.197439908981323242e-01,3.197178125381469616e-01,3.196916580200195312e-01,3.196654796600341686e-01,3.196393251419067383e-01,3.196131706237793080e-01,3.195870161056518777e-01,3.195608854293823242e-01,3.195347309112548939e-01,3.195086002349853405e-01,3.194824695587158425e-01,3.194563388824462891e-01,3.194302320480346680e-01
2.934176206588745006e-01,2.933955669403076061e-01,2.933735132217407116e-01,2.933514833450317494e-01,2.933294534683227317e-01,2.933074474334717019e-01,2.932854175567626842e-01,2.932633876800537220e-01,2.932413816452026367e-01,2.932193756103515514e-01,2.931973457336425892e-01,2.931753396987915039e-01,2.931533336639404186e-01,2.931313276290893333e-01,2.931093215942383035e-01,2.930873394012450950e-01,2.930653572082519420e-01,2.930433511734008567e-01,2.930213689804077037e-01,2.929993867874145508e-01,2.929774045944213978e-01,2.929554224014282449e-01,2.929334640502929688e-01,2.929114818572998158e-01,2.928895235061645397e-01,2.928675651550293191e-01,2.928456068038940430e-01,2.928236484527587669e-01,2.928017139434814231e-01,2.927797317504882701e-01,2.927577972412109264e-01,2.927358627319335826e-01,2.927139282226562389e-01,2.926919937133788951e-01,2.926700592041015514e-01,2.926481246948242076e-01,2.926262140274047963e-01,2.926042795181274525e-01,2.925823688507079856e-01,2.925604581832885742e-01,2.925385475158691628e-01,2.925166368484496959e-01,2.924947500228881614e-01,2.924728393554687500e-01,2.924509525299072155e-01,2.924290418624878041e-01,2.924071550369262695e-01,2.923852682113647350e-01,2.923633813858032005e-01,2.923415184020995983e-01,2.923196315765380637e-01,2.922977685928344616e-01,2.922758817672729270e-01,2.922539949417114480e-01,2.922321319580077903e-01,2.922102689743041881e-01,2.921884059906005859e-01,2.921665668487548606e-01,2.921447038650512584e-01,2.921228647232055886e-01,2.921010255813598633e-01,2.920791864395141380e-01,2.920573472976684681e-01,2.920355081558227428e-01,2.920136690139770730e-01,2.919918537139892800e-01,2.919700145721435547e-01,2.919481992721557617e-01,2.919263839721679688e-01,2.919045686721801758e-01,2.918827533721923828e-01,2.918609380722045898e-01,2.918391466140747292e-01,2.918173313140869363e-01,2.917955398559570201e-01,2.917737483978271595e-01,2.917519569396972434e-01,2.917301416397094505e-01,2.917083501815795898e-01,2.916865587234497292e-01
2.698418378829955944e-01,2.698231935501098633e-01,2.698045253753661998e-01,2.697859048843384011e-01,2.697672605514526145e-01,2.697486400604248158e-01,2.697299957275390847e-01,2.697113752365112305e-01,2.696927547454833762e-01,2.696741342544555775e-01,2.696555376052856556e-01,2.696368932723999245e-01,2.696182727813720703e-01,2.695996761322021484e-01,2.695810556411742942e-01,2.695624589920043723e-01,2.695438623428344505e-01,2.695252656936645286e-01,2.695066690444946067e-01,2.694880723953246848e-01,2.694694757461547630e-01,2.694508790969848411e-01,2.694323062896728516e-01,2.694137096405029297e-01,2.693951368331909402e-01,2.693765640258788951e-01,2.693579912185669056e-01,2.693394184112548606e-01,2.693208456039428711e-01,2.693022489547729492e-01,2.692836761474609597e-01,2.692651271820068470e-01,2.692465543746948020e-01,2.692280054092407449e-01,2.692094564437866322e-01,2.691909074783325195e-01,2.691723585128784069e-01,2.691538095474242942e-01,2.691352605819702370e-01,2.691167116165161244e-01,2.690981864929199441e-01,2.690796375274658314e-01,2.690611124038696511e-01,2.690425634384155384e-01,2.690240383148193581e-01,2.690055131912231223e-01,2.689869880676269420e-01,2.689684629440307617e-01,2.689499616622924583e-01,2.689314126968384011e-01,2.689129114151000977e-01,2.688943862915039174e-01,2.688758850097656139e-01,2.688573837280273660e-01,2.688388824462890625e-01,2.688203811645507590e-01,2.688018798828125111e-01,2.687833786010742076e-01,2.687648773193359597e-01,2.687463998794555886e-01,2.687278985977172852e-01,2.687094211578369141e-01,2.686909437179565430e-01,2.686724424362182395e-01,2.686539649963378684e-01,2.686354875564574973e-01,2.686170339584350586e-01,2.685985565185546875e-01,2.685800790786743164e-01,2.685616254806518777e-01,2.685431480407715066e-01,2.685246944427490123e-01,2.685062170028686412e-01,2.684877634048462025e-01,2.684693098068237083e-01,2.684508562088012695e-01,2.684324026107788308e-01,2.684139728546142689e-01,2.683955192565917747e-01,2.683770895004272683e-01
2.497728347778320201e-01,2.497568845748901478e-01,2.497408866882324108e-01,2.497249364852905384e-01,2.497089624404907338e-01,2.496930122375488337e-01,2.496770381927490290e-01,2.496610879898071289e-01,2.496451377868652288e-01,2.496291637420654241e-01,2.496132135391235241e-01,2.495972633361816517e-01,2.495813131332397516e-01,2.495653629302978516e-01,2.495494127273559515e-01,2.495334863662719838e-01,2.495175361633300837e-01,2.495016098022460882e-01,2.494856595993041881e-01,2.494697332382202204e-01,2.494538068771362249e-01,2.494378566741943248e-01,2.494219303131103571e-01,2.494060039520263616e-01,2.493900775909423939e-01,2.493741512298583984e-01,2.493582248687744030e-01,2.493423223495483398e-01,2.493263959884643444e-01,2.493104934692382812e-01,2.492945671081542858e-01,2.492786407470703181e-01,2.492627382278442272e-01,2.492468357086181641e-01,2.492309331893921009e-01,2.492150306701660101e-01,2.491991281509399470e-01,2.491832494735717884e-01,2.491673469543456976e-01,2.491514444351196345e-01,2.491355657577514759e-01,2.491196632385253851e-01,2.491037845611572266e-01,2.490879058837890681e-01,2.490720033645629772e-01,2.490561246871948187e-01,2.490402460098266602e-01,2.490243673324585016e-01,2.490084886550903431e-01,2.489926099777221569e-01,2.489767551422119030e-01,2.489608764648437444e-01,2.489450216293334905e-01,2.489291429519653320e-01,2.489132881164550781e-01,2.488974332809448242e-01,2.488815784454345703e-01,2.488656997680664118e-01,2.488498449325561579e-01,2.488340139389038086e-01,2.488181591033935547e-01,2.488023042678833008e-01,2.487864494323730469e-01,2.487706184387206976e-01,2.487547636032104437e-01,2.487389326095580944e-01,2.487231016159057728e-01,2.487072706222534235e-01,2.486914157867431696e-01,2.486755847930908203e-01,2.486597537994384710e-01,2.486439228057861217e-01,2.486280918121338002e-01,2.486122608184814509e-01,2.485964536666870062e-01,2.485806226730346569e-01,2.485648155212402399e-01,2.485489845275878906e-01,2.485331773757934459e-01,2.485173702239990290e-01
2.324824094772338923e-01,2.324685811996460016e-01,2.324547529220581110e-01,2.324409008026123158e-01,2.324270725250244252e-01,2.324132442474365345e-01,2.323994159698486439e-01,2.323855876922607533e-01,2.323717594146728627e-01,2.323579311370849720e-01,2.323441028594970814e-01,2.323302984237670954e-01,2.323164701461792048e-01,2.323026418685913141e-01,2.322888374328613281e-01,2.322750091552734375e-01,2.322612047195434515e-01,2.322474002838134655e-01,2.322335958480835072e-01,2.322197914123535212e-01,2.322059869766235352e-01,2.321921586990356445e-01,2.321783542633056585e-01,2.321645498275756725e-01,2.321507692337036188e-01,2.321369647979736328e-01,2.321231603622436468e-01,2.321093797683715931e-01,2.320955753326416071e-01,2.320817947387695257e-01,2.320679903030395397e-01,2.320542097091674860e-01,2.320404291152954046e-01,2.320266246795654186e-01,2.320128440856933649e-01,2.319990634918212835e-01,2.319853067398071345e-01,2.319715261459350530e-01,2.319577455520629994e-01,2.319439649581909180e-01,2.319301843643188366e-01,2.319164037704467829e-01,2.319026470184326061e-01,2.318888664245605524e-01,2.318751096725463756e-01,2.318613529205322266e-01,2.318475961685180775e-01,2.318338155746459961e-01,2.318200588226318470e-01,2.318063020706176702e-01,2.317925453186035212e-01,2.317787885665893444e-01,2.317650556564330999e-01,2.317512989044189509e-01,2.317375421524047741e-01,2.317238092422485296e-01,2.317100524902343806e-01,2.316963195800781361e-01,2.316825628280639593e-01,2.316688299179077148e-01,2.316550970077514704e-01,2.316413640975952259e-01,2.316276311874389537e-01,2.316138982772827093e-01,2.316001415252685602e-01,2.315864086151123158e-01,2.315726757049560436e-01,2.315589427947997991e-01,2.315452337265014593e-01,2.315315008163452148e-01,2.315177917480468750e-01,2.315040588378906306e-01,2.314903497695922907e-01,2.314766168594360463e-01,2.314629077911377064e-01,2.314491987228393666e-01,2.314354896545410267e-01,2.314217567443847545e-01,2.314080476760864147e-01,2.313943624496460072e-01
2.174308300018310547e-01,2.174187183380126842e-01,2.174066305160522461e-01,2.173945188522338756e-01,2.173824071884155329e-01,2.173703193664550670e-01,2.173582315444946289e-01,2.173461198806762584e-01,2.173340320587158203e-01,2.173219442367553822e-01,2.173098564147949163e-01,2.172977685928344782e-01,2.172856569290161077e-01,2.172735691070556696e-01,2.172615051269531361e-01,2.172494173049926702e-01,2.172373294830322321e-01,2.172252416610717662e-01,2.172131776809692327e-01,2.172010898590087946e-01,2.171890258789062611e-01,2.171769380569457952e-01,2.171648502349853571e-01,2.171527862548828236e-01,2.171406984329223577e-01,2.171286344528198242e-01,2.171165704727172907e-01,2.171045064926147572e-01,2.170924425125121959e-01,2.170803785324096624e-01,2.170683145523071289e-01,2.170562267303466908e-01,2.170441865921020619e-01,2.170321226119995006e-01,2.170200586318969671e-01,2.170079946517944336e-01,2.169959545135498047e-01,2.169838905334472712e-01,2.169718503952026423e-01,2.169597864151001088e-01,2.169477224349975475e-01,2.169356822967529186e-01,2.169236183166503851e-01,2.169115781784057562e-01,2.168995380401611273e-01,2.168874979019164984e-01,2.168754577636718694e-01,2.168634176254272405e-01,2.168513774871826116e-01,2.168393373489379827e-01,2.168272972106933538e-01,2.168152570724487249e-01,2.168032407760620006e-01,2.167912006378173717e-01,2.167791604995727428e-01,2.167671442031860463e-01,2.167551040649414174e-01,2.167430877685546931e-01,2.167310714721679688e-01,2.167190313339233398e-01,2.167069911956787109e-01,2.166949748992919866e-01,2.166829586029052623e-01,2.166709423065185658e-01,2.166589260101318415e-01,2.166469097137451172e-01,2.166348934173583929e-01,2.166228771209716686e-01,2.166108608245849720e-01,2.165988445281982477e-01,2.165868520736694280e-01,2.165748357772827037e-01,2.165628194808960072e-01,2.165508270263671875e-01,2.165388107299804632e-01,2.165268182754516713e-01,2.165148019790649470e-01,2.165028095245361273e-01,2.164908170700073353e-01,2.164788246154785156e-01
2.042097091674804632e-01,2.041990280151367299e-01,2.041883468627929688e-01,2.041776895523071400e-01,2.041670083999633789e-01,2.041563272476196178e-01,2.041456699371337891e-01,2.041349887847900280e-01,2.041243314743041992e-01,2.041136503219604381e-01,2.041029930114746094e-01,2.040923357009887806e-01,2.040816545486450195e-01,2.040709972381591908e-01,2.040603399276733343e-01,2.040496826171875056e-01,2.040390253067016491e-01,2.040283679962158203e-01,2.040177106857299916e-01,2.040070533752441351e-01,2.039963960647583063e-01,2.039857387542724498e-01,2.039750814437866211e-01,2.039644241333007924e-01,2.039537668228149359e-01,2.039431333541870117e-01,2.039324760437011830e-01,2.039218425750732311e-01,2.039111852645874023e-01,2.039005517959594782e-01,2.038898944854736217e-01,2.038792610168456976e-01,2.038686037063598688e-01,2.038579702377319447e-01,2.038473367691039928e-01,2.038367033004760687e-01,2.038260459899902399e-01,2.038154125213623158e-01,2.038047790527343639e-01,2.037941455841064398e-01,2.037835121154785156e-01,2.037728786468505915e-01,2.037622451782226674e-01,2.037516117095947155e-01,2.037410020828246959e-01,2.037303686141967718e-01,2.037197351455688477e-01,2.037091255187988281e-01,2.036984920501709040e-01,2.036878824234008845e-01,2.036772489547729603e-01,2.036666393280029408e-01,2.036560058593749889e-01,2.036453962326049694e-01,2.036347866058349498e-01,2.036241531372070257e-01,2.036135435104370062e-01,2.036029338836669866e-01,2.035923242568969671e-01,2.035817146301269476e-01,2.035711050033569280e-01,2.035604953765869085e-01,2.035498857498168890e-01,2.035392761230468694e-01,2.035286664962768499e-01,2.035180568695068304e-01,2.035074710845947155e-01,2.034968614578246959e-01,2.034862518310546764e-01,2.034756660461425892e-01,2.034650564193725697e-01,2.034544706344604548e-01,2.034438610076904352e-01,2.034332752227783203e-01,2.034226894378662054e-01,2.034120798110961859e-01,2.034014940261840709e-01,2.033909082412719838e-01,2.033802986145019642e-01,2.033697128295898493e-01
1.925042867660522461e-01,1.924947857856750544e-01,1.924853205680847057e-01,1.924758195877075140e-01,1.924663186073303223e-01,1.924568533897400013e-01,1.924473524093627819e-01,1.924378871917724609e-01,1.924283981323242076e-01,1.924189329147338867e-01,1.924094438552856334e-01,1.923999786376953125e-01,1.923904895782470592e-01,1.923810243606567383e-01,1.923715353012084850e-01,1.923620581626891979e-01,1.923525929450988770e-01,1.923431158065795898e-01,1.923336505889892689e-01,1.923241734504699818e-01,1.923147082328796331e-01,1.923052310943603460e-01,1.922957777976989635e-01,1.922863006591796764e-01,1.922768235206603893e-01,1.922673702239990345e-01,1.922578930854797474e-01,1.922484517097473034e-01,1.922389745712280162e-01,1.922295212745666615e-01,1.922200560569763128e-01,1.922106027603149303e-01,1.922011375427246094e-01,1.921916723251342884e-01,1.921822309494018444e-01,1.921727657318115234e-01,1.921633243560791071e-01,1.921538591384887584e-01,1.921444177627563421e-01,1.921349525451660212e-01,1.921255111694336049e-01,1.921160578727722223e-01,1.921065926551818737e-01,1.920971632003784235e-01,1.920876979827880748e-01,1.920782685279846247e-01,1.920688152313232422e-01,1.920593738555908259e-01,1.920499205589294434e-01,1.920404911041259655e-01,1.920310378074646107e-01,1.920215964317321666e-01,1.920121669769287165e-01,1.920027136802673340e-01,1.919932842254638561e-01,1.919838428497314398e-01,1.919744133949279896e-01,1.919649720191955455e-01,1.919555425643920954e-01,1.919461011886596791e-01,1.919366836547851674e-01,1.919272422790527233e-01,1.919178247451782116e-01,1.919083833694457952e-01,1.918989658355712835e-01,1.918895244598388672e-01,1.918801188468933216e-01,1.918706774711608776e-01,1.918612718582153320e-01,1.918518304824829157e-01,1.918424248695373424e-01,1.918329834938049261e-01,1.918235778808593806e-01,1.918141484260559027e-01,1.918047189712524525e-01,1.917953133583068792e-01,1.917858839035034291e-01,1.917764782905578558e-01,1.917670488357544056e-01,1.917576551437377985e-01
1.820680141448974554e-01,1.820595383644104115e-01,1.820510387420654352e-01,1.820425629615783636e-01,1.820340752601623535e-01,1.820255875587463434e-01,1.820171117782592718e-01,1.820086240768432617e-01,1.820001482963561901e-01,1.819916605949401800e-01,1.819831967353820745e-01,1.819746971130370983e-01,1.819662332534789928e-01,1.819577455520629827e-01,1.819492697715759388e-01,1.819408059120178334e-01,1.819323182106017955e-01,1.819238543510436901e-01,1.819153666496276800e-01,1.819069027900695745e-01,1.818984270095825306e-01,1.818899631500244252e-01,1.818814873695373535e-01,1.818730354309082142e-01,1.818645477294921764e-01,1.818560719490051325e-01,1.818476200103759655e-01,1.818391442298889216e-01,1.818306922912597545e-01,1.818222165107727106e-01,1.818137645721435436e-01,1.818052887916564997e-01,1.817968368530273326e-01,1.817883729934692272e-01,1.817798972129821833e-01,1.817714571952819824e-01,1.817629814147949108e-01,1.817545413970947377e-01,1.817460656166076660e-01,1.817376255989074652e-01,1.817291617393493597e-01,1.817207098007202204e-01,1.817122578620910534e-01,1.817037940025329479e-01,1.816953420639038086e-01,1.816868901252746693e-01,1.816784501075744684e-01,1.816699862480163630e-01,1.816615462303161621e-01,1.816530942916870228e-01,1.816446542739868220e-01,1.816362023353576549e-01,1.816277384757995494e-01,1.816193103790283148e-01,1.816108584403991755e-01,1.816024184226989746e-01,1.815939664840698353e-01,1.815855383872985729e-01,1.815770864486694336e-01,1.815686583518981989e-01,1.815602064132690319e-01,1.815517783164977972e-01,1.815433263778686579e-01,1.815348982810974232e-01,1.815264582633972223e-01,1.815180301666259877e-01,1.815095901489257868e-01,1.815011620521545521e-01,1.814927220344543513e-01,1.814842939376831166e-01,1.814758539199829157e-01,1.814674139022827148e-01,1.814589977264404186e-01,1.814505577087402455e-01,1.814421415328979492e-01,1.814337015151977484e-01,1.814252853393554799e-01,1.814168453216552790e-01,1.814084410667419489e-01,1.814000010490417480e-01
1.727051377296447698e-01,1.726974964141845814e-01,1.726898670196533314e-01,1.726822257041931152e-01,1.726745963096618652e-01,1.726669549942016491e-01,1.726593136787414606e-01,1.726516962051391491e-01,1.726440548896789606e-01,1.726364374160766491e-01,1.726287961006164606e-01,1.726211786270141491e-01,1.726135373115539606e-01,1.726059198379516491e-01,1.725982785224914606e-01,1.725906491279602106e-01,1.725830316543578991e-01,1.725754022598266491e-01,1.725677847862243652e-01,1.725601553916931152e-01,1.725525379180908314e-01,1.725449085235595814e-01,1.725372910499572698e-01,1.725296616554260198e-01,1.725220322608947698e-01,1.725144267082214244e-01,1.725067973136901744e-01,1.724991917610168568e-01,1.724915623664856068e-01,1.724839568138122614e-01,1.724763274192810114e-01,1.724687218666076660e-01,1.724611043930053822e-01,1.724534749984741322e-01,1.724458694458007868e-01,1.724382519721984752e-01,1.724306464195251576e-01,1.724230289459228460e-01,1.724154233932495006e-01,1.724078059196472168e-01,1.724002122879028376e-01,1.723925948143005260e-01,1.723849892616272084e-01,1.723773717880248968e-01,1.723697662353515514e-01,1.723621606826782338e-01,1.723545432090759222e-01,1.723469495773315430e-01,1.723393440246581976e-01,1.723317503929138184e-01,1.723241329193115345e-01,1.723165392875671276e-01,1.723089337348938099e-01,1.723013281822204645e-01,1.722937345504760853e-01,1.722861289978027399e-01,1.722785353660583607e-01,1.722709298133850153e-01,1.722633361816406361e-01,1.722557306289672907e-01,1.722481489181518499e-01,1.722405433654785045e-01,1.722329616546630915e-01,1.722253561019897461e-01,1.722177743911743053e-01,1.722101688385009877e-01,1.722025632858276423e-01,1.721949815750122015e-01,1.721873879432678223e-01,1.721798062324523815e-01,1.721722126007080023e-01,1.721646308898925892e-01,1.721570372581481823e-01,1.721494555473327692e-01,1.721418619155883900e-01,1.721342802047729492e-01,1.721266865730285700e-01,1.721191167831420954e-01,1.721115231513977162e-01,1.721039414405822754e-01
1.642581224441528320e-01,1.642512202262878529e-01,1.642443060874939076e-01,1.642374038696289007e-01,1.642305016517639216e-01,1.642235994338989147e-01,1.642166852951049694e-01,1.642097711563110241e-01,1.642028808593750111e-01,1.641959667205810658e-01,1.641890764236450251e-01,1.641821742057800182e-01,1.641752719879150391e-01,1.641683697700500599e-01,1.641614794731140192e-01,1.641545772552490123e-01,1.641476631164550670e-01,1.641407728195190541e-01,1.641338706016540472e-01,1.641269803047180065e-01,1.641200780868530273e-01,1.641131877899169866e-01,1.641062855720520075e-01,1.640994071960449330e-01,1.640925049781799261e-01,1.640856027603149470e-01,1.640787124633789062e-01,1.640718221664428655e-01,1.640649318695068248e-01,1.640580415725708119e-01,1.640511512756347712e-01,1.640442609786987305e-01,1.640373706817626898e-01,1.640304803848266491e-01,1.640235900878906361e-01,1.640166997909545954e-01,1.640098094940185547e-01,1.640029311180114802e-01,1.639960408210754395e-01,1.639891624450683649e-01,1.639822721481323242e-01,1.639753937721252497e-01,1.639685034751892090e-01,1.639616131782531683e-01,1.639547348022460938e-01,1.639478445053100530e-01,1.639409780502319447e-01,1.639340877532959040e-01,1.639272212982177679e-01,1.639203310012817272e-01,1.639134645462036188e-01,1.639065742492675781e-01,1.638996839523315374e-01,1.638928174972534291e-01,1.638859391212463268e-01,1.638790726661682184e-01,1.638721823692321777e-01,1.638653159141540416e-01,1.638584375381469671e-01,1.638515710830688588e-01,1.638446927070617565e-01,1.638378143310546819e-01,1.638309478759765736e-01,1.638240694999694713e-01,1.638172030448913630e-01,1.638103246688842884e-01,1.638034701347351185e-01,1.637965917587280162e-01,1.637897253036499079e-01,1.637828588485717718e-01,1.637759923934936634e-01,1.637691259384155273e-01,1.637622594833373912e-01,1.637553930282592829e-01,1.637485384941101130e-01,1.637416601181030384e-01,1.637348055839538685e-01,1.637279391288757324e-01,1.637210845947265625e-01,1.637142062187194880e-01
1.565988779067993275e-01,1.565925955772399791e-01,1.565863251686096247e-01,1.565800428390503041e-01,1.565737724304199219e-01,1.565674901008606013e-01,1.565612196922302191e-01,1.565549373626708984e-01,1.565486550331115778e-01,1.565423965454101618e-01,1.565361142158508412e-01,1.565298438072204590e-01,1.565235614776611384e-01,1.565173029899597223e-01,1.565110206604004017e-01,1.565047621726989857e-01,1.564984798431396373e-01,1.564922094345092829e-01,1.564859390258789007e-01,1.564796686172485463e-01,1.564734101295471302e-01,1.564671277999877819e-01,1.564608693122863659e-01,1.564545989036560114e-01,1.564483404159545954e-01,1.564420580863952748e-01,1.564357876777648926e-01,1.564295291900634766e-01,1.564232587814330944e-01,1.564170002937316784e-01,1.564107298851013239e-01,1.564044833183288463e-01,1.563982129096984919e-01,1.563919544219970759e-01,1.563856840133666937e-01,1.563794136047363392e-01,1.563731670379638616e-01,1.563668966293335072e-01,1.563606500625610296e-01,1.563543796539306752e-01,1.563481330871581976e-01,1.563418626785278431e-01,1.563356161117553655e-01,1.563293457031250111e-01,1.563230872154235951e-01,1.563168406486511175e-01,1.563105821609497015e-01,1.563043236732482855e-01,1.562980651855468694e-01,1.562918186187744196e-01,1.562855601310730036e-01,1.562793135643005260e-01,1.562730550765991100e-01,1.562667965888976940e-01,1.562605500221252441e-01,1.562542915344238281e-01,1.562480568885803167e-01,1.562417984008789007e-01,1.562355518341064509e-01,1.562292933464050348e-01,1.562230587005615234e-01,1.562168002128601074e-01,1.562105417251586914e-01,1.562043070793151800e-01,1.561980485916137640e-01,1.561918139457702526e-01,1.561855673789978027e-01,1.561793208122253529e-01,1.561730742454528753e-01,1.561668395996093639e-01,1.561605930328369141e-01,1.561543464660644642e-01,1.561480998992919866e-01,1.561418652534484752e-01,1.561356186866760254e-01,1.561293840408325140e-01,1.561231374740600641e-01,1.561169028282165527e-01,1.561106562614441029e-01,1.561044335365295299e-01
1.496220946311950795e-01,1.496163606643676758e-01,1.496106266975402721e-01,1.496049046516418346e-01,1.495991706848144587e-01,1.495934486389160212e-01,1.495877146720886175e-01,1.495819807052612416e-01,1.495762586593628041e-01,1.495705246925354004e-01,1.495648026466369629e-01,1.495590686798095592e-01,1.495533466339111217e-01,1.495476126670837458e-01,1.495419025421142467e-01,1.495361685752868708e-01,1.495304346084594671e-01,1.495247244834899958e-01,1.495189905166625921e-01,1.495132684707641546e-01,1.495075464248657171e-01,1.495018243789672796e-01,1.494961023330688421e-01,1.494903802871704046e-01,1.494846582412719671e-01,1.494789481163024958e-01,1.494732141494750921e-01,1.494674921035766546e-01,1.494617819786071833e-01,1.494560480117797796e-01,1.494503378868103083e-01,1.494446158409118708e-01,1.494389057159423717e-01,1.494331836700439342e-01,1.494274735450744629e-01,1.494217514991760254e-01,1.494160294532775879e-01,1.494103193283081166e-01,1.494045972824096791e-01,1.493988871574401800e-01,1.493931770324707087e-01,1.493874669075012096e-01,1.493817448616027721e-01,1.493760347366333008e-01,1.493703246116638295e-01,1.493646025657653920e-01,1.493588924407958929e-01,1.493531823158264216e-01,1.493474721908569225e-01,1.493417620658874512e-01,1.493360519409179799e-01,1.493303418159484808e-01,1.493246436119079479e-01,1.493189215660095104e-01,1.493132114410400391e-01,1.493075132369995062e-01,1.493017911911010687e-01,1.492960929870605358e-01,1.492903828620910645e-01,1.492846846580505316e-01,1.492789745330810602e-01,1.492732763290405273e-01,1.492675662040710560e-01,1.492618560791015569e-01,1.492561578750610241e-01,1.492504477500915527e-01,1.492447495460510198e-01,1.492390394210815485e-01,1.492333531379699818e-01,1.492276430130004827e-01,1.492219448089599498e-01,1.492162346839904785e-01,1.492105484008789118e-01,1.492048382759094127e-01,1.491991519927978460e-01,1.491934418678283747e-01,1.491877436637878418e-01,1.491820454597473089e-01,1.491763472557067760e-01,1.491706490516662709e-01
