6.194931030273437278e-01,6.352022171020508257e-01,6.517287254333495872e-01,6.691380977630615456e-01,6.875031948089599387e-01,7.069047927856445535e-01,7.274362087249756081e-01,7.491963386535644975e-01,7.722983360290527344e-01,7.968705177307129350e-01,8.230575561523437722e-01,8.510244369506836382e-01,8.809585571289062500e-01,9.130753517150879128e-01,9.476224899291991743e-01,9.848866462707519531e-01,1.000000000000000000e+00,1.000000000000000000e+00,1.000000000000000000e+00,1.000000000000000000e+00,1.000000000000000000e+00,1.000000000000000000e+00,1.000000000000000000e+00,1.000000000000000000e+00,1.000000000000000000e+00,1.000000000000000000e+00,1.000000000000000000e+00,1.000000000000000000e+00,1.000000000000000000e+00,1.000000000000000000e+00,1.000000000000000000e+00,1.000000000000000000e+00,1.000000000000000000e+00,1.000000000000000000e+00,1.000000000000000000e+00,1.000000000000000000e+00,1.000000000000000000e+00,1.000000000000000000e+00,1.000000000000000000e+00,1.000000000000000000e+00,1.000000000000000000e+00,1.000000000000000000e+00,1.000000000000000000e+00,1.000000000000000000e+00,1.000000000000000000e+00,1.000000000000000000e+00,1.000000000000000000e+00,1.000000000000000000e+00,1.000000000000000000e+00,1.000000000000000000e+00,1.000000000000000000e+00,1.000000000000000000e+00,1.000000000000000000e+00,1.000000000000000000e+00,4.557058811187744141e-01,4.497148513793945424e-01,4.469342231750488281e-01,4.382899761199950950e-01,4.294661521911621316e-01,4.251380920410156028e-01,4.233556747436523215e-01,4.247815132141113392e-01,4.248764038085937611e-01,4.265987396240234486e-01,1.000000000000000000e+00,4.476750850677490012e-01,4.443779468536376842e-01,4.471602439880371094e-01,1.000000000000000000e+00,1.000000000000000000e+00,9.692660331726073997e-01,9.375544548034667747e-01,9.078521728515625000e-01,8.799739837646484153e-01,8.537569999694823997e-01,8.290569305419921431e-01,8.057459831237793191e-01,7.837100505828857866e-01,7.628468513488769753e-01,7.430653572082519531e-01
6.194798469543456587e-01,6.351882457733154519e-01,6.517140388488769087e-01,6.691226959228515625e-01,6.874869346618652788e-01,7.068875312805176225e-01,7.274149894714355691e-01,7.491734981536865012e-01,7.722741603851318581e-01,7.968446731567382368e-01,8.230300903320312278e-01,8.509949684143066628e-01,8.809270858764648438e-01,9.130414962768554910e-01,9.475859642028808816e-01,9.848472595214843306e-01,1.000000000000000000e+00,1.000000000000000000e+00,1.000000000000000000e+00,1.000000000000000000e+00,1.000000000000000000e+00,1.000000000000000000e+00,1.000000000000000000e+00,1.000000000000000000e+00,1.000000000000000000e+00,1.000000000000000000e+00,1.000000000000000000e+00,1.000000000000000000e+00,1.000000000000000000e+00,1.000000000000000000e+00,1.000000000000000000e+00,1.000000000000000000e+00,1.000000000000000000e+00,1.000000000000000000e+00,1.000000000000000000e+00,1.000000000000000000e+00,1.000000000000000000e+00,1.000000000000000000e+00,1.000000000000000000e+00,1.000000000000000000e+00,1.000000000000000000e+00,1.000000000000000000e+00,1.000000000000000000e+00,1.000000000000000000e+00,1.000000000000000000e+00,1.000000000000000000e+00,1.000000000000000000e+00,1.000000000000000000e+00,1.000000000000000000e+00,1.000000000000000000e+00,1.000000000000000000e+00,1.000000000000000000e+00,1.000000000000000000e+00,1.000000000000000000e+00,4.605033397674560547e-01,4.514237403869628684e-01,4.498132705688476785e-01,4.357201576232910267e-01,4.285824775695800670e-01,4.241721630096435547e-01,4.225752830505370983e-01,4.224545478820800892e-01,4.232532978057861328e-01,4.251476764678955300e-01,1.000000000000000000e+00,4.496095657348632701e-01,4.444580078125000000e-01,4.422275543212890736e-01,1.000000000000000000e+00,1.000000000000000000e+00,9.692942619323730025e-01,9.375808715820312944e-01,9.078768730163574441e-01,8.799972534179687500e-01,8.537788391113281250e-01,8.290773391723632590e-01,8.057644844055176225e-01,7.837267875671386497e-01,7.628625392913818137e-01,7.430803298950194868e-01
6.194666385650634544e-01,6.351743698120116965e-01,6.516993522644043413e-01,6.691072463989258257e-01,6.874705791473388894e-01,7.068703174591064453e-01,7.273967742919922319e-01,7.491509914398193359e-01,7.722498893737792525e-01,7.968189239501952681e-01,8.230025291442870650e-01,8.509654998779296875e-01,8.808955192565918191e-01,9.130076408386230691e-01,9.475495338439940962e-01,9.848078727722168191e-01,1.000000000000000000e+00,1.000000000000000000e+00,1.000000000000000000e+00,1.000000000000000000e+00,1.000000000000000000e+00,1.000000000000000000e+00,1.000000000000000000e+00,1.000000000000000000e+00,1.000000000000000000e+00,1.000000000000000000e+00,1.000000000000000000e+00,1.000000000000000000e+00,1.000000000000000000e+00,1.000000000000000000e+00,1.000000000000000000e+00,1.000000000000000000e+00,1.000000000000000000e+00,1.000000000000000000e+00,1.000000000000000000e+00,1.000000000000000000e+00,1.000000000000000000e+00,1.000000000000000000e+00,1.000000000000000000e+00,1.000000000000000000e+00,1.000000000000000000e+00,1.000000000000000000e+00,1.000000000000000000e+00,1.000000000000000000e+00,1.000000000000000000e+00,1.000000000000000000e+00,1.000000000000000000e+00,1.000000000000000000e+00,1.000000000000000000e+00,1.000000000000000000e+00,1.000000000000000000e+00,1.000000000000000000e+00,1.000000000000000000e+00,1.000000000000000000e+00,1.000000000000000000e+00,4.531456947326660267e-01,4.459927082061767578e-01,4.360192298889160045e-01,4.284962177276611106e-01,4.274641990661621205e-01,4.249663352966308594e-01,4.237641811370849720e-01,4.247524261474609486e-01,4.278026580810546653e-01,1.000000000000000000e+00,4.479984283447265847e-01,4.414974689483642800e-01,4.377088069915771595e-01,4.431155204772949108e-01,1.000000000000000000e+00,9.693224906921387163e-01,9.376072883605957031e-01,9.079016685485840066e-01,8.800196647644042969e-01,8.537991523742676225e-01,8.290959358215331809e-01,8.057820320129394087e-01,7.837434291839600053e-01,7.628782272338867632e-01,7.430952072143555132e-01
6.194533824920653853e-01,6.351603984832763228e-01,6.516847610473632812e-01,6.690917968749999778e-01,6.874543190002441184e-01,7.068530559539795144e-01,7.273785114288330300e-01,7.491315841674804910e-01,7.722259044647217241e-01,7.967930793762206809e-01,8.229750633239746316e-01,8.509361267089843306e-01,8.808639526367187944e-01,9.129736900329590288e-01,9.475130081176758035e-01,9.847684860229491965e-01,1.000000000000000000e+00,1.000000000000000000e+00,1.000000000000000000e+00,1.000000000000000000e+00,1.000000000000000000e+00,1.000000000000000000e+00,1.000000000000000000e+00,1.000000000000000000e+00,1.000000000000000000e+00,1.000000000000000000e+00,1.000000000000000000e+00,1.000000000000000000e+00,1.000000000000000000e+00,1.000000000000000000e+00,1.000000000000000000e+00,1.000000000000000000e+00,1.000000000000000000e+00,1.000000000000000000e+00,1.000000000000000000e+00,1.000000000000000000e+00,1.000000000000000000e+00,1.000000000000000000e+00,1.000000000000000000e+00,1.000000000000000000e+00,1.000000000000000000e+00,1.000000000000000000e+00,1.000000000000000000e+00,1.000000000000000000e+00,1.000000000000000000e+00,1.000000000000000000e+00,1.000000000000000000e+00,1.000000000000000000e+00,1.000000000000000000e+00,1.000000000000000000e+00,1.000000000000000000e+00,1.000000000000000000e+00,1.000000000000000000e+00,1.000000000000000000e+00,1.000000000000000000e+00,4.531089782714843861e-01,4.463602542877197488e-01,4.372157573699951283e-01,4.314630985260009544e-01,4.275029659271240012e-01,4.260457992553711160e-01,4.243113040924072488e-01,4.250092029571533314e-01,4.279771327972411998e-01,4.353595733642577903e-01,4.524795532226562611e-01,4.404518604278564453e-01,4.343689441680907981e-01,4.325290203094482311e-01,1.000000000000000000e+00,9.693501472473144975e-01,9.376320838928222656e-01,9.079240798950195535e-01,8.800406455993652344e-01,8.538188934326171875e-01,8.291145324707031028e-01,8.057995796203613059e-01,7.837600231170653853e-01,7.628940105438232200e-01,7.431101799011230469e-01
6.194401741027831809e-01,6.351465225219726785e-01,6.516700744628906028e-01,6.690763473510742410e-01,6.874379634857177290e-01,7.068358421325683372e-01,7.273602962493896928e-01,7.491122722625732644e-01,7.722053050994872603e-01,7.967674732208251953e-01,8.229475975036620872e-01,8.509067535400390847e-01,8.808324813842773882e-01,9.129399299621582253e-01,9.474765777587890181e-01,9.847290992736816850e-01,1.000000000000000000e+00,1.000000000000000000e+00,1.000000000000000000e+00,1.000000000000000000e+00,1.000000000000000000e+00,1.000000000000000000e+00,1.000000000000000000e+00,1.000000000000000000e+00,1.000000000000000000e+00,1.000000000000000000e+00,1.000000000000000000e+00,1.000000000000000000e+00,1.000000000000000000e+00,1.000000000000000000e+00,1.000000000000000000e+00,1.000000000000000000e+00,1.000000000000000000e+00,1.000000000000000000e+00,1.000000000000000000e+00,1.000000000000000000e+00,1.000000000000000000e+00,1.000000000000000000e+00,1.000000000000000000e+00,1.000000000000000000e+00,1.000000000000000000e+00,1.000000000000000000e+00,1.000000000000000000e+00,1.000000000000000000e+00,1.000000000000000000e+00,1.000000000000000000e+00,1.000000000000000000e+00,1.000000000000000000e+00,1.000000000000000000e+00,1.000000000000000000e+00,1.000000000000000000e+00,1.000000000000000000e+00,1.000000000000000000e+00,1.000000000000000000e+00,1.000000000000000000e+00,4.501440525054931641e-01,4.493927478790283314e-01,4.357678890228271484e-01,4.301442623138427845e-01,4.260479927062988392e-01,4.284977436065673939e-01,4.274391174316406472e-01,4.283822536468505637e-01,4.294932365417480358e-01,4.343816757202148549e-01,1.000000000000000000e+00,4.443985462188720925e-01,4.332346916198730469e-01,4.269458770751953236e-01,1.000000000000000000e+00,9.693755149841308816e-01,9.376558303833008035e-01,9.079463005065917525e-01,8.800616264343261719e-01,8.538386344909667525e-01,8.291331291198730247e-01,8.058171272277832031e-01,7.837766647338867410e-01,7.629097461700439231e-01,7.431251049041748269e-01
6.194269180297851118e-01,6.351325988769531694e-01,6.516554355621337891e-01,6.690609455108642578e-01,6.874217033386230691e-01,7.068185806274414062e-01,7.273419857025146262e-01,7.490928649902344194e-01,7.721847534179687722e-01,7.967455863952637163e-01,8.229201316833496538e-01,8.508772850036621094e-01,8.808010101318359819e-01,9.129060745239258035e-01,9.474401473999023438e-01,9.846897125244140625e-01,1.000000000000000000e+00,1.000000000000000000e+00,1.000000000000000000e+00,1.000000000000000000e+00,1.000000000000000000e+00,1.000000000000000000e+00,1.000000000000000000e+00,1.000000000000000000e+00,1.000000000000000000e+00,1.000000000000000000e+00,1.000000000000000000e+00,1.000000000000000000e+00,1.000000000000000000e+00,1.000000000000000000e+00,1.000000000000000000e+00,1.000000000000000000e+00,1.000000000000000000e+00,1.000000000000000000e+00,1.000000000000000000e+00,1.000000000000000000e+00,1.000000000000000000e+00,1.000000000000000000e+00,1.000000000000000000e+00,1.000000000000000000e+00,1.000000000000000000e+00,1.000000000000000000e+00,1.000000000000000000e+00,1.000000000000000000e+00,1.000000000000000000e+00,1.000000000000000000e+00,1.000000000000000000e+00,1.000000000000000000e+00,1.000000000000000000e+00,1.000000000000000000e+00,1.000000000000000000e+00,1.000000000000000000e+00,1.000000000000000000e+00,1.000000000000000000e+00,1.000000000000000000e+00,4.482794284820556530e-01,4.476132869720458873e-01,4.293581962585449330e-01,4.200288772583007924e-01,4.156662940979004017e-01,4.148244857788085938e-01,4.310876846313476674e-01,4.330751895904541016e-01,4.308343887329101340e-01,4.336459636688232422e-01,1.000000000000000000e+00,1.000000000000000000e+00,4.367720603942871205e-01,4.294437885284423939e-01,4.258775234222412220e-01,9.694009780883788840e-01,9.376796722412109597e-01,9.079686164855956809e-01,8.800825119018554910e-01,8.538583755493164285e-01,8.291517257690429465e-01,8.058346748352051003e-01,7.837932586669922319e-01,7.629255294799804910e-01,7.431400775909423606e-01
6.194137096405029075e-01,6.351186752319335493e-01,6.516407489776611106e-01,6.690454483032226562e-01,6.874053955078125444e-01,7.068013668060302290e-01,7.273237705230712891e-01,7.490734577178954634e-01,7.721641540527344194e-01,7.967236518859863725e-01,8.228967666625977007e-01,8.508479118347167525e-01,8.807694435119628462e-01,9.128722190856933816e-01,9.474036216735839400e-01,9.846503257751464400e-01,1.000000000000000000e+00,1.000000000000000000e+00,1.000000000000000000e+00,1.000000000000000000e+00,1.000000000000000000e+00,1.000000000000000000e+00,1.000000000000000000e+00,1.000000000000000000e+00,1.000000000000000000e+00,1.000000000000000000e+00,1.000000000000000000e+00,1.000000000000000000e+00,1.000000000000000000e+00,1.000000000000000000e+00,1.000000000000000000e+00,1.000000000000000000e+00,1.000000000000000000e+00,1.000000000000000000e+00,1.000000000000000000e+00,1.000000000000000000e+00,1.000000000000000000e+00,1.000000000000000000e+00,1.000000000000000000e+00,1.000000000000000000e+00,1.000000000000000000e+00,1.000000000000000000e+00,1.000000000000000000e+00,1.000000000000000000e+00,1.000000000000000000e+00,1.000000000000000000e+00,1.000000000000000000e+00,1.000000000000000000e+00,1.000000000000000000e+00,1.000000000000000000e+00,1.000000000000000000e+00,1.000000000000000000e+00,1.000000000000000000e+00,1.000000000000000000e+00,1.000000000000000000e+00,4.462014675140381081e-01,4.455116271972656139e-01,4.249196529388427623e-01,4.161803722381591797e-01,4.119976043701171764e-01,4.085564136505127064e-01,4.147098064422607422e-01,4.325303077697754128e-01,4.299196720123291127e-01,4.322864055633545144e-01,1.000000000000000000e+00,1.000000000000000000e+00,1.000000000000000000e+00,4.216025352478027233e-01,4.174997329711914174e-01,9.694263458251952681e-01,9.377034187316894975e-01,9.079908370971679910e-01,8.801034927368164285e-01,8.538780212402343750e-01,8.291703224182128684e-01,8.058522224426269975e-01,7.838099002838134766e-01,7.629412174224853294e-01,7.431549549102782759e-01
6.194004058837890847e-01,6.351047515869140403e-01,6.516261577606201616e-01,6.690300464630126731e-01,6.873890399932861550e-01,7.067841053009032981e-01,7.273055076599120872e-01,7.490541458129882368e-01,7.721436500549316850e-01,7.967018127441406472e-01,8.228734016418457475e-01,8.508229255676269531e-01,8.807379722595214400e-01,9.128383636474609597e-01,9.473671913146972656e-01,9.846109390258789285e-01,1.000000000000000000e+00,1.000000000000000000e+00,1.000000000000000000e+00,1.000000000000000000e+00,1.000000000000000000e+00,1.000000000000000000e+00,1.000000000000000000e+00,1.000000000000000000e+00,1.000000000000000000e+00,1.000000000000000000e+00,1.000000000000000000e+00,1.000000000000000000e+00,1.000000000000000000e+00,1.000000000000000000e+00,1.000000000000000000e+00,1.000000000000000000e+00,1.000000000000000000e+00,1.000000000000000000e+00,1.000000000000000000e+00,1.000000000000000000e+00,1.000000000000000000e+00,1.000000000000000000e+00,1.000000000000000000e+00,1.000000000000000000e+00,1.000000000000000000e+00,1.000000000000000000e+00,1.000000000000000000e+00,1.000000000000000000e+00,1.000000000000000000e+00,1.000000000000000000e+00,1.000000000000000000e+00,1.000000000000000000e+00,1.000000000000000000e+00,1.000000000000000000e+00,1.000000000000000000e+00,1.000000000000000000e+00,1.000000000000000000e+00,1.000000000000000000e+00,1.000000000000000000e+00,4.445529937744140403e-01,4.437637329101562500e-01,4.228971958160400169e-01,4.132360458374023660e-01,4.089982509613037109e-01,4.049579143524170144e-01,4.097376823425292747e-01,4.312885284423828014e-01,4.285251617431640736e-01,4.310875892639159934e-01,1.000000000000000000e+00,1.000000000000000000e+00,1.000000000000000000e+00,1.000000000000000000e+00,4.118911266326904519e-01,4.113152027130126953e-01,9.377271652221679243e-01,9.080131530761719194e-01,8.801244735717773660e-01,8.538977622985839400e-01,8.291889190673827903e-01,8.058698654174805132e-01,7.838264942169189675e-01,7.629570007324218972e-01,7.431698799133300559e-01
6.193871974945068803e-01,6.350908756256103960e-01,6.516114711761474831e-01,6.690145492553710715e-01,6.873727798461913840e-01,7.067669391632079856e-01,7.272872924804687500e-01,7.490347385406493919e-01,7.721230030059814675e-01,7.966798782348633035e-01,8.228500366210937944e-01,8.507979393005371538e-01,8.807110786437988281e-01,9.128045082092285378e-01,9.473307609558105913e-01,9.845715522766113059e-01,1.000000000000000000e+00,1.000000000000000000e+00,1.000000000000000000e+00,1.000000000000000000e+00,1.000000000000000000e+00,1.000000000000000000e+00,1.000000000000000000e+00,1.000000000000000000e+00,1.000000000000000000e+00,1.000000000000000000e+00,1.000000000000000000e+00,1.000000000000000000e+00,1.000000000000000000e+00,1.000000000000000000e+00,1.000000000000000000e+00,1.000000000000000000e+00,1.000000000000000000e+00,1.000000000000000000e+00,1.000000000000000000e+00,1.000000000000000000e+00,1.000000000000000000e+00,1.000000000000000000e+00,1.000000000000000000e+00,1.000000000000000000e+00,1.000000000000000000e+00,1.000000000000000000e+00,1.000000000000000000e+00,1.000000000000000000e+00,1.000000000000000000e+00,1.000000000000000000e+00,1.000000000000000000e+00,1.000000000000000000e+00,1.000000000000000000e+00,1.000000000000000000e+00,1.000000000000000000e+00,1.000000000000000000e+00,1.000000000000000000e+00,1.000000000000000000e+00,1.000000000000000000e+00,4.452488899230956920e-01,4.488106250762939342e-01,4.241672992706299050e-01,4.106202602386474498e-01,4.062606334686279519e-01,4.020597934722900391e-01,4.047862529754638894e-01,4.311981201171875000e-01,4.285686016082763672e-01,4.319970130920410267e-01,1.000000000000000000e+00,1.000000000000000000e+00,1.000000000000000000e+00,1.000000000000000000e+00,1.000000000000000000e+00,4.247591972351074108e-01,9.377510070800780806e-01,9.080354690551757368e-01,8.801453590393066850e-01,8.539175033569336160e-01,8.292075157165527122e-01,8.058874130249022993e-01,7.838431358337402122e-01,7.629726886749267356e-01,7.431848526000977007e-01
6.193739414215088113e-01,6.350769042968750222e-01,6.515968322753906694e-01,6.689991474151610884e-01,6.873564720153808594e-01,7.067496776580810547e-01,7.272690296173095481e-01,7.490154266357421653e-01,7.721024990081787331e-01,7.966580390930175781e-01,8.228266716003418413e-01,8.507730484008788618e-01,8.806843757629394531e-01,9.127756118774413840e-01,9.472943305969238059e-01,9.845321655273437944e-01,1.000000000000000000e+00,1.000000000000000000e+00,1.000000000000000000e+00,1.000000000000000000e+00,1.000000000000000000e+00,1.000000000000000000e+00,1.000000000000000000e+00,1.000000000000000000e+00,1.000000000000000000e+00,1.000000000000000000e+00,1.000000000000000000e+00,1.000000000000000000e+00,1.000000000000000000e+00,1.000000000000000000e+00,1.000000000000000000e+00,1.000000000000000000e+00,1.000000000000000000e+00,1.000000000000000000e+00,1.000000000000000000e+00,1.000000000000000000e+00,1.000000000000000000e+00,1.000000000000000000e+00,1.000000000000000000e+00,1.000000000000000000e+00,1.000000000000000000e+00,1.000000000000000000e+00,1.000000000000000000e+00,1.000000000000000000e+00,1.000000000000000000e+00,1.000000000000000000e+00,1.000000000000000000e+00,1.000000000000000000e+00,1.000000000000000000e+00,1.000000000000000000e+00,1.000000000000000000e+00,1.000000000000000000e+00,1.000000000000000000e+00,1.000000000000000000e+00,1.000000000000000000e+00,4.419674396514892689e-01,4.379260063171386830e-01,4.286639690399169922e-01,4.110807895660400502e-01,4.034510612487792747e-01,3.989867210388183816e-01,3.999048948287963756e-01,4.319776058197021262e-01,4.294037818908691406e-01,4.337651729583740234e-01,1.000000000000000000e+00,1.000000000000000000e+00,1.000000000000000000e+00,1.000000000000000000e+00,1.000000000000000000e+00,9.695026397705077681e-01,4.095282554626464844e-01,9.080577850341796653e-01,8.801662445068358931e-01,8.539372444152831809e-01,8.292261123657226340e-01,8.059049606323241965e-01,7.838597297668457031e-01,7.629884719848633035e-01,7.431997299194336160e-01
6.193713665008544478e-01,6.350680828094482644e-01,6.515821933746337447e-01,6.689836978912353516e-01,6.873402118682860884e-01,7.067324638366698775e-01,7.272508144378662109e-01,7.489960670471191850e-01,7.720818996429443803e-01,7.966361045837402344e-01,8.228033065795898882e-01,8.507480621337890625e-01,8.806575775146484597e-01,9.127469062805175781e-01,9.472631454467773660e-01,9.844927787780761719e-01,1.000000000000000000e+00,1.000000000000000000e+00,1.000000000000000000e+00,1.000000000000000000e+00,1.000000000000000000e+00,1.000000000000000000e+00,1.000000000000000000e+00,1.000000000000000000e+00,1.000000000000000000e+00,1.000000000000000000e+00,1.000000000000000000e+00,1.000000000000000000e+00,1.000000000000000000e+00,1.000000000000000000e+00,1.000000000000000000e+00,1.000000000000000000e+00,1.000000000000000000e+00,1.000000000000000000e+00,1.000000000000000000e+00,1.000000000000000000e+00,1.000000000000000000e+00,1.000000000000000000e+00,1.000000000000000000e+00,1.000000000000000000e+00,1.000000000000000000e+00,1.000000000000000000e+00,1.000000000000000000e+00,1.000000000000000000e+00,1.000000000000000000e+00,1.000000000000000000e+00,1.000000000000000000e+00,1.000000000000000000e+00,1.000000000000000000e+00,1.000000000000000000e+00,1.000000000000000000e+00,1.000000000000000000e+00,1.000000000000000000e+00,1.000000000000000000e+00,1.000000000000000000e+00,4.396636009216308705e-01,1.000000000000000000e+00,1.000000000000000000e+00,4.126309394836426003e-01,4.004920482635497825e-01,3.955435752868652344e-01,3.951883554458618386e-01,4.003885746002197044e-01,4.304168224334716797e-01,4.358986854553222878e-01,1.000000000000000000e+00,1.000000000000000000e+00,1.000000000000000000e+00,1.000000000000000000e+00,1.000000000000000000e+00,9.695281028747558816e-01,9.377985954284667747e-01,9.080801010131835938e-01,8.801872253417968306e-01,8.539569854736328569e-01,8.292447090148925559e-01,8.059225082397460938e-01,7.838763713836669478e-01,7.630042076110840066e-01,7.432147026062011497e-01
6.193714618682861772e-01,6.350681304931640181e-01,6.515811443328857200e-01,6.689758300781250000e-01,6.873247146606444868e-01,7.067152023315429465e-01,7.272325038909912553e-01,7.489767551422119585e-01,7.720613479614257812e-01,7.966141700744628906e-01,8.227799415588379350e-01,8.507230758666992632e-01,8.806307792663574663e-01,9.127181053161621538e-01,9.472321510314941628e-01,9.844589233398437500e-01,1.000000000000000000e+00,1.000000000000000000e+00,1.000000000000000000e+00,1.000000000000000000e+00,1.000000000000000000e+00,1.000000000000000000e+00,1.000000000000000000e+00,1.000000000000000000e+00,1.000000000000000000e+00,1.000000000000000000e+00,1.000000000000000000e+00,1.000000000000000000e+00,1.000000000000000000e+00,1.000000000000000000e+00,1.000000000000000000e+00,1.000000000000000000e+00,1.000000000000000000e+00,1.000000000000000000e+00,1.000000000000000000e+00,1.000000000000000000e+00,1.000000000000000000e+00,1.000000000000000000e+00,1.000000000000000000e+00,1.000000000000000000e+00,1.000000000000000000e+00,1.000000000000000000e+00,1.000000000000000000e+00,1.000000000000000000e+00,1.000000000000000000e+00,1.000000000000000000e+00,1.000000000000000000e+00,1.000000000000000000e+00,1.000000000000000000e+00,1.000000000000000000e+00,1.000000000000000000e+00,1.000000000000000000e+00,1.000000000000000000e+00,1.000000000000000000e+00,1.000000000000000000e+00,4.384305953979492076e-01,1.000000000000000000e+00,1.000000000000000000e+00,4.156368732452392356e-01,3.997688531875610574e-01,3.926739931106567605e-01,3.905004501342773660e-01,3.933433532714843972e-01,4.314346313476562500e-01,4.386281490325927845e-01,1.000000000000000000e+00,1.000000000000000000e+00,1.000000000000000000e+00,1.000000000000000000e+00,1.000000000000000000e+00,9.695534706115722656e-01,9.378223419189453125e-01,9.081024169921875222e-01,8.802082061767577681e-01,8.539766311645508035e-01,8.292633056640624778e-01,8.059400558471679910e-01,7.838929653167724387e-01,7.630199909210204634e-01,7.432296276092529297e-01
6.193681716918945090e-01,6.350682735443115012e-01,6.515812873840332031e-01,6.689759731292724831e-01,6.873248577117919700e-01,7.067086219787597212e-01,7.272175312042236106e-01,7.489573478698730025e-01,7.720407485961914285e-01,7.965922832489014116e-01,8.227565765380859819e-01,8.506980895996093528e-01,8.806040763854980913e-01,9.126893997192382368e-01,9.472012519836425781e-01,9.844255447387695312e-01,1.000000000000000000e+00,1.000000000000000000e+00,1.000000000000000000e+00,1.000000000000000000e+00,1.000000000000000000e+00,1.000000000000000000e+00,1.000000000000000000e+00,1.000000000000000000e+00,1.000000000000000000e+00,1.000000000000000000e+00,1.000000000000000000e+00,1.000000000000000000e+00,1.000000000000000000e+00,1.000000000000000000e+00,1.000000000000000000e+00,1.000000000000000000e+00,1.000000000000000000e+00,1.000000000000000000e+00,1.000000000000000000e+00,1.000000000000000000e+00,1.000000000000000000e+00,1.000000000000000000e+00,1.000000000000000000e+00,1.000000000000000000e+00,1.000000000000000000e+00,1.000000000000000000e+00,1.000000000000000000e+00,1.000000000000000000e+00,1.000000000000000000e+00,1.000000000000000000e+00,1.000000000000000000e+00,1.000000000000000000e+00,1.000000000000000000e+00,1.000000000000000000e+00,1.000000000000000000e+00,1.000000000000000000e+00,1.000000000000000000e+00,1.000000000000000000e+00,1.000000000000000000e+00,4.362429618835449441e-01,1.000000000000000000e+00,1.000000000000000000e+00,4.192409038543701283e-01,4.018498420715331809e-01,3.908463478088378684e-01,3.865813255310058816e-01,3.888605117797851451e-01,4.323582649230957031e-01,1.000000000000000000e+00,1.000000000000000000e+00,1.000000000000000000e+00,1.000000000000000000e+00,1.000000000000000000e+00,1.000000000000000000e+00,9.695789337158202681e-01,9.378460884094238503e-01,9.081246376037597212e-01,8.802291870117187056e-01,8.539963722229003684e-01,8.292819023132323997e-01,8.059576988220215066e-01,7.839096069335937944e-01,7.630356788635254128e-01,7.432446002960204634e-01
6.193549633026123047e-01,6.350569725036621094e-01,6.515758514404297319e-01,6.689760208129882368e-01,6.873249053955078347e-01,7.067087173461914507e-01,7.272177219390869585e-01,7.489524841308593528e-01,7.720265388488769531e-01,7.965703487396240678e-01,8.227333068847656472e-01,8.506731033325195535e-01,8.805772781372069868e-01,9.126606941223144309e-01,9.471701622009277566e-01,9.843920707702636941e-01,1.000000000000000000e+00,1.000000000000000000e+00,1.000000000000000000e+00,1.000000000000000000e+00,1.000000000000000000e+00,1.000000000000000000e+00,1.000000000000000000e+00,1.000000000000000000e+00,1.000000000000000000e+00,1.000000000000000000e+00,1.000000000000000000e+00,1.000000000000000000e+00,1.000000000000000000e+00,1.000000000000000000e+00,1.000000000000000000e+00,1.000000000000000000e+00,1.000000000000000000e+00,1.000000000000000000e+00,1.000000000000000000e+00,1.000000000000000000e+00,1.000000000000000000e+00,1.000000000000000000e+00,1.000000000000000000e+00,1.000000000000000000e+00,1.000000000000000000e+00,1.000000000000000000e+00,1.000000000000000000e+00,1.000000000000000000e+00,1.000000000000000000e+00,1.000000000000000000e+00,1.000000000000000000e+00,1.000000000000000000e+00,1.000000000000000000e+00,1.000000000000000000e+00,1.000000000000000000e+00,1.000000000000000000e+00,1.000000000000000000e+00,1.000000000000000000e+00,1.000000000000000000e+00,1.000000000000000000e+00,1.000000000000000000e+00,1.000000000000000000e+00,1.000000000000000000e+00,4.040701389312744141e-01,3.904250860214233398e-01,3.853620052337646262e-01,3.872012138366699441e-01,4.332750797271728294e-01,1.000000000000000000e+00,1.000000000000000000e+00,1.000000000000000000e+00,1.000000000000000000e+00,1.000000000000000000e+00,1.000000000000000000e+00,9.696043014526367632e-01,9.378699302673340066e-01,9.081469535827636497e-01,8.802500724792480247e-01,8.540160179138183150e-01,8.293004989624023215e-01,8.059752464294434038e-01,7.839262008666991743e-01,7.630514621734618697e-01,7.432594776153564897e-01
6.193417072296142356e-01,6.350430965423583540e-01,6.515612125396728072e-01,6.689616203308105247e-01,6.873168945312500000e-01,7.067079067230224165e-01,7.272177696228027122e-01,7.489525794982909712e-01,7.720266342163085715e-01,7.965676307678222212e-01,8.227200508117675781e-01,8.506482124328613725e-01,8.805505752563476118e-01,9.126318931579590066e-01,9.471392631530761719e-01,9.843586921691894753e-01,1.000000000000000000e+00,1.000000000000000000e+00,1.000000000000000000e+00,1.000000000000000000e+00,1.000000000000000000e+00,1.000000000000000000e+00,1.000000000000000000e+00,1.000000000000000000e+00,1.000000000000000000e+00,1.000000000000000000e+00,1.000000000000000000e+00,1.000000000000000000e+00,1.000000000000000000e+00,1.000000000000000000e+00,1.000000000000000000e+00,1.000000000000000000e+00,1.000000000000000000e+00,1.000000000000000000e+00,1.000000000000000000e+00,1.000000000000000000e+00,1.000000000000000000e+00,1.000000000000000000e+00,1.000000000000000000e+00,1.000000000000000000e+00,1.000000000000000000e+00,1.000000000000000000e+00,1.000000000000000000e+00,1.000000000000000000e+00,1.000000000000000000e+00,1.000000000000000000e+00,1.000000000000000000e+00,1.000000000000000000e+00,1.000000000000000000e+00,1.000000000000000000e+00,1.000000000000000000e+00,1.000000000000000000e+00,1.000000000000000000e+00,1.000000000000000000e+00,1.000000000000000000e+00,1.000000000000000000e+00,1.000000000000000000e+00,1.000000000000000000e+00,1.000000000000000000e+00,4.059623241424560325e-01,3.916815519332885742e-01,3.864568471908569336e-01,3.884445190429687278e-01,4.341957569122314453e-01,1.000000000000000000e+00,1.000000000000000000e+00,1.000000000000000000e+00,1.000000000000000000e+00,1.000000000000000000e+00,1.000000000000000000e+00,9.696297645568847656e-01,9.378936767578125444e-01,9.081692695617675781e-01,8.802710533142089622e-01,8.540357589721679910e-01,8.293190956115722434e-01,8.059927940368651900e-01,7.839428424835205300e-01,7.630671501159668191e-01,7.432744979858398882e-01
6.193284988403320312e-01,6.350291728973388450e-01,6.515466213226318581e-01,6.689462184906005415e-01,6.873006343841552290e-01,7.066906452178954856e-01,7.272066116333008035e-01,7.489492416381835493e-01,7.720268249511719194e-01,7.965678215026855691e-01,8.227202415466308150e-01,8.506482124328613725e-01,8.805388450622558816e-01,9.126067161560058594e-01,9.471082687377929688e-01,9.843252182006836382e-01,1.000000000000000000e+00,1.000000000000000000e+00,1.000000000000000000e+00,1.000000000000000000e+00,1.000000000000000000e+00,1.000000000000000000e+00,1.000000000000000000e+00,1.000000000000000000e+00,1.000000000000000000e+00,1.000000000000000000e+00,1.000000000000000000e+00,1.000000000000000000e+00,1.000000000000000000e+00,1.000000000000000000e+00,1.000000000000000000e+00,1.000000000000000000e+00,1.000000000000000000e+00,1.000000000000000000e+00,1.000000000000000000e+00,1.000000000000000000e+00,1.000000000000000000e+00,1.000000000000000000e+00,1.000000000000000000e+00,1.000000000000000000e+00,1.000000000000000000e+00,1.000000000000000000e+00,1.000000000000000000e+00,1.000000000000000000e+00,1.000000000000000000e+00,1.000000000000000000e+00,1.000000000000000000e+00,1.000000000000000000e+00,1.000000000000000000e+00,1.000000000000000000e+00,1.000000000000000000e+00,1.000000000000000000e+00,1.000000000000000000e+00,1.000000000000000000e+00,1.000000000000000000e+00,1.000000000000000000e+00,1.000000000000000000e+00,1.000000000000000000e+00,1.000000000000000000e+00,4.032194137573242299e-01,3.930162906646728627e-01,3.882562875747680442e-01,3.912062644958496094e-01,4.351553440093994252e-01,1.000000000000000000e+00,1.000000000000000000e+00,1.000000000000000000e+00,1.000000000000000000e+00,1.000000000000000000e+00,1.000000000000000000e+00,9.696552276611327681e-01,9.379175186157227007e-01,9.081915855407715066e-01,8.802920341491698997e-01,8.540555000305175559e-01,8.293376922607421653e-01,8.060103416442870872e-01,7.839594364166260210e-01,7.630832195281982422e-01,7.432903766632079634e-01
6.193152904510498269e-01,6.350152492523193359e-01,6.515319347381591797e-01,6.689307689666748047e-01,6.872843742370605691e-01,7.066734313964844194e-01,7.271883010864257368e-01,7.489298343658447044e-01,7.720116138458251731e-01,7.965612888336182085e-01,8.227203369140625444e-01,8.506483078002929910e-01,8.805390357971191184e-01,9.126069068908690962e-01,9.470987319946289062e-01,9.843002319335937278e-01,1.000000000000000000e+00,1.000000000000000000e+00,1.000000000000000000e+00,1.000000000000000000e+00,1.000000000000000000e+00,1.000000000000000000e+00,1.000000000000000000e+00,1.000000000000000000e+00,1.000000000000000000e+00,1.000000000000000000e+00,1.000000000000000000e+00,1.000000000000000000e+00,1.000000000000000000e+00,1.000000000000000000e+00,1.000000000000000000e+00,1.000000000000000000e+00,1.000000000000000000e+00,1.000000000000000000e+00,1.000000000000000000e+00,1.000000000000000000e+00,1.000000000000000000e+00,1.000000000000000000e+00,1.000000000000000000e+00,1.000000000000000000e+00,1.000000000000000000e+00,1.000000000000000000e+00,1.000000000000000000e+00,1.000000000000000000e+00,1.000000000000000000e+00,1.000000000000000000e+00,1.000000000000000000e+00,1.000000000000000000e+00,1.000000000000000000e+00,1.000000000000000000e+00,1.000000000000000000e+00,1.000000000000000000e+00,1.000000000000000000e+00,1.000000000000000000e+00,1.000000000000000000e+00,1.000000000000000000e+00,1.000000000000000000e+00,1.000000000000000000e+00,1.000000000000000000e+00,4.015347480773925892e-01,3.942140340805053711e-01,3.900725603103637473e-01,3.948056459426879661e-01,1.000000000000000000e+00,1.000000000000000000e+00,1.000000000000000000e+00,1.000000000000000000e+00,1.000000000000000000e+00,1.000000000000000000e+00,1.000000000000000000e+00,9.696805953979492632e-01,9.379412651062011275e-01,9.082139015197754350e-01,8.803130149841308372e-01,8.540752410888672319e-01,8.293562889099120872e-01,8.060287475585937722e-01,7.839775562286377397e-01,7.631008625030517578e-01,7.433070659637450728e-01
6.193020343780517578e-01,6.350013256072998269e-01,6.515173435211181197e-01,6.689153671264648215e-01,6.872680664062500444e-01,7.066562652587891069e-01,7.271700859069823997e-01,7.489105224609374778e-01,7.719910144805908203e-01,7.965394496917724831e-01,8.227002143859862837e-01,8.506379127502441406e-01,8.805392265319824663e-01,9.126070976257324441e-01,9.470989227294921431e-01,9.843004226684570757e-01,1.000000000000000000e+00,1.000000000000000000e+00,1.000000000000000000e+00,1.000000000000000000e+00,1.000000000000000000e+00,1.000000000000000000e+00,1.000000000000000000e+00,1.000000000000000000e+00,1.000000000000000000e+00,1.000000000000000000e+00,1.000000000000000000e+00,1.000000000000000000e+00,1.000000000000000000e+00,1.000000000000000000e+00,1.000000000000000000e+00,1.000000000000000000e+00,1.000000000000000000e+00,1.000000000000000000e+00,1.000000000000000000e+00,1.000000000000000000e+00,1.000000000000000000e+00,1.000000000000000000e+00,1.000000000000000000e+00,1.000000000000000000e+00,1.000000000000000000e+00,1.000000000000000000e+00,1.000000000000000000e+00,1.000000000000000000e+00,1.000000000000000000e+00,1.000000000000000000e+00,1.000000000000000000e+00,1.000000000000000000e+00,1.000000000000000000e+00,1.000000000000000000e+00,1.000000000000000000e+00,1.000000000000000000e+00,1.000000000000000000e+00,1.000000000000000000e+00,1.000000000000000000e+00,1.000000000000000000e+00,1.000000000000000000e+00,1.000000000000000000e+00,1.000000000000000000e+00,4.022417068481445312e-01,3.952922821044921875e-01,3.914345026016235463e-01,3.968847036361694558e-01,1.000000000000000000e+00,1.000000000000000000e+00,1.000000000000000000e+00,1.000000000000000000e+00,1.000000000000000000e+00,1.000000000000000000e+00,1.000000000000000000e+00,9.697060585021972656e-01,9.379651069641112837e-01,9.082362174987792525e-01,8.803343772888183594e-01,8.540963172912597878e-01,8.293769836425781694e-01,8.060483932495117188e-01,7.839961528778076616e-01,7.631184577941894087e-01,7.433238029479980469e-01
6.192888259887695535e-01,6.349874496459960715e-01,6.515026569366455522e-01,6.688999652862548384e-01,6.872518062591552734e-01,7.066390037536620650e-01,7.271518230438231978e-01,7.488912582397461160e-01,7.719705104827880859e-01,7.965175151824951394e-01,8.226769447326660600e-01,8.506129264831543413e-01,8.805129051208495650e-01,9.125914573669433594e-01,9.470957756042480691e-01,9.843006134033203125e-01,1.000000000000000000e+00,1.000000000000000000e+00,1.000000000000000000e+00,1.000000000000000000e+00,1.000000000000000000e+00,1.000000000000000000e+00,1.000000000000000000e+00,1.000000000000000000e+00,1.000000000000000000e+00,1.000000000000000000e+00,1.000000000000000000e+00,1.000000000000000000e+00,1.000000000000000000e+00,1.000000000000000000e+00,1.000000000000000000e+00,1.000000000000000000e+00,1.000000000000000000e+00,1.000000000000000000e+00,1.000000000000000000e+00,1.000000000000000000e+00,1.000000000000000000e+00,1.000000000000000000e+00,1.000000000000000000e+00,1.000000000000000000e+00,1.000000000000000000e+00,1.000000000000000000e+00,1.000000000000000000e+00,1.000000000000000000e+00,1.000000000000000000e+00,1.000000000000000000e+00,1.000000000000000000e+00,1.000000000000000000e+00,1.000000000000000000e+00,1.000000000000000000e+00,1.000000000000000000e+00,1.000000000000000000e+00,1.000000000000000000e+00,1.000000000000000000e+00,1.000000000000000000e+00,1.000000000000000000e+00,1.000000000000000000e+00,1.000000000000000000e+00,1.000000000000000000e+00,4.030036449432373158e-01,3.950540781021117942e-01,3.910695075988769309e-01,3.959575176239013561e-01,1.000000000000000000e+00,1.000000000000000000e+00,1.000000000000000000e+00,1.000000000000000000e+00,1.000000000000000000e+00,1.000000000000000000e+00,1.000000000000000000e+00,9.697315216064452681e-01,9.379899978637695757e-01,9.082606315612793413e-01,8.803578376770019309e-01,8.541184425354003684e-01,8.293977737426757590e-01,8.060679435729980469e-01,7.840147495269775835e-01,7.631360530853271706e-01,7.433404922485351562e-01
6.192755699157714844e-01,6.349735736846924272e-01,6.514880657196044922e-01,6.688844680786132368e-01,6.872354507446288840e-01,7.066217899322509988e-01,7.271336078643798606e-01,7.488718509674072710e-01,7.719500064849853516e-01,7.964956760406494141e-01,8.226535797119141069e-01,8.505879402160644309e-01,8.804862022399901900e-01,9.125627517700195535e-01,9.470648765563964844e-01,9.842782974243163840e-01,1.000000000000000000e+00,1.000000000000000000e+00,1.000000000000000000e+00,1.000000000000000000e+00,1.000000000000000000e+00,1.000000000000000000e+00,1.000000000000000000e+00,1.000000000000000000e+00,1.000000000000000000e+00,1.000000000000000000e+00,1.000000000000000000e+00,1.000000000000000000e+00,1.000000000000000000e+00,1.000000000000000000e+00,1.000000000000000000e+00,1.000000000000000000e+00,1.000000000000000000e+00,1.000000000000000000e+00,1.000000000000000000e+00,1.000000000000000000e+00,1.000000000000000000e+00,1.000000000000000000e+00,1.000000000000000000e+00,1.000000000000000000e+00,1.000000000000000000e+00,1.000000000000000000e+00,1.000000000000000000e+00,1.000000000000000000e+00,1.000000000000000000e+00,1.000000000000000000e+00,1.000000000000000000e+00,1.000000000000000000e+00,1.000000000000000000e+00,1.000000000000000000e+00,1.000000000000000000e+00,1.000000000000000000e+00,1.000000000000000000e+00,1.000000000000000000e+00,1.000000000000000000e+00,1.000000000000000000e+00,1.000000000000000000e+00,1.000000000000000000e+00,1.000000000000000000e+00,4.037364006042480358e-01,3.952446937561034934e-01,3.907622337341308816e-01,3.950282335281372070e-01,1.000000000000000000e+00,1.000000000000000000e+00,1.000000000000000000e+00,1.000000000000000000e+00,1.000000000000000000e+00,1.000000000000000000e+00,1.000000000000000000e+00,9.697598457336426003e-01,9.380166053771972212e-01,9.082856178283691406e-01,8.803812980651855025e-01,8.541404724121093306e-01,8.294186592102050781e-01,8.060875892639159934e-01,7.840333461761475053e-01,7.631536960601806863e-01,7.433572292327881303e-01
6.192624092102050337e-01,6.349596500396728072e-01,6.514733791351318137e-01,6.688690662384033647e-01,6.872191905975342241e-01,7.066045284271240678e-01,7.271154403686523882e-01,7.488525390625000444e-01,7.719294071197509988e-01,7.964737415313720703e-01,8.226302146911621538e-01,8.505630493164062500e-01,8.804594039916991965e-01,9.125340461730957475e-01,9.470338821411132812e-01,9.842450141906737837e-01,1.000000000000000000e+00,1.000000000000000000e+00,1.000000000000000000e+00,1.000000000000000000e+00,1.000000000000000000e+00,1.000000000000000000e+00,1.000000000000000000e+00,1.000000000000000000e+00,1.000000000000000000e+00,1.000000000000000000e+00,1.000000000000000000e+00,1.000000000000000000e+00,1.000000000000000000e+00,1.000000000000000000e+00,1.000000000000000000e+00,1.000000000000000000e+00,1.000000000000000000e+00,1.000000000000000000e+00,1.000000000000000000e+00,1.000000000000000000e+00,1.000000000000000000e+00,1.000000000000000000e+00,1.000000000000000000e+00,1.000000000000000000e+00,1.000000000000000000e+00,1.000000000000000000e+00,1.000000000000000000e+00,1.000000000000000000e+00,1.000000000000000000e+00,1.000000000000000000e+00,1.000000000000000000e+00,1.000000000000000000e+00,1.000000000000000000e+00,1.000000000000000000e+00,1.000000000000000000e+00,1.000000000000000000e+00,1.000000000000000000e+00,1.000000000000000000e+00,1.000000000000000000e+00,1.000000000000000000e+00,1.000000000000000000e+00,1.000000000000000000e+00,1.000000000000000000e+00,4.044718265533447377e-01,3.959778308868407981e-01,3.904554843902587891e-01,3.941032648086547630e-01,1.000000000000000000e+00,1.000000000000000000e+00,1.000000000000000000e+00,1.000000000000000000e+00,1.000000000000000000e+00,1.000000000000000000e+00,1.000000000000000000e+00,9.697882652282714400e-01,9.380432128906249778e-01,9.083105087280273215e-01,8.804047584533691850e-01,8.541625022888184038e-01,8.294394493103027788e-01,8.061072349548339400e-01,7.840519428253174272e-01,7.631712913513183372e-01,7.433739185333252397e-01
6.192491531372070757e-01,6.349457740783691628e-01,6.514587879180908647e-01,6.688536167144775169e-01,6.872029304504394531e-01,7.065873622894287553e-01,7.270971298217773215e-01,7.488331794738769531e-01,7.719089031219482644e-01,7.964519023895263450e-01,8.226069450378418191e-01,8.505380630493164507e-01,8.804327011108398215e-01,9.125053405761718306e-01,9.470029830932616965e-01,9.842115402221679465e-01,1.000000000000000000e+00,1.000000000000000000e+00,1.000000000000000000e+00,1.000000000000000000e+00,1.000000000000000000e+00,1.000000000000000000e+00,1.000000000000000000e+00,1.000000000000000000e+00,1.000000000000000000e+00,1.000000000000000000e+00,1.000000000000000000e+00,1.000000000000000000e+00,1.000000000000000000e+00,1.000000000000000000e+00,1.000000000000000000e+00,1.000000000000000000e+00,1.000000000000000000e+00,1.000000000000000000e+00,1.000000000000000000e+00,1.000000000000000000e+00,1.000000000000000000e+00,1.000000000000000000e+00,1.000000000000000000e+00,1.000000000000000000e+00,1.000000000000000000e+00,1.000000000000000000e+00,1.000000000000000000e+00,1.000000000000000000e+00,1.000000000000000000e+00,1.000000000000000000e+00,1.000000000000000000e+00,1.000000000000000000e+00,1.000000000000000000e+00,1.000000000000000000e+00,1.000000000000000000e+00,1.000000000000000000e+00,1.000000000000000000e+00,1.000000000000000000e+00,1.000000000000000000e+00,1.000000000000000000e+00,1.000000000000000000e+00,1.000000000000000000e+00,1.000000000000000000e+00,4.675753116607666016e-01,3.967483043670654297e-01,3.908298015594482422e-01,3.933644533157348855e-01,1.000000000000000000e+00,1.000000000000000000e+00,1.000000000000000000e+00,1.000000000000000000e+00,1.000000000000000000e+00,1.000000000000000000e+00,1.000000000000000000e+00,9.698167800903320090e-01,9.380698204040527344e-01,9.083354949951172319e-01,8.804282188415527566e-01,8.541846275329589844e-01,8.294602394104003684e-01,8.061269760131836160e-01,7.840705394744873491e-01,7.631889343261718528e-01,7.433906555175781028e-01
6.192359447479247603e-01,6.349318027496337891e-01,6.514441490173339400e-01,6.688382148742675337e-01,6.871866226196289285e-01,7.065701007843017134e-01,7.270789623260498491e-01,7.488138675689697266e-01,7.718883037567139116e-01,7.964300632476806197e-01,8.225835800170898660e-01,8.505131721496581587e-01,8.804059028625488281e-01,9.124766349792480247e-01,9.469720840454101118e-01,9.841781616210937278e-01,1.000000000000000000e+00,1.000000000000000000e+00,1.000000000000000000e+00,1.000000000000000000e+00,1.000000000000000000e+00,1.000000000000000000e+00,1.000000000000000000e+00,1.000000000000000000e+00,1.000000000000000000e+00,1.000000000000000000e+00,1.000000000000000000e+00,1.000000000000000000e+00,1.000000000000000000e+00,1.000000000000000000e+00,1.000000000000000000e+00,1.000000000000000000e+00,1.000000000000000000e+00,1.000000000000000000e+00,1.000000000000000000e+00,1.000000000000000000e+00,1.000000000000000000e+00,1.000000000000000000e+00,1.000000000000000000e+00,1.000000000000000000e+00,1.000000000000000000e+00,1.000000000000000000e+00,1.000000000000000000e+00,1.000000000000000000e+00,1.000000000000000000e+00,1.000000000000000000e+00,1.000000000000000000e+00,1.000000000000000000e+00,1.000000000000000000e+00,1.000000000000000000e+00,1.000000000000000000e+00,1.000000000000000000e+00,1.000000000000000000e+00,1.000000000000000000e+00,1.000000000000000000e+00,1.000000000000000000e+00,1.000000000000000000e+00,1.000000000000000000e+00,4.847759246826172097e-01,4.697161197662353405e-01,3.977549791336059681e-01,3.920616626739502064e-01,3.927949428558349387e-01,1.000000000000000000e+00,1.000000000000000000e+00,1.000000000000000000e+00,1.000000000000000000e+00,1.000000000000000000e+00,1.000000000000000000e+00,1.000000000000000000e+00,9.698451995849609597e-01,9.380964279174804910e-01,9.083604812622070312e-01,8.804515838623047097e-01,8.542066574096679465e-01,8.294810295104980691e-01,8.061466217041015625e-01,7.840891361236572710e-01,7.632065296173096147e-01,7.434073448181152122e-01
6.192227363586425559e-01,6.349179267883300337e-01,6.514295101165771262e-01,6.688227653503417969e-01,6.871703624725341575e-01,7.065529346466064009e-01,7.270606994628906472e-01,7.487945556640625000e-01,7.718677997589111772e-01,7.964081287384032759e-01,8.225602149963379128e-01,8.504881858825683594e-01,8.803791999816894531e-01,9.124479293823242188e-01,9.469411849975586382e-01,9.841446876525878906e-01,1.000000000000000000e+00,1.000000000000000000e+00,1.000000000000000000e+00,1.000000000000000000e+00,1.000000000000000000e+00,1.000000000000000000e+00,1.000000000000000000e+00,1.000000000000000000e+00,1.000000000000000000e+00,1.000000000000000000e+00,1.000000000000000000e+00,1.000000000000000000e+00,1.000000000000000000e+00,1.000000000000000000e+00,1.000000000000000000e+00,1.000000000000000000e+00,1.000000000000000000e+00,1.000000000000000000e+00,1.000000000000000000e+00,1.000000000000000000e+00,1.000000000000000000e+00,1.000000000000000000e+00,1.000000000000000000e+00,1.000000000000000000e+00,1.000000000000000000e+00,1.000000000000000000e+00,1.000000000000000000e+00,1.000000000000000000e+00,1.000000000000000000e+00,1.000000000000000000e+00,1.000000000000000000e+00,1.000000000000000000e+00,1.000000000000000000e+00,1.000000000000000000e+00,1.000000000000000000e+00,1.000000000000000000e+00,1.000000000000000000e+00,1.000000000000000000e+00,1.000000000000000000e+00,1.000000000000000000e+00,1.000000000000000000e+00,1.000000000000000000e+00,4.814482212066650280e-01,4.723396301269531250e-01,3.987668037414550670e-01,3.925788879394531139e-01,3.922270536422729492e-01,1.000000000000000000e+00,1.000000000000000000e+00,1.000000000000000000e+00,1.000000000000000000e+00,1.000000000000000000e+00,1.000000000000000000e+00,1.000000000000000000e+00,9.698736190795897993e-01,9.381230354309082475e-01,9.083853721618652122e-01,8.804750442504882812e-01,8.542287826538086382e-01,8.295019149780273882e-01,8.061662673950195090e-01,7.841077327728271928e-01,7.632241725921631303e-01,7.434240818023681863e-01
6.192094802856444868e-01,6.349040031433105247e-01,6.514148712158203125e-01,6.688073635101318137e-01,6.871540069580077681e-01,7.065357208251953347e-01,7.270424842834473100e-01,7.487751960754394087e-01,7.718472003936767134e-01,7.963863372802734153e-01,8.225369453430175781e-01,8.504632949829101785e-01,8.803524971008300781e-01,9.124192237854004128e-01,9.469102859497070535e-01,9.710468292236328347e-01,9.708065986633300781e-01,9.705664634704589400e-01,9.703265190124511497e-01,9.700865745544433594e-01,9.698467254638671875e-01,9.696070671081542525e-01,9.693675041198730469e-01,9.691280364990234597e-01,9.688887596130371094e-01,9.686495780944823775e-01,9.684104919433593750e-01,9.681715011596679910e-01,9.679326057434082253e-01,9.676939010620116965e-01,9.674552917480468972e-01,9.672167778015137163e-01,9.669784545898437722e-01,9.667401313781738281e-01,9.665019989013672319e-01,9.662639617919921431e-01,9.660260200500487837e-01,9.657882690429687722e-01,9.655506134033202681e-01,9.653130531311034934e-01,9.650755882263183372e-01,9.648383140563965288e-01,9.646010398864746094e-01,9.643639564514160378e-01,9.641269683837890847e-01,9.638901710510253684e-01,9.636534690856933816e-01,9.634168624877930132e-01,9.631802558898925337e-01,9.629439353942871316e-01,9.627076148986816184e-01,9.624713897705078347e-01,9.622353553771972878e-01,9.619995117187499778e-01,9.617636680603027788e-01,9.615279197692870872e-01,9.612923622131347434e-01,9.610569000244140181e-01,4.829535484313964844e-01,4.749926090240478294e-01,3.998105764389038308e-01,3.924999475479126199e-01,3.916608095169067383e-01,9.596465110778809038e-01,9.594118118286132368e-01,9.591773033142090288e-01,9.589428901672363281e-01,9.587085723876953569e-01,9.584743499755858931e-01,9.582403182983398882e-01,9.580062866210937722e-01,9.381496429443358931e-01,9.084102630615233931e-01,8.804985046386718528e-01,8.542508125305176003e-01,8.295227050781249778e-01,8.061859130859374556e-01,7.841263294219971147e-01,7.632417678833007812e-01,7.434408187866210493e-01
6.191962718963622825e-01,6.348901271820068803e-01,6.514002323150634988e-01,6.687919616699218306e-01,6.871377468109131081e-01,7.065184593200684038e-01,7.270242214202881081e-01,7.487558841705321822e-01,7.542643070220946822e-01,7.541193485260009322e-01,7.539743900299071822e-01,7.538295745849609153e-01,7.536848068237305132e-01,7.535399913787841353e-01,7.533953189849853516e-01,7.532506465911865678e-01,7.531061172485351562e-01,7.529615402221679910e-01,7.528170585632324441e-01,7.526727199554443803e-01,7.525282859802245872e-01,7.523840427398681419e-01,7.522397518157959428e-01,7.520955562591552512e-01,7.519513607025146706e-01,7.518073558807373269e-01,7.516633510589599831e-01,7.515192985534667747e-01,7.513754367828369141e-01,7.512315273284911887e-01,7.510877609252929465e-01,7.509439468383789507e-01,7.508002758026123269e-01,7.506566524505615678e-01,7.505130290985106978e-01,7.503695487976074219e-01,7.502260208129882812e-01,7.500825881958007590e-01,7.499392032623291016e-01,7.497959136962890625e-01,7.496525764465331587e-01,7.495094299316406028e-01,7.493663311004639116e-01,7.492231845855712447e-01,7.490801811218261719e-01,7.489371299743652344e-01,7.487942218780517800e-01,7.486513137817383257e-01,7.485085010528564897e-01,7.483657836914062722e-01,7.482230186462401900e-01,7.480803966522217019e-01,7.479377746582031028e-01,7.477952480316162331e-01,7.476526737213134988e-01,7.475102901458740012e-01,7.473679065704346147e-01,7.472255229949951172e-01,4.855152606964111550e-01,4.834170341491699219e-01,7.467988967895508035e-01,3.959428310394287331e-01,3.977143049240112194e-01,7.463727474212646928e-01,7.462306976318359153e-01,7.460888385772704856e-01,7.459469795227050559e-01,7.458052158355712447e-01,7.456634044647216797e-01,7.455217361450194868e-01,7.453801631927490234e-01,7.452385425567626953e-01,7.450970649719238503e-01,7.449555397033691406e-01,7.448141574859619141e-01,7.446727275848388228e-01,7.445314407348633257e-01,7.443902015686034712e-01,7.442489624023437278e-01,7.434575080871581587e-01
6.167057514190673606e-01,6.166088104248046431e-01,6.165119171142577903e-01,6.164150238037109375e-01,6.163182258605957031e-01,6.162213325500488503e-01,6.161245822906493697e-01,6.160278797149658647e-01,6.159311771392822488e-01,6.158345222473144975e-01,6.157378196716308816e-01,6.156412124633788840e-01,6.155446052551269975e-01,6.154480934143066184e-01,6.153515815734863503e-01,6.152550697326659712e-01,6.151586055755615678e-01,6.150621414184570535e-01,6.149657726287841575e-01,6.148693561553955078e-01,6.147730350494384766e-01,6.146767616271973100e-01,6.145804405212402788e-01,6.144842147827148660e-01,6.143879413604735884e-01,6.142917633056640403e-01,6.141955852508544922e-01,6.140994548797606978e-01,6.140033721923827681e-01,6.139072895050048384e-01,6.138112545013427734e-01,6.137152194976807085e-01,6.136192798614501509e-01,6.135232925415039507e-01,6.134274005889892578e-01,6.133315086364745650e-01,6.132356166839599831e-01,6.131398200988769087e-01,6.130439758300780806e-01,6.129482269287109819e-01,6.128524780273437722e-01,6.127567768096924272e-01,6.126610755920409712e-01,6.125654220581054910e-01,6.124698638916015181e-01,6.123742103576660378e-01,6.122786998748779297e-01,6.121830940246582031e-01,6.120876312255859597e-01,6.119921207427978516e-01,6.118967056274413618e-01,6.118012905120849831e-01,6.117058753967284934e-01,6.116105556488037331e-01,6.115151882171631081e-01,6.114199161529541016e-01,6.113246440887450950e-01,6.112294197082519531e-01,4.783936977386474831e-01,4.744503498077392578e-01,6.109438896179198997e-01,3.945322036743164062e-01,3.898595571517944336e-01,6.106585979461669478e-01,6.105636119842529075e-01,6.104686260223388672e-01,6.103735923767089622e-01,6.102787017822265403e-01,6.101837635040283647e-01,6.100889205932616965e-01,6.099940299987792747e-01,6.098992347717284712e-01,6.098044395446777788e-01,6.097096443176269753e-01,6.096149444580077903e-01,6.095201969146728516e-01,6.094255447387695312e-01,6.093308925628662109e-01,6.092362880706787553e-01,6.091417312622070535e-01
5.210282325744628462e-01,5.209590911865233931e-01,5.208899021148681863e-01,5.208207607269287331e-01,5.207516193389892800e-01,5.206825256347655806e-01,5.206133842468261275e-01,5.205443382263184038e-01,5.204752922058105691e-01,5.204061985015868697e-01,5.203372001647948997e-01,5.202682018280029297e-01,5.201992034912109597e-01,5.201302528381347434e-01,5.200613021850586382e-01,5.199923992156982866e-01,5.199234962463379350e-01,5.198545932769775835e-01,5.197856903076172319e-01,5.197168350219726340e-01,5.196480274200439009e-01,5.195791721343994141e-01,5.195104122161865456e-01,5.194416522979736772e-01,5.193728446960449441e-01,5.193041324615478294e-01,5.192353725433349609e-01,5.191667079925537109e-01,5.190979957580565962e-01,5.190293312072753462e-01,5.189607143402099609e-01,5.188920497894287109e-01,5.188234329223633257e-01,5.187548160552978294e-01,5.186862468719481978e-01,5.186176776885986772e-01,5.185491561889647993e-01,5.184806346893310325e-01,5.184121131896972656e-01,5.183436393737792525e-01,5.182751655578613503e-01,5.182067394256592019e-01,5.181382656097411887e-01,5.180698394775390403e-01,5.180014610290527566e-01,5.179330825805663618e-01,5.178647518157959428e-01,5.177963733673095481e-01,5.177280426025390181e-01,5.176597118377685991e-01,5.175914764404296875e-01,5.175231933593750222e-01,5.174549102783203569e-01,5.173867225646973100e-01,5.173184871673583984e-01,5.172502994537353516e-01,5.171820640563964400e-01,5.171139240264892578e-01,4.699816703796386719e-01,4.605833053588866965e-01,4.690752029418945312e-01,3.875110149383544922e-01,3.806302070617675892e-01,5.167053222656250444e-01,5.166372776031493697e-01,5.165692329406738059e-01,5.165012836456298606e-01,5.164332866668701616e-01,5.163652896881103516e-01,5.162973880767822710e-01,5.162294387817383257e-01,5.161615371704101340e-01,5.160935878753661887e-01,5.160257339477538618e-01,5.159579277038573997e-01,5.158900260925293191e-01,5.158222198486328569e-01,5.157544136047362837e-01,5.156866550445556863e-01,5.156188488006592241e-01
4.510509490966796986e-01,4.509990692138671764e-01,4.509472370147705189e-01,4.508954048156738059e-01,4.508436203002929576e-01,4.507917881011963002e-01,4.507400035858154519e-01,4.506882190704345481e-01,4.506364822387695090e-01,4.505846977233886608e-01,4.505329608917236217e-01,4.504812240600585826e-01,4.504294872283935436e-01,4.503777980804443137e-01,4.503260612487792747e-01,4.502744197845459095e-01,4.502227306365966797e-01,4.501710891723632590e-01,4.501194477081298939e-01,4.500678062438964733e-01,4.500161647796631081e-01,4.499645709991454967e-01,4.499129772186279408e-01,4.498613834381103294e-01,4.498097896575927734e-01,4.497582435607910267e-01,4.497066974639892800e-01,4.496551513671874778e-01,4.496036052703857311e-01,4.495521068572997936e-01,4.495006084442138561e-01,4.494491100311279186e-01,4.493976593017577903e-01,4.493461608886718528e-01,4.492947101593017800e-01,4.492432594299316517e-01,4.491918563842773326e-01,4.491404056549072044e-01,4.490890026092529408e-01,4.490375995635986217e-01,4.489861965179443581e-01,4.489348411560058483e-01,4.488834857940673939e-01,4.488321304321288840e-01,4.487807750701904297e-01,4.487294673919677845e-01,4.486781597137451394e-01,4.486268520355224387e-01,4.485755443572997936e-01,4.485242843627929576e-01,4.484730243682861217e-01,4.484217643737792858e-01,4.483705043792724498e-01,4.483192920684814231e-01,4.482680320739745872e-01,4.482168674468994252e-01,4.481656551361083984e-01,4.481144428253173717e-01,4.480632781982422097e-01,4.480121135711669922e-01,4.479609489440917747e-01,3.768162965774536355e-01,3.690973997116088756e-01,3.648764848709106223e-01,3.624176263809203991e-01,4.477053642272948997e-01,4.476542949676513561e-01,4.476032257080078125e-01,4.475521564483642689e-01,4.475011348724365345e-01,4.474501132965088002e-01,4.473990917205810658e-01,4.473480701446533314e-01,4.472970485687255970e-01,4.472460746765136719e-01,4.471951007843017467e-01,4.471441268920898215e-01,4.470931529998779519e-01,4.470422267913818359e-01,4.469913005828857200e-01
3.976447820663452370e-01,3.976044893264770730e-01,3.975641727447509766e-01,3.975239038467407449e-01,3.974836349487304576e-01,3.974433898925781028e-01,3.974030971527099387e-01,3.973628520965576394e-01,3.973226308822631614e-01,3.972824096679687389e-01,3.972421407699585072e-01,3.972019433975219616e-01,3.971617460250854714e-01,3.971215486526489258e-01,3.970813274383545033e-01,3.970411539077758900e-01,3.970009326934814675e-01,3.969607830047607311e-01,3.969205856323242410e-01,3.968804359436035045e-01,3.968403100967407005e-01,3.968001842498779519e-01,3.967600822448730247e-01,3.967199325561523438e-01,3.966798305511474720e-01,3.966397285461426003e-01,3.965996503829956055e-01,3.965595722198486106e-01,3.965194702148437389e-01,3.964793920516967995e-01,3.964393615722656139e-01,3.963993072509765514e-01,3.963592290878296120e-01,3.963191986083984264e-01,3.962791919708251731e-01,3.962391614913940430e-01,3.961991786956787220e-01,3.961591243743896595e-01,3.961191415786743386e-01,3.960791587829589622e-01,3.960391998291015736e-01,3.959992408752441295e-01,3.959592342376708762e-01,3.959192752838134877e-01,3.958793401718139759e-01,3.958394050598144642e-01,3.957994461059570201e-01,3.957595348358154408e-01,3.957196235656738059e-01,3.956797361373901589e-01,3.956398248672485241e-01,3.955999135971069447e-01,3.955600261688232422e-01,3.955201625823974720e-01,3.954802989959717019e-01,3.954404592514038086e-01,3.954005718231201061e-01,3.953607320785522683e-01,3.953209161758423074e-01,3.952811002731323464e-01,3.952412366867065208e-01,3.952014446258544922e-01,3.951616525650024636e-01,3.951218605041503795e-01,3.950820684432983509e-01,3.950422525405883900e-01,3.950025081634521706e-01,3.949627399444580189e-01,3.949229955673217995e-01,3.948832273483276478e-01,3.948434829711914285e-01,3.948037624359130859e-01,3.947640419006347434e-01,3.947243452072143333e-01,3.946846008300781139e-01,3.946449041366577037e-01,3.946052312850952259e-01,3.945655584335326926e-01,3.945258855819702148e-01,3.944861888885498047e-01
3.555466890335082786e-01,3.555144548416137584e-01,3.554822444915771706e-01,3.554500579833984597e-01,3.554178714752197488e-01,3.553856372833251731e-01,3.553534746170043945e-01,3.553212881088256836e-01,3.552891254425049050e-01,3.552569150924682617e-01,3.552247762680053600e-01,3.551926136016845814e-01,3.551604747772216797e-01,3.551283121109009011e-01,3.550961732864379994e-01,3.550640344619750977e-01,3.550318717956543191e-01,3.549997568130492942e-01,3.549676656723022572e-01,3.549355506896972878e-01,3.549033880233764537e-01,3.548712968826294167e-01,3.548392057418823242e-01,3.548071146011352317e-01,3.547750473022460715e-01,3.547429323196411022e-01,3.547108888626098744e-01,3.546788215637207142e-01,3.546467781066894309e-01,3.546147108078002708e-01,3.545826435089111106e-01,3.545506000518798828e-01,3.545185804367065319e-01,3.544865608215331809e-01,3.544544935226440208e-01,3.544224977493286022e-01,3.543904781341552512e-01,3.543584823608398326e-01,3.543264865875244141e-01,3.542944669723510631e-01,3.542624950408935769e-01,3.542304992675781028e-01,3.541985273361206166e-01,3.541665792465210072e-01,3.541345834732055886e-01,3.541026115417480469e-01,3.540706634521484375e-01,3.540387392044067605e-01,3.540067672729492188e-01,3.539748191833496094e-01,3.539428949356079324e-01,3.539109945297241322e-01,3.538790702819823997e-01,3.538471221923827903e-01,3.538152217864990456e-01,3.537833213806152455e-01,3.537514448165893777e-01,3.537195444107055775e-01,3.536876440048217773e-01,3.536557674407959095e-01,3.536238908767700417e-01,3.535920381546020508e-01,3.535601377487182506e-01,3.535282850265503152e-01,3.534964561462402566e-01,3.534646034240722656e-01,3.534327745437622070e-01,3.534009218215942161e-01,3.533690929412841575e-01,3.533372879028320312e-01,3.533054828643799050e-01,3.532736778259277233e-01,3.532418251037597878e-01,3.532100439071655384e-01,3.531782627105712891e-01,3.531464815139770397e-01,3.531146526336669811e-01,3.530828952789306641e-01,3.530511379241943470e-01,3.530193805694580300e-01
3.215089797973632590e-01,3.214826345443725364e-01,3.214563131332397461e-01,3.214299917221069558e-01,3.214036226272583008e-01,3.213773012161255105e-01,3.213509798049926647e-01,3.213246822357177512e-01,3.212983369827270286e-01,3.212720394134521706e-01,3.212457418441772572e-01,3.212194442749023438e-01,3.211931228637695535e-01,3.211668491363525169e-01,3.211405515670776589e-01,3.211142539978027455e-01,3.210879802703857644e-01,3.210617065429687278e-01,3.210354566574096791e-01,3.210091590881347656e-01,3.209829092025756614e-01,3.209566593170166127e-01,3.209304094314575084e-01,3.209041118621825950e-01,3.208778619766235463e-01,3.208516359329223744e-01,3.208254098892212025e-01,3.207991361618042214e-01,3.207729339599609264e-01,3.207467079162597545e-01,3.207205057144165150e-01,3.206942796707153431e-01,3.206680536270141713e-01,3.206418514251708762e-01,3.206156492233276367e-01,3.205894708633422741e-01,3.205632448196411022e-01,3.205370664596557395e-01,3.205108880996704324e-01,3.204847097396850697e-01,3.204585552215576394e-01,3.204323530197143444e-01,3.204061985015869141e-01,3.203800439834594838e-01,3.203538894653320535e-01,3.203277349472045676e-01,3.203015565872192605e-01,3.202754259109497070e-01,3.202492952346801536e-01,3.202231645584106556e-01,3.201969861984252930e-01,3.201708793640136719e-01,3.201447486877441184e-01,3.201186418533324973e-01,3.200925350189208762e-01,3.200664043426513783e-01,3.200402975082397572e-01,3.200141906738281361e-01,3.199881076812743919e-01,3.199620008468627708e-01,3.199358940124511497e-01,3.199098110198974609e-01,3.198837518692016491e-01,3.198576688766479603e-01,3.198315620422363392e-01,3.198055028915405273e-01,3.197794437408447155e-01,3.197534084320068359e-01,3.197273492813110241e-01,3.197012662887573353e-01,3.196752309799194558e-01,3.196491956710815208e-01,3.196231603622436412e-01,3.195971250534057617e-01,3.195710659027099498e-01,3.195450544357300027e-01,3.195190429687500000e-01,3.194930315017699973e-01,3.194669961929321178e-01,3.194409847259521706e-01
2.934189796447753684e-01,2.933970451354980247e-01,2.933751106262206809e-01,2.933531522750854603e-01,2.933312416076659934e-01,2.933093070983886497e-01,2.932873964309692383e-01,2.932654380798339622e-01,2.932435274124145508e-01,2.932216167449951394e-01,2.931997060775756725e-01,2.931777954101562611e-01,2.931558847427367942e-01,2.931339979171753152e-01,2.931120872497558483e-01,2.930901765823364369e-01,2.930682897567749023e-01,2.930464029312133678e-01,2.930244922637939564e-01,2.930026292800903542e-01,2.929807424545288197e-01,2.929588794708252175e-01,2.929369926452636830e-01,2.929151296615600808e-01,2.928932666778564231e-01,2.928714036941528209e-01,2.928495168685912864e-01,2.928276538848876842e-01,2.928057909011840820e-01,2.927839279174804799e-01,2.927620887756347545e-01,2.927402496337890847e-01,2.927184104919433594e-01,2.926965713500976340e-01,2.926747322082519642e-01,2.926528930664062389e-01,2.926310777664184459e-01,2.926092624664306530e-01,2.925874233245849831e-01,2.925656080245971902e-01,2.925437927246093972e-01,2.925220012664794811e-01,2.925001859664916881e-01,2.924783706665038951e-01,2.924565792083740345e-01,2.924347877502441184e-01,2.924129962921142578e-01,2.923912048339843972e-01,2.923694133758544811e-01,2.923476219177246205e-01,2.923258543014526367e-01,2.923040628433227761e-01,2.922822713851928600e-01,2.922605037689208762e-01,2.922387599945068248e-01,2.922169923782348411e-01,2.921952247619629128e-01,2.921734571456909291e-01,2.921517133712768777e-01,2.921299457550048939e-01,2.921082258224487194e-01,2.920864820480346680e-01,2.920647144317626842e-01,2.920429706573486328e-01,2.920212507247924583e-01,2.919995069503784069e-01,2.919777631759643555e-01,2.919560432434081809e-01,2.919343233108520619e-01,2.919126033782958873e-01,2.918909072875976451e-01,2.918691635131835938e-01,2.918474674224853516e-01,2.918257713317871094e-01,2.918040752410888672e-01,2.917823791503906250e-01,2.917606592178344505e-01,2.917389631271362083e-01,2.917172670364379661e-01,2.916955947875976562e-01
2.698430061340332253e-01,2.698244571685791127e-01,2.698058843612670676e-01,2.697873353958130105e-01,2.697687864303588978e-01,2.697502374649047852e-01,2.697316646575927956e-01,2.697131395339965598e-01,2.696946144104003795e-01,2.696760654449462669e-01,2.696575164794922097e-01,2.696389913558959739e-01,2.696204662322997936e-01,2.696019411087036133e-01,2.695834159851074330e-01,2.695648908615112527e-01,2.695463657379150169e-01,2.695278406143188366e-01,2.695093393325805886e-01,2.694908142089843528e-01,2.694723367691039817e-01,2.694538116455078014e-01,2.694353103637695535e-01,2.694168090820312500e-01,2.693983078002929465e-01,2.693798065185546986e-01,2.693613052368163951e-01,2.693428277969360241e-01,2.693243503570556530e-01,2.693058490753174050e-01,2.692873716354370339e-01,2.692688465118407981e-01,2.692503690719604270e-01,2.692318916320800559e-01,2.692134380340576172e-01,2.691949605941772461e-01,2.691764831542968750e-01,2.691580057144165039e-01,2.691395521163940652e-01,2.691210985183715709e-01,2.691026210784911998e-01,2.690841674804687611e-01,2.690657138824462669e-01,2.690472841262817605e-01,2.690288305282592662e-01,2.690103769302368275e-01,2.689919233322143333e-01,2.689734935760498269e-01,2.689550638198852650e-01,2.689366340637207031e-01,2.689181804656982644e-01,2.688997507095337025e-01,2.688813447952270730e-01,2.688629150390625111e-01,2.688444614410400169e-01,2.688260555267333873e-01,2.688076496124267578e-01,2.687892198562621959e-01,2.687708139419555664e-01,2.687524080276489369e-01,2.687340021133423074e-01,2.687155961990356223e-01,2.686971902847289928e-01,2.686788082122802956e-01,2.686603784561157338e-01,2.686419963836669811e-01,2.686236143112182839e-01,2.686052083969115989e-01,2.685868024826049694e-01,2.685684442520141491e-01,2.685500621795654519e-01,2.685316801071166992e-01,2.685132980346679465e-01,2.684949159622192494e-01,2.684765338897704967e-01,2.684581756591796764e-01,2.684398174285888561e-01,2.684214591979980358e-01,2.684030771255493386e-01,2.683847188949585183e-01
2.497738599777221680e-01,2.497579574584961049e-01,2.497420549392700140e-01,2.497261762619018555e-01,2.497102737426757924e-01,2.496943712234497015e-01,2.496784925460815430e-01,2.496626138687133845e-01,2.496467351913452259e-01,2.496308326721191351e-01,2.496149539947509766e-01,2.495990753173828181e-01,2.495831966400146595e-01,2.495673179626464733e-01,2.495514392852783148e-01,2.495355844497680609e-01,2.495196819305419977e-01,2.495038270950317438e-01,2.494879722595214899e-01,2.494720935821533314e-01,2.494562387466430775e-01,2.494403839111328236e-01,2.494245290756225697e-01,2.494086742401123158e-01,2.493927955627441295e-01,2.493769407272338756e-01,2.493611097335815541e-01,2.493452548980713002e-01,2.493294000625610463e-01,2.493135690689086970e-01,2.492977380752563477e-01,2.492818832397460938e-01,2.492660284042358398e-01,2.492501974105834905e-01,2.492343425750732366e-01,2.492185115814208873e-01,2.492026805877685658e-01,2.491868734359741211e-01,2.491710186004638672e-01,2.491552114486694225e-01,2.491393804550171009e-01,2.491235733032226562e-01,2.491077423095703069e-01,2.490919351577758900e-01,2.490761280059814453e-01,2.490603208541870006e-01,2.490445137023925837e-01,2.490286827087402344e-01,2.490128993988037220e-01,2.489970922470092773e-01,2.489812850952148326e-01,2.489655017852783203e-01,2.489496946334838756e-01,2.489338874816894587e-01,2.489181041717529186e-01,2.489023208618164062e-01,2.488865137100219616e-01,2.488707304000854492e-01,2.488549470901489369e-01,2.488391637802123968e-01,2.488234043121337891e-01,2.488075971603393444e-01,2.487918376922607366e-01,2.487760543823242243e-01,2.487602949142456166e-01,2.487445116043090765e-01,2.487287282943725641e-01,2.487129688262939564e-01,2.486972093582153209e-01,2.486814498901367132e-01,2.486656904220581055e-01,2.486499309539794977e-01,2.486341714859008900e-01,2.486184120178222545e-01,2.486026763916015514e-01,2.485869169235229437e-01,2.485711574554443359e-01,2.485554218292236328e-01,2.485396862030029297e-01,2.485239505767822266e-01
2.324832916259765569e-01,2.324695348739624079e-01,2.324557542800903265e-01,2.324419975280761774e-01,2.324282169342040960e-01,2.324144363403320424e-01,2.324006795883178655e-01,2.323869228363037165e-01,2.323731422424316351e-01,2.323593854904174860e-01,2.323456287384033092e-01,2.323318719863891602e-01,2.323180913925170787e-01,2.323043584823608343e-01,2.322906017303466852e-01,2.322768449783325084e-01,2.322630882263183594e-01,2.322493314743042103e-01,2.322355985641479381e-01,2.322218418121337891e-01,2.322081089019775446e-01,2.321943521499633678e-01,2.321806192398071234e-01,2.321668624877929743e-01,2.321531295776367299e-01,2.321393966674804576e-01,2.321256637573242132e-01,2.321119308471679688e-01,2.320981979370117243e-01,2.320844650268554799e-01,2.320707559585571400e-01,2.320570230484008678e-01,2.320432901382446234e-01,2.320295810699462835e-01,2.320158481597900391e-01,2.320021152496337946e-01,2.319884061813354548e-01,2.319746971130371149e-01,2.319609403610229381e-01,2.319472312927245983e-01,2.319335222244262584e-01,2.319198131561279186e-01,2.319061040878295787e-01,2.318923950195312389e-01,2.318786859512328991e-01,2.318649768829345592e-01,2.318512916564941517e-01,2.318375825881958119e-01,2.318238973617553766e-01,2.318101882934570368e-01,2.317965030670166016e-01,2.317827939987182617e-01,2.317691087722778265e-01,2.317554235458373912e-01,2.317417144775390514e-01,2.317280292510986439e-01,2.317143678665161133e-01,2.317006826400756780e-01,2.316869735717773382e-01,2.316733121871948353e-01,2.316596269607544001e-01,2.316459655761718694e-01,2.316322803497314342e-01,2.316185951232910267e-01,2.316049337387084961e-01,2.315912723541259655e-01,2.315776109695434626e-01,2.315639495849609319e-01,2.315502643585204967e-01,2.315366029739379938e-01,2.315229415893554632e-01,2.315092802047729603e-01,2.314956188201904297e-01,2.314819574356078991e-01,2.314682960510253962e-01,2.314546585083007701e-01,2.314409971237182673e-01,2.314273357391357366e-01,2.314136981964111384e-01,2.314000368118286077e-01
2.174316167831421009e-01,2.174195766448974720e-01,2.174075365066528431e-01,2.173954725265502819e-01,2.173834323883056530e-01,2.173713922500610241e-01,2.173593521118163951e-01,2.173472881317138616e-01,2.173352718353271373e-01,2.173232316970825084e-01,2.173111915588378795e-01,2.172991514205932506e-01,2.172871112823486217e-01,2.172750949859619252e-01,2.172630548477172963e-01,2.172510147094726674e-01,2.172389984130859431e-01,2.172269582748413141e-01,2.172149181365966852e-01,2.172029018402099609e-01,2.171908855438232366e-01,2.171788692474365123e-01,2.171668291091918834e-01,2.171548128128051869e-01,2.171427965164184626e-01,2.171307802200317383e-01,2.171187639236450140e-01,2.171067476272582897e-01,2.170947313308715931e-01,2.170827388763427734e-01,2.170707225799560491e-01,2.170587062835693248e-01,2.170467138290405329e-01,2.170346975326538086e-01,2.170226812362670843e-01,2.170106887817382924e-01,2.169986963272094727e-01,2.169866800308227484e-01,2.169746875762939564e-01,2.169626712799072321e-01,2.169506788253784124e-01,2.169386863708496205e-01,2.169266462326049916e-01,2.169146776199340765e-01,2.169026851654052845e-01,2.168906927108764648e-01,2.168787002563476451e-01,2.168667078018188532e-01,2.168547153472900335e-01,2.168427467346191462e-01,2.168307542800903265e-01,2.168187618255615345e-01,2.168067932128906194e-01,2.167948246002197321e-01,2.167828321456909124e-01,2.167708635330200251e-01,2.167588710784912054e-01,2.167469024658203181e-01,2.167349338531494030e-01,2.167229652404785156e-01,2.167109966278076283e-01,2.166990280151367132e-01,2.166870594024658259e-01,2.166750907897949108e-01,2.166631221771240234e-01,2.166511535644531361e-01,2.166392087936401256e-01,2.166272401809692383e-01,2.166152715682983509e-01,2.166033267974853405e-01,2.165913581848144531e-01,2.165794134140014704e-01,2.165674448013305553e-01,2.165555000305175726e-01,2.165435314178466852e-01,2.165315866470337025e-01,2.165196418762206920e-01,2.165076971054077093e-01,2.164957523345947266e-01,2.164838075637817438e-01
2.042104244232177679e-01,2.041997909545898438e-01,2.041891574859619196e-01,2.041785240173339955e-01,2.041679143905639759e-01,2.041572809219360241e-01,2.041466474533080999e-01,2.041360378265380804e-01,2.041254281997680609e-01,2.041147947311401367e-01,2.041041612625122126e-01,2.040935516357421931e-01,2.040829420089721735e-01,2.040723323822021540e-01,2.040616989135742299e-01,2.040510892868042103e-01,2.040404796600341908e-01,2.040298700332641713e-01,2.040192604064941517e-01,2.040086507797241322e-01,2.039980649948120173e-01,2.039874315261840931e-01,2.039768457412719782e-01,2.039662361145019587e-01,2.039556264877319391e-01,2.039450168609619196e-01,2.039344310760498047e-01,2.039238214492797852e-01,2.039132356643676702e-01,2.039026260375976507e-01,2.038920402526855358e-01,2.038814306259155162e-01,2.038708448410034291e-01,2.038602590560913141e-01,2.038496494293212946e-01,2.038390636444091797e-01,2.038284778594970648e-01,2.038178920745849498e-01,2.038073062896728627e-01,2.037967205047607477e-01,2.037861108779907282e-01,2.037755489349365179e-01,2.037649631500244030e-01,2.037543773651123158e-01,2.037437915802002009e-01,2.037332057952880859e-01,2.037226200103759710e-01,2.037120342254638561e-01,2.037014722824096735e-01,2.036908864974975586e-01,2.036803007125854437e-01,2.036697387695312611e-01,2.036591768264770508e-01,2.036485910415649359e-01,2.036380290985107533e-01,2.036274671554565430e-01,2.036168813705444280e-01,2.036063194274902455e-01,2.035957574844360352e-01,2.035851955413818248e-01,2.035746335983276423e-01,2.035640716552734319e-01,2.035535097122192494e-01,2.035429477691650391e-01,2.035323858261108287e-01,2.035218238830566462e-01,2.035112857818603405e-01,2.035007238388061579e-01,2.034901618957519476e-01,2.034795999526977650e-01,2.034690618515014593e-01,2.034585237503051813e-01,2.034479618072509710e-01,2.034373998641967884e-01,2.034268617630004827e-01,2.034163236618042048e-01,2.034057617187499944e-01,2.033952236175537165e-01,2.033846855163574108e-01,2.033741474151611328e-01
1.925049304962158092e-01,1.924954771995544545e-01,1.924860239028930720e-01,1.924765825271606556e-01,1.924671411514282116e-01,1.924576878547668568e-01,1.924482583999633789e-01,1.924388170242309626e-01,1.924293875694274847e-01,1.924199461936950684e-01,1.924105048179626520e-01,1.924010753631591741e-01,1.923916339874267578e-01,1.923821926116943415e-01,1.923727750778198298e-01,1.923633337020874134e-01,1.923538923263549694e-01,1.923444747924804576e-01,1.923350453376770075e-01,1.923256278038024958e-01,1.923161864280700795e-01,1.923067569732666016e-01,1.922973394393920898e-01,1.922879099845886119e-01,1.922784805297851618e-01,1.922690749168395885e-01,1.922596335411071722e-01,1.922502279281616266e-01,1.922407984733581487e-01,1.922313809394836370e-01,1.922219753265380915e-01,1.922125458717346136e-01,1.922031164169311634e-01,1.921937227249145563e-01,1.921842932701110784e-01,1.921748757362365667e-01,1.921654820442199596e-01,1.921560525894165095e-01,1.921466588973999023e-01,1.921372413635253906e-01,1.921278238296508789e-01,1.921184301376342718e-01,1.921090126037597601e-01,1.920995950698852484e-01,1.920902132987976074e-01,1.920807957649230957e-01,1.920713782310485840e-01,1.920619964599609431e-01,1.920525789260864313e-01,1.920431733131408580e-01,1.920337677001953125e-01,1.920243620872497670e-01,1.920149803161620983e-01,1.920055747032165527e-01,1.919961929321289118e-01,1.919867873191833385e-01,1.919773817062377930e-01,1.919679999351501520e-01,1.919586062431335449e-01,1.919492244720459040e-01,1.919398307800292969e-01,1.919304251670837513e-01,1.919210553169250488e-01,1.919116616249084417e-01,1.919022560119628962e-01,1.918928861618041937e-01,1.918834924697875866e-01,1.918741226196289118e-01,1.918647289276123047e-01,1.918553471565246638e-01,1.918459773063659612e-01,1.918365836143493541e-01,1.918272137641906794e-01,1.918178319931030384e-01,1.918084502220153698e-01,1.917990803718566950e-01,1.917896986007690541e-01,1.917803406715393177e-01,1.917709589004516491e-01,1.917615771293640081e-01
1.820685863494873047e-01,1.820601463317871038e-01,1.820516943931579645e-01,1.820432543754577637e-01,1.820348024368286244e-01,1.820263504981994573e-01,1.820179224014282227e-01,1.820094704627990834e-01,1.820010185241699163e-01,1.819925904273986816e-01,1.819841384887695424e-01,1.819757103919982799e-01,1.819672584533691406e-01,1.819588184356689398e-01,1.819503903388977051e-01,1.819419384002685658e-01,1.819334983825683649e-01,1.819250702857971302e-01,1.819166302680969294e-01,1.819081902503967285e-01,1.818997740745544323e-01,1.818913340568542591e-01,1.818829059600829967e-01,1.818744659423828236e-01,1.818660259246826227e-01,1.818576097488403265e-01,1.818491816520690918e-01,1.818407416343688909e-01,1.818323254585266224e-01,1.818238973617553600e-01,1.818154811859130915e-01,1.818070411682128906e-01,1.817986130714416559e-01,1.817901968955993597e-01,1.817817687988281250e-01,1.817733407020568903e-01,1.817649364471435602e-01,1.817565083503723256e-01,1.817480802536010631e-01,1.817396759986877330e-01,1.817312479019164984e-01,1.817228436470031683e-01,1.817144155502319336e-01,1.817059993743896373e-01,1.816975951194763073e-01,1.816891670227050726e-01,1.816807508468628041e-01,1.816723465919494740e-01,1.816639304161071777e-01,1.816555142402648815e-01,1.816471099853515514e-01,1.816386938095092829e-01,1.816303014755248912e-01,1.816218614578247181e-01,1.816134452819824219e-01,1.816050529479980580e-01,1.815966367721557617e-01,1.815882325172424316e-01,1.815798401832580677e-01,1.815714240074157715e-01,1.815630316734314076e-01,1.815546274185180775e-01,1.815462231636047474e-01,1.815378308296203558e-01,1.815294265747070257e-01,1.815210342407226618e-01,1.815126299858093317e-01,1.815042257308960016e-01,1.814958453178405762e-01,1.814874410629272461e-01,1.814790606498718206e-01,1.814706563949584905e-01,1.814622521400451605e-01,1.814538717269897350e-01,1.814454793930053711e-01,1.814370989799499456e-01,1.814286947250366155e-01,1.814203023910522516e-01,1.814119219779968262e-01,1.814035296440124623e-01
1.727056503295898438e-01,1.726980566978454645e-01,1.726904511451721191e-01,1.726828455924987737e-01,1.726752519607543945e-01,1.726676464080810491e-01,1.726600646972656361e-01,1.726524591445922907e-01,1.726448535919189453e-01,1.726372718811035045e-01,1.726296663284301869e-01,1.726220607757568415e-01,1.726144790649414007e-01,1.726068735122680553e-01,1.725992918014526423e-01,1.725916981697082631e-01,1.725840926170349177e-01,1.725765228271484431e-01,1.725689172744750977e-01,1.725613236427307184e-01,1.725537419319152777e-01,1.725461483001708984e-01,1.725385546684265192e-01,1.725309729576110784e-01,1.725233793258666992e-01,1.725158095359802246e-01,1.725082159042358454e-01,1.725006222724914662e-01,1.724930524826049916e-01,1.724854588508605846e-01,1.724778771400451716e-01,1.724703073501586970e-01,1.724627137184143177e-01,1.724551320075988770e-01,1.724475622177124023e-01,1.724399685859680231e-01,1.724323987960815485e-01,1.724248170852661077e-01,1.724172353744506947e-01,1.724096655845642201e-01,1.724020838737487793e-01,1.723945021629333385e-01,1.723869442939758301e-01,1.723793625831603893e-01,1.723717927932739147e-01,1.723642230033874401e-01,1.723566412925720270e-01,1.723490834236144909e-01,1.723415017127990778e-01,1.723339200019836370e-01,1.723263621330261286e-01,1.723187923431396540e-01,1.723112106323242132e-01,1.723036646842956432e-01,1.722960829734802302e-01,1.722885251045226940e-01,1.722809553146362194e-01,1.722733736038208063e-01,1.722658157348632701e-01,1.722582459449767955e-01,1.722506761550903209e-01,1.722431302070617787e-01,1.722355604171753041e-01,1.722280025482177679e-01,1.722204446792602595e-01,1.722128748893737848e-01,1.722053289413452148e-01,1.721977591514587402e-01,1.721902132034301702e-01,1.721826553344726618e-01,1.721750855445861872e-01,1.721675395965576172e-01,1.721599817276001088e-01,1.721524238586425726e-01,1.721448779106140026e-01,1.721373200416564941e-01,1.721297740936279241e-01,1.721222162246704157e-01,1.721146583557128795e-01,1.721071243286132757e-01
1.642585992813110352e-01,1.642517328262328991e-01,1.642448544502258245e-01,1.642379760742187500e-01,1.642311096191406139e-01,1.642242312431335394e-01,1.642173409461974987e-01,1.642104864120483287e-01,1.642036080360412542e-01,1.641967415809631459e-01,1.641898632049560436e-01,1.641829848289489691e-01,1.641761302947997991e-01,1.641692519187927246e-01,1.641623735427856501e-01,1.641555190086364802e-01,1.641486406326294056e-01,1.641417741775512695e-01,1.641349196434020996e-01,1.641280412673950251e-01,1.641211867332458552e-01,1.641143202781677191e-01,1.641074419021606445e-01,1.641005873680114746e-01,1.640937209129333385e-01,1.640868544578552302e-01,1.640799999237060602e-01,1.640731334686279241e-01,1.640662789344787542e-01,1.640594124794006459e-01,1.640525460243225098e-01,1.640457034111023060e-01,1.640388369560241699e-01,1.640319705009460338e-01,1.640251278877258301e-01,1.640182614326476940e-01,1.640113949775695856e-01,1.640045523643493541e-01,1.639976859092712458e-01,1.639908432960510143e-01,1.639839887619018444e-01,1.639771223068237360e-01,1.639702796936035045e-01,1.639634251594543346e-01,1.639565706253051647e-01,1.639497280120849609e-01,1.639428734779357910e-01,1.639360070228576549e-01,1.639291763305664174e-01,1.639223217964172474e-01,1.639154791831970159e-01,1.639086246490478460e-01,1.639017701148986761e-01,1.638949394226074108e-01,1.638880848884582409e-01,1.638812303543090709e-01,1.638743996620178334e-01,1.638675451278686634e-01,1.638607144355773981e-01,1.638538599014282282e-01,1.638469934463500921e-01,1.638401508331298884e-01,1.638333201408386230e-01,1.638264656066894531e-01,1.638196349143981878e-01,1.638127923011779841e-01,1.638059496879577526e-01,1.637991189956665150e-01,1.637922763824462835e-01,1.637854456901550182e-01,1.637786030769348145e-01,1.637717604637146107e-01,1.637649297714233454e-01,1.637580871582031139e-01,1.637512683868408148e-01,1.637444257736206110e-01,1.637375831604003795e-01,1.637307643890380804e-01,1.637239217758178766e-01,1.637171030044555775e-01
1.565993189811706598e-01,1.565930604934692438e-01,1.565868258476257324e-01,1.565805673599243164e-01,1.565743327140808050e-01,1.565680742263793890e-01,1.565618157386779730e-01,1.565555810928344616e-01,1.565493345260620117e-01,1.565430760383605957e-01,1.565368413925170843e-01,1.565305948257446345e-01,1.565243482589721569e-01,1.565181016921997070e-01,1.565118551254272572e-01,1.565056204795837458e-01,1.564993739128112682e-01,1.564931273460388184e-01,1.564868927001953069e-01,1.564806461334228571e-01,1.564743995666503795e-01,1.564681649208068959e-01,1.564619183540344183e-01,1.564556837081909069e-01,1.564494490623474232e-01,1.564432024955749456e-01,1.564369678497314342e-01,1.564307332038879506e-01,1.564244866371154730e-01,1.564182639122009277e-01,1.564120173454284779e-01,1.564057826995849665e-01,1.563995480537414551e-01,1.563933134078979437e-01,1.563870906829833984e-01,1.563808441162109486e-01,1.563746094703674372e-01,1.563683867454528920e-01,1.563621520996093806e-01,1.563559055328369030e-01,1.563496947288513239e-01,1.563434481620788463e-01,1.563372373580932673e-01,1.563310027122497559e-01,1.563247680664062444e-01,1.563185453414916992e-01,1.563123106956481878e-01,1.563060760498046764e-01,1.562998533248901312e-01,1.562936305999755859e-01,1.562873959541320745e-01,1.562811732292175293e-01,1.562749505043029841e-01,1.562687277793884388e-01,1.562625050544738659e-01,1.562562704086303822e-01,1.562500596046447754e-01,1.562438368797302302e-01,1.562376022338867188e-01,1.562313914299011119e-01,1.562251687049865667e-01,1.562189579010009877e-01,1.562127232551574763e-01,1.562065005302429310e-01,1.562002658843994196e-01,1.561940550804138128e-01,1.561878323554992676e-01,1.561816215515136608e-01,1.561753988265991155e-01,1.561691761016845703e-01,1.561629652976989635e-01,1.561567544937133845e-01,1.561505436897277777e-01,1.561443209648132324e-01,1.561381101608276256e-01,1.561318993568420466e-01,1.561256766319275013e-01,1.561194658279418945e-01,1.561132550239562877e-01,1.561070442199707087e-01
1.496224999427795410e-01,1.496167898178100697e-01,1.496110916137695368e-01,1.496053814888000377e-01,1.495996713638305664e-01,1.495939850807189997e-01,1.495882749557495006e-01,1.495825767517089955e-01,1.495768666267394964e-01,1.495711565017700251e-01,1.495654702186584584e-01,1.495597600936889593e-01,1.495540499687194880e-01,1.495483636856079213e-01,1.495426535606384222e-01,1.495369553565978893e-01,1.495312571525573841e-01,1.495255589485168513e-01,1.495198726654052845e-01,1.495141625404357855e-01,1.495084643363952526e-01,1.495027780532836859e-01,1.494970679283142145e-01,1.494913697242736816e-01,1.494856834411621149e-01,1.494799852371215820e-01,1.494742989540100153e-01,1.494686007499694824e-01,1.494629025459289495e-01,1.494572162628173828e-01,1.494515180587768499e-01,1.494458198547363170e-01,1.494401335716247503e-01,1.494344353675842174e-01,1.494287371635437123e-01,1.494230508804321178e-01,1.494173645973205511e-01,1.494116783142089844e-01,1.494059801101684515e-01,1.494002938270568848e-01,1.493946075439453181e-01,1.493889093399047852e-01,1.493832230567932184e-01,1.493775367736816517e-01,1.493718504905700573e-01,1.493661761283874567e-01,1.493604779243469238e-01,1.493547916412353571e-01,1.493491172790527288e-01,1.493434190750121959e-01,1.493377327919006292e-01,1.493320584297180287e-01,1.493263721466064342e-01,1.493206739425659291e-01,1.493149995803833008e-01,1.493093132972717341e-01,1.493036389350891058e-01,1.492979526519775391e-01,1.492922663688659723e-01,1.492865920066833441e-01,1.492809176445007435e-01,1.492752313613891491e-01,1.492695569992065485e-01,1.492638707160949818e-01,1.492581844329833873e-01,1.492525219917297252e-01,1.492468357086181585e-01,1.492411732673644964e-01,1.492354750633239635e-01,1.492297887802123968e-01,1.492241144180297963e-01,1.492184400558471680e-01,1.492127656936645397e-01,1.492070913314819391e-01,1.492014169692993109e-01,1.491957426071167103e-01,1.491900682449340820e-01,1.491843938827514537e-01,1.491787314414977916e-01,1.491730570793151911e-01
1.432408332824706976e-01,1.432355999946594294e-01,1.432303786277770996e-01,1.432251453399658314e-01,1.432199120521545355e-01,1.432146906852722057e-01,1.432094573974609375e-01,1.432042241096496693e-01,1.431990146636962780e-01,1.431937813758850098e-01,1.431885600090026800e-01,1.431833267211914118e-01,1.431781053543090820e-01,1.431728839874267523e-01,1.431676506996154841e-01,1.431624293327331543e-01,1.431572079658508245e-01,1.431519865989684948e-01,1.431467533111572266e-01,1.431415438652038630e-01,1.431363105773925670e-01,1.431311011314392034e-01,1.431258678436279352e-01,1.431206464767456055e-01,1.431154370307922419e-01,1.431102037429809459e-01,1.431049823760986439e-01,1.430997729301452526e-01,1.430945515632629506e-01,1.430893421173095592e-01,1.430841088294982910e-01,1.430788874626159612e-01,1.430736780166625977e-01,1.430684566497802679e-01,1.430632352828979381e-01,1.430580258369445745e-01,1.430528044700622448e-01,1.430475831031799427e-01,1.430423855781555176e-01,1.430371642112731878e-01,1.430319547653198242e-01,1.430267333984374944e-01,1.430215120315551647e-01,1.430163145065307673e-01,1.430110931396484375e-01,1.430058717727661077e-01,1.430006742477417103e-01,1.429954528808593806e-01,1.429902434349060170e-01,1.429850339889526256e-01,1.429798245429992620e-01,1.429746150970458984e-01,1.429694056510925348e-01,1.429641842842102051e-01,1.429589867591857799e-01,1.429537773132324163e-01,1.429485559463500866e-01,1.429433584213256891e-01,1.429381489753723256e-01,1.429329514503479004e-01,1.429277300834655706e-01,1.429225206375122070e-01,1.429173231124877819e-01,1.429121136665344183e-01,1.429069042205810547e-01,1.429017066955566295e-01,1.428964972496032659e-01,1.428912878036499023e-01,1.428860902786254772e-01,1.428808808326721136e-01,1.428756833076477162e-01,1.428704738616943248e-01,1.428652644157409612e-01,1.428600549697875977e-01,1.428548574447631725e-01,1.428496599197387751e-01,1.428444623947143499e-01,1.428392529487609863e-01,1.428340554237365612e-01,1.428288578987121638e-01
1.373812794685363714e-01,1.373764634132385309e-01,1.373716473579406627e-01,1.373668432235717884e-01,1.373620390892028864e-01,1.373572349548339844e-01,1.373524188995361439e-01,1.373476028442382757e-01,1.373428106307983398e-01,1.373379945755004994e-01,1.373331785202026312e-01,1.373283863067626953e-01,1.373235702514648549e-01,1.373187780380248912e-01,1.373139619827270508e-01,1.373091578483581487e-01,1.373043537139892467e-01,1.372995495796203724e-01,1.372947335243225042e-01,1.372899413108825684e-01,1.372851252555847279e-01,1.372803211212158259e-01,1.372755289077758900e-01,1.372707128524780218e-01,1.372659206390380859e-01,1.372611165046691839e-01,1.372563123703002819e-01,1.372515201568603460e-01,1.372467041015625056e-01,1.372418999671936035e-01,1.372371077537536677e-01,1.372323036193847656e-01,1.372274994850158636e-01,1.372227072715759277e-01,1.372179031372070257e-01,1.372131109237670898e-01,1.372083067893981878e-01,1.372035026550292858e-01,1.371987223625183161e-01,1.371939182281494141e-01,1.371891140937805120e-01,1.371843218803405762e-01,1.371795177459716741e-01,1.371747374534607045e-01,1.371699333190918024e-01,1.371651291847229004e-01,1.371603488922119030e-01,1.371555447578430287e-01,1.371507525444030651e-01,1.371459603309631292e-01,1.371411681175231934e-01,1.371363639831542913e-01,1.371315836906433216e-01,1.371267795562744196e-01,1.371219992637634222e-01,1.371171951293945201e-01,1.371124029159545843e-01,1.371076226234436146e-01,1.371028184890747126e-01,1.370980262756347767e-01,1.370932459831237793e-01,1.370884537696838434e-01,1.370836496353149414e-01,1.370788693428039440e-01,1.370740771293640081e-01,1.370692968368530384e-01,1.370645046234130748e-01,1.370597124099731390e-01,1.370549321174621693e-01,1.370501399040222057e-01,1.370453476905822698e-01,1.370405673980713002e-01,1.370357751846313366e-01,1.370309948921203669e-01,1.370262026786804310e-01,1.370214104652404674e-01,1.370166182518005316e-01,1.370118379592895619e-01,1.370070457458495983e-01,1.370022654533386286e-01
1.319822788238525502e-01,1.319778323173523005e-01,1.319733858108520508e-01,1.319689631462097057e-01,1.319645166397094838e-01,1.319600701332092341e-01,1.319556474685668890e-01,1.319512009620666393e-01,1.319467663764953558e-01,1.319423317909240723e-01,1.319378852844238226e-01,1.319334506988525391e-01,1.319290161132812556e-01,1.319245815277099720e-01,1.319201469421386608e-01,1.319157123565673773e-01,1.319112658500671276e-01,1.319068431854248102e-01,1.319023966789245605e-01,1.318979740142822155e-01,1.318935394287109319e-01,1.318890929222106823e-01,1.318846702575683649e-01,1.318802356719970814e-01,1.318758010864257701e-01,1.318713665008544866e-01,1.318669319152832031e-01,1.318625092506408580e-01,1.318580746650695745e-01,1.318536400794982910e-01,1.318492174148559459e-01,1.318447828292846624e-01,1.318403482437133789e-01,1.318359255790710338e-01,1.318314909934997503e-01,1.318270564079284668e-01,1.318226337432861217e-01,1.318181991577148382e-01,1.318137764930725209e-01,1.318093419075012096e-01,1.318049073219299261e-01,1.318004846572876088e-01,1.317960619926452637e-01,1.317916274070739802e-01,1.317872047424316351e-01,1.317827820777893177e-01,1.317783474922180065e-01,1.317739248275756891e-01,1.317695021629333441e-01,1.317650794982910267e-01,1.317606449127197155e-01,1.317562222480773981e-01,1.317517995834350530e-01,1.317473769187927357e-01,1.317429423332214244e-01,1.317385315895080455e-01,1.317340970039367620e-01,1.317296862602233831e-01,1.317252635955810658e-01,1.317208290100097545e-01,1.317164182662963756e-01,1.317119956016540583e-01,1.317075610160827748e-01,1.317031502723693959e-01,1.316987276077270508e-01,1.316943049430847057e-01,1.316898822784423884e-01,1.316854596138000433e-01,1.316810488700866644e-01,1.316766262054443470e-01,1.316722035408020020e-01,1.316677927970886230e-01,1.316633701324462780e-01,1.316589474678039606e-01,1.316545367240905817e-01,1.316501140594482366e-01,1.316457033157348577e-01,1.316412806510925404e-01,1.316368579864501953e-01,1.316324234008789118e-01
