6.199829578399658203e-01,6.357192993164062500e-01,6.522757053375244363e-01,6.697175025939940962e-01,6.881178379058837669e-01,7.075577259063721147e-01,7.281279087066649947e-01,7.499300479888916238e-01,7.730780601501464622e-01,7.977006435394287109e-01,8.239431381225585938e-01,8.519711494445800781e-01,8.819731712341308816e-01,9.141653060913086382e-01,9.487964630126952681e-01,3.664255619049072155e-01,3.664154767990112083e-01,3.677843809127807617e-01,3.760625839233398549e-01,3.712537288665771484e-01,3.696048974990844838e-01,3.692900896072387473e-01,3.707729816436767800e-01,3.732187032699584850e-01,3.765765428543090820e-01,3.823662042617798074e-01,3.919904947280883900e-01,4.123571395874023326e-01,4.147298336029052734e-01,4.231923103332519420e-01,1.000000000000000000e+00,1.000000000000000000e+00,1.000000000000000000e+00,1.000000000000000000e+00,1.000000000000000000e+00,1.000000000000000000e+00,1.000000000000000000e+00,1.000000000000000000e+00,1.000000000000000000e+00,1.000000000000000000e+00,1.000000000000000000e+00,1.000000000000000000e+00,1.000000000000000000e+00,1.000000000000000000e+00,1.000000000000000000e+00,1.000000000000000000e+00,1.000000000000000000e+00,1.000000000000000000e+00,1.000000000000000000e+00,1.000000000000000000e+00,1.000000000000000000e+00,1.000000000000000000e+00,1.000000000000000000e+00,1.000000000000000000e+00,1.000000000000000000e+00,1.000000000000000000e+00,1.000000000000000000e+00,1.000000000000000000e+00,1.000000000000000000e+00,1.000000000000000000e+00,1.000000000000000000e+00,1.000000000000000000e+00,1.000000000000000000e+00,1.000000000000000000e+00,1.000000000000000000e+00,1.000000000000000000e+00,1.000000000000000000e+00,1.000000000000000000e+00,1.000000000000000000e+00,1.000000000000000000e+00,9.681800842285156472e-01,9.365553855895996094e-01,9.069313049316406472e-01,8.791119575500487837e-01,8.529449462890624778e-01,8.282904624938964844e-01,8.050212860107421875e-01,7.830238342285156250e-01,7.621965885162353960e-01,7.424484729766845925e-01
6.199697971343993697e-01,6.357029914855957253e-01,6.522582054138184038e-01,6.696990966796875222e-01,6.880983829498290572e-01,7.075371265411376509e-01,7.281061172485351340e-01,7.499069213867187722e-01,7.730534553527832475e-01,7.976743698120116743e-01,8.239151954650878462e-01,8.519412994384765181e-01,8.819411277770996538e-01,9.141308784484862837e-01,9.487593650817871538e-01,3.664802074432372825e-01,3.663539171218871959e-01,3.685621023178100586e-01,3.808461189270019309e-01,3.732551574707031472e-01,3.701887845993042103e-01,3.700251340866088645e-01,3.712002992630004661e-01,3.736631631851196067e-01,3.770236253738403209e-01,3.818779945373534934e-01,3.903779506683349720e-01,4.123218536376953014e-01,4.158804893493652233e-01,4.246946811676025613e-01,1.000000000000000000e+00,1.000000000000000000e+00,1.000000000000000000e+00,1.000000000000000000e+00,1.000000000000000000e+00,1.000000000000000000e+00,1.000000000000000000e+00,1.000000000000000000e+00,1.000000000000000000e+00,1.000000000000000000e+00,1.000000000000000000e+00,1.000000000000000000e+00,1.000000000000000000e+00,1.000000000000000000e+00,1.000000000000000000e+00,1.000000000000000000e+00,1.000000000000000000e+00,1.000000000000000000e+00,1.000000000000000000e+00,1.000000000000000000e+00,1.000000000000000000e+00,1.000000000000000000e+00,1.000000000000000000e+00,1.000000000000000000e+00,1.000000000000000000e+00,1.000000000000000000e+00,1.000000000000000000e+00,1.000000000000000000e+00,1.000000000000000000e+00,1.000000000000000000e+00,1.000000000000000000e+00,1.000000000000000000e+00,1.000000000000000000e+00,1.000000000000000000e+00,1.000000000000000000e+00,1.000000000000000000e+00,1.000000000000000000e+00,1.000000000000000000e+00,1.000000000000000000e+00,1.000000000000000000e+00,9.682299613952636275e-01,9.366020202636718972e-01,9.069602012634276900e-01,8.791352272033691184e-01,8.529667854309082031e-01,8.283110618591308372e-01,8.050407409667968972e-01,7.830422878265380637e-01,7.622139930725098100e-01,7.424650669097900835e-01
6.199565410614014116e-01,6.356891632080078347e-01,6.522410392761230913e-01,6.696806430816650835e-01,6.880788326263427290e-01,7.075165271759032981e-01,7.280843257904052734e-01,7.498836994171143022e-01,7.730288982391357866e-01,7.976481914520263672e-01,8.238873481750488281e-01,8.519114494323730691e-01,8.819090843200683150e-01,9.140964508056640403e-01,9.487223625183105469e-01,3.664160490036010853e-01,3.663748264312743919e-01,3.696912527084350586e-01,3.836335659027099720e-01,3.719447135925292858e-01,3.689088821411132812e-01,3.691138744354248158e-01,3.713982820510864369e-01,3.742594242095947377e-01,3.777141332626342551e-01,3.827127456665039285e-01,3.904698610305786244e-01,4.122743129730224720e-01,4.162000179290771262e-01,1.000000000000000000e+00,1.000000000000000000e+00,1.000000000000000000e+00,1.000000000000000000e+00,1.000000000000000000e+00,1.000000000000000000e+00,1.000000000000000000e+00,1.000000000000000000e+00,1.000000000000000000e+00,1.000000000000000000e+00,1.000000000000000000e+00,1.000000000000000000e+00,1.000000000000000000e+00,1.000000000000000000e+00,1.000000000000000000e+00,1.000000000000000000e+00,1.000000000000000000e+00,1.000000000000000000e+00,1.000000000000000000e+00,1.000000000000000000e+00,1.000000000000000000e+00,1.000000000000000000e+00,1.000000000000000000e+00,1.000000000000000000e+00,1.000000000000000000e+00,1.000000000000000000e+00,1.000000000000000000e+00,1.000000000000000000e+00,1.000000000000000000e+00,1.000000000000000000e+00,1.000000000000000000e+00,1.000000000000000000e+00,1.000000000000000000e+00,1.000000000000000000e+00,1.000000000000000000e+00,1.000000000000000000e+00,1.000000000000000000e+00,1.000000000000000000e+00,1.000000000000000000e+00,1.000000000000000000e+00,1.000000000000000000e+00,9.682794570922851340e-01,9.366304397583007368e-01,9.069849014282226340e-01,8.791584968566894531e-01,8.529886245727539285e-01,8.283317565917969194e-01,8.050602912902832253e-01,7.830607414245605025e-01,7.622314929962158425e-01,7.424816608428954634e-01
6.199433803558349609e-01,6.356752872467040794e-01,6.522264003753661665e-01,6.696624279022216353e-01,6.880593299865722656e-01,7.074959278106689453e-01,7.280625343322754128e-01,7.498605728149414507e-01,7.730042934417724609e-01,7.976220607757568137e-01,8.238593101501464622e-01,8.518815994262695090e-01,8.818771362304687056e-01,9.140621185302734153e-01,9.486852645874023215e-01,3.660020351409912220e-01,3.672739267349243164e-01,3.713710069656371848e-01,3.757511138916015403e-01,3.700139999389648326e-01,3.675334930419921764e-01,3.680974245071411133e-01,3.700453042984008789e-01,3.745065212249755748e-01,3.767024040222167747e-01,3.809982299804687278e-01,3.897240877151489369e-01,4.144802570343017467e-01,4.171980381011962669e-01,1.000000000000000000e+00,1.000000000000000000e+00,1.000000000000000000e+00,1.000000000000000000e+00,1.000000000000000000e+00,1.000000000000000000e+00,1.000000000000000000e+00,1.000000000000000000e+00,1.000000000000000000e+00,1.000000000000000000e+00,1.000000000000000000e+00,1.000000000000000000e+00,1.000000000000000000e+00,1.000000000000000000e+00,1.000000000000000000e+00,1.000000000000000000e+00,1.000000000000000000e+00,1.000000000000000000e+00,1.000000000000000000e+00,1.000000000000000000e+00,1.000000000000000000e+00,1.000000000000000000e+00,1.000000000000000000e+00,1.000000000000000000e+00,1.000000000000000000e+00,1.000000000000000000e+00,1.000000000000000000e+00,1.000000000000000000e+00,1.000000000000000000e+00,1.000000000000000000e+00,1.000000000000000000e+00,1.000000000000000000e+00,1.000000000000000000e+00,1.000000000000000000e+00,1.000000000000000000e+00,1.000000000000000000e+00,1.000000000000000000e+00,1.000000000000000000e+00,1.000000000000000000e+00,1.000000000000000000e+00,1.000000000000000000e+00,9.683076858520507368e-01,9.366568565368652566e-01,9.070096969604491965e-01,8.791817665100097878e-01,8.530105590820312722e-01,8.283523559570312722e-01,8.050797462463379350e-01,7.830791473388671875e-01,7.622489929199218750e-01,7.424982547760009544e-01
6.199302196502685103e-01,6.356614589691161887e-01,6.522118091583252175e-01,6.696470737457275169e-01,6.880400657653809038e-01,7.074752807617187278e-01,7.280406951904296875e-01,7.498374462127685991e-01,7.729796409606933816e-01,7.975958824157715066e-01,8.238314628601074441e-01,8.518517494201660600e-01,8.818450927734374778e-01,9.140276908874511719e-01,9.486482620239258257e-01,3.596741676330566517e-01,3.613558530807495228e-01,3.695596218109130637e-01,3.748799800872802956e-01,3.714461088180541770e-01,3.707338333129882590e-01,3.695797204971313366e-01,3.696726083755493275e-01,3.730357646942138450e-01,3.758653402328491211e-01,3.802031993865966908e-01,3.879808902740478627e-01,4.167099475860595592e-01,4.188063144683837891e-01,1.000000000000000000e+00,1.000000000000000000e+00,1.000000000000000000e+00,1.000000000000000000e+00,1.000000000000000000e+00,1.000000000000000000e+00,1.000000000000000000e+00,1.000000000000000000e+00,1.000000000000000000e+00,1.000000000000000000e+00,1.000000000000000000e+00,1.000000000000000000e+00,1.000000000000000000e+00,1.000000000000000000e+00,1.000000000000000000e+00,1.000000000000000000e+00,1.000000000000000000e+00,1.000000000000000000e+00,1.000000000000000000e+00,1.000000000000000000e+00,1.000000000000000000e+00,1.000000000000000000e+00,1.000000000000000000e+00,1.000000000000000000e+00,1.000000000000000000e+00,1.000000000000000000e+00,1.000000000000000000e+00,1.000000000000000000e+00,1.000000000000000000e+00,1.000000000000000000e+00,1.000000000000000000e+00,1.000000000000000000e+00,1.000000000000000000e+00,1.000000000000000000e+00,1.000000000000000000e+00,1.000000000000000000e+00,1.000000000000000000e+00,1.000000000000000000e+00,1.000000000000000000e+00,1.000000000000000000e+00,1.000000000000000000e+00,9.683358192443847212e-01,9.366832733154296653e-01,9.070343971252441406e-01,8.792050361633301225e-01,8.530323982238769975e-01,8.283729553222656250e-01,8.050992012023925337e-01,7.830976009368896262e-01,7.622664928436279075e-01,7.425148487091064453e-01
6.199170589447021706e-01,6.356475353240966797e-01,6.521972179412841575e-01,6.696317195892333984e-01,6.880238533020019975e-01,7.074549198150634766e-01,7.280188560485839622e-01,7.498143196105957475e-01,7.729550838470459206e-01,7.975697040557860884e-01,8.238034248352050781e-01,8.518218040466308816e-01,8.818130493164062500e-01,9.139933586120605469e-01,9.486112594604492188e-01,3.555065155029296653e-01,3.566399097442626842e-01,3.631562948226928489e-01,3.735705137252807728e-01,3.703118324279784934e-01,3.693459987640380637e-01,3.699807882308959739e-01,3.715035438537597767e-01,3.736329793930053822e-01,3.782335281372070090e-01,3.827025413513183705e-01,3.875597000122070201e-01,4.189115047454833873e-01,4.212560653686523438e-01,1.000000000000000000e+00,1.000000000000000000e+00,1.000000000000000000e+00,1.000000000000000000e+00,1.000000000000000000e+00,1.000000000000000000e+00,1.000000000000000000e+00,1.000000000000000000e+00,1.000000000000000000e+00,1.000000000000000000e+00,1.000000000000000000e+00,1.000000000000000000e+00,1.000000000000000000e+00,1.000000000000000000e+00,1.000000000000000000e+00,1.000000000000000000e+00,1.000000000000000000e+00,1.000000000000000000e+00,1.000000000000000000e+00,1.000000000000000000e+00,1.000000000000000000e+00,1.000000000000000000e+00,1.000000000000000000e+00,1.000000000000000000e+00,1.000000000000000000e+00,1.000000000000000000e+00,1.000000000000000000e+00,1.000000000000000000e+00,1.000000000000000000e+00,1.000000000000000000e+00,1.000000000000000000e+00,1.000000000000000000e+00,1.000000000000000000e+00,1.000000000000000000e+00,1.000000000000000000e+00,1.000000000000000000e+00,1.000000000000000000e+00,1.000000000000000000e+00,1.000000000000000000e+00,1.000000000000000000e+00,1.000000000000000000e+00,9.683640480041504350e-01,9.367095947265624556e-01,9.070591926574707031e-01,8.792282104492187278e-01,8.530543327331543413e-01,8.283935546874999778e-01,8.051187515258788618e-01,7.831160545349120650e-01,7.622832775115966353e-01,7.425300598144530806e-01
6.199038505554199663e-01,6.356337070465087891e-01,6.521826267242432085e-01,6.696162700653076616e-01,6.880076408386230913e-01,7.074377536773681641e-01,7.279972076416015847e-01,7.497911930084228960e-01,7.729305267333984597e-01,7.975434780120849165e-01,8.237755775451660600e-01,8.517919540405273215e-01,8.817811012268066406e-01,9.139589309692383035e-01,9.485741615295409934e-01,3.519747257232666016e-01,3.521833658218384011e-01,3.592697620391845925e-01,3.713732481002807728e-01,3.700244903564453014e-01,3.697285652160644531e-01,3.708395481109619252e-01,3.720354557037353627e-01,3.743684530258178933e-01,3.794966697692870872e-01,3.835900068283081277e-01,3.923690319061279297e-01,4.190332889556884766e-01,4.213626384735107422e-01,1.000000000000000000e+00,1.000000000000000000e+00,1.000000000000000000e+00,1.000000000000000000e+00,1.000000000000000000e+00,1.000000000000000000e+00,1.000000000000000000e+00,1.000000000000000000e+00,1.000000000000000000e+00,1.000000000000000000e+00,1.000000000000000000e+00,1.000000000000000000e+00,1.000000000000000000e+00,1.000000000000000000e+00,1.000000000000000000e+00,1.000000000000000000e+00,1.000000000000000000e+00,1.000000000000000000e+00,1.000000000000000000e+00,1.000000000000000000e+00,1.000000000000000000e+00,1.000000000000000000e+00,1.000000000000000000e+00,1.000000000000000000e+00,1.000000000000000000e+00,1.000000000000000000e+00,1.000000000000000000e+00,1.000000000000000000e+00,1.000000000000000000e+00,1.000000000000000000e+00,1.000000000000000000e+00,1.000000000000000000e+00,1.000000000000000000e+00,1.000000000000000000e+00,1.000000000000000000e+00,1.000000000000000000e+00,1.000000000000000000e+00,1.000000000000000000e+00,1.000000000000000000e+00,1.000000000000000000e+00,1.000000000000000000e+00,9.683922767639160378e-01,9.367360115051269753e-01,9.070839881896972656e-01,8.792514801025390625e-01,8.530761718749999556e-01,8.284138679504394753e-01,8.051369667053223100e-01,7.831325054168700728e-01,7.622986793518066184e-01,7.425446033477782759e-01
6.198906421661376509e-01,6.356198310852050337e-01,6.521680831909180132e-01,6.696009159088134322e-01,6.879914283752441850e-01,7.074205398559569868e-01,7.279790401458740012e-01,7.497681617736816628e-01,7.729059219360351340e-01,7.975172996520996094e-01,8.237476348876953125e-01,8.517621040344238725e-01,8.817490577697754128e-01,9.139245986938476785e-01,9.485371589660644975e-01,3.470144987106323353e-01,3.465145826339721680e-01,3.552430152893066295e-01,3.706356287002563477e-01,3.702536344528198353e-01,3.702645778656005748e-01,3.726110458374023438e-01,3.749874114990234264e-01,3.777620315551757924e-01,3.819210052490234486e-01,3.869242429733276145e-01,3.957498073577880859e-01,4.176969051361084095e-01,4.193961143493652455e-01,1.000000000000000000e+00,1.000000000000000000e+00,1.000000000000000000e+00,1.000000000000000000e+00,1.000000000000000000e+00,1.000000000000000000e+00,1.000000000000000000e+00,1.000000000000000000e+00,1.000000000000000000e+00,1.000000000000000000e+00,1.000000000000000000e+00,1.000000000000000000e+00,1.000000000000000000e+00,1.000000000000000000e+00,1.000000000000000000e+00,1.000000000000000000e+00,1.000000000000000000e+00,1.000000000000000000e+00,1.000000000000000000e+00,1.000000000000000000e+00,1.000000000000000000e+00,1.000000000000000000e+00,1.000000000000000000e+00,1.000000000000000000e+00,1.000000000000000000e+00,1.000000000000000000e+00,1.000000000000000000e+00,1.000000000000000000e+00,1.000000000000000000e+00,1.000000000000000000e+00,1.000000000000000000e+00,1.000000000000000000e+00,1.000000000000000000e+00,1.000000000000000000e+00,1.000000000000000000e+00,1.000000000000000000e+00,1.000000000000000000e+00,1.000000000000000000e+00,1.000000000000000000e+00,1.000000000000000000e+00,1.000000000000000000e+00,9.684205055236816406e-01,9.367624282836913840e-01,9.071086883544922097e-01,8.792737007141113725e-01,8.530960083007812500e-01,8.284320831298828125e-01,8.051541328430176225e-01,7.831486701965332253e-01,7.623140811920166016e-01,7.425592422485352007e-01
6.198774814605713113e-01,6.356060028076171431e-01,6.521534442901610884e-01,6.695855617523193137e-01,6.879752159118652788e-01,7.074033737182616743e-01,7.279608726501465288e-01,7.497488498687744363e-01,7.728813648223876731e-01,7.974911212921143022e-01,8.237196922302245650e-01,8.517322540283203125e-01,8.817171096801758035e-01,9.138901710510254350e-01,9.485001564025878906e-01,3.448073863983154297e-01,3.457052469253539817e-01,3.829966068267822155e-01,3.705147266387939231e-01,3.708793163299560769e-01,3.709387540817260520e-01,3.767014980316162331e-01,3.791305065155029519e-01,3.818156480789184348e-01,3.818906545639038086e-01,3.781247138977050781e-01,3.870680809020995983e-01,4.172506809234619030e-01,4.182718276977538951e-01,1.000000000000000000e+00,1.000000000000000000e+00,1.000000000000000000e+00,1.000000000000000000e+00,1.000000000000000000e+00,1.000000000000000000e+00,1.000000000000000000e+00,1.000000000000000000e+00,1.000000000000000000e+00,1.000000000000000000e+00,1.000000000000000000e+00,1.000000000000000000e+00,1.000000000000000000e+00,1.000000000000000000e+00,1.000000000000000000e+00,1.000000000000000000e+00,1.000000000000000000e+00,1.000000000000000000e+00,1.000000000000000000e+00,1.000000000000000000e+00,1.000000000000000000e+00,1.000000000000000000e+00,1.000000000000000000e+00,1.000000000000000000e+00,1.000000000000000000e+00,1.000000000000000000e+00,1.000000000000000000e+00,1.000000000000000000e+00,1.000000000000000000e+00,1.000000000000000000e+00,1.000000000000000000e+00,1.000000000000000000e+00,1.000000000000000000e+00,1.000000000000000000e+00,1.000000000000000000e+00,1.000000000000000000e+00,1.000000000000000000e+00,1.000000000000000000e+00,1.000000000000000000e+00,1.000000000000000000e+00,1.000000000000000000e+00,9.684479713439941850e-01,9.367868423461913618e-01,9.071304321289062056e-01,8.792941093444823775e-01,8.531153678894043413e-01,8.284502029418945312e-01,8.051712989807129350e-01,7.831649303436278853e-01,7.623294353485107200e-01,7.425738334655761497e-01
6.198643207550048606e-01,6.355920791625976340e-01,6.521388530731201394e-01,6.695701599121093306e-01,6.879589080810546431e-01,7.073862552642822266e-01,7.279427051544189453e-01,7.497295856475829634e-01,7.728609085083008035e-01,7.974648952484131303e-01,8.236917495727539285e-01,8.517024040222167525e-01,8.816850662231445757e-01,9.138558387756348100e-01,9.484631538391112837e-01,3.394796371459961049e-01,3.376473188400268555e-01,3.415763139724731223e-01,3.705821275711059792e-01,3.714393615722656472e-01,3.716828823089599609e-01,3.771608591079712025e-01,3.841832876205444336e-01,3.753441572189331055e-01,3.721146345138549583e-01,3.707863092422485352e-01,3.764182090759277122e-01,3.850799083709716686e-01,4.168733119964599387e-01,1.000000000000000000e+00,1.000000000000000000e+00,1.000000000000000000e+00,1.000000000000000000e+00,1.000000000000000000e+00,1.000000000000000000e+00,1.000000000000000000e+00,1.000000000000000000e+00,1.000000000000000000e+00,1.000000000000000000e+00,1.000000000000000000e+00,1.000000000000000000e+00,1.000000000000000000e+00,1.000000000000000000e+00,1.000000000000000000e+00,1.000000000000000000e+00,1.000000000000000000e+00,1.000000000000000000e+00,1.000000000000000000e+00,1.000000000000000000e+00,1.000000000000000000e+00,1.000000000000000000e+00,1.000000000000000000e+00,1.000000000000000000e+00,1.000000000000000000e+00,1.000000000000000000e+00,1.000000000000000000e+00,1.000000000000000000e+00,1.000000000000000000e+00,1.000000000000000000e+00,1.000000000000000000e+00,1.000000000000000000e+00,1.000000000000000000e+00,1.000000000000000000e+00,1.000000000000000000e+00,1.000000000000000000e+00,1.000000000000000000e+00,1.000000000000000000e+00,1.000000000000000000e+00,1.000000000000000000e+00,1.000000000000000000e+00,9.684727668762207475e-01,9.368101119995116965e-01,9.071522712707519309e-01,8.793146133422851118e-01,8.531346321105957031e-01,8.284684181213378684e-01,8.051884651184082475e-01,7.831810951232910378e-01,7.623448371887207031e-01,7.425883769989013450e-01
6.198511123657226562e-01,6.355782508850097434e-01,6.521242618560790794e-01,6.695548057556152122e-01,6.879426956176757368e-01,7.073690891265869141e-01,7.279244899749756081e-01,7.497103214263916016e-01,7.728404045104980691e-01,7.974431037902831587e-01,8.236638069152831809e-01,8.516725540161133035e-01,8.816531181335449663e-01,9.138215065002441850e-01,9.484260559082031694e-01,3.337721824645996094e-01,3.319854497909545676e-01,3.358306646347045676e-01,3.708701610565185436e-01,3.715070962905883678e-01,3.722501754760741965e-01,3.769684553146362416e-01,3.839567661285400169e-01,3.732310295104980247e-01,3.688964366912841908e-01,3.679241418838500866e-01,3.713592767715453991e-01,3.794923067092895730e-01,4.147818088531494141e-01,4.233843803405761830e-01,1.000000000000000000e+00,1.000000000000000000e+00,1.000000000000000000e+00,1.000000000000000000e+00,1.000000000000000000e+00,1.000000000000000000e+00,1.000000000000000000e+00,1.000000000000000000e+00,1.000000000000000000e+00,1.000000000000000000e+00,1.000000000000000000e+00,1.000000000000000000e+00,1.000000000000000000e+00,1.000000000000000000e+00,1.000000000000000000e+00,1.000000000000000000e+00,1.000000000000000000e+00,1.000000000000000000e+00,1.000000000000000000e+00,1.000000000000000000e+00,1.000000000000000000e+00,1.000000000000000000e+00,1.000000000000000000e+00,1.000000000000000000e+00,1.000000000000000000e+00,1.000000000000000000e+00,1.000000000000000000e+00,1.000000000000000000e+00,1.000000000000000000e+00,1.000000000000000000e+00,1.000000000000000000e+00,1.000000000000000000e+00,1.000000000000000000e+00,1.000000000000000000e+00,1.000000000000000000e+00,1.000000000000000000e+00,1.000000000000000000e+00,1.000000000000000000e+00,1.000000000000000000e+00,1.000000000000000000e+00,9.684976577758789285e-01,9.368333816528320312e-01,9.071740150451660378e-01,8.793350219726562278e-01,8.531538963317870650e-01,8.284865379333495872e-01,8.052056312561035600e-01,7.831974029541015625e-01,7.623601436614990678e-01,7.426030158996581587e-01
6.198379039764404519e-01,6.355644226074218528e-01,6.521097183227538840e-01,6.695394039154052290e-01,6.879264831542968306e-01,7.073519229888916016e-01,7.279063224792480247e-01,7.496910572052002397e-01,7.728198528289794700e-01,7.974213123321532981e-01,8.236404418945312278e-01,8.516427040100097434e-01,8.816210746765136275e-01,9.137870788574218306e-01,9.483890533447265625e-01,3.300559282302856223e-01,3.261294841766357311e-01,3.334453582763671764e-01,3.723630189895629772e-01,3.726214408874511941e-01,3.729539871215820090e-01,3.769599914550781361e-01,3.841540813446044922e-01,3.734799861907959206e-01,3.664273262023926003e-01,3.656051874160766713e-01,3.668905258178710715e-01,3.748786926269531139e-01,4.155949115753173606e-01,4.209488868713379128e-01,1.000000000000000000e+00,1.000000000000000000e+00,1.000000000000000000e+00,1.000000000000000000e+00,1.000000000000000000e+00,1.000000000000000000e+00,1.000000000000000000e+00,1.000000000000000000e+00,1.000000000000000000e+00,1.000000000000000000e+00,1.000000000000000000e+00,1.000000000000000000e+00,1.000000000000000000e+00,1.000000000000000000e+00,1.000000000000000000e+00,1.000000000000000000e+00,1.000000000000000000e+00,1.000000000000000000e+00,1.000000000000000000e+00,1.000000000000000000e+00,1.000000000000000000e+00,1.000000000000000000e+00,1.000000000000000000e+00,1.000000000000000000e+00,1.000000000000000000e+00,1.000000000000000000e+00,1.000000000000000000e+00,1.000000000000000000e+00,1.000000000000000000e+00,1.000000000000000000e+00,1.000000000000000000e+00,1.000000000000000000e+00,1.000000000000000000e+00,1.000000000000000000e+00,1.000000000000000000e+00,1.000000000000000000e+00,1.000000000000000000e+00,1.000000000000000000e+00,1.000000000000000000e+00,1.000000000000000000e+00,9.685224533081054910e-01,9.368565559387207475e-01,9.071958541870117632e-01,8.793555259704589622e-01,8.531730651855469194e-01,8.285047531127929243e-01,8.052227973937988725e-01,7.832136631011963335e-01,7.623755931854248047e-01,7.426175594329833540e-01
6.198247432708740012e-01,6.355505466461182085e-01,6.520950794219970703e-01,6.695240020751953569e-01,6.879102706909179243e-01,7.073347091674804243e-01,7.278881549835205522e-01,7.496717929840087669e-01,7.727993965148926003e-01,7.973995208740234375e-01,8.236171722412108931e-01,8.516176223754883257e-01,8.815891265869140181e-01,9.137527465820312056e-01,9.483520507812499556e-01,3.259006261825561634e-01,3.235109090805053933e-01,1.000000000000000000e+00,3.740023851394653209e-01,3.741492986679076926e-01,3.743894100189208984e-01,3.780940771102905273e-01,3.852418184280395619e-01,3.734202146530151145e-01,3.634641885757446400e-01,3.630417108535766713e-01,3.625280618667602317e-01,3.707588195800781139e-01,4.136463642120361550e-01,1.000000000000000000e+00,1.000000000000000000e+00,1.000000000000000000e+00,1.000000000000000000e+00,1.000000000000000000e+00,1.000000000000000000e+00,1.000000000000000000e+00,1.000000000000000000e+00,1.000000000000000000e+00,1.000000000000000000e+00,1.000000000000000000e+00,1.000000000000000000e+00,1.000000000000000000e+00,1.000000000000000000e+00,1.000000000000000000e+00,1.000000000000000000e+00,1.000000000000000000e+00,1.000000000000000000e+00,1.000000000000000000e+00,1.000000000000000000e+00,1.000000000000000000e+00,1.000000000000000000e+00,1.000000000000000000e+00,1.000000000000000000e+00,1.000000000000000000e+00,1.000000000000000000e+00,1.000000000000000000e+00,1.000000000000000000e+00,1.000000000000000000e+00,1.000000000000000000e+00,1.000000000000000000e+00,1.000000000000000000e+00,1.000000000000000000e+00,1.000000000000000000e+00,1.000000000000000000e+00,1.000000000000000000e+00,1.000000000000000000e+00,1.000000000000000000e+00,1.000000000000000000e+00,1.000000000000000000e+00,1.000000000000000000e+00,9.685472488403320535e-01,9.368798255920409712e-01,9.072175979614257590e-01,8.793760299682616965e-01,8.531924247741698997e-01,8.285228729248046431e-01,8.052399635314941850e-01,7.832298278808593750e-01,7.623909950256347878e-01,7.426321983337402788e-01
6.198115825653076616e-01,6.355367183685303178e-01,6.520804882049560103e-01,6.695086479187011275e-01,6.878939628601073997e-01,7.073175907135009766e-01,7.278699874877929688e-01,7.496524333953857866e-01,7.727789402008056197e-01,7.973777294158935769e-01,8.235939025878906694e-01,8.515927314758300337e-01,8.815621376037597878e-01,9.137183189392089622e-01,9.483150482177734597e-01,9.856348037719726562e-01,1.000000000000000000e+00,1.000000000000000000e+00,3.761234760284423717e-01,3.761085510253906472e-01,3.762571096420287975e-01,3.800633430480956920e-01,3.871598005294799583e-01,3.733174800872802734e-01,3.611787319183349387e-01,3.601911544799804576e-01,3.598739624023437611e-01,3.662796020507812500e-01,4.104540348052978516e-01,4.178223133087158314e-01,1.000000000000000000e+00,1.000000000000000000e+00,1.000000000000000000e+00,1.000000000000000000e+00,1.000000000000000000e+00,1.000000000000000000e+00,1.000000000000000000e+00,1.000000000000000000e+00,1.000000000000000000e+00,1.000000000000000000e+00,1.000000000000000000e+00,1.000000000000000000e+00,1.000000000000000000e+00,1.000000000000000000e+00,1.000000000000000000e+00,1.000000000000000000e+00,1.000000000000000000e+00,1.000000000000000000e+00,1.000000000000000000e+00,1.000000000000000000e+00,1.000000000000000000e+00,1.000000000000000000e+00,1.000000000000000000e+00,1.000000000000000000e+00,1.000000000000000000e+00,1.000000000000000000e+00,1.000000000000000000e+00,1.000000000000000000e+00,1.000000000000000000e+00,1.000000000000000000e+00,1.000000000000000000e+00,1.000000000000000000e+00,1.000000000000000000e+00,1.000000000000000000e+00,1.000000000000000000e+00,1.000000000000000000e+00,1.000000000000000000e+00,1.000000000000000000e+00,1.000000000000000000e+00,1.000000000000000000e+00,9.685721397399902344e-01,9.369029998779296875e-01,9.072393417358398660e-01,8.793964385986328125e-01,8.532116889953613725e-01,8.285410881042480913e-01,8.052571296691894975e-01,7.832460880279541460e-01,7.624063491821289062e-01,7.426468372344970925e-01
6.197984218597412109e-01,6.355228424072265625e-01,6.520659446716308150e-01,6.694932937622070090e-01,6.878777503967284934e-01,7.073004245758056641e-01,7.278518199920653853e-01,7.496331691741943137e-01,7.727584838867187500e-01,7.973558425903319868e-01,8.235707283020019531e-01,8.515678405761718528e-01,8.815355300903320312e-01,9.136892318725585715e-01,9.482780456542968528e-01,9.855947494506835938e-01,1.000000000000000000e+00,1.000000000000000000e+00,3.783277511596679910e-01,3.781128644943237416e-01,3.782385826110840066e-01,3.823597192764282005e-01,3.891216993331909069e-01,1.000000000000000000e+00,3.603907346725463978e-01,3.575005769729614480e-01,3.572992324829101785e-01,3.606508493423462025e-01,1.000000000000000000e+00,4.160378932952880637e-01,1.000000000000000000e+00,1.000000000000000000e+00,1.000000000000000000e+00,1.000000000000000000e+00,1.000000000000000000e+00,1.000000000000000000e+00,1.000000000000000000e+00,1.000000000000000000e+00,1.000000000000000000e+00,1.000000000000000000e+00,1.000000000000000000e+00,1.000000000000000000e+00,1.000000000000000000e+00,1.000000000000000000e+00,1.000000000000000000e+00,1.000000000000000000e+00,1.000000000000000000e+00,1.000000000000000000e+00,1.000000000000000000e+00,1.000000000000000000e+00,1.000000000000000000e+00,1.000000000000000000e+00,1.000000000000000000e+00,1.000000000000000000e+00,1.000000000000000000e+00,1.000000000000000000e+00,1.000000000000000000e+00,1.000000000000000000e+00,1.000000000000000000e+00,1.000000000000000000e+00,1.000000000000000000e+00,1.000000000000000000e+00,1.000000000000000000e+00,1.000000000000000000e+00,1.000000000000000000e+00,1.000000000000000000e+00,1.000000000000000000e+00,1.000000000000000000e+00,1.000000000000000000e+00,1.000000000000000000e+00,9.685969352722167969e-01,9.369262695312500222e-01,9.072611808776855913e-01,8.794169425964355469e-01,8.532309532165527344e-01,8.285592079162598100e-01,8.052742958068848100e-01,7.832623004913330522e-01,7.624217510223388894e-01,7.426613807678222878e-01
6.197954177856445090e-01,6.355137348175048384e-01,6.520513534545898660e-01,6.694778919219970259e-01,6.878615379333495872e-01,7.072832584381103516e-01,7.278336048126220481e-01,7.496139049530029519e-01,7.727379798889160156e-01,7.973340511322021262e-01,8.235473632812500000e-01,8.515429496765136719e-01,8.815088272094726562e-01,9.136606216430663840e-01,9.482466697692870650e-01,9.855547904968261497e-01,1.000000000000000000e+00,1.000000000000000000e+00,3.830612659454345481e-01,3.803405284881591908e-01,3.802410125732421653e-01,3.846203088760375977e-01,3.910995006561279186e-01,1.000000000000000000e+00,3.594986438751220925e-01,3.540038824081420676e-01,3.545037508010864258e-01,3.551924705505370983e-01,1.000000000000000000e+00,4.099372863769531472e-01,1.000000000000000000e+00,1.000000000000000000e+00,1.000000000000000000e+00,1.000000000000000000e+00,1.000000000000000000e+00,1.000000000000000000e+00,1.000000000000000000e+00,1.000000000000000000e+00,1.000000000000000000e+00,1.000000000000000000e+00,1.000000000000000000e+00,1.000000000000000000e+00,1.000000000000000000e+00,1.000000000000000000e+00,1.000000000000000000e+00,1.000000000000000000e+00,1.000000000000000000e+00,1.000000000000000000e+00,1.000000000000000000e+00,1.000000000000000000e+00,1.000000000000000000e+00,1.000000000000000000e+00,1.000000000000000000e+00,1.000000000000000000e+00,1.000000000000000000e+00,1.000000000000000000e+00,1.000000000000000000e+00,1.000000000000000000e+00,1.000000000000000000e+00,1.000000000000000000e+00,1.000000000000000000e+00,1.000000000000000000e+00,1.000000000000000000e+00,1.000000000000000000e+00,1.000000000000000000e+00,1.000000000000000000e+00,1.000000000000000000e+00,1.000000000000000000e+00,1.000000000000000000e+00,1.000000000000000000e+00,9.686217308044433594e-01,9.369495391845703569e-01,9.072830200195312056e-01,8.794373512268066628e-01,8.532502174377440962e-01,8.285774230957031472e-01,8.052914619445801225e-01,7.832785606384277122e-01,7.624371528625488725e-01,7.426759719848632368e-01
6.197953224182128906e-01,6.355135917663574663e-01,6.520498752593993919e-01,6.694697380065918191e-01,6.878458499908447488e-01,7.072660446166991743e-01,7.278154373168945757e-01,7.495946407318114790e-01,7.727174282073974165e-01,7.973122596740722656e-01,8.235241889953612837e-01,8.515180587768554910e-01,8.814822196960448997e-01,9.136320114135741965e-01,9.482157707214355913e-01,9.855208396911621094e-01,1.000000000000000000e+00,1.000000000000000000e+00,3.887886047363281472e-01,3.824412107467651256e-01,3.823719263076782449e-01,3.865525245666504017e-01,4.022716999053955189e-01,1.000000000000000000e+00,3.587934017181396706e-01,3.512157440185547097e-01,3.511875629425048606e-01,3.519190549850463867e-01,1.000000000000000000e+00,4.084424495697021595e-01,1.000000000000000000e+00,1.000000000000000000e+00,1.000000000000000000e+00,1.000000000000000000e+00,1.000000000000000000e+00,1.000000000000000000e+00,1.000000000000000000e+00,1.000000000000000000e+00,1.000000000000000000e+00,1.000000000000000000e+00,1.000000000000000000e+00,1.000000000000000000e+00,1.000000000000000000e+00,1.000000000000000000e+00,1.000000000000000000e+00,1.000000000000000000e+00,1.000000000000000000e+00,1.000000000000000000e+00,1.000000000000000000e+00,1.000000000000000000e+00,1.000000000000000000e+00,1.000000000000000000e+00,1.000000000000000000e+00,1.000000000000000000e+00,1.000000000000000000e+00,1.000000000000000000e+00,1.000000000000000000e+00,1.000000000000000000e+00,1.000000000000000000e+00,1.000000000000000000e+00,1.000000000000000000e+00,1.000000000000000000e+00,1.000000000000000000e+00,1.000000000000000000e+00,1.000000000000000000e+00,1.000000000000000000e+00,1.000000000000000000e+00,1.000000000000000000e+00,1.000000000000000000e+00,1.000000000000000000e+00,9.686465263366699219e-01,9.369727134704589622e-01,9.073047637939453125e-01,8.794578552246093972e-01,8.532694816589355691e-01,8.285955429077148660e-01,8.053086280822754350e-01,7.832948207855224831e-01,7.624525070190429910e-01,7.426906108856201616e-01
6.197921276092529519e-01,6.355134963989257368e-01,6.520497798919677734e-01,6.694695949554443359e-01,6.878457069396972656e-01,7.072591304779052290e-01,7.278002262115478294e-01,7.495753288269042525e-01,7.726969718933105469e-01,7.972904682159424050e-01,8.235008239746093306e-01,8.514931678771973100e-01,8.814555168151855247e-01,9.136034011840820090e-01,9.481849670410156250e-01,9.854874610900878906e-01,1.000000000000000000e+00,1.000000000000000000e+00,4.000253200531005970e-01,3.839970350265503041e-01,3.839271545410156139e-01,3.885983705520629772e-01,3.986570835113525391e-01,1.000000000000000000e+00,3.580361843109131081e-01,3.505822181701659934e-01,3.489408969879150280e-01,3.501441955566406139e-01,1.000000000000000000e+00,1.000000000000000000e+00,1.000000000000000000e+00,1.000000000000000000e+00,1.000000000000000000e+00,1.000000000000000000e+00,1.000000000000000000e+00,1.000000000000000000e+00,1.000000000000000000e+00,1.000000000000000000e+00,1.000000000000000000e+00,1.000000000000000000e+00,1.000000000000000000e+00,1.000000000000000000e+00,1.000000000000000000e+00,1.000000000000000000e+00,1.000000000000000000e+00,1.000000000000000000e+00,1.000000000000000000e+00,1.000000000000000000e+00,1.000000000000000000e+00,1.000000000000000000e+00,1.000000000000000000e+00,1.000000000000000000e+00,1.000000000000000000e+00,1.000000000000000000e+00,1.000000000000000000e+00,1.000000000000000000e+00,1.000000000000000000e+00,1.000000000000000000e+00,1.000000000000000000e+00,1.000000000000000000e+00,1.000000000000000000e+00,1.000000000000000000e+00,1.000000000000000000e+00,1.000000000000000000e+00,1.000000000000000000e+00,1.000000000000000000e+00,1.000000000000000000e+00,1.000000000000000000e+00,1.000000000000000000e+00,1.000000000000000000e+00,9.686714172363281028e-01,9.369959831237792969e-01,9.073265075683594194e-01,8.794783592224121316e-01,8.532887458801269309e-01,8.286137580871582031e-01,8.053257942199707475e-01,7.833110332489013894e-01,7.624679088592529741e-01,7.427051544189453569e-01
6.197788238525390181e-01,6.355023384094238281e-01,6.520444393157959206e-01,6.694694519042968528e-01,6.878456115722656472e-01,7.072589874267578569e-01,7.278000354766845925e-01,7.495699405670166460e-01,7.726823806762694868e-01,7.972686767578125444e-01,8.234776496887207253e-01,8.514683723449707475e-01,8.814288139343261497e-01,9.135747909545898215e-01,9.481541633605956587e-01,9.854541778564452903e-01,1.000000000000000000e+00,1.000000000000000000e+00,1.000000000000000000e+00,3.863216400146484153e-01,3.854950428009032981e-01,3.906615972518920898e-01,4.027274131774902233e-01,1.000000000000000000e+00,1.000000000000000000e+00,3.512245655059814675e-01,3.492972373962402455e-01,3.503277778625488170e-01,1.000000000000000000e+00,1.000000000000000000e+00,1.000000000000000000e+00,1.000000000000000000e+00,1.000000000000000000e+00,1.000000000000000000e+00,1.000000000000000000e+00,1.000000000000000000e+00,1.000000000000000000e+00,1.000000000000000000e+00,1.000000000000000000e+00,1.000000000000000000e+00,1.000000000000000000e+00,1.000000000000000000e+00,1.000000000000000000e+00,1.000000000000000000e+00,1.000000000000000000e+00,1.000000000000000000e+00,1.000000000000000000e+00,1.000000000000000000e+00,1.000000000000000000e+00,1.000000000000000000e+00,1.000000000000000000e+00,1.000000000000000000e+00,1.000000000000000000e+00,1.000000000000000000e+00,1.000000000000000000e+00,1.000000000000000000e+00,1.000000000000000000e+00,1.000000000000000000e+00,1.000000000000000000e+00,1.000000000000000000e+00,1.000000000000000000e+00,1.000000000000000000e+00,1.000000000000000000e+00,1.000000000000000000e+00,1.000000000000000000e+00,1.000000000000000000e+00,1.000000000000000000e+00,1.000000000000000000e+00,1.000000000000000000e+00,1.000000000000000000e+00,9.686963081359862837e-01,9.370192527770996316e-01,9.073483467102050337e-01,8.794987678527832475e-01,8.533080101013184038e-01,8.286319732666015403e-01,8.053429603576660600e-01,7.833272933959960493e-01,7.624832630157470925e-01,7.427197933197021706e-01
6.197656154632568137e-01,6.354884147644043191e-01,6.520297527313232422e-01,6.694552421569823775e-01,6.878376483917236772e-01,7.072580814361572044e-01,7.277998924255371094e-01,7.495697975158691628e-01,7.726821899414062500e-01,7.972652912139892578e-01,8.234639167785644531e-01,8.514434814453124556e-01,8.814022064208983931e-01,9.135460853576660156e-01,9.481232643127441850e-01,9.854208946228026900e-01,1.000000000000000000e+00,1.000000000000000000e+00,1.000000000000000000e+00,3.890201091766357644e-01,3.870758295059203991e-01,3.921748638153076394e-01,4.074823856353759766e-01,1.000000000000000000e+00,1.000000000000000000e+00,3.532693624496460183e-01,3.502607345581054688e-01,3.512969255447387917e-01,1.000000000000000000e+00,1.000000000000000000e+00,1.000000000000000000e+00,1.000000000000000000e+00,1.000000000000000000e+00,1.000000000000000000e+00,1.000000000000000000e+00,1.000000000000000000e+00,1.000000000000000000e+00,1.000000000000000000e+00,1.000000000000000000e+00,1.000000000000000000e+00,1.000000000000000000e+00,1.000000000000000000e+00,1.000000000000000000e+00,1.000000000000000000e+00,1.000000000000000000e+00,1.000000000000000000e+00,1.000000000000000000e+00,1.000000000000000000e+00,1.000000000000000000e+00,1.000000000000000000e+00,1.000000000000000000e+00,1.000000000000000000e+00,1.000000000000000000e+00,1.000000000000000000e+00,1.000000000000000000e+00,1.000000000000000000e+00,1.000000000000000000e+00,1.000000000000000000e+00,1.000000000000000000e+00,1.000000000000000000e+00,1.000000000000000000e+00,1.000000000000000000e+00,1.000000000000000000e+00,1.000000000000000000e+00,1.000000000000000000e+00,1.000000000000000000e+00,1.000000000000000000e+00,1.000000000000000000e+00,1.000000000000000000e+00,1.000000000000000000e+00,9.687211036682128462e-01,9.370425224304199663e-01,9.073701858520507590e-01,8.795192718505859819e-01,8.533272743225097656e-01,8.286500930786132590e-01,8.053601264953613725e-01,7.833435535430908203e-01,7.624986648559570757e-01,7.427343368530273660e-01
6.197523117065429910e-01,6.354744911193848100e-01,6.520151138305664285e-01,6.694397449493407759e-01,6.878213405609130415e-01,7.072408676147461382e-01,7.277887821197509544e-01,7.495664596557617410e-01,7.726819515228271484e-01,7.972650051116942915e-01,8.234637260437012163e-01,8.514427185058593972e-01,8.813899040222168413e-01,9.135205268859862837e-01,9.480924606323242188e-01,9.853875160217284712e-01,1.000000000000000000e+00,1.000000000000000000e+00,1.000000000000000000e+00,3.922689437866210826e-01,3.889564990997314564e-01,3.940997838973999134e-01,4.117163658142090066e-01,1.000000000000000000e+00,1.000000000000000000e+00,3.554499864578247181e-01,3.519604206085205078e-01,3.522715091705322377e-01,3.602514982223510853e-01,1.000000000000000000e+00,1.000000000000000000e+00,1.000000000000000000e+00,1.000000000000000000e+00,1.000000000000000000e+00,1.000000000000000000e+00,1.000000000000000000e+00,1.000000000000000000e+00,1.000000000000000000e+00,1.000000000000000000e+00,1.000000000000000000e+00,1.000000000000000000e+00,1.000000000000000000e+00,1.000000000000000000e+00,1.000000000000000000e+00,1.000000000000000000e+00,1.000000000000000000e+00,1.000000000000000000e+00,1.000000000000000000e+00,1.000000000000000000e+00,1.000000000000000000e+00,1.000000000000000000e+00,1.000000000000000000e+00,1.000000000000000000e+00,1.000000000000000000e+00,1.000000000000000000e+00,1.000000000000000000e+00,1.000000000000000000e+00,1.000000000000000000e+00,1.000000000000000000e+00,1.000000000000000000e+00,1.000000000000000000e+00,1.000000000000000000e+00,1.000000000000000000e+00,1.000000000000000000e+00,1.000000000000000000e+00,1.000000000000000000e+00,1.000000000000000000e+00,1.000000000000000000e+00,1.000000000000000000e+00,1.000000000000000000e+00,9.687458992004394087e-01,9.370656967163085715e-01,9.073919296264648660e-01,8.795397758483887163e-01,8.533465385437011275e-01,8.286682128906249778e-01,8.053772926330566850e-01,7.833597660064697266e-01,7.625144481658935325e-01,7.427502155303955522e-01
6.197391033172607866e-01,6.354605197906494363e-01,6.520004272460937500e-01,6.694242954254150391e-01,6.878049850463867632e-01,7.072235584259033425e-01,7.277705192565917525e-01,7.495471000671386497e-01,7.726669788360596147e-01,7.972586631774902788e-01,8.234634399414062500e-01,8.514424324035644309e-01,8.813896179199218750e-01,9.135202407836914285e-01,9.480820655822753684e-01,9.853619575500488503e-01,1.000000000000000000e+00,1.000000000000000000e+00,1.000000000000000000e+00,3.976292610168457031e-01,3.923353433609008678e-01,3.982457876205444114e-01,1.000000000000000000e+00,1.000000000000000000e+00,1.000000000000000000e+00,3.569959640502929910e-01,3.538717508316039928e-01,3.532515048980712780e-01,3.605333089828491322e-01,1.000000000000000000e+00,1.000000000000000000e+00,1.000000000000000000e+00,1.000000000000000000e+00,1.000000000000000000e+00,1.000000000000000000e+00,1.000000000000000000e+00,1.000000000000000000e+00,1.000000000000000000e+00,1.000000000000000000e+00,1.000000000000000000e+00,1.000000000000000000e+00,1.000000000000000000e+00,1.000000000000000000e+00,1.000000000000000000e+00,1.000000000000000000e+00,1.000000000000000000e+00,1.000000000000000000e+00,1.000000000000000000e+00,1.000000000000000000e+00,1.000000000000000000e+00,1.000000000000000000e+00,1.000000000000000000e+00,1.000000000000000000e+00,1.000000000000000000e+00,1.000000000000000000e+00,1.000000000000000000e+00,1.000000000000000000e+00,1.000000000000000000e+00,1.000000000000000000e+00,1.000000000000000000e+00,1.000000000000000000e+00,1.000000000000000000e+00,1.000000000000000000e+00,1.000000000000000000e+00,1.000000000000000000e+00,1.000000000000000000e+00,1.000000000000000000e+00,1.000000000000000000e+00,1.000000000000000000e+00,1.000000000000000000e+00,9.687707901000977007e-01,9.370889663696289062e-01,9.074136734008788618e-01,8.795602798461914507e-01,8.533658027648926003e-01,8.286864280700683150e-01,8.053954124450684038e-01,7.833778381347655806e-01,7.625320434570312944e-01,7.427668094635009322e-01
6.197258472442627175e-01,6.354466438293456809e-01,6.519857883453369363e-01,6.694087982177734375e-01,6.877887248992919922e-01,7.072063446044921653e-01,7.277522087097167969e-01,7.495276927947998047e-01,7.726464271545410156e-01,7.972366809844970703e-01,8.234436988830566850e-01,8.514321327209473100e-01,8.813894271850586382e-01,9.135199546813964622e-01,9.480816841125487837e-01,9.853615760803222656e-01,1.000000000000000000e+00,1.000000000000000000e+00,1.000000000000000000e+00,4.019095897674560547e-01,3.983057498931884544e-01,4.046049118041992188e-01,1.000000000000000000e+00,1.000000000000000000e+00,1.000000000000000000e+00,3.581288576126098744e-01,3.545232295989990123e-01,3.535520315170287975e-01,3.601365089416503906e-01,1.000000000000000000e+00,1.000000000000000000e+00,1.000000000000000000e+00,1.000000000000000000e+00,1.000000000000000000e+00,1.000000000000000000e+00,1.000000000000000000e+00,1.000000000000000000e+00,1.000000000000000000e+00,1.000000000000000000e+00,1.000000000000000000e+00,1.000000000000000000e+00,1.000000000000000000e+00,1.000000000000000000e+00,1.000000000000000000e+00,1.000000000000000000e+00,1.000000000000000000e+00,1.000000000000000000e+00,1.000000000000000000e+00,1.000000000000000000e+00,1.000000000000000000e+00,1.000000000000000000e+00,1.000000000000000000e+00,1.000000000000000000e+00,1.000000000000000000e+00,1.000000000000000000e+00,1.000000000000000000e+00,1.000000000000000000e+00,1.000000000000000000e+00,1.000000000000000000e+00,1.000000000000000000e+00,1.000000000000000000e+00,1.000000000000000000e+00,1.000000000000000000e+00,1.000000000000000000e+00,1.000000000000000000e+00,1.000000000000000000e+00,1.000000000000000000e+00,1.000000000000000000e+00,1.000000000000000000e+00,1.000000000000000000e+00,9.687956809997558816e-01,9.371121406555176225e-01,9.074355125427245872e-01,8.795813560485840066e-01,8.533866882324219194e-01,8.287071228027343972e-01,8.054149627685547319e-01,7.833963394165038840e-01,7.625495433807373269e-01,7.427834033966064231e-01
6.197125911712646484e-01,6.354326725006103072e-01,6.519711017608642578e-01,6.693933963775634544e-01,6.877723693847656028e-01,7.071890830993652344e-01,7.277339935302734597e-01,7.495082378387450950e-01,7.726258277893066628e-01,7.972147941589355913e-01,8.234202384948730025e-01,8.514071464538573997e-01,8.813633918762207031e-01,9.135046005249023438e-01,9.480786323547363281e-01,9.853612899780272993e-01,1.000000000000000000e+00,1.000000000000000000e+00,4.142763137817382924e-01,4.069355010986328014e-01,4.050512790679931530e-01,4.143708229064941295e-01,1.000000000000000000e+00,1.000000000000000000e+00,1.000000000000000000e+00,3.580805778503418080e-01,3.537615060806274525e-01,3.528208971023559792e-01,3.583414554595947266e-01,1.000000000000000000e+00,1.000000000000000000e+00,1.000000000000000000e+00,1.000000000000000000e+00,1.000000000000000000e+00,1.000000000000000000e+00,1.000000000000000000e+00,1.000000000000000000e+00,1.000000000000000000e+00,1.000000000000000000e+00,1.000000000000000000e+00,1.000000000000000000e+00,1.000000000000000000e+00,1.000000000000000000e+00,1.000000000000000000e+00,1.000000000000000000e+00,1.000000000000000000e+00,1.000000000000000000e+00,1.000000000000000000e+00,1.000000000000000000e+00,1.000000000000000000e+00,1.000000000000000000e+00,1.000000000000000000e+00,1.000000000000000000e+00,1.000000000000000000e+00,1.000000000000000000e+00,1.000000000000000000e+00,1.000000000000000000e+00,1.000000000000000000e+00,1.000000000000000000e+00,1.000000000000000000e+00,1.000000000000000000e+00,1.000000000000000000e+00,1.000000000000000000e+00,1.000000000000000000e+00,1.000000000000000000e+00,1.000000000000000000e+00,1.000000000000000000e+00,1.000000000000000000e+00,1.000000000000000000e+00,1.000000000000000000e+00,9.688205718994140625e-01,9.371367454528808372e-01,9.074597358703613281e-01,8.796046257019043413e-01,8.534087181091308816e-01,8.287279129028319868e-01,8.054345130920410600e-01,7.834147930145263228e-01,7.625670433044433594e-01,7.428000926971435325e-01
6.196993350982665794e-01,6.354187965393066628e-01,6.519564628601074441e-01,6.693778991699218528e-01,6.877560615539550781e-01,7.071718692779540572e-01,7.277156829833983931e-01,7.494889259338378684e-01,7.726052761077880637e-01,7.971928119659423828e-01,8.233968734741210493e-01,8.513821601867676003e-01,8.813365936279297097e-01,9.134757995605469194e-01,9.480476379394531250e-01,9.853392601013183372e-01,1.000000000000000000e+00,1.000000000000000000e+00,1.000000000000000000e+00,4.108498573303222545e-01,4.099638938903808483e-01,4.180731773376464844e-01,1.000000000000000000e+00,1.000000000000000000e+00,1.000000000000000000e+00,3.580323219299316184e-01,3.528090000152587780e-01,3.520927667617798074e-01,3.568612575531006081e-01,1.000000000000000000e+00,1.000000000000000000e+00,1.000000000000000000e+00,1.000000000000000000e+00,1.000000000000000000e+00,1.000000000000000000e+00,1.000000000000000000e+00,1.000000000000000000e+00,1.000000000000000000e+00,1.000000000000000000e+00,1.000000000000000000e+00,1.000000000000000000e+00,1.000000000000000000e+00,1.000000000000000000e+00,1.000000000000000000e+00,1.000000000000000000e+00,1.000000000000000000e+00,1.000000000000000000e+00,1.000000000000000000e+00,1.000000000000000000e+00,1.000000000000000000e+00,1.000000000000000000e+00,1.000000000000000000e+00,1.000000000000000000e+00,1.000000000000000000e+00,1.000000000000000000e+00,1.000000000000000000e+00,1.000000000000000000e+00,1.000000000000000000e+00,1.000000000000000000e+00,1.000000000000000000e+00,1.000000000000000000e+00,1.000000000000000000e+00,1.000000000000000000e+00,1.000000000000000000e+00,1.000000000000000000e+00,1.000000000000000000e+00,1.000000000000000000e+00,1.000000000000000000e+00,1.000000000000000000e+00,1.000000000000000000e+00,9.688488960266112837e-01,9.371632575988769753e-01,9.074846267700195090e-01,8.796279907226562944e-01,8.534305572509766069e-01,8.287486076354980691e-01,8.054540634155273882e-01,7.834333896636962447e-01,7.625846385955810103e-01,7.428167343139648882e-01
6.196861267089843750e-01,6.354048252105712891e-01,6.519417762756347656e-01,6.693624973297118697e-01,6.877397060394286887e-01,7.071545600891113725e-01,7.276974678039550559e-01,7.494695186614990234e-01,7.725846290588378462e-01,7.971709251403809038e-01,8.233735084533690962e-01,8.513571739196776900e-01,8.813097953796387163e-01,9.134469985961913840e-01,9.480166435241699219e-01,9.853057861328125000e-01,1.000000000000000000e+00,1.000000000000000000e+00,1.000000000000000000e+00,4.147809505462646262e-01,4.128401279449462891e-01,4.208467960357665794e-01,1.000000000000000000e+00,1.000000000000000000e+00,1.000000000000000000e+00,3.579840421676635520e-01,3.518615961074829102e-01,3.512832880020141380e-01,3.553931713104248047e-01,1.000000000000000000e+00,1.000000000000000000e+00,1.000000000000000000e+00,1.000000000000000000e+00,1.000000000000000000e+00,1.000000000000000000e+00,1.000000000000000000e+00,1.000000000000000000e+00,1.000000000000000000e+00,1.000000000000000000e+00,1.000000000000000000e+00,1.000000000000000000e+00,1.000000000000000000e+00,1.000000000000000000e+00,1.000000000000000000e+00,1.000000000000000000e+00,1.000000000000000000e+00,1.000000000000000000e+00,1.000000000000000000e+00,1.000000000000000000e+00,1.000000000000000000e+00,1.000000000000000000e+00,1.000000000000000000e+00,1.000000000000000000e+00,1.000000000000000000e+00,1.000000000000000000e+00,1.000000000000000000e+00,1.000000000000000000e+00,1.000000000000000000e+00,1.000000000000000000e+00,1.000000000000000000e+00,1.000000000000000000e+00,1.000000000000000000e+00,1.000000000000000000e+00,1.000000000000000000e+00,1.000000000000000000e+00,1.000000000000000000e+00,1.000000000000000000e+00,1.000000000000000000e+00,1.000000000000000000e+00,1.000000000000000000e+00,9.688771247863769975e-01,9.371897697448730025e-01,9.075094223022460715e-01,8.796513557434082475e-01,8.534525871276855691e-01,8.287693023681640403e-01,8.054736137390137163e-01,7.834518432617187944e-01,7.626021385192871538e-01,7.428333282470702681e-01
6.196728229522705522e-01,6.353909015655517800e-01,6.519270896911620872e-01,6.693470001220702681e-01,6.877234458923340288e-01,7.071373462677001953e-01,7.276791572570801003e-01,7.494501590728759322e-01,7.725640773773193581e-01,7.971489906311035600e-01,8.233500480651855247e-01,8.513320922851562722e-01,8.812829971313476118e-01,9.134181976318359597e-01,9.479856491088867188e-01,9.852723121643066628e-01,1.000000000000000000e+00,1.000000000000000000e+00,1.000000000000000000e+00,4.191212654113769531e-01,4.157569885253906139e-01,4.236574649810790905e-01,1.000000000000000000e+00,1.000000000000000000e+00,1.000000000000000000e+00,1.000000000000000000e+00,3.509756088256835715e-01,3.503967523574829102e-01,3.543344736099243164e-01,1.000000000000000000e+00,1.000000000000000000e+00,1.000000000000000000e+00,1.000000000000000000e+00,1.000000000000000000e+00,1.000000000000000000e+00,1.000000000000000000e+00,1.000000000000000000e+00,1.000000000000000000e+00,1.000000000000000000e+00,1.000000000000000000e+00,1.000000000000000000e+00,1.000000000000000000e+00,1.000000000000000000e+00,1.000000000000000000e+00,1.000000000000000000e+00,1.000000000000000000e+00,1.000000000000000000e+00,1.000000000000000000e+00,1.000000000000000000e+00,1.000000000000000000e+00,1.000000000000000000e+00,1.000000000000000000e+00,1.000000000000000000e+00,1.000000000000000000e+00,1.000000000000000000e+00,1.000000000000000000e+00,1.000000000000000000e+00,1.000000000000000000e+00,1.000000000000000000e+00,1.000000000000000000e+00,1.000000000000000000e+00,1.000000000000000000e+00,1.000000000000000000e+00,1.000000000000000000e+00,1.000000000000000000e+00,1.000000000000000000e+00,1.000000000000000000e+00,1.000000000000000000e+00,1.000000000000000000e+00,1.000000000000000000e+00,9.689054489135742188e-01,9.372162818908691406e-01,9.075343132019042525e-01,8.796746253967284712e-01,8.534745216369629128e-01,8.287899971008301225e-01,8.054932594299316628e-01,7.834702968597412331e-01,7.626197338104248047e-01,7.428500175476073775e-01
6.196596145629882368e-01,6.353769779205322710e-01,6.519124507904052734e-01,6.693315505981445312e-01,6.877070903778076394e-01,7.071200847625732644e-01,7.276609420776367632e-01,7.494307518005370872e-01,7.725434303283691406e-01,7.971271038055419700e-01,8.233266830444335715e-01,8.513071060180663618e-01,8.812561988830566184e-01,9.133894920349121538e-01,9.479546546936035156e-01,9.852388381958008257e-01,1.000000000000000000e+00,1.000000000000000000e+00,1.000000000000000000e+00,4.236845493316650502e-01,4.189926624298095925e-01,4.267194747924804576e-01,1.000000000000000000e+00,1.000000000000000000e+00,1.000000000000000000e+00,1.000000000000000000e+00,3.503679513931274303e-01,3.496542215347290261e-01,3.538445949554443470e-01,1.000000000000000000e+00,1.000000000000000000e+00,1.000000000000000000e+00,1.000000000000000000e+00,1.000000000000000000e+00,1.000000000000000000e+00,1.000000000000000000e+00,1.000000000000000000e+00,1.000000000000000000e+00,1.000000000000000000e+00,1.000000000000000000e+00,1.000000000000000000e+00,1.000000000000000000e+00,1.000000000000000000e+00,1.000000000000000000e+00,1.000000000000000000e+00,1.000000000000000000e+00,1.000000000000000000e+00,1.000000000000000000e+00,1.000000000000000000e+00,1.000000000000000000e+00,1.000000000000000000e+00,1.000000000000000000e+00,1.000000000000000000e+00,1.000000000000000000e+00,1.000000000000000000e+00,1.000000000000000000e+00,1.000000000000000000e+00,1.000000000000000000e+00,1.000000000000000000e+00,1.000000000000000000e+00,1.000000000000000000e+00,1.000000000000000000e+00,1.000000000000000000e+00,1.000000000000000000e+00,1.000000000000000000e+00,1.000000000000000000e+00,1.000000000000000000e+00,1.000000000000000000e+00,1.000000000000000000e+00,1.000000000000000000e+00,9.689337730407714400e-01,9.372426986694335493e-01,9.075591087341308150e-01,8.796979904174804243e-01,8.534965515136718750e-01,8.288106918334960938e-01,8.055127143859863725e-01,7.834888935089111550e-01,7.626372337341308372e-01,7.428666591644287331e-01
6.196463584899902788e-01,6.353630542755126509e-01,6.518977642059325950e-01,6.693161010742187944e-01,6.876907825469971147e-01,7.071028709411620872e-01,7.276426315307616965e-01,7.494113922119141069e-01,7.725229263305664062e-01,7.971051216125488725e-01,8.233033180236816184e-01,8.512821197509765625e-01,8.812294006347656250e-01,9.133606910705566184e-01,9.479236602783203125e-01,9.852053642272948775e-01,1.000000000000000000e+00,1.000000000000000000e+00,1.000000000000000000e+00,4.287000179290771373e-01,4.244264602661133035e-01,4.300073146820068137e-01,1.000000000000000000e+00,1.000000000000000000e+00,1.000000000000000000e+00,1.000000000000000000e+00,3.505764961242675559e-01,3.489147663116455300e-01,3.528412818908691628e-01,1.000000000000000000e+00,1.000000000000000000e+00,1.000000000000000000e+00,1.000000000000000000e+00,1.000000000000000000e+00,1.000000000000000000e+00,1.000000000000000000e+00,1.000000000000000000e+00,1.000000000000000000e+00,1.000000000000000000e+00,1.000000000000000000e+00,1.000000000000000000e+00,1.000000000000000000e+00,1.000000000000000000e+00,1.000000000000000000e+00,1.000000000000000000e+00,1.000000000000000000e+00,1.000000000000000000e+00,1.000000000000000000e+00,1.000000000000000000e+00,1.000000000000000000e+00,1.000000000000000000e+00,1.000000000000000000e+00,1.000000000000000000e+00,1.000000000000000000e+00,1.000000000000000000e+00,1.000000000000000000e+00,1.000000000000000000e+00,1.000000000000000000e+00,1.000000000000000000e+00,1.000000000000000000e+00,1.000000000000000000e+00,1.000000000000000000e+00,1.000000000000000000e+00,1.000000000000000000e+00,1.000000000000000000e+00,1.000000000000000000e+00,1.000000000000000000e+00,1.000000000000000000e+00,1.000000000000000000e+00,1.000000000000000000e+00,9.689620971679687722e-01,9.372692108154296875e-01,9.075839042663573775e-01,8.797213554382323775e-01,8.535184860229492188e-01,8.288314819335937944e-01,8.055323600769043191e-01,7.835073471069335938e-01,7.626547336578368697e-01,7.428832530975342241e-01
6.196331501007079634e-01,6.353491306304931419e-01,6.518831253051757812e-01,6.693006515502929465e-01,6.876744747161864790e-01,7.070855617523192915e-01,7.276244163513183594e-01,7.493919849395751509e-01,7.725022792816161887e-01,7.970832824707031472e-01,8.232799530029296653e-01,8.512571334838867632e-01,8.812026023864746316e-01,9.133318901062011941e-01,9.478926658630371094e-01,9.710407257080078125e-01,9.708006858825684038e-01,9.705608367919922319e-01,9.703209877014160600e-01,4.338454723358154408e-01,4.287668704986572488e-01,4.338791370391845703e-01,9.693629264831542525e-01,9.691237449645996316e-01,9.688845634460448997e-01,9.686455726623535156e-01,3.514404058456420676e-01,3.481784820556640403e-01,3.518436431884765514e-01,9.676908493041992410e-01,9.674524307250976785e-01,9.672141075134277344e-01,9.669759750366211382e-01,9.667378425598144309e-01,9.664999008178710715e-01,9.662621498107910600e-01,9.660244941711425559e-01,9.657868385314941628e-01,9.655493736267090066e-01,9.653120040893554688e-01,9.650748252868652788e-01,9.648377418518065962e-01,9.646007537841796431e-01,9.643638610839844194e-01,9.641270637512207031e-01,9.638904571533203347e-01,9.636538505554199663e-01,9.634175300598144531e-01,9.631812095642089400e-01,9.629449844360351562e-01,9.627089500427246094e-01,9.624729156494140625e-01,9.622370719909667525e-01,9.620014190673827903e-01,9.617657661437988281e-01,9.615303039550781028e-01,9.612949371337891069e-01,9.610596656799316184e-01,9.608244895935058594e-01,9.605895042419433372e-01,9.603546142578125444e-01,9.601198196411132590e-01,9.598851203918457031e-01,9.596505165100097656e-01,9.594160079956054465e-01,9.591817855834960938e-01,9.589474678039551225e-01,9.587134361267090066e-01,9.584794044494628906e-01,9.582454681396483931e-01,9.580117225646972434e-01,9.372957229614258257e-01,9.076087951660156694e-01,8.797447204589843306e-01,8.535404205322265625e-01,8.288520812988281472e-01,8.055519104003906472e-01,7.835258483886718972e-01,7.626723289489746316e-01,7.428999423980713335e-01
6.196198463439941406e-01,6.353352069854736328e-01,6.518684387207031028e-01,6.692852020263672097e-01,6.876581668853759544e-01,7.070683002471923606e-01,7.276061058044434038e-01,7.493726730346679243e-01,7.542570114135742632e-01,7.541121482849121316e-01,7.539673805236816184e-01,7.538226127624512163e-01,7.536779403686523215e-01,7.535333156585692915e-01,7.533887386322021262e-01,7.532442092895508257e-01,7.530997753143310325e-01,7.529553890228271040e-01,7.528110027313232866e-01,7.526668071746825950e-01,4.323520183563232533e-01,4.469536304473876731e-01,7.522342681884766069e-01,7.520901679992675337e-01,7.519461631774901900e-01,7.518022060394287109e-01,3.523085832595825306e-01,3.474858999252319336e-01,3.508516073226928822e-01,7.512269020080566406e-01,7.510832786560058816e-01,7.509396553039551225e-01,7.507960796356201172e-01,7.506525516510009766e-01,7.505090713500977007e-01,7.503656864166259322e-01,7.502223014831542747e-01,7.500790119171142356e-01,7.499357700347900613e-01,7.497925758361816406e-01,7.496494293212890847e-01,7.495063304901122825e-01,7.493633747100829634e-01,7.492204189300537553e-01,7.490774631500244363e-01,7.489346027374267356e-01,7.487917900085448997e-01,7.486490249633789285e-01,7.485063552856445757e-01,7.483636856079101118e-01,7.482211112976073775e-01,7.480785846710205078e-01,7.479361057281493919e-01,7.477936744689941406e-01,7.476513862609863725e-01,7.475090503692627397e-01,7.473667621612548606e-01,7.472245216369628462e-01,7.470823764801025613e-01,7.469402790069580300e-01,7.467982292175292525e-01,7.466562271118164507e-01,7.465142726898192915e-01,7.463724136352538618e-01,7.462305545806884322e-01,7.460887908935547319e-01,7.459471225738525391e-01,7.458054542541503462e-01,7.456638336181640181e-01,7.455222606658935547e-01,7.453807353973388450e-01,7.452392578125000000e-01,7.450978755950927734e-01,7.449564933776855469e-01,7.448152065277099387e-01,7.446739673614501953e-01,7.445327758789062056e-01,7.443916320800780806e-01,7.442506313323974387e-01,7.429165363311767134e-01
6.166983127593994585e-01,6.166014671325683594e-01,6.165046691894531250e-01,6.164079189300537553e-01,6.163111686706542747e-01,6.162143707275390403e-01,6.161177158355712891e-01,6.160210609436035378e-01,6.159244060516357866e-01,6.158278465270996538e-01,6.157312870025635210e-01,6.156347274780273882e-01,6.155382156372070090e-01,6.154417514801024947e-01,6.153453826904297097e-01,6.152489662170410600e-01,6.151525974273681641e-01,6.150562286376952681e-01,6.149599075317382368e-01,6.148635864257812056e-01,4.361734390258789062e-01,4.378988742828369141e-01,6.145749092102050781e-01,6.144787311553955300e-01,6.143826007843017356e-01,6.142864704132080522e-01,6.141904830932617410e-01,3.494742393493652233e-01,3.554101943969726340e-01,6.139023780822754350e-01,6.138064384460448775e-01,6.137104988098144309e-01,6.136146068572998491e-01,6.135187149047851562e-01,6.134229183197021928e-01,6.133270740509033647e-01,6.132313251495361550e-01,6.131355762481689453e-01,6.130399227142333540e-01,6.129442214965820090e-01,6.128485679626465288e-01,6.127529144287109375e-01,6.126573085784912109e-01,6.125617504119873491e-01,6.124661922454833762e-01,6.123706817626952681e-01,6.122752189636230247e-01,6.121797561645507812e-01,6.120843410491942915e-01,6.119889259338379128e-01,6.118936538696289062e-01,6.117982864379882812e-01,6.117030143737792747e-01,6.116077423095702681e-01,6.115124702453613725e-01,6.114172458648681197e-01,6.113220691680908425e-01,6.112268924713134544e-01,6.111318111419677956e-01,6.110366821289062722e-01,6.109416007995605025e-01,6.108465671539307085e-01,6.107516288757324219e-01,6.106566429138183816e-01,6.105617046356200950e-01,6.104667663574219194e-01,6.103718757629394975e-01,6.102770328521728294e-01,6.101821899414062722e-01,6.100873947143554688e-01,6.099926471710205300e-01,6.098978996276855913e-01,6.098031520843505415e-01,6.097085475921630859e-01,6.096138954162597656e-01,6.095192909240723100e-01,6.094246864318847434e-01,6.093301296234130415e-01,6.092355728149414507e-01,6.091410636901855025e-01
5.210216999053954856e-01,5.209525585174560325e-01,5.208834648132324441e-01,5.208143711090087447e-01,5.207452774047851562e-01,5.206762313842773215e-01,5.206071853637694868e-01,5.205381870269775169e-01,5.204691886901855469e-01,5.204001426696777122e-01,5.203311920166016069e-01,5.202622890472412553e-01,5.201933383941650391e-01,5.201244354248046875e-01,5.200555801391602007e-01,5.199866771697998491e-01,5.199178695678711160e-01,5.198490142822265181e-01,5.197802066802978960e-01,5.197113990783691628e-01,4.306767940521240012e-01,4.292795181274414174e-01,5.195051670074463113e-01,5.194364547729491965e-01,5.193677425384521928e-01,5.192990779876709428e-01,5.192304134368896928e-01,3.432138204574585183e-01,3.394319772720336692e-01,5.190245151519775613e-01,5.189559459686279297e-01,5.188873291015625444e-01,5.188188076019286665e-01,5.187502861022948997e-01,5.186817646026611328e-01,5.186132907867431197e-01,5.185447692871093528e-01,5.184763431549072044e-01,5.184078693389893022e-01,5.183394432067871538e-01,5.182710170745850053e-01,5.182026386260986106e-01,5.181342601776123269e-01,5.180658817291259322e-01,5.179975509643555132e-01,5.179292678833007368e-01,5.178609848022460715e-01,5.177927017211914062e-01,5.177244186401367410e-01,5.176561832427978294e-01,5.175879478454590288e-01,5.175197124481201172e-01,5.174515247344970703e-01,5.173833370208740234e-01,5.173151969909668413e-01,5.172470569610595481e-01,5.171789169311523660e-01,5.171108722686768022e-01,5.170427799224853738e-01,5.169747352600098100e-01,5.169066429138183816e-01,5.168386459350585715e-01,5.167706012725830078e-01,5.167026042938231978e-01,5.166346549987792525e-01,5.165666580200195535e-01,5.164987087249756081e-01,5.164308071136474165e-01,5.163629055023193359e-01,5.162950515747070090e-01,5.162271499633789285e-01,5.161592960357666016e-01,5.160914897918701394e-01,5.160236358642578125e-01,5.159558296203613503e-01,5.158880710601806419e-01,5.158203125000000444e-01,5.157525539398193359e-01,5.156847953796386275e-01,5.156170845031737837e-01
4.510450363159179688e-01,4.509932041168213113e-01,4.509414196014404075e-01,4.508896350860595592e-01,4.508378982543945201e-01,4.507861137390136719e-01,4.507343769073486328e-01,4.506826400756835938e-01,4.506309032440185547e-01,4.505792140960693248e-01,4.505275249481200950e-01,4.504758358001709206e-01,4.504240989685058816e-01,4.503724098205566517e-01,4.503207683563232311e-01,4.502691268920898660e-01,4.502175331115722545e-01,4.501659393310546986e-01,4.501143455505370872e-01,4.500627517700195312e-01,4.242494106292724609e-01,4.200208187103271484e-01,4.188177585601806641e-01,4.498565196990966797e-01,4.498049736022949330e-01,4.497534751892089955e-01,4.497019767761230580e-01,3.373487949371337669e-01,3.205856323242187722e-01,3.280738592147827148e-01,3.284618377685546986e-01,4.494446277618407981e-01,4.493931770324707253e-01,4.493417739868164062e-01,4.492903709411620872e-01,4.492389678955078236e-01,4.491875648498535045e-01,4.491362094879150502e-01,4.490848064422607311e-01,4.490334510803222767e-01,4.489821434020996316e-01,4.489308357238769309e-01,4.488795280456542858e-01,4.488282203674316406e-01,4.487769126892089955e-01,4.487256050109863503e-01,4.486743450164795144e-01,4.486230850219726785e-01,4.485718727111816517e-01,4.485206127166748158e-01,4.484694004058837891e-01,4.484181880950927623e-01,4.483669757843017356e-01,4.483158111572265736e-01,4.482646465301513561e-01,4.482134819030761941e-01,4.481623172760009766e-01,4.481111526489257590e-01,4.480600357055664062e-01,4.480089187622070535e-01,4.479578018188476451e-01,4.479067325592041016e-01,4.478556156158447488e-01,4.478045463562011497e-01,4.477535247802734153e-01,4.477025032043456809e-01,4.476514339447021373e-01,4.476004123687744030e-01,4.475493907928466686e-01,4.474984169006347434e-01,4.474473953247070090e-01,4.473964214324951394e-01,4.473454475402832142e-01,4.472945213317870983e-01,4.472435474395751731e-01,4.471926212310791127e-01,4.471417427062988059e-01,4.470908164978027455e-01,4.470399379730224387e-01,4.469890117645263783e-01
3.976394414901733287e-01,3.975991725921630970e-01,3.975589275360107422e-01,3.975186586380005105e-01,3.974784135818481556e-01,3.974381923675537331e-01,3.973979473114013783e-01,3.973577737808227650e-01,3.973175287246704102e-01,3.972773790359497292e-01,3.972371578216552512e-01,3.971969604492187611e-01,3.971568107604980247e-01,3.971166133880615345e-01,3.970764875411987305e-01,3.970363140106201172e-01,3.969961643218994363e-01,3.969559907913208230e-01,3.969158887863158958e-01,3.968757629394531472e-01,3.968356609344482200e-01,3.967955589294433483e-01,3.967554807662964089e-01,3.967153787612914817e-01,3.966753244400024192e-01,3.966352701187133567e-01,3.965951919555664174e-01,3.489003181457519531e-01,3.499506235122680775e-01,3.964751005172729714e-01,3.964350461959839089e-01,3.963950395584106556e-01,3.963550090789794700e-01,3.963150262832641491e-01,3.962750196456908958e-01,3.962350606918335072e-01,3.961951017379760631e-01,3.961551189422607422e-01,3.961151599884032981e-01,3.960752010345459095e-01,3.960352659225463978e-01,3.959953069686889537e-01,3.959553956985473744e-01,3.959154605865478627e-01,3.958755731582641602e-01,3.958356380462646484e-01,3.957957506179809459e-01,3.957558393478393666e-01,3.957159757614135964e-01,3.956761360168457031e-01,3.956362485885620006e-01,3.955964088439941628e-01,3.955565452575683372e-01,3.955167055130004994e-01,3.954768657684326061e-01,3.954370498657226451e-01,3.953972101211548074e-01,3.953574419021606556e-01,3.953176021575927623e-01,3.952778339385986106e-01,3.952380657196045144e-01,3.951982736587524303e-01,3.951585292816162109e-01,3.951187372207641824e-01,3.950790166854858398e-01,3.950392484664916881e-01,3.949995279312134011e-01,3.949597835540771262e-01,3.949200630187988392e-01,3.948803424835204967e-01,3.948406457901000866e-01,3.948009252548217995e-01,3.947612762451171986e-01,3.947216033935546653e-01,3.946819067001342551e-01,3.946422576904297097e-01,3.946025848388671764e-01,3.945629596710205078e-01,3.945232868194580300e-01,3.944836854934692383e-01
3.555418014526366965e-01,3.555096387863159180e-01,3.554774284362792747e-01,3.554452657699584961e-01,3.554130792617797852e-01,3.553809404373168834e-01,3.553487539291381725e-01,3.553165912628173939e-01,3.552844524383544922e-01,3.552522897720337136e-01,3.552201747894286887e-01,3.551880359649658425e-01,3.551559209823608176e-01,3.551237821578979714e-01,3.550916671752929465e-01,3.550595760345459095e-01,3.550274610519409402e-01,3.549953699111938477e-01,3.549632549285888783e-01,3.549312114715575950e-01,3.548990726470947488e-01,3.548670053482055886e-01,3.548349142074584961e-01,3.548028945922851451e-01,3.547708034515381081e-01,3.547387838363647572e-01,3.547067165374755970e-01,3.546746969223022461e-01,3.546426534652710183e-01,3.546106338500976674e-01,3.545785903930663840e-01,3.545465946197509655e-01,3.545146226882934792e-01,3.544825792312621959e-01,3.544506072998047097e-01,3.544186115264892356e-01,3.543866395950317494e-01,3.543546438217163308e-01,3.543226718902587891e-01,3.542906999588012473e-01,3.542587518692016380e-01,3.542267799377441517e-01,3.541948318481445424e-01,3.541628837585449330e-01,3.541309595108032005e-01,3.540990352630615234e-01,3.540670871734619141e-01,3.540351867675781139e-01,3.540032386779785045e-01,3.539713621139526367e-01,3.539394378662109597e-01,3.539075613021850364e-01,3.538756370544433594e-01,3.538437604904174916e-01,3.538118600845336914e-01,3.537800073623657005e-01,3.537481546401977650e-01,3.537162780761718972e-01,3.536844253540039062e-01,3.536525726318359153e-01,3.536207199096679799e-01,3.535888671874999889e-01,3.535570621490478627e-01,3.535252094268798717e-01,3.534934043884277455e-01,3.534615516662597545e-01,3.534297704696655051e-01,3.533979892730713113e-01,3.533661603927612527e-01,3.533343791961670033e-01,3.533025741577148215e-01,3.532707929611206277e-01,3.532390117645263783e-01,3.532072544097900613e-01,3.531754732131958119e-01,3.531437158584594949e-01,3.531119585037231223e-01,3.530802249908447377e-01,3.530484676361084206e-01,3.530167341232299805e-01
3.215045213699340709e-01,3.214781999588012806e-01,3.214518785476684348e-01,3.214255809783935769e-01,3.213992595672607311e-01,3.213729381561279408e-01,3.213466405868530273e-01,3.213203430175781139e-01,3.212940692901611328e-01,3.212677717208862194e-01,3.212414979934692383e-01,3.212152004241943248e-01,3.211889266967773438e-01,3.211626529693603627e-01,3.211363792419433816e-01,3.211101293563842773e-01,3.210838556289672963e-01,3.210576295852661244e-01,3.210313558578491433e-01,3.210051059722900391e-01,3.209788799285888672e-01,3.209526300430297630e-01,3.209264039993285911e-01,3.209001541137695424e-01,3.208739042282104381e-01,3.208477020263671986e-01,3.208214759826660267e-01,3.207952737808227317e-01,3.207690954208374245e-01,3.207428693771362527e-01,3.207166910171508900e-01,3.206904888153075950e-01,3.206643104553222878e-01,3.206381082534789928e-01,3.206119537353515625e-01,3.205857515335083230e-01,3.205595970153808372e-01,3.205334186553955300e-01,3.205072879791259766e-01,3.204811334609985463e-01,3.204549551010131836e-01,3.204288244247436301e-01,3.204026699066161998e-01,3.203765392303467019e-01,3.203503847122192161e-01,3.203242778778075950e-01,3.202981472015380970e-01,3.202720165252685436e-01,3.202458858489990456e-01,3.202198028564453014e-01,3.201936721801758035e-01,3.201675653457641824e-01,3.201414823532104381e-01,3.201153755187988170e-01,3.200892925262451283e-01,3.200631856918335072e-01,3.200371265411376953e-01,3.200110197067260742e-01,3.199849605560302623e-01,3.199588775634765736e-01,3.199328184127807617e-01,3.199067354202270730e-01,3.198807001113891380e-01,3.198546409606933816e-01,3.198285818099975697e-01,3.198025465011596902e-01,3.197764873504638783e-01,3.197504758834838756e-01,3.197244167327880637e-01,3.196984052658081166e-01,3.196723699569702370e-01,3.196463584899902344e-01,3.196203231811523549e-01,3.195943355560302845e-01,3.195683002471924050e-01,3.195423126220703347e-01,3.195163249969482644e-01,3.194903135299682617e-01,3.194643497467041238e-01,3.194383382797241211e-01
2.934148550033569558e-01,2.933929204940796120e-01,2.933710098266601451e-01,2.933490753173828014e-01,2.933271884918212669e-01,2.933052539825439231e-01,2.932833671569824441e-01,2.932614564895629772e-01,2.932395458221435658e-01,2.932176589965820312e-01,2.931957483291626199e-01,2.931738615036010853e-01,2.931519746780395508e-01,2.931300878524780162e-01,2.931082010269164817e-01,2.930863142013550027e-01,2.930644512176513450e-01,2.930425643920898660e-01,2.930207252502441406e-01,2.929988384246826061e-01,2.929769992828369363e-01,2.929551124572754017e-01,2.929332494735717995e-01,2.929114103317260742e-01,2.928895473480224720e-01,2.928677320480346791e-01,2.928458690643310769e-01,2.928239822387695424e-01,2.928021669387817494e-01,2.927803277969360241e-01,2.927585124969482311e-01,2.927366733551025613e-01,2.927148580551147683e-01,2.926930427551269753e-01,2.926712274551391824e-01,2.926494359970092662e-01,2.926276206970214733e-01,2.926058292388916127e-01,2.925840139389038197e-01,2.925622224807739036e-01,2.925404071807861106e-01,2.925186395645141824e-01,2.924968242645263894e-01,2.924750566482544056e-01,2.924532651901244895e-01,2.924314975738525613e-01,2.924097061157226451e-01,2.923879384994506614e-01,2.923661947250366100e-01,2.923444032669067494e-01,2.923226594924926980e-01,2.923008918762207142e-01,2.922791481018066628e-01,2.922573804855346791e-01,2.922356367111206277e-01,2.922138929367065208e-01,2.921921491622924694e-01,2.921704053878784180e-01,2.921486854553222434e-01,2.921269655227661244e-01,2.921052217483520730e-01,2.920835018157958984e-01,2.920617580413818470e-01,2.920400619506836049e-01,2.920183181762695535e-01,2.919966220855713113e-01,2.919749021530151367e-01,2.919532060623168945e-01,2.919314861297607200e-01,2.919097900390624778e-01,2.918880939483642356e-01,2.918663978576659934e-01,2.918447256088256836e-01,2.918230295181274414e-01,2.918013572692871316e-01,2.917796611785888894e-01,2.917579889297485241e-01,2.917362928390502819e-01,2.917146444320678489e-01,2.916929483413696067e-01
2.698391675949096680e-01,2.698205947875976785e-01,2.698020696640014426e-01,2.697835206985473855e-01,2.697649955749511497e-01,2.697464704513549694e-01,2.697279214859008567e-01,2.697094202041626088e-01,2.696908712387084961e-01,2.696723699569701926e-01,2.696538448333740123e-01,2.696353197097778320e-01,2.696168184280395286e-01,2.695982933044433483e-01,2.695797920227051003e-01,2.695612668991088645e-01,2.695427894592284934e-01,2.695242643356323131e-01,2.695057630538940652e-01,2.694872856140136941e-01,2.694687843322753906e-01,2.694503068923950195e-01,2.694318056106567161e-01,2.694133281707763450e-01,2.693948268890380970e-01,2.693763494491577259e-01,2.693578720092773549e-01,2.693393945693969838e-01,2.693209171295166127e-01,2.693024396896362416e-01,2.692839860916137473e-01,2.692654848098754994e-01,2.692470073699951283e-01,2.692285776138305664e-01,2.692101001739501953e-01,2.691916465759277566e-01,2.691731929779052623e-01,2.691547632217407005e-01,2.691362857818603294e-01,2.691178560256958230e-01,2.690994024276733287e-01,2.690809726715087669e-01,2.690625429153442605e-01,2.690441131591796986e-01,2.690256834030151367e-01,2.690072536468505748e-01,2.689888238906860130e-01,2.689703941345215066e-01,2.689519882202148215e-01,2.689335584640503152e-01,2.689151525497436301e-01,2.688967227935791238e-01,2.688783168792724387e-01,2.688598871231079324e-01,2.688415050506591797e-01,2.688230991363525502e-01,2.688046932220459206e-01,2.687863111495971680e-01,2.687679052352905384e-01,2.687495231628417858e-01,2.687311172485351562e-01,2.687127351760864036e-01,2.686943292617797741e-01,2.686759471893310769e-01,2.686575651168823242e-01,2.686392068862915039e-01,2.686208248138427512e-01,2.686024427413940541e-01,2.685840845108032338e-01,2.685657024383544811e-01,2.685473442077636608e-01,2.685289621353149636e-01,2.685106277465820201e-01,2.684922456741333230e-01,2.684739112854003795e-01,2.684555292129516824e-01,2.684371948242187389e-01,2.684188365936279186e-01,2.684005022048950306e-01,2.683821678161620872e-01
2.497702598571777399e-01,2.497543811798095814e-01,2.497385025024413951e-01,2.497226238250732366e-01,2.497067451477050781e-01,2.496908664703369196e-01,2.496749877929687611e-01,2.496590852737426702e-01,2.496432304382324163e-01,2.496273517608642578e-01,2.496114969253540039e-01,2.495956182479858454e-01,2.495797634124755915e-01,2.495638847351074330e-01,2.495480298995971791e-01,2.495321750640869252e-01,2.495163202285766713e-01,2.495004653930664174e-01,2.494846105575561634e-01,2.494687557220459095e-01,2.494529008865356556e-01,2.494370698928833063e-01,2.494212150573730524e-01,2.494053602218627985e-01,2.493895292282104492e-01,2.493736982345580999e-01,2.493578672409057506e-01,2.493420124053954967e-01,2.493262052536010798e-01,2.493103504180908259e-01,2.492945194244384766e-01,2.492787122726440319e-01,2.492628812789917103e-01,2.492470502853393610e-01,2.492311954498291071e-01,2.492153882980346624e-01,2.491995573043823131e-01,2.491837501525878962e-01,2.491679430007934515e-01,2.491521358489990345e-01,2.491363286972045898e-01,2.491205215454101451e-01,2.491047382354736328e-01,2.490889072418212835e-01,2.490731239318847712e-01,2.490573167800903265e-01,2.490415334701538141e-01,2.490257263183593694e-01,2.490099430084228571e-01,2.489941596984863170e-01,2.489783763885498047e-01,2.489625930786132924e-01,2.489468097686767523e-01,2.489310264587402399e-01,2.489152431488036998e-01,2.488994836807250921e-01,2.488837003707885798e-01,2.488679170608520397e-01,2.488521337509155273e-01,2.488363742828369196e-01,2.488206148147583119e-01,2.488048553466796764e-01,2.487890958786010687e-01,2.487733364105224609e-01,2.487575769424438532e-01,2.487418174743652455e-01,2.487260580062866100e-01,2.487102985382080023e-01,2.486945629119872991e-01,2.486788034439086914e-01,2.486630678176879883e-01,2.486473083496093806e-01,2.486315727233886774e-01,2.486158370971679743e-01,2.486001014709472712e-01,2.485843658447265681e-01,2.485686302185058649e-01,2.485528945922851618e-01,2.485371589660644587e-01,2.485214471817016602e-01
2.324799299240112305e-01,2.324661731719970814e-01,2.324524164199829046e-01,2.324386596679687556e-01,2.324248790740966741e-01,2.324111223220825251e-01,2.323973655700683483e-01,2.323836088180541992e-01,2.323698759078979548e-01,2.323561191558837780e-01,2.323423862457275335e-01,2.323286294937133845e-01,2.323148727416992076e-01,2.323011398315429632e-01,2.322873830795288141e-01,2.322736501693725697e-01,2.322598934173583929e-01,2.322461843490600530e-01,2.322324275970459040e-01,2.322186946868896595e-01,2.322049617767333873e-01,2.321912288665771429e-01,2.321774959564208984e-01,2.321637630462646540e-01,2.321500539779663141e-01,2.321363210678100697e-01,2.321225881576537975e-01,2.321088790893554576e-01,2.320951461791992132e-01,2.320814371109008734e-01,2.320677280426025335e-01,2.320540189743041937e-01,2.320402860641479492e-01,2.320265769958496094e-01,2.320128679275512695e-01,2.319991588592529297e-01,2.319854497909545898e-01,2.319717407226562500e-01,2.319580078125000056e-01,2.319442987442016657e-01,2.319306135177612305e-01,2.319169044494628906e-01,2.319032192230224554e-01,2.318895101547241155e-01,2.318758249282836803e-01,2.318621397018432728e-01,2.318484544754028376e-01,2.318347692489624023e-01,2.318210840225219671e-01,2.318073987960815319e-01,2.317937135696411244e-01,2.317800283432006891e-01,2.317663431167602539e-01,2.317526817321777233e-01,2.317389965057373158e-01,2.317253112792968806e-01,2.317116498947143499e-01,2.316979646682739147e-01,2.316843032836914118e-01,2.316706418991088812e-01,2.316569805145263783e-01,2.316433191299438477e-01,2.316296577453613170e-01,2.316159725189209095e-01,2.316023349761962835e-01,2.315886735916137806e-01,2.315750122070312500e-01,2.315613508224487194e-01,2.315477132797241211e-01,2.315340518951415905e-01,2.315203905105590876e-01,2.315067529678344616e-01,2.314930915832519587e-01,2.314794540405273326e-01,2.314658164978027344e-01,2.314521789550781361e-01,2.314385175704956055e-01,2.314249038696289118e-01,2.314112424850463812e-01,2.313976287841796875e-01
2.174284458160400391e-01,2.174164056777954102e-01,2.174043655395507812e-01,2.173923254013061523e-01,2.173803091049194280e-01,2.173682689666747991e-01,2.173562288284301702e-01,2.173441886901855413e-01,2.173321723937988170e-01,2.173201322555541881e-01,2.173081159591674916e-01,2.172960996627807673e-01,2.172840595245361384e-01,2.172720432281494141e-01,2.172600269317626898e-01,2.172479867935180609e-01,2.172359704971313366e-01,2.172239542007446400e-01,2.172119379043579157e-01,2.171999216079711914e-01,2.171879291534423717e-01,2.171758890151977428e-01,2.171638727188110463e-01,2.171518802642822266e-01,2.171398639678955023e-01,2.171278715133667103e-01,2.171158552169799860e-01,2.171038627624511663e-01,2.170918464660644420e-01,2.170798301696777455e-01,2.170678377151489258e-01,2.170558452606201061e-01,2.170438528060913141e-01,2.170318603515624944e-01,2.170198678970337025e-01,2.170078516006469782e-01,2.169958591461181585e-01,2.169838905334472712e-01,2.169718742370605469e-01,2.169599056243896595e-01,2.169479131698608398e-01,2.169359207153320201e-01,2.169239044189453236e-01,2.169119358062744085e-01,2.168999433517456166e-01,2.168879747390747015e-01,2.168759822845459095e-01,2.168640136718749944e-01,2.168520450592041071e-01,2.168400764465331920e-01,2.168280839920044001e-01,2.168161153793334850e-01,2.168041467666625977e-01,2.167921781539917103e-01,2.167802333831786998e-01,2.167682409286499079e-01,2.167562961578369252e-01,2.167443275451660101e-01,2.167323589324951227e-01,2.167203903198242076e-01,2.167084455490112249e-01,2.166964769363403376e-01,2.166845321655273549e-01,2.166725635528564398e-01,2.166606187820434570e-01,2.166486740112304743e-01,2.166367053985595592e-01,2.166247606277465765e-01,2.166128158569335938e-01,2.166008710861206110e-01,2.165889024734496959e-01,2.165769815444946178e-01,2.165650129318237305e-01,2.165530920028686523e-01,2.165411472320556696e-01,2.165292024612426869e-01,2.165172815322876088e-01,2.165053367614745983e-01,2.164933919906616155e-01,2.164814472198486328e-01
2.042074203491210938e-01,2.041967868804931696e-01,2.041861772537231501e-01,2.041755676269531306e-01,2.041649341583252064e-01,2.041543245315551869e-01,2.041437149047851674e-01,2.041331052780151478e-01,2.041224956512451283e-01,2.041118860244751088e-01,2.041012763977050892e-01,2.040906429290771373e-01,2.040800571441650502e-01,2.040694475173950306e-01,2.040588378906250111e-01,2.040482282638549916e-01,2.040376424789428766e-01,2.040270328521728571e-01,2.040164232254028376e-01,2.040058374404907227e-01,2.039952278137207031e-01,2.039846420288085882e-01,2.039740324020385687e-01,2.039634466171264537e-01,2.039528369903564342e-01,2.039422512054443470e-01,2.039316654205322321e-01,2.039210557937622126e-01,2.039104938507080023e-01,2.038998842239379827e-01,2.038892984390258678e-01,2.038787126541137806e-01,2.038681268692016657e-01,2.038575410842895508e-01,2.038469552993774359e-01,2.038363933563232533e-01,2.038258075714111384e-01,2.038152217864990234e-01,2.038046360015869085e-01,2.037940740585327259e-01,2.037834882736206110e-01,2.037729024887084961e-01,2.037623405456542858e-01,2.037517547607421986e-01,2.037411928176879883e-01,2.037306070327758734e-01,2.037200212478637584e-01,2.037094593048095759e-01,2.036988973617553655e-01,2.036883115768432506e-01,2.036777734756469727e-01,2.036671876907348577e-01,2.036566257476806752e-01,2.036460638046264648e-01,2.036355018615722545e-01,2.036249399185180720e-01,2.036144018173217662e-01,2.036038398742675837e-01,2.035932779312133734e-01,2.035827159881591908e-01,2.035721778869628851e-01,2.035616159439087025e-01,2.035510778427123968e-01,2.035405158996582142e-01,2.035299777984619085e-01,2.035194158554077259e-01,2.035088777542114202e-01,2.034983396530151423e-01,2.034877777099609319e-01,2.034772396087646540e-01,2.034667015075683483e-01,2.034561634063720703e-01,2.034456253051757924e-01,2.034350633621215820e-01,2.034245491027832087e-01,2.034139871597289984e-01,2.034034729003906250e-01,2.033929347991943470e-01,2.033823966979980413e-01,2.033718585968017634e-01
1.925020813941955566e-01,1.924926519393920787e-01,1.924831986427307240e-01,1.924737572669982799e-01,1.924643278121948298e-01,1.924549102783203181e-01,1.924454569816589355e-01,1.924360275268554576e-01,1.924266099929809459e-01,1.924171566963195912e-01,1.924077391624450795e-01,1.923983216285705677e-01,1.923889040946960560e-01,1.923794627189636119e-01,1.923700332641601618e-01,1.923606157302856501e-01,1.923511862754821722e-01,1.923417687416076605e-01,1.923323512077331487e-01,1.923229336738586370e-01,1.923135042190551869e-01,1.923040866851806752e-01,1.922946810722351019e-01,1.922852396965026855e-01,1.922758340835571400e-01,1.922664284706115667e-01,1.922570228576660212e-01,1.922475934028625433e-01,1.922381877899169977e-01,1.922287821769714244e-01,1.922193527221679743e-01,1.922099471092224010e-01,1.922005414962768555e-01,1.921911478042602484e-01,1.921817183494567982e-01,1.921723246574401911e-01,1.921629190444946178e-01,1.921535015106201061e-01,1.921441078186035267e-01,1.921347141265869196e-01,1.921253204345703125e-01,1.921159029006958008e-01,1.921065092086791937e-01,1.920971155166625866e-01,1.920876979827880748e-01,1.920783042907714955e-01,1.920689225196838268e-01,1.920595288276672474e-01,1.920501232147216741e-01,1.920407176017761286e-01,1.920313239097595215e-01,1.920219182968139759e-01,1.920125365257263073e-01,1.920031547546386663e-01,1.919937729835510254e-01,1.919843673706054799e-01,1.919749855995178112e-01,1.919656038284301702e-01,1.919562339782714955e-01,1.919468522071838268e-01,1.919374585151672474e-01,1.919280767440795787e-01,1.919187068939209040e-01,1.919093251228332631e-01,1.918999314308166559e-01,1.918905615806579534e-01,1.918811917304992787e-01,1.918718218803405762e-01,1.918624520301818737e-01,1.918530583381652943e-01,1.918436884880065918e-01,1.918343305587768555e-01,1.918249607086181530e-01,1.918155670166015736e-01,1.918062090873718373e-01,1.917968511581421009e-01,1.917874813079833984e-01,1.917780995368957575e-01,1.917687416076660212e-01,1.917593836784362848e-01
1.820659041404724121e-01,1.820574641227722112e-01,1.820490121841430720e-01,1.820405721664428711e-01,1.820321440696716364e-01,1.820236921310424694e-01,1.820152521133422963e-01,1.820068240165710338e-01,1.819983959197997991e-01,1.819899439811706598e-01,1.819815158843994252e-01,1.819730877876281627e-01,1.819646358489990234e-01,1.819562077522277888e-01,1.819477796554565541e-01,1.819393634796142578e-01,1.819309115409851185e-01,1.819224953651428223e-01,1.819140672683715876e-01,1.819056272506713867e-01,1.818972110748290905e-01,1.818887829780578558e-01,1.818803668022155873e-01,1.818719267845153864e-01,1.818635106086730902e-01,1.818550944328308216e-01,1.818466544151306208e-01,1.818382382392883245e-01,1.818298220634460560e-01,1.818214058876037598e-01,1.818129777908325251e-01,1.818045616149902288e-01,1.817961454391479603e-01,1.817877173423766979e-01,1.817793130874633678e-01,1.817708969116210993e-01,1.817624926567077692e-01,1.817540645599365345e-01,1.817456603050232045e-01,1.817372560501098744e-01,1.817288279533386119e-01,1.817204236984252819e-01,1.817120194435119518e-01,1.817036151885986217e-01,1.816951870918273870e-01,1.816867828369140569e-01,1.816783905029296931e-01,1.816699624061584584e-01,1.816615700721740667e-01,1.816531658172607366e-01,1.816447734832763727e-01,1.816363573074340765e-01,1.816279649734497126e-01,1.816195487976074163e-01,1.816111326217651478e-01,1.816027402877807562e-01,1.815943479537963923e-01,1.815859556198120006e-01,1.815775394439697321e-01,1.815691471099853405e-01,1.815607547760009766e-01,1.815523624420166127e-01,1.815439581871032826e-01,1.815355658531188909e-01,1.815271854400634655e-01,1.815187931060791016e-01,1.815104126930236761e-01,1.815020084381103460e-01,1.814936280250549205e-01,1.814852356910705566e-01,1.814768552780151312e-01,1.814684629440307673e-01,1.814600706100463756e-01,1.814517021179199163e-01,1.814433217048644909e-01,1.814349412918090931e-01,1.814265370368957631e-01,1.814181685447692760e-01,1.814097881317138783e-01,1.814014077186584528e-01
1.727030873298645020e-01,1.726954817771911566e-01,1.726878881454467773e-01,1.726803064346313366e-01,1.726727128028869573e-01,1.726651072502136119e-01,1.726575255393981989e-01,1.726499319076538197e-01,1.726423263549804743e-01,1.726347446441650335e-01,1.726271629333496205e-01,1.726195812225341797e-01,1.726119756698608343e-01,1.726043939590454213e-01,1.725968122482299805e-01,1.725892066955566351e-01,1.725816249847412220e-01,1.725740551948547474e-01,1.725664734840393066e-01,1.725588679313659612e-01,1.725512981414794866e-01,1.725437164306640736e-01,1.725361227989196666e-01,1.725285530090331920e-01,1.725209712982177790e-01,1.725134015083313044e-01,1.725058078765869252e-01,1.724982261657714844e-01,1.724906563758850098e-01,1.724830627441406306e-01,1.724754929542541559e-01,1.724679231643676813e-01,1.724603533744812067e-01,1.724527716636657659e-01,1.724452018737792913e-01,1.724376320838928167e-01,1.724300503730774037e-01,1.724224805831909291e-01,1.724149107933044545e-01,1.724073529243469183e-01,1.723997592926025391e-01,1.723922014236450306e-01,1.723846435546874944e-01,1.723770737648010198e-01,1.723694920539856068e-01,1.723619341850280706e-01,1.723543763160705622e-01,1.723467946052551214e-01,1.723392367362976130e-01,1.723316788673400768e-01,1.723241209983825684e-01,1.723165392875671276e-01,1.723089814186096191e-01,1.723014235496521107e-01,1.722938537597656361e-01,1.722862958908080999e-01,1.722787499427795299e-01,1.722711563110351507e-01,1.722636103630065807e-01,1.722560524940490723e-01,1.722484946250915638e-01,1.722409367561340277e-01,1.722333788871765192e-01,1.722258329391479492e-01,1.722182869911193792e-01,1.722107172012329046e-01,1.722031712532043346e-01,1.721956253051757924e-01,1.721880793571472223e-01,1.721805095672607477e-01,1.721729636192321777e-01,1.721654295921325739e-01,1.721578836441040039e-01,1.721503376960754339e-01,1.721427798271179255e-01,1.721352338790893555e-01,1.721276998519897516e-01,1.721201539039611816e-01,1.721125960350036732e-01,1.721050620079040416e-01
1.642561554908752441e-01,1.642492771148681696e-01,1.642424106597900335e-01,1.642355442047119252e-01,1.642286658287048229e-01,1.642217993736267145e-01,1.642149329185485784e-01,1.642080664634704701e-01,1.642012000083923340e-01,1.641943335533141979e-01,1.641874670982360895e-01,1.641805887222290150e-01,1.641737341880798451e-01,1.641668796539306752e-01,1.641600131988525391e-01,1.641531467437744030e-01,1.641462802886962946e-01,1.641394257545471247e-01,1.641325592994689886e-01,1.641256928443908802e-01,1.641188383102417103e-01,1.641119837760925404e-01,1.641051173210144043e-01,1.640982627868652344e-01,1.640914082527160645e-01,1.640845417976379284e-01,1.640776872634887584e-01,1.640708446502685547e-01,1.640639901161193848e-01,1.640571236610412487e-01,1.640502691268920787e-01,1.640434265136718750e-01,1.640365719795227051e-01,1.640297055244445690e-01,1.640228629112243652e-01,1.640160202980041615e-01,1.640091538429260254e-01,1.640023112297058216e-01,1.639954686164855902e-01,1.639886140823364202e-01,1.639817595481872503e-01,1.639749169349670466e-01,1.639680743217468151e-01,1.639612078666687067e-01,1.639543771743774414e-01,1.639475345611572377e-01,1.639406919479370062e-01,1.639338374137878362e-01,1.639269948005676325e-01,1.639201521873474010e-01,1.639132976531982311e-01,1.639064669609069935e-01,1.638996243476867620e-01,1.638927936553954967e-01,1.638859391212463268e-01,1.638790965080261230e-01,1.638722658157348577e-01,1.638654112815856878e-01,1.638585805892944225e-01,1.638517498970031849e-01,1.638448834419250488e-01,1.638380527496337835e-01,1.638312220573425182e-01,1.638243675231933483e-01,1.638175368309021107e-01,1.638107061386108454e-01,1.638038873672485463e-01,1.637970566749572809e-01,1.637902140617370494e-01,1.637833833694458119e-01,1.637765526771545466e-01,1.637697339057922474e-01,1.637628912925720159e-01,1.637560606002807506e-01,1.637492418289184515e-01,1.637424111366271862e-01,1.637355685234069824e-01,1.637287497520446833e-01,1.637219309806823841e-01,1.637151002883911188e-01
