6.195451736450194868e-01,6.352568149566650835e-01,6.517884731292724609e-01,6.692040443420410600e-01,6.875758171081542969e-01,7.069848060607910600e-01,7.275213718414306197e-01,7.492867469787597434e-01,7.723946094512939009e-01,7.969730854034423606e-01,8.231672286987304910e-01,8.511417388916016069e-01,8.810845375061034934e-01,9.132108688354492188e-01,9.477685928344726785e-01,9.850447654724121538e-01,1.000000000000000000e+00,1.000000000000000000e+00,1.000000000000000000e+00,1.000000000000000000e+00,1.000000000000000000e+00,1.000000000000000000e+00,1.000000000000000000e+00,1.000000000000000000e+00,1.000000000000000000e+00,1.000000000000000000e+00,1.000000000000000000e+00,1.000000000000000000e+00,1.000000000000000000e+00,1.000000000000000000e+00,1.000000000000000000e+00,1.000000000000000000e+00,1.000000000000000000e+00,1.000000000000000000e+00,1.000000000000000000e+00,1.000000000000000000e+00,1.000000000000000000e+00,1.000000000000000000e+00,1.000000000000000000e+00,1.000000000000000000e+00,1.000000000000000000e+00,1.000000000000000000e+00,1.000000000000000000e+00,1.000000000000000000e+00,1.000000000000000000e+00,1.000000000000000000e+00,1.000000000000000000e+00,1.000000000000000000e+00,1.000000000000000000e+00,1.000000000000000000e+00,1.000000000000000000e+00,1.000000000000000000e+00,1.000000000000000000e+00,1.000000000000000000e+00,1.000000000000000000e+00,3.944529056549072044e-01,3.880569934844970703e-01,3.836385488510131725e-01,3.810801506042480469e-01,3.709699869155883567e-01,3.639433622360229714e-01,3.607342243194580078e-01,3.593458890914916770e-01,3.600974559783935436e-01,3.608571052551269309e-01,3.609920978546142800e-01,3.654544353485107422e-01,3.870019197463989147e-01,3.815771579742431863e-01,3.796411037445068248e-01,3.828641891479492299e-01,9.374474525451660378e-01,9.077544212341308594e-01,8.798822402954101785e-01,8.536707878112792525e-01,8.289757728576659934e-01,8.056694030761718528e-01,7.836376667022705300e-01,7.627788066864014116e-01,7.430016040802002175e-01
6.195320129394531472e-01,6.352429866790771928e-01,6.517714977264403853e-01,6.691857337951659934e-01,6.875565052032470703e-01,7.069643974304199441e-01,7.274997711181641069e-01,7.492638111114502397e-01,7.723702430725097878e-01,7.969471454620361550e-01,8.231395721435547097e-01,8.511121749877930132e-01,8.810527801513672319e-01,9.131768226623535600e-01,9.477319717407226562e-01,9.850050926208495650e-01,1.000000000000000000e+00,1.000000000000000000e+00,1.000000000000000000e+00,1.000000000000000000e+00,1.000000000000000000e+00,1.000000000000000000e+00,1.000000000000000000e+00,1.000000000000000000e+00,1.000000000000000000e+00,1.000000000000000000e+00,1.000000000000000000e+00,1.000000000000000000e+00,1.000000000000000000e+00,1.000000000000000000e+00,1.000000000000000000e+00,1.000000000000000000e+00,1.000000000000000000e+00,1.000000000000000000e+00,1.000000000000000000e+00,1.000000000000000000e+00,1.000000000000000000e+00,1.000000000000000000e+00,1.000000000000000000e+00,1.000000000000000000e+00,1.000000000000000000e+00,1.000000000000000000e+00,1.000000000000000000e+00,1.000000000000000000e+00,1.000000000000000000e+00,1.000000000000000000e+00,1.000000000000000000e+00,1.000000000000000000e+00,1.000000000000000000e+00,1.000000000000000000e+00,1.000000000000000000e+00,1.000000000000000000e+00,1.000000000000000000e+00,1.000000000000000000e+00,1.000000000000000000e+00,3.960197925567626731e-01,3.890858173370361217e-01,3.857759714126586803e-01,3.764268875122070424e-01,3.687820196151733176e-01,3.630208492279052845e-01,3.597184658050537331e-01,3.585295438766479270e-01,3.581934928894042747e-01,3.592876672744750866e-01,3.596397161483764759e-01,3.624645233154296653e-01,3.904033660888671653e-01,3.833339452743530495e-01,3.813660144805908203e-01,3.829937458038329967e-01,9.374767303466796653e-01,9.077794075012206587e-01,8.799057960510253684e-01,8.536928176879883257e-01,8.289965629577636941e-01,8.056890487670897993e-01,7.836562156677245872e-01,7.627964496612549272e-01,7.430182933807373269e-01
6.195188522338866965e-01,6.352291584014893022e-01,6.517569541931151900e-01,6.691678524017333762e-01,6.875371932983398438e-01,7.069439888000488281e-01,7.274781703948974831e-01,7.492408752441406250e-01,7.723458766937255637e-01,7.969212055206298384e-01,8.231119155883789285e-01,8.510826110839844194e-01,8.810211181640624778e-01,9.131426811218261719e-01,9.476952552795410156e-01,9.849655151367187056e-01,1.000000000000000000e+00,1.000000000000000000e+00,1.000000000000000000e+00,1.000000000000000000e+00,1.000000000000000000e+00,1.000000000000000000e+00,1.000000000000000000e+00,1.000000000000000000e+00,1.000000000000000000e+00,1.000000000000000000e+00,1.000000000000000000e+00,1.000000000000000000e+00,1.000000000000000000e+00,1.000000000000000000e+00,1.000000000000000000e+00,1.000000000000000000e+00,1.000000000000000000e+00,1.000000000000000000e+00,1.000000000000000000e+00,1.000000000000000000e+00,1.000000000000000000e+00,1.000000000000000000e+00,1.000000000000000000e+00,1.000000000000000000e+00,1.000000000000000000e+00,1.000000000000000000e+00,1.000000000000000000e+00,1.000000000000000000e+00,1.000000000000000000e+00,1.000000000000000000e+00,1.000000000000000000e+00,1.000000000000000000e+00,1.000000000000000000e+00,1.000000000000000000e+00,1.000000000000000000e+00,1.000000000000000000e+00,1.000000000000000000e+00,1.000000000000000000e+00,1.000000000000000000e+00,3.981204509735107311e-01,3.906294584274291881e-01,3.879373311996460183e-01,3.750645160675049050e-01,3.683865547180175670e-01,3.623925685882568581e-01,3.622493743896484375e-01,3.593633174896240234e-01,3.576375722885131725e-01,3.579974412918091042e-01,3.589241743087768777e-01,3.635005235671996959e-01,3.917123317718506081e-01,3.832920312881469838e-01,3.777951240539551003e-01,3.756981372833251842e-01,9.375033378601074219e-01,9.078043937683105691e-01,8.799292564392089400e-01,8.537149429321289062e-01,8.290174484252930132e-01,8.057086944580078569e-01,7.836749076843261275e-01,7.628140926361084428e-01,7.430350780487060547e-01
6.195056438446044922e-01,6.352153301239014116e-01,6.517424106597899947e-01,6.691524505615233931e-01,6.875182628631592019e-01,7.069235801696777122e-01,7.274565696716308594e-01,7.492179870605468750e-01,7.723215103149414507e-01,7.968952655792236328e-01,8.230842590332031472e-01,8.510529518127440962e-01,8.809893608093262163e-01,9.131086349487305132e-01,9.476585388183593750e-01,9.849259376525878462e-01,1.000000000000000000e+00,1.000000000000000000e+00,1.000000000000000000e+00,1.000000000000000000e+00,1.000000000000000000e+00,1.000000000000000000e+00,1.000000000000000000e+00,1.000000000000000000e+00,1.000000000000000000e+00,1.000000000000000000e+00,1.000000000000000000e+00,1.000000000000000000e+00,1.000000000000000000e+00,1.000000000000000000e+00,1.000000000000000000e+00,1.000000000000000000e+00,1.000000000000000000e+00,1.000000000000000000e+00,1.000000000000000000e+00,1.000000000000000000e+00,1.000000000000000000e+00,1.000000000000000000e+00,1.000000000000000000e+00,1.000000000000000000e+00,1.000000000000000000e+00,1.000000000000000000e+00,1.000000000000000000e+00,1.000000000000000000e+00,1.000000000000000000e+00,1.000000000000000000e+00,1.000000000000000000e+00,1.000000000000000000e+00,1.000000000000000000e+00,1.000000000000000000e+00,1.000000000000000000e+00,1.000000000000000000e+00,1.000000000000000000e+00,1.000000000000000000e+00,1.000000000000000000e+00,1.000000000000000000e+00,3.923590660095214733e-01,3.903110742568969838e-01,3.749022483825683594e-01,3.683366775512695312e-01,3.650545120239258035e-01,3.618536472320556530e-01,3.604604244232177956e-01,3.597770214080810436e-01,3.597863435745239369e-01,3.618203163146972434e-01,3.665048837661742942e-01,3.932834148406982311e-01,3.810864210128784291e-01,3.757204771041869895e-01,3.725246667861938366e-01,3.737108230590820424e-01,9.078293800354003684e-01,8.799527168273926225e-01,8.537370681762694868e-01,8.290382385253906028e-01,8.057284355163574219e-01,7.836934566497802956e-01,7.628317832946777122e-01,7.430517673492431641e-01
6.194924831390380415e-01,6.352014541625976562e-01,6.517278194427490456e-01,6.691370964050292747e-01,6.875020503997802956e-01,7.069034576416015625e-01,7.274349689483642356e-01,7.491950511932372603e-01,7.722971916198730913e-01,7.968693733215331809e-01,8.230565071105957475e-01,8.510233879089355025e-01,8.809576988220214622e-01,9.130745887756347434e-01,9.476218223571777344e-01,9.848862648010253684e-01,1.000000000000000000e+00,1.000000000000000000e+00,1.000000000000000000e+00,1.000000000000000000e+00,1.000000000000000000e+00,1.000000000000000000e+00,1.000000000000000000e+00,1.000000000000000000e+00,1.000000000000000000e+00,1.000000000000000000e+00,1.000000000000000000e+00,1.000000000000000000e+00,1.000000000000000000e+00,1.000000000000000000e+00,1.000000000000000000e+00,1.000000000000000000e+00,1.000000000000000000e+00,1.000000000000000000e+00,1.000000000000000000e+00,1.000000000000000000e+00,1.000000000000000000e+00,1.000000000000000000e+00,1.000000000000000000e+00,1.000000000000000000e+00,1.000000000000000000e+00,1.000000000000000000e+00,1.000000000000000000e+00,1.000000000000000000e+00,1.000000000000000000e+00,1.000000000000000000e+00,1.000000000000000000e+00,1.000000000000000000e+00,1.000000000000000000e+00,1.000000000000000000e+00,1.000000000000000000e+00,1.000000000000000000e+00,1.000000000000000000e+00,1.000000000000000000e+00,1.000000000000000000e+00,1.000000000000000000e+00,3.932943344116210938e-01,3.911723852157592551e-01,3.758183240890503041e-01,3.686514616012573353e-01,3.653438091278076172e-01,3.624642848968505637e-01,3.612615108489990456e-01,3.605213642120361217e-01,3.603989839553832786e-01,3.626944541931152455e-01,3.661002635955810658e-01,1.000000000000000000e+00,3.828450202941894309e-01,3.747895717620849387e-01,3.693350315093993919e-01,3.674055576324463113e-01,9.078543663024902788e-01,8.799761772155761941e-01,8.537591934204101785e-01,8.290591239929199219e-01,8.057480812072753684e-01,7.837121486663818359e-01,7.628488540649414062e-01,7.430672645568847656e-01
6.194793224334717019e-01,6.351875782012939009e-01,6.517132759094238503e-01,6.691217899322510210e-01,6.874858856201171431e-01,7.068863391876221147e-01,7.274135589599609597e-01,7.491721630096435103e-01,7.722728252410888672e-01,7.968434333801269753e-01,8.230288505554199663e-01,8.509938240051269087e-01,8.809259414672852007e-01,9.130405426025390847e-01,9.475852012634277122e-01,9.848465919494628906e-01,1.000000000000000000e+00,1.000000000000000000e+00,1.000000000000000000e+00,1.000000000000000000e+00,1.000000000000000000e+00,1.000000000000000000e+00,1.000000000000000000e+00,1.000000000000000000e+00,1.000000000000000000e+00,1.000000000000000000e+00,1.000000000000000000e+00,1.000000000000000000e+00,1.000000000000000000e+00,1.000000000000000000e+00,1.000000000000000000e+00,1.000000000000000000e+00,1.000000000000000000e+00,1.000000000000000000e+00,1.000000000000000000e+00,1.000000000000000000e+00,1.000000000000000000e+00,1.000000000000000000e+00,1.000000000000000000e+00,1.000000000000000000e+00,1.000000000000000000e+00,1.000000000000000000e+00,1.000000000000000000e+00,1.000000000000000000e+00,1.000000000000000000e+00,1.000000000000000000e+00,1.000000000000000000e+00,1.000000000000000000e+00,1.000000000000000000e+00,1.000000000000000000e+00,1.000000000000000000e+00,1.000000000000000000e+00,1.000000000000000000e+00,1.000000000000000000e+00,1.000000000000000000e+00,1.000000000000000000e+00,3.914478778839111106e-01,3.891723871231079213e-01,3.739519357681274636e-01,3.666926622390747070e-01,3.636898517608642689e-01,3.615048408508300670e-01,3.643541812896728405e-01,3.636956214904785156e-01,3.640158653259277233e-01,3.644629955291748269e-01,3.665546417236328347e-01,1.000000000000000000e+00,1.000000000000000000e+00,3.761318445205688588e-01,3.681481122970581277e-01,3.626730680465698464e-01,3.662111282348632924e-01,8.799996376037597656e-01,8.537812232971191406e-01,8.290797233581542747e-01,8.057666778564452903e-01,7.837288856506348100e-01,7.628644466400146262e-01,7.430820465087890625e-01
6.194661617279052512e-01,6.351737499237060103e-01,6.516987323760986550e-01,6.691064357757567915e-01,6.874696254730224831e-01,7.068692207336425559e-01,7.273954391479492410e-01,7.491494655609131081e-01,7.722484588623046431e-01,7.968174934387206587e-01,8.230011940002441850e-01,8.509642601013183150e-01,8.808942794799804465e-01,9.130064964294433150e-01,9.475485801696776900e-01,9.848070144653320312e-01,1.000000000000000000e+00,1.000000000000000000e+00,1.000000000000000000e+00,1.000000000000000000e+00,1.000000000000000000e+00,1.000000000000000000e+00,1.000000000000000000e+00,1.000000000000000000e+00,1.000000000000000000e+00,1.000000000000000000e+00,1.000000000000000000e+00,1.000000000000000000e+00,1.000000000000000000e+00,1.000000000000000000e+00,1.000000000000000000e+00,1.000000000000000000e+00,1.000000000000000000e+00,1.000000000000000000e+00,1.000000000000000000e+00,1.000000000000000000e+00,1.000000000000000000e+00,1.000000000000000000e+00,1.000000000000000000e+00,1.000000000000000000e+00,1.000000000000000000e+00,1.000000000000000000e+00,1.000000000000000000e+00,1.000000000000000000e+00,1.000000000000000000e+00,1.000000000000000000e+00,1.000000000000000000e+00,1.000000000000000000e+00,1.000000000000000000e+00,1.000000000000000000e+00,1.000000000000000000e+00,1.000000000000000000e+00,1.000000000000000000e+00,1.000000000000000000e+00,1.000000000000000000e+00,3.991386890411376953e-01,3.901804685592651367e-01,3.882934331893920787e-01,3.721288204193115012e-01,3.612985849380493386e-01,3.580986261367797852e-01,3.549548625946045144e-01,3.613322734832763450e-01,3.662888050079345925e-01,3.677061080932617076e-01,3.670570373535156361e-01,3.664442539215088113e-01,3.723828315734863392e-01,1.000000000000000000e+00,1.000000000000000000e+00,3.695681333541870339e-01,3.645950794219970925e-01,3.621107339859008789e-01,8.800222396850585493e-01,8.538015365600586382e-01,8.290981292724609597e-01,8.057840347290039507e-01,7.837452888488769531e-01,7.628800868988037109e-01,7.430968761444092241e-01
6.194530487060546653e-01,6.351599216461181197e-01,6.516841888427734597e-01,6.690910816192626731e-01,6.874534130096435769e-01,7.068521022796631081e-01,7.273773193359375222e-01,7.491301536560058816e-01,7.722242832183837669e-01,7.967915058135985884e-01,8.229735374450684038e-01,8.509346961975097212e-01,8.808626174926758035e-01,9.129724502563476562e-01,9.475117683410644309e-01,9.847674369812011719e-01,1.000000000000000000e+00,1.000000000000000000e+00,1.000000000000000000e+00,1.000000000000000000e+00,1.000000000000000000e+00,1.000000000000000000e+00,1.000000000000000000e+00,1.000000000000000000e+00,1.000000000000000000e+00,1.000000000000000000e+00,1.000000000000000000e+00,1.000000000000000000e+00,1.000000000000000000e+00,1.000000000000000000e+00,1.000000000000000000e+00,1.000000000000000000e+00,1.000000000000000000e+00,1.000000000000000000e+00,1.000000000000000000e+00,1.000000000000000000e+00,1.000000000000000000e+00,1.000000000000000000e+00,1.000000000000000000e+00,1.000000000000000000e+00,1.000000000000000000e+00,1.000000000000000000e+00,1.000000000000000000e+00,1.000000000000000000e+00,1.000000000000000000e+00,1.000000000000000000e+00,1.000000000000000000e+00,1.000000000000000000e+00,1.000000000000000000e+00,1.000000000000000000e+00,1.000000000000000000e+00,1.000000000000000000e+00,1.000000000000000000e+00,1.000000000000000000e+00,1.000000000000000000e+00,1.000000000000000000e+00,3.892401933670043834e-01,3.876927852630615012e-01,3.691854476928710938e-01,3.583250045776367188e-01,3.553205966949463113e-01,3.523743867874145619e-01,3.505639553070068470e-01,3.565149307250976562e-01,3.690347671508789062e-01,3.668097972869873158e-01,3.662627696990966575e-01,3.711335420608520286e-01,1.000000000000000000e+00,1.000000000000000000e+00,9.693531990051269531e-01,3.576212167739868386e-01,3.546330928802490234e-01,8.800429344177246316e-01,8.538209915161132368e-01,8.291165351867675337e-01,8.058013916015625000e-01,7.837617397308349609e-01,7.628955841064453125e-01,7.431116104125976562e-01
6.194398880004883257e-01,6.351460933685302290e-01,6.516695499420166460e-01,6.690757274627685547e-01,6.874372005462646706e-01,7.068348884582519309e-01,7.273591995239258035e-01,7.491109371185302734e-01,7.722038745880126509e-01,7.967657566070556197e-01,8.229458808898926225e-01,8.509051322937011275e-01,8.808308601379394309e-01,9.129384040832519975e-01,9.474751472473144087e-01,9.847277641296386941e-01,1.000000000000000000e+00,1.000000000000000000e+00,1.000000000000000000e+00,1.000000000000000000e+00,1.000000000000000000e+00,1.000000000000000000e+00,1.000000000000000000e+00,1.000000000000000000e+00,1.000000000000000000e+00,1.000000000000000000e+00,1.000000000000000000e+00,1.000000000000000000e+00,1.000000000000000000e+00,1.000000000000000000e+00,1.000000000000000000e+00,1.000000000000000000e+00,1.000000000000000000e+00,1.000000000000000000e+00,1.000000000000000000e+00,1.000000000000000000e+00,1.000000000000000000e+00,1.000000000000000000e+00,1.000000000000000000e+00,1.000000000000000000e+00,1.000000000000000000e+00,1.000000000000000000e+00,1.000000000000000000e+00,1.000000000000000000e+00,1.000000000000000000e+00,1.000000000000000000e+00,1.000000000000000000e+00,1.000000000000000000e+00,1.000000000000000000e+00,1.000000000000000000e+00,1.000000000000000000e+00,1.000000000000000000e+00,1.000000000000000000e+00,1.000000000000000000e+00,1.000000000000000000e+00,1.000000000000000000e+00,3.874182701110839844e-01,3.868659496307372825e-01,3.677201986312866322e-01,3.564448356628417969e-01,3.535480260848998801e-01,3.506979227066039928e-01,3.478933811187744363e-01,3.526702880859374778e-01,3.684533119201660045e-01,3.660411834716796875e-01,3.655686140060424583e-01,3.697894811630249023e-01,1.000000000000000000e+00,1.000000000000000000e+00,9.693782806396484819e-01,3.544759988784790261e-01,3.503416299819946400e-01,3.491893291473388561e-01,8.538405418395995650e-01,8.291349411010742188e-01,8.058188438415527788e-01,7.837782382965088335e-01,7.629111766815185325e-01,7.431263923645019531e-01
6.194266796112060103e-01,6.351322650909423384e-01,6.516550064086914507e-01,6.690603733062744363e-01,6.874210357666015181e-01,7.068177700042724831e-01,7.273410320281982200e-01,7.490917205810546653e-01,7.721833229064941628e-01,7.967440128326416238e-01,8.229183197021484597e-01,8.508754730224609153e-01,8.807991981506347878e-01,9.129043579101562278e-01,9.474385261535644975e-01,9.846881866455078347e-01,1.000000000000000000e+00,1.000000000000000000e+00,1.000000000000000000e+00,1.000000000000000000e+00,1.000000000000000000e+00,1.000000000000000000e+00,1.000000000000000000e+00,1.000000000000000000e+00,1.000000000000000000e+00,1.000000000000000000e+00,1.000000000000000000e+00,1.000000000000000000e+00,1.000000000000000000e+00,1.000000000000000000e+00,1.000000000000000000e+00,1.000000000000000000e+00,1.000000000000000000e+00,1.000000000000000000e+00,1.000000000000000000e+00,1.000000000000000000e+00,1.000000000000000000e+00,1.000000000000000000e+00,1.000000000000000000e+00,1.000000000000000000e+00,1.000000000000000000e+00,1.000000000000000000e+00,1.000000000000000000e+00,1.000000000000000000e+00,1.000000000000000000e+00,1.000000000000000000e+00,1.000000000000000000e+00,1.000000000000000000e+00,1.000000000000000000e+00,1.000000000000000000e+00,1.000000000000000000e+00,1.000000000000000000e+00,1.000000000000000000e+00,1.000000000000000000e+00,1.000000000000000000e+00,1.000000000000000000e+00,3.861222267150878906e-01,3.866979837417602317e-01,3.666734695434570312e-01,3.563987970352172630e-01,3.521811008453369363e-01,3.493442058563232533e-01,3.465611934661865234e-01,3.500486373901366965e-01,3.681346178054809570e-01,3.655761480331420898e-01,3.651849985122680442e-01,3.701833009719848744e-01,1.000000000000000000e+00,1.000000000000000000e+00,9.694034576416015181e-01,9.376819610595703569e-01,3.469082355499267800e-01,3.536153316497802623e-01,3.500351905822753906e-01,8.291533470153809038e-01,8.058362007141113281e-01,7.837945938110351118e-01,7.629268169403076172e-01,7.431412220001221147e-01
6.194135189056396706e-01,6.351184368133544478e-01,6.516404628753662553e-01,6.690449714660644531e-01,6.874048233032226118e-01,7.068006515502929243e-01,7.273229122161865012e-01,7.490724563598633035e-01,7.721629142761230469e-01,7.967222690582275169e-01,8.228950500488281250e-01,8.508459091186523215e-01,8.807675361633300337e-01,9.128703117370605691e-01,9.474018096923828569e-01,9.846486091613769753e-01,1.000000000000000000e+00,1.000000000000000000e+00,1.000000000000000000e+00,1.000000000000000000e+00,1.000000000000000000e+00,1.000000000000000000e+00,1.000000000000000000e+00,1.000000000000000000e+00,1.000000000000000000e+00,1.000000000000000000e+00,1.000000000000000000e+00,1.000000000000000000e+00,1.000000000000000000e+00,1.000000000000000000e+00,1.000000000000000000e+00,1.000000000000000000e+00,1.000000000000000000e+00,1.000000000000000000e+00,1.000000000000000000e+00,1.000000000000000000e+00,1.000000000000000000e+00,1.000000000000000000e+00,1.000000000000000000e+00,1.000000000000000000e+00,1.000000000000000000e+00,1.000000000000000000e+00,1.000000000000000000e+00,1.000000000000000000e+00,1.000000000000000000e+00,1.000000000000000000e+00,1.000000000000000000e+00,1.000000000000000000e+00,1.000000000000000000e+00,1.000000000000000000e+00,1.000000000000000000e+00,1.000000000000000000e+00,1.000000000000000000e+00,1.000000000000000000e+00,1.000000000000000000e+00,1.000000000000000000e+00,3.878664016723633035e-01,3.911784887313842773e-01,3.701646804809570201e-01,3.579986333847046120e-01,3.510956287384033314e-01,3.480512142181396706e-01,3.452391624450683594e-01,3.475244283676147683e-01,3.684875965118408203e-01,3.659279108047485130e-01,3.659775257110595703e-01,3.711948394775390625e-01,1.000000000000000000e+00,1.000000000000000000e+00,9.694286346435546653e-01,9.377054214477539285e-01,9.079927444458008035e-01,3.618425607681274303e-01,3.409768581390381081e-01,8.291717529296874778e-01,8.058535575866698775e-01,7.838110923767089844e-01,7.629423141479492188e-01,7.431559562683105469e-01
6.194003582000732200e-01,6.351046562194824219e-01,6.516258716583251953e-01,6.690296649932860884e-01,6.873886108398437056e-01,7.067835330963134766e-01,7.273046970367431641e-01,7.490532398223876953e-01,7.721424579620361772e-01,7.967004776000976562e-01,8.228718757629394087e-01,8.508211135864257590e-01,8.807357788085937722e-01,9.128362655639647993e-01,9.473651885986328347e-01,9.846089363098144975e-01,1.000000000000000000e+00,1.000000000000000000e+00,1.000000000000000000e+00,1.000000000000000000e+00,1.000000000000000000e+00,1.000000000000000000e+00,1.000000000000000000e+00,1.000000000000000000e+00,1.000000000000000000e+00,1.000000000000000000e+00,1.000000000000000000e+00,1.000000000000000000e+00,1.000000000000000000e+00,1.000000000000000000e+00,1.000000000000000000e+00,1.000000000000000000e+00,1.000000000000000000e+00,1.000000000000000000e+00,1.000000000000000000e+00,1.000000000000000000e+00,1.000000000000000000e+00,1.000000000000000000e+00,1.000000000000000000e+00,1.000000000000000000e+00,1.000000000000000000e+00,1.000000000000000000e+00,1.000000000000000000e+00,1.000000000000000000e+00,1.000000000000000000e+00,1.000000000000000000e+00,1.000000000000000000e+00,1.000000000000000000e+00,1.000000000000000000e+00,1.000000000000000000e+00,1.000000000000000000e+00,1.000000000000000000e+00,1.000000000000000000e+00,1.000000000000000000e+00,1.000000000000000000e+00,1.000000000000000000e+00,3.860264539718628041e-01,3.835102558135986550e-01,3.745331048965453991e-01,3.595565557479858398e-01,3.500167846679687611e-01,3.469910144805908314e-01,3.440170526504516824e-01,3.446914911270141380e-01,3.490085124969482533e-01,3.668892383575439453e-01,3.675006389617919700e-01,3.729528427124023660e-01,1.000000000000000000e+00,1.000000000000000000e+00,9.694538116455078125e-01,9.377290725708007368e-01,9.080148696899413840e-01,8.801259040832519753e-01,8.538990974426269309e-01,8.291901588439941628e-01,8.058710098266601562e-01,7.838275909423828569e-01,7.629579544067383035e-01,7.431707859039307085e-01
6.193871974945068803e-01,6.350907325744629128e-01,6.516113281250000000e-01,6.690143108367919700e-01,6.873723506927490456e-01,7.067664146423340288e-01,7.272865772247314453e-01,7.490340232849120872e-01,7.721220493316650613e-01,7.966786384582519309e-01,8.228486061096191850e-01,8.507963180541991965e-01,8.807091712951660156e-01,9.128022193908691406e-01,9.473284721374511941e-01,9.845692634582519087e-01,1.000000000000000000e+00,1.000000000000000000e+00,1.000000000000000000e+00,1.000000000000000000e+00,1.000000000000000000e+00,1.000000000000000000e+00,1.000000000000000000e+00,1.000000000000000000e+00,1.000000000000000000e+00,1.000000000000000000e+00,1.000000000000000000e+00,1.000000000000000000e+00,1.000000000000000000e+00,1.000000000000000000e+00,1.000000000000000000e+00,1.000000000000000000e+00,1.000000000000000000e+00,1.000000000000000000e+00,1.000000000000000000e+00,1.000000000000000000e+00,1.000000000000000000e+00,1.000000000000000000e+00,1.000000000000000000e+00,1.000000000000000000e+00,1.000000000000000000e+00,1.000000000000000000e+00,1.000000000000000000e+00,1.000000000000000000e+00,1.000000000000000000e+00,1.000000000000000000e+00,1.000000000000000000e+00,1.000000000000000000e+00,1.000000000000000000e+00,1.000000000000000000e+00,1.000000000000000000e+00,1.000000000000000000e+00,1.000000000000000000e+00,1.000000000000000000e+00,1.000000000000000000e+00,1.000000000000000000e+00,3.825730085372924805e-01,3.800282001495361439e-01,1.000000000000000000e+00,3.610866069793701172e-01,3.505328416824340931e-01,3.454882144927978738e-01,3.424061536788940430e-01,3.419462442398071289e-01,3.461731195449829213e-01,3.680308103561401589e-01,3.691641807556152455e-01,3.752761602401733509e-01,1.000000000000000000e+00,1.000000000000000000e+00,9.694789886474609597e-01,9.377525329589844194e-01,9.080368995666503462e-01,8.801466941833495650e-01,8.539186477661132590e-01,8.292085647583007368e-01,8.058883666992187056e-01,7.838440418243408647e-01,7.629735469818115234e-01,7.431855678558350053e-01
6.193740844726562944e-01,6.350769042968750222e-01,6.515967845916748047e-01,6.689989566802978516e-01,6.873561859130858931e-01,7.067492961883544700e-01,7.272684574127197266e-01,7.490147113800048606e-01,7.721015930175780806e-01,7.966568946838379350e-01,8.228254318237304688e-01,8.507714271545410156e-01,8.806825637817382590e-01,9.127735137939453347e-01,9.472918510437011719e-01,9.845296859741210493e-01,1.000000000000000000e+00,1.000000000000000000e+00,1.000000000000000000e+00,1.000000000000000000e+00,1.000000000000000000e+00,1.000000000000000000e+00,1.000000000000000000e+00,1.000000000000000000e+00,1.000000000000000000e+00,1.000000000000000000e+00,1.000000000000000000e+00,1.000000000000000000e+00,1.000000000000000000e+00,1.000000000000000000e+00,1.000000000000000000e+00,1.000000000000000000e+00,1.000000000000000000e+00,1.000000000000000000e+00,1.000000000000000000e+00,1.000000000000000000e+00,1.000000000000000000e+00,1.000000000000000000e+00,1.000000000000000000e+00,1.000000000000000000e+00,1.000000000000000000e+00,1.000000000000000000e+00,1.000000000000000000e+00,1.000000000000000000e+00,1.000000000000000000e+00,1.000000000000000000e+00,1.000000000000000000e+00,1.000000000000000000e+00,1.000000000000000000e+00,1.000000000000000000e+00,1.000000000000000000e+00,1.000000000000000000e+00,1.000000000000000000e+00,1.000000000000000000e+00,1.000000000000000000e+00,3.923966884613037109e-01,3.809792280197143444e-01,3.787901163101196067e-01,1.000000000000000000e+00,3.647852897644042747e-01,3.523047924041747825e-01,3.441352605819701926e-01,3.406626224517822488e-01,3.392602682113647350e-01,3.429973363876342995e-01,3.691794395446777455e-01,3.708828926086426003e-01,1.000000000000000000e+00,1.000000000000000000e+00,1.000000000000000000e+00,9.695040702819823775e-01,9.377761840820312278e-01,9.080590248107910378e-01,8.801673889160156472e-01,8.539381980895995872e-01,8.292269706726074219e-01,8.059058189392089844e-01,7.838604450225830078e-01,7.629890918731689897e-01,7.432003974914550559e-01
6.193713665008544478e-01,6.350680828094482644e-01,6.515821933746337447e-01,6.689836502075194868e-01,6.873399734497069868e-01,7.067321777343750222e-01,7.272503376007080078e-01,7.489954471588134988e-01,7.720811843872070757e-01,7.966351509094238281e-01,8.228021621704101340e-01,8.507466316223144531e-01,8.806559562683105025e-01,9.127449035644531472e-01,9.472607612609863503e-01,9.844901084899901900e-01,1.000000000000000000e+00,1.000000000000000000e+00,1.000000000000000000e+00,1.000000000000000000e+00,1.000000000000000000e+00,1.000000000000000000e+00,1.000000000000000000e+00,1.000000000000000000e+00,1.000000000000000000e+00,1.000000000000000000e+00,1.000000000000000000e+00,1.000000000000000000e+00,1.000000000000000000e+00,1.000000000000000000e+00,1.000000000000000000e+00,1.000000000000000000e+00,1.000000000000000000e+00,1.000000000000000000e+00,1.000000000000000000e+00,1.000000000000000000e+00,1.000000000000000000e+00,1.000000000000000000e+00,1.000000000000000000e+00,1.000000000000000000e+00,1.000000000000000000e+00,1.000000000000000000e+00,1.000000000000000000e+00,1.000000000000000000e+00,1.000000000000000000e+00,1.000000000000000000e+00,1.000000000000000000e+00,1.000000000000000000e+00,1.000000000000000000e+00,1.000000000000000000e+00,1.000000000000000000e+00,1.000000000000000000e+00,1.000000000000000000e+00,1.000000000000000000e+00,1.000000000000000000e+00,3.918751478195190430e-01,3.788239240646362194e-01,1.000000000000000000e+00,1.000000000000000000e+00,3.683901071548462136e-01,3.540947437286376953e-01,3.435598611831665039e-01,3.391876697540283092e-01,3.366161823272705300e-01,3.398380279541015625e-01,3.702000379562377930e-01,3.731804132461548074e-01,1.000000000000000000e+00,1.000000000000000000e+00,1.000000000000000000e+00,9.695293426513671431e-01,9.377996444702147993e-01,9.080810546875000000e-01,8.801881790161132368e-01,8.539577484130859153e-01,8.292453765869141069e-01,8.059231758117675337e-01,7.838769435882568803e-01,7.630046844482422097e-01,7.432151317596435991e-01
6.193713665008544478e-01,6.350680828094482644e-01,6.515810966491699663e-01,6.689757823944091353e-01,6.873245716094971147e-01,7.067149639129638450e-01,7.272322177886962891e-01,7.489762306213378906e-01,7.720607280731200950e-01,7.966134071350097212e-01,8.227789878845215288e-01,8.507218360900878906e-01,8.806293487548828569e-01,9.127162933349609597e-01,9.472300529479980025e-01,9.844565391540527344e-01,1.000000000000000000e+00,1.000000000000000000e+00,1.000000000000000000e+00,1.000000000000000000e+00,1.000000000000000000e+00,1.000000000000000000e+00,1.000000000000000000e+00,1.000000000000000000e+00,1.000000000000000000e+00,1.000000000000000000e+00,1.000000000000000000e+00,1.000000000000000000e+00,1.000000000000000000e+00,1.000000000000000000e+00,1.000000000000000000e+00,1.000000000000000000e+00,1.000000000000000000e+00,1.000000000000000000e+00,1.000000000000000000e+00,1.000000000000000000e+00,1.000000000000000000e+00,1.000000000000000000e+00,1.000000000000000000e+00,1.000000000000000000e+00,1.000000000000000000e+00,1.000000000000000000e+00,1.000000000000000000e+00,1.000000000000000000e+00,1.000000000000000000e+00,1.000000000000000000e+00,1.000000000000000000e+00,1.000000000000000000e+00,1.000000000000000000e+00,1.000000000000000000e+00,1.000000000000000000e+00,1.000000000000000000e+00,1.000000000000000000e+00,1.000000000000000000e+00,1.000000000000000000e+00,3.907385587692260853e-01,3.774101018905639537e-01,1.000000000000000000e+00,1.000000000000000000e+00,1.000000000000000000e+00,3.573635339736938588e-01,3.452548027038574441e-01,3.386286973953246959e-01,3.343724489212036022e-01,3.367363929748535267e-01,3.712414503097534180e-01,3.743971586227416992e-01,1.000000000000000000e+00,1.000000000000000000e+00,1.000000000000000000e+00,9.695544242858886719e-01,9.378232002258301003e-01,9.081031799316405806e-01,8.802088737487793191e-01,8.539772987365722434e-01,8.292637825012206809e-01,8.059405326843261941e-01,7.838933944702148882e-01,7.630203247070312944e-01,7.432299613952636497e-01
6.193681240081787553e-01,6.350680828094482644e-01,6.515810966491699663e-01,6.689757823944091353e-01,6.873246192932128684e-01,7.067083358764648660e-01,7.272172451019287553e-01,7.489570140838622825e-01,7.720402240753173606e-01,7.965916633605957253e-01,8.227557182312011941e-01,8.506969451904297097e-01,8.806027412414551003e-01,9.126877784729003906e-01,9.471992492675781472e-01,9.844232559204101340e-01,1.000000000000000000e+00,1.000000000000000000e+00,1.000000000000000000e+00,1.000000000000000000e+00,1.000000000000000000e+00,1.000000000000000000e+00,1.000000000000000000e+00,1.000000000000000000e+00,1.000000000000000000e+00,1.000000000000000000e+00,1.000000000000000000e+00,1.000000000000000000e+00,1.000000000000000000e+00,1.000000000000000000e+00,1.000000000000000000e+00,1.000000000000000000e+00,1.000000000000000000e+00,1.000000000000000000e+00,1.000000000000000000e+00,1.000000000000000000e+00,1.000000000000000000e+00,1.000000000000000000e+00,1.000000000000000000e+00,1.000000000000000000e+00,1.000000000000000000e+00,1.000000000000000000e+00,1.000000000000000000e+00,1.000000000000000000e+00,1.000000000000000000e+00,1.000000000000000000e+00,1.000000000000000000e+00,1.000000000000000000e+00,1.000000000000000000e+00,1.000000000000000000e+00,1.000000000000000000e+00,1.000000000000000000e+00,1.000000000000000000e+00,1.000000000000000000e+00,1.000000000000000000e+00,1.000000000000000000e+00,1.000000000000000000e+00,1.000000000000000000e+00,1.000000000000000000e+00,1.000000000000000000e+00,3.595700263977050781e-01,3.472408771514892689e-01,3.383294820785522350e-01,3.335519552230835072e-01,3.349406480789184348e-01,3.723335981369018666e-01,3.755403518676757590e-01,1.000000000000000000e+00,1.000000000000000000e+00,1.000000000000000000e+00,9.695796966552734375e-01,9.378467559814452903e-01,9.081252098083496538e-01,8.802296638488769087e-01,8.539967536926269531e-01,8.292821884155273660e-01,8.059579849243163618e-01,7.839097976684570312e-01,7.630359172821045144e-01,7.432447433471679465e-01
6.193548679351806863e-01,6.350568294525146262e-01,6.515756607055663840e-01,6.689757823944091353e-01,6.873246192932128684e-01,7.067084312438964844e-01,7.272172451019287553e-01,7.489520072937011497e-01,7.720260143280028853e-01,7.965698719024658647e-01,8.227325439453124778e-01,8.506721496582031472e-01,8.805761337280273438e-01,9.126592636108398215e-01,9.471684455871581809e-01,9.843899726867675337e-01,1.000000000000000000e+00,1.000000000000000000e+00,1.000000000000000000e+00,1.000000000000000000e+00,1.000000000000000000e+00,1.000000000000000000e+00,1.000000000000000000e+00,1.000000000000000000e+00,1.000000000000000000e+00,1.000000000000000000e+00,1.000000000000000000e+00,1.000000000000000000e+00,1.000000000000000000e+00,1.000000000000000000e+00,1.000000000000000000e+00,1.000000000000000000e+00,1.000000000000000000e+00,1.000000000000000000e+00,1.000000000000000000e+00,1.000000000000000000e+00,1.000000000000000000e+00,1.000000000000000000e+00,1.000000000000000000e+00,1.000000000000000000e+00,1.000000000000000000e+00,1.000000000000000000e+00,1.000000000000000000e+00,1.000000000000000000e+00,1.000000000000000000e+00,1.000000000000000000e+00,1.000000000000000000e+00,1.000000000000000000e+00,1.000000000000000000e+00,1.000000000000000000e+00,1.000000000000000000e+00,1.000000000000000000e+00,1.000000000000000000e+00,1.000000000000000000e+00,1.000000000000000000e+00,1.000000000000000000e+00,1.000000000000000000e+00,1.000000000000000000e+00,1.000000000000000000e+00,1.000000000000000000e+00,1.000000000000000000e+00,3.494889020919799694e-01,3.391118049621582031e-01,3.340853452682495117e-01,3.356253862380981223e-01,3.734321594238281250e-01,3.794260025024414062e-01,1.000000000000000000e+00,1.000000000000000000e+00,1.000000000000000000e+00,9.696048736572265847e-01,9.378703117370605913e-01,9.081473350524902344e-01,8.802503585815429910e-01,8.540163040161132812e-01,8.293006896972656694e-01,8.059753417968750222e-01,7.839262962341309038e-01,7.630514621734618697e-01,7.432594776153564897e-01
6.193416118621826172e-01,6.350429058074951172e-01,6.515609741210937056e-01,6.689613342285156694e-01,6.873166084289550337e-01,7.067075252532959428e-01,7.272172927856445090e-01,7.489520072937011497e-01,7.720260143280028853e-01,7.965669631958007812e-01,8.227192878723144087e-01,8.506473541259765847e-01,8.805496215820312056e-01,9.126306533813476340e-01,9.471377372741699441e-01,9.843567848205566628e-01,1.000000000000000000e+00,1.000000000000000000e+00,1.000000000000000000e+00,1.000000000000000000e+00,1.000000000000000000e+00,1.000000000000000000e+00,1.000000000000000000e+00,1.000000000000000000e+00,1.000000000000000000e+00,1.000000000000000000e+00,1.000000000000000000e+00,1.000000000000000000e+00,1.000000000000000000e+00,1.000000000000000000e+00,1.000000000000000000e+00,1.000000000000000000e+00,1.000000000000000000e+00,1.000000000000000000e+00,1.000000000000000000e+00,1.000000000000000000e+00,1.000000000000000000e+00,1.000000000000000000e+00,1.000000000000000000e+00,1.000000000000000000e+00,1.000000000000000000e+00,1.000000000000000000e+00,1.000000000000000000e+00,1.000000000000000000e+00,1.000000000000000000e+00,1.000000000000000000e+00,1.000000000000000000e+00,1.000000000000000000e+00,1.000000000000000000e+00,1.000000000000000000e+00,1.000000000000000000e+00,1.000000000000000000e+00,1.000000000000000000e+00,1.000000000000000000e+00,1.000000000000000000e+00,1.000000000000000000e+00,1.000000000000000000e+00,1.000000000000000000e+00,1.000000000000000000e+00,1.000000000000000000e+00,1.000000000000000000e+00,3.486185073852539062e-01,3.409398555755615012e-01,3.359261989593506081e-01,3.377318143844604270e-01,3.743912696838379017e-01,1.000000000000000000e+00,1.000000000000000000e+00,1.000000000000000000e+00,1.000000000000000000e+00,9.696299552917480025e-01,9.378938674926757812e-01,9.081694602966308150e-01,8.802711486816405806e-01,8.540358543395996094e-01,8.293190956115722434e-01,8.059927940368651900e-01,7.839427471160889116e-01,7.630671024322509544e-01,7.432743072509765403e-01
6.193283557891845481e-01,6.350289344787597434e-01,6.515462875366211382e-01,6.689458847045898215e-01,6.873003005981445090e-01,7.066901683807372825e-01,7.272060394287109819e-01,7.489486694335937278e-01,7.720260143280028853e-01,7.965669631958007812e-01,8.227192878723144087e-01,8.506472587585449663e-01,8.805377960205078569e-01,9.126054763793944868e-01,9.471069335937499778e-01,9.843235969543456809e-01,1.000000000000000000e+00,1.000000000000000000e+00,1.000000000000000000e+00,1.000000000000000000e+00,1.000000000000000000e+00,1.000000000000000000e+00,1.000000000000000000e+00,1.000000000000000000e+00,1.000000000000000000e+00,1.000000000000000000e+00,1.000000000000000000e+00,1.000000000000000000e+00,1.000000000000000000e+00,1.000000000000000000e+00,1.000000000000000000e+00,1.000000000000000000e+00,1.000000000000000000e+00,1.000000000000000000e+00,1.000000000000000000e+00,1.000000000000000000e+00,1.000000000000000000e+00,1.000000000000000000e+00,1.000000000000000000e+00,1.000000000000000000e+00,1.000000000000000000e+00,1.000000000000000000e+00,1.000000000000000000e+00,1.000000000000000000e+00,1.000000000000000000e+00,1.000000000000000000e+00,1.000000000000000000e+00,1.000000000000000000e+00,1.000000000000000000e+00,1.000000000000000000e+00,1.000000000000000000e+00,1.000000000000000000e+00,1.000000000000000000e+00,1.000000000000000000e+00,1.000000000000000000e+00,1.000000000000000000e+00,1.000000000000000000e+00,1.000000000000000000e+00,1.000000000000000000e+00,1.000000000000000000e+00,1.000000000000000000e+00,3.484611272811889426e-01,3.424716949462890403e-01,3.382149696350097434e-01,3.401911258697509766e-01,3.760555028915405495e-01,1.000000000000000000e+00,1.000000000000000000e+00,1.000000000000000000e+00,1.000000000000000000e+00,9.696552276611327681e-01,9.379174232482909712e-01,9.081914901733398882e-01,8.802919387817382812e-01,8.540553092956543191e-01,8.293375015258789285e-01,8.060101509094238503e-01,7.839591503143310547e-01,7.630829811096191406e-01,7.432901382446288618e-01
6.193150043487548606e-01,6.350149631500243697e-01,6.515316486358642134e-01,6.689304351806640847e-01,6.872838973999023660e-01,7.066729068756103516e-01,7.271877765655517800e-01,7.489292621612548828e-01,7.720108509063721147e-01,7.965604305267334206e-01,8.227193832397461382e-01,8.506472587585449663e-01,8.805377960205078569e-01,9.126054763793944868e-01,9.470972061157226785e-01,9.842985153198242632e-01,1.000000000000000000e+00,1.000000000000000000e+00,1.000000000000000000e+00,1.000000000000000000e+00,1.000000000000000000e+00,1.000000000000000000e+00,1.000000000000000000e+00,1.000000000000000000e+00,1.000000000000000000e+00,1.000000000000000000e+00,1.000000000000000000e+00,1.000000000000000000e+00,1.000000000000000000e+00,1.000000000000000000e+00,1.000000000000000000e+00,1.000000000000000000e+00,1.000000000000000000e+00,1.000000000000000000e+00,1.000000000000000000e+00,1.000000000000000000e+00,1.000000000000000000e+00,1.000000000000000000e+00,1.000000000000000000e+00,1.000000000000000000e+00,1.000000000000000000e+00,1.000000000000000000e+00,1.000000000000000000e+00,1.000000000000000000e+00,1.000000000000000000e+00,1.000000000000000000e+00,1.000000000000000000e+00,1.000000000000000000e+00,1.000000000000000000e+00,1.000000000000000000e+00,1.000000000000000000e+00,1.000000000000000000e+00,1.000000000000000000e+00,1.000000000000000000e+00,1.000000000000000000e+00,1.000000000000000000e+00,1.000000000000000000e+00,1.000000000000000000e+00,1.000000000000000000e+00,1.000000000000000000e+00,1.000000000000000000e+00,3.491063356399536355e-01,3.440173625946044700e-01,3.405351638793945312e-01,3.446637153625488059e-01,3.792410373687744030e-01,1.000000000000000000e+00,1.000000000000000000e+00,1.000000000000000000e+00,1.000000000000000000e+00,9.696803092956542969e-01,9.379409790039062722e-01,9.082136154174804688e-01,8.803126335144042525e-01,8.540749549865722656e-01,8.293559074401855025e-01,8.060282707214355691e-01,7.839771747589111550e-01,7.631004810333251731e-01,7.433067321777343528e-01
6.193017482757567915e-01,6.350010395050048606e-01,6.515169620513916460e-01,6.689148902893066184e-01,6.872675418853759766e-01,7.066556453704834206e-01,7.271694660186767134e-01,7.489098072052001731e-01,7.719902515411376509e-01,7.965384960174560769e-01,8.226992607116698775e-01,8.506366729736327681e-01,8.805377960205078569e-01,9.126055717468262163e-01,9.470972061157226785e-01,9.842985153198242632e-01,1.000000000000000000e+00,1.000000000000000000e+00,1.000000000000000000e+00,1.000000000000000000e+00,1.000000000000000000e+00,1.000000000000000000e+00,1.000000000000000000e+00,1.000000000000000000e+00,1.000000000000000000e+00,1.000000000000000000e+00,1.000000000000000000e+00,1.000000000000000000e+00,1.000000000000000000e+00,1.000000000000000000e+00,1.000000000000000000e+00,1.000000000000000000e+00,1.000000000000000000e+00,1.000000000000000000e+00,1.000000000000000000e+00,1.000000000000000000e+00,1.000000000000000000e+00,1.000000000000000000e+00,1.000000000000000000e+00,1.000000000000000000e+00,1.000000000000000000e+00,1.000000000000000000e+00,1.000000000000000000e+00,1.000000000000000000e+00,1.000000000000000000e+00,1.000000000000000000e+00,1.000000000000000000e+00,1.000000000000000000e+00,1.000000000000000000e+00,1.000000000000000000e+00,1.000000000000000000e+00,1.000000000000000000e+00,1.000000000000000000e+00,1.000000000000000000e+00,1.000000000000000000e+00,1.000000000000000000e+00,1.000000000000000000e+00,1.000000000000000000e+00,1.000000000000000000e+00,1.000000000000000000e+00,1.000000000000000000e+00,3.503407478332519753e-01,3.455770730972290150e-01,3.426500558853149414e-01,3.478109598159789817e-01,1.000000000000000000e+00,1.000000000000000000e+00,1.000000000000000000e+00,1.000000000000000000e+00,1.000000000000000000e+00,9.697055816650390625e-01,9.379645347595214622e-01,9.082356452941894309e-01,8.803338050842285378e-01,8.540957450866699663e-01,8.293765068054199663e-01,8.060478210449218972e-01,7.839956760406494585e-01,7.631180286407470703e-01,7.433233737945557085e-01
6.192884922027588335e-01,6.349870681762694868e-01,6.515022754669189675e-01,6.688993930816650169e-01,6.872512340545654519e-01,7.066383838653564897e-01,7.271512031555176225e-01,7.488903999328613281e-01,7.719696044921875444e-01,7.965165615081787331e-01,8.226758003234863059e-01,8.506116867065429688e-01,8.805115699768066850e-01,9.125899314880371316e-01,9.470940589904784934e-01,9.842985153198242632e-01,1.000000000000000000e+00,1.000000000000000000e+00,1.000000000000000000e+00,1.000000000000000000e+00,1.000000000000000000e+00,1.000000000000000000e+00,1.000000000000000000e+00,1.000000000000000000e+00,1.000000000000000000e+00,1.000000000000000000e+00,1.000000000000000000e+00,1.000000000000000000e+00,1.000000000000000000e+00,1.000000000000000000e+00,1.000000000000000000e+00,1.000000000000000000e+00,1.000000000000000000e+00,1.000000000000000000e+00,1.000000000000000000e+00,1.000000000000000000e+00,1.000000000000000000e+00,1.000000000000000000e+00,1.000000000000000000e+00,1.000000000000000000e+00,1.000000000000000000e+00,1.000000000000000000e+00,1.000000000000000000e+00,1.000000000000000000e+00,1.000000000000000000e+00,1.000000000000000000e+00,1.000000000000000000e+00,1.000000000000000000e+00,1.000000000000000000e+00,1.000000000000000000e+00,1.000000000000000000e+00,1.000000000000000000e+00,1.000000000000000000e+00,1.000000000000000000e+00,1.000000000000000000e+00,1.000000000000000000e+00,1.000000000000000000e+00,1.000000000000000000e+00,1.000000000000000000e+00,1.000000000000000000e+00,4.235126018524170144e-01,3.514465808868408314e-01,3.458965539932251088e-01,3.428822517395019309e-01,3.476044178009033425e-01,1.000000000000000000e+00,1.000000000000000000e+00,1.000000000000000000e+00,1.000000000000000000e+00,1.000000000000000000e+00,9.697307586669922097e-01,9.379892349243164062e-01,9.082598686218261719e-01,8.803571701049804910e-01,8.541177749633789285e-01,8.293972015380859375e-01,8.060673713684082253e-01,7.840142250061035156e-01,7.631355285644531028e-01,7.433400154113769531e-01
6.192752361297607644e-01,6.349731445312499778e-01,6.514875411987304243e-01,6.688839435577392800e-01,6.872348785400390625e-01,7.066211223602294478e-01,7.271328449249268022e-01,7.488709926605224831e-01,7.719490051269530806e-01,7.964946269989013894e-01,8.226523399353027344e-01,8.505867004394531694e-01,8.804846763610839622e-01,9.125611305236815962e-01,9.470629692077636719e-01,9.842762947082519531e-01,1.000000000000000000e+00,1.000000000000000000e+00,1.000000000000000000e+00,1.000000000000000000e+00,1.000000000000000000e+00,1.000000000000000000e+00,1.000000000000000000e+00,1.000000000000000000e+00,1.000000000000000000e+00,1.000000000000000000e+00,1.000000000000000000e+00,1.000000000000000000e+00,1.000000000000000000e+00,1.000000000000000000e+00,1.000000000000000000e+00,1.000000000000000000e+00,1.000000000000000000e+00,1.000000000000000000e+00,1.000000000000000000e+00,1.000000000000000000e+00,1.000000000000000000e+00,1.000000000000000000e+00,1.000000000000000000e+00,1.000000000000000000e+00,1.000000000000000000e+00,1.000000000000000000e+00,1.000000000000000000e+00,1.000000000000000000e+00,1.000000000000000000e+00,1.000000000000000000e+00,1.000000000000000000e+00,1.000000000000000000e+00,1.000000000000000000e+00,1.000000000000000000e+00,1.000000000000000000e+00,1.000000000000000000e+00,1.000000000000000000e+00,1.000000000000000000e+00,1.000000000000000000e+00,1.000000000000000000e+00,1.000000000000000000e+00,1.000000000000000000e+00,1.000000000000000000e+00,1.000000000000000000e+00,4.242578506469726340e-01,3.525225162506103738e-01,3.463902950286865123e-01,3.431147813796996959e-01,3.472901105880737416e-01,1.000000000000000000e+00,1.000000000000000000e+00,1.000000000000000000e+00,1.000000000000000000e+00,1.000000000000000000e+00,9.697589874267578125e-01,9.380156517028808150e-01,9.082846641540527344e-01,8.803804397583008257e-01,8.541397094726562722e-01,8.294178962707519087e-01,8.060869216918945535e-01,7.840326786041259544e-01,7.631530761718750000e-01,7.433566570281981978e-01
6.192619800567626953e-01,6.349591732025146040e-01,6.514728546142578569e-01,6.688684940338134322e-01,6.872185230255126731e-01,7.066038131713867632e-01,7.271145820617676003e-01,7.488516330718993919e-01,7.719284057617187278e-01,7.964725971221924272e-01,8.226289749145507812e-01,8.505616188049316406e-01,8.804578781127929688e-01,9.125322341918945535e-01,9.470319747924804688e-01,9.842427253723144975e-01,1.000000000000000000e+00,1.000000000000000000e+00,1.000000000000000000e+00,1.000000000000000000e+00,1.000000000000000000e+00,1.000000000000000000e+00,1.000000000000000000e+00,1.000000000000000000e+00,1.000000000000000000e+00,1.000000000000000000e+00,1.000000000000000000e+00,1.000000000000000000e+00,1.000000000000000000e+00,1.000000000000000000e+00,1.000000000000000000e+00,1.000000000000000000e+00,1.000000000000000000e+00,1.000000000000000000e+00,1.000000000000000000e+00,1.000000000000000000e+00,1.000000000000000000e+00,1.000000000000000000e+00,1.000000000000000000e+00,1.000000000000000000e+00,1.000000000000000000e+00,1.000000000000000000e+00,1.000000000000000000e+00,1.000000000000000000e+00,1.000000000000000000e+00,1.000000000000000000e+00,1.000000000000000000e+00,1.000000000000000000e+00,1.000000000000000000e+00,1.000000000000000000e+00,1.000000000000000000e+00,1.000000000000000000e+00,1.000000000000000000e+00,1.000000000000000000e+00,1.000000000000000000e+00,1.000000000000000000e+00,1.000000000000000000e+00,1.000000000000000000e+00,1.000000000000000000e+00,1.000000000000000000e+00,4.270185947418213002e-01,3.536050081253051536e-01,3.470340251922607311e-01,3.433475732803344949e-01,3.469763755798339622e-01,1.000000000000000000e+00,1.000000000000000000e+00,1.000000000000000000e+00,1.000000000000000000e+00,1.000000000000000000e+00,9.697872161865234153e-01,9.380421638488769531e-01,9.083095550537109153e-01,8.804038047790527788e-01,8.541616439819336160e-01,8.294385910034179910e-01,8.061064720153808816e-01,7.840512275695801225e-01,7.631706237792968972e-01,7.433732986450195535e-01
6.192486763000488725e-01,6.349452018737793413e-01,6.514582157135009322e-01,6.688529968261718306e-01,6.872021675109862837e-01,7.065865516662597212e-01,7.270962715148925337e-01,7.488322257995605469e-01,7.719077587127685103e-01,7.964506626129150835e-01,8.226055145263672097e-01,8.505366325378418413e-01,8.804309844970703569e-01,9.125035285949707475e-01,9.470008850097656472e-01,9.842092514038085493e-01,1.000000000000000000e+00,1.000000000000000000e+00,1.000000000000000000e+00,1.000000000000000000e+00,1.000000000000000000e+00,1.000000000000000000e+00,1.000000000000000000e+00,1.000000000000000000e+00,1.000000000000000000e+00,1.000000000000000000e+00,1.000000000000000000e+00,1.000000000000000000e+00,1.000000000000000000e+00,1.000000000000000000e+00,1.000000000000000000e+00,1.000000000000000000e+00,1.000000000000000000e+00,1.000000000000000000e+00,1.000000000000000000e+00,1.000000000000000000e+00,1.000000000000000000e+00,1.000000000000000000e+00,1.000000000000000000e+00,1.000000000000000000e+00,1.000000000000000000e+00,1.000000000000000000e+00,1.000000000000000000e+00,1.000000000000000000e+00,1.000000000000000000e+00,1.000000000000000000e+00,1.000000000000000000e+00,1.000000000000000000e+00,1.000000000000000000e+00,1.000000000000000000e+00,1.000000000000000000e+00,1.000000000000000000e+00,1.000000000000000000e+00,1.000000000000000000e+00,1.000000000000000000e+00,1.000000000000000000e+00,1.000000000000000000e+00,1.000000000000000000e+00,1.000000000000000000e+00,4.468314647674560547e-01,4.307928562164306530e-01,3.547153234481811301e-01,3.481088876724243164e-01,3.436759233474731556e-01,3.466632127761840598e-01,1.000000000000000000e+00,1.000000000000000000e+00,1.000000000000000000e+00,1.000000000000000000e+00,1.000000000000000000e+00,9.698155403137207475e-01,9.380686759948730913e-01,9.083343505859374778e-01,8.804271697998047319e-01,8.541836738586425781e-01,8.294592857360839622e-01,8.061260223388672097e-01,7.840697288513183150e-01,7.631881237030029297e-01,7.433898925781250444e-01
6.192354202270508035e-01,6.349312782287597212e-01,6.514435291290283647e-01,6.688375473022460938e-01,6.871858119964600053e-01,7.065692901611327903e-01,7.270780086517334428e-01,7.488128662109374556e-01,7.718871593475341575e-01,7.964287281036377397e-01,8.225821495056152566e-01,8.505115509033203125e-01,8.804041862487792525e-01,9.124747276306152122e-01,9.469698905944824441e-01,9.841757774353027122e-01,1.000000000000000000e+00,1.000000000000000000e+00,1.000000000000000000e+00,1.000000000000000000e+00,1.000000000000000000e+00,1.000000000000000000e+00,1.000000000000000000e+00,1.000000000000000000e+00,1.000000000000000000e+00,1.000000000000000000e+00,1.000000000000000000e+00,1.000000000000000000e+00,1.000000000000000000e+00,1.000000000000000000e+00,1.000000000000000000e+00,1.000000000000000000e+00,1.000000000000000000e+00,1.000000000000000000e+00,1.000000000000000000e+00,1.000000000000000000e+00,1.000000000000000000e+00,1.000000000000000000e+00,1.000000000000000000e+00,1.000000000000000000e+00,1.000000000000000000e+00,1.000000000000000000e+00,1.000000000000000000e+00,1.000000000000000000e+00,1.000000000000000000e+00,1.000000000000000000e+00,1.000000000000000000e+00,1.000000000000000000e+00,1.000000000000000000e+00,1.000000000000000000e+00,1.000000000000000000e+00,1.000000000000000000e+00,1.000000000000000000e+00,1.000000000000000000e+00,1.000000000000000000e+00,1.000000000000000000e+00,1.000000000000000000e+00,1.000000000000000000e+00,1.000000000000000000e+00,4.475219249725341797e-01,4.366250991821288840e-01,3.558910846710204856e-01,3.492994070053100364e-01,3.448506593704223633e-01,3.466457366943359597e-01,1.000000000000000000e+00,1.000000000000000000e+00,1.000000000000000000e+00,1.000000000000000000e+00,1.000000000000000000e+00,9.698438644409179688e-01,9.380951881408691184e-01,9.083592414855956587e-01,8.804504394531249556e-01,8.542056083679199219e-01,8.294800758361816628e-01,8.061456680297851562e-01,7.840882301330566184e-01,7.632056713104248269e-01,7.434065341949462891e-01
6.192221641540527344e-01,6.349173545837402122e-01,6.514288425445556863e-01,6.688220024108886275e-01,6.871695041656493697e-01,7.065520286560058594e-01,7.270597457885742410e-01,7.487934112548828569e-01,7.718665599822998047e-01,7.964068412780761497e-01,8.225587844848633035e-01,8.504865646362305132e-01,8.803773880004882590e-01,9.124458312988281694e-01,9.469388961791992410e-01,9.841422080993652566e-01,1.000000000000000000e+00,1.000000000000000000e+00,1.000000000000000000e+00,1.000000000000000000e+00,1.000000000000000000e+00,1.000000000000000000e+00,1.000000000000000000e+00,1.000000000000000000e+00,1.000000000000000000e+00,1.000000000000000000e+00,1.000000000000000000e+00,1.000000000000000000e+00,1.000000000000000000e+00,1.000000000000000000e+00,1.000000000000000000e+00,1.000000000000000000e+00,1.000000000000000000e+00,1.000000000000000000e+00,1.000000000000000000e+00,1.000000000000000000e+00,1.000000000000000000e+00,1.000000000000000000e+00,1.000000000000000000e+00,1.000000000000000000e+00,1.000000000000000000e+00,1.000000000000000000e+00,1.000000000000000000e+00,1.000000000000000000e+00,1.000000000000000000e+00,1.000000000000000000e+00,1.000000000000000000e+00,1.000000000000000000e+00,1.000000000000000000e+00,1.000000000000000000e+00,1.000000000000000000e+00,1.000000000000000000e+00,1.000000000000000000e+00,1.000000000000000000e+00,1.000000000000000000e+00,1.000000000000000000e+00,1.000000000000000000e+00,1.000000000000000000e+00,1.000000000000000000e+00,4.528161525726318581e-01,4.428473472595214622e-01,3.572508335113525613e-01,3.506141185760497936e-01,3.464116573333740345e-01,3.466694355010986328e-01,1.000000000000000000e+00,1.000000000000000000e+00,1.000000000000000000e+00,1.000000000000000000e+00,1.000000000000000000e+00,9.698721885681151900e-01,9.381216049194336382e-01,9.083840370178222212e-01,8.804738044738769087e-01,8.542275428771972656e-01,8.295007705688476340e-01,8.061652183532714844e-01,7.841067314147949219e-01,7.632232189178467241e-01,7.434231758117675337e-01
6.192089080810546653e-01,6.349033832550048384e-01,6.514141082763671431e-01,6.688065528869628906e-01,6.871531963348388450e-01,7.065347671508789285e-01,7.270413875579834206e-01,7.487740039825439009e-01,7.718459606170654519e-01,7.963849067687988059e-01,8.225353240966797319e-01,8.504614830017089844e-01,8.803505897521972656e-01,9.124171257019042525e-01,9.469078063964844194e-01,9.710310935974121316e-01,9.707902908325195535e-01,9.705496788024902122e-01,9.703091621398926003e-01,9.700686454772948775e-01,9.698284149169922319e-01,9.695881843566894753e-01,9.693481445312499556e-01,9.691082000732421653e-01,9.688683509826659934e-01,9.686286926269531694e-01,9.683891296386718528e-01,9.681495666503906472e-01,9.679101943969726785e-01,9.676710128784179465e-01,9.674318313598633257e-01,9.671928405761718306e-01,9.669539451599120650e-01,9.667152404785156472e-01,9.664765357971191184e-01,9.662380218505859375e-01,9.659996032714843750e-01,9.657612800598144309e-01,9.655231475830078347e-01,9.652851104736328569e-01,9.650471687316894975e-01,9.648093223571777566e-01,9.645716667175292525e-01,9.643340110778808594e-01,9.640966415405273215e-01,9.638591766357421653e-01,9.636219978332519753e-01,9.633848190307616743e-01,9.631478309631347212e-01,9.629109382629394975e-01,9.626741409301757812e-01,9.624375343322754128e-01,9.622009277343750444e-01,9.619645118713379128e-01,9.617282867431640181e-01,9.614919662475586160e-01,9.612559318542480691e-01,9.610199928283691406e-01,9.607841491699218306e-01,4.522322177886962669e-01,4.568277359008788840e-01,3.624524831771850364e-01,3.519650936126709206e-01,3.472275257110595814e-01,3.466931819915771706e-01,9.591364860534667969e-01,9.589015007019042747e-01,9.586668014526367188e-01,9.584321022033691628e-01,9.581974983215332253e-01,9.579629898071289062e-01,9.381481170654296653e-01,9.084089279174805132e-01,8.804971694946288618e-01,8.542494773864746094e-01,8.295214653015137163e-01,8.061847686767578125e-01,7.841252326965332253e-01,7.632407188415527566e-01,7.434398174285888894e-01
6.191956520080565962e-01,6.348894119262695757e-01,6.513994693756103294e-01,6.687911033630371538e-01,6.871368408203124556e-01,7.065174102783202681e-01,7.270231246948242188e-01,7.487546443939209206e-01,7.542548656463623491e-01,7.541096210479736328e-01,7.539643764495849165e-01,7.538192272186279297e-01,7.536741256713866965e-01,7.535289764404297097e-01,7.533840179443359597e-01,7.532390594482422097e-01,7.530941963195800781e-01,7.529493808746338113e-01,7.528045654296875444e-01,7.526598930358886497e-01,7.525151252746582475e-01,7.523705482482909712e-01,7.522259712219238059e-01,7.520814895629882590e-01,7.519370555877685769e-01,7.517926692962646484e-01,7.516483306884765847e-01,7.515040874481201394e-01,7.513597965240478294e-01,7.512156009674072488e-01,7.510715007781982866e-01,7.509274482727050781e-01,7.507834911346435991e-01,7.506395339965820090e-01,7.504956722259521484e-01,7.503517627716064231e-01,7.502079486846924272e-01,7.500642299652099387e-01,7.499206066131591797e-01,7.497769832611084206e-01,7.496334075927734153e-01,7.494899272918701394e-01,7.493463993072509988e-01,7.492030143737793413e-01,7.490596771240234375e-01,7.489163875579833984e-01,7.487731933593749778e-01,7.486299991607665572e-01,7.484869003295898660e-01,7.483437538146973100e-01,7.482007503509521262e-01,7.480577945709228072e-01,7.479148864746093528e-01,7.477720737457275169e-01,7.476293087005615456e-01,7.474865436553954634e-01,7.473437786102294922e-01,7.472011566162108931e-01,7.470585823059081587e-01,4.513502597808837780e-01,4.564488887786865012e-01,7.466312408447265403e-01,3.533265113830566517e-01,3.476778745651245006e-01,3.467169046401977761e-01,7.460620403289794922e-01,7.459199428558349609e-01,7.457778453826904297e-01,7.456358432769775169e-01,7.454938411712646040e-01,7.453519344329834206e-01,7.452099800109863725e-01,7.450681686401366965e-01,7.449264049530028853e-01,7.447846889495849387e-01,7.446430683135986106e-01,7.445014476776122825e-01,7.443599224090575728e-01,7.442183494567871094e-01,7.434564590454101340e-01
6.166996955871582031e-01,6.166025638580322488e-01,6.165054798126220481e-01,6.164083957672119585e-01,6.163113117218017578e-01,6.162143230438232866e-01,6.161173820495605691e-01,6.160203933715819868e-01,6.159234523773193803e-01,6.158266067504882812e-01,6.157297611236571822e-01,6.156329154968261941e-01,6.155361652374267134e-01,6.154393672943114790e-01,6.153426170349121094e-01,6.152459144592284934e-01,6.151492595672607422e-01,6.150526046752929910e-01,6.149559974670409934e-01,6.148594379425048606e-01,6.147628784179687278e-01,6.146663188934325950e-01,6.145698547363280806e-01,6.144733905792236772e-01,6.143769741058349165e-01,6.142806053161621316e-01,6.141842365264892356e-01,6.140879154205322044e-01,6.139915466308594194e-01,6.138952732086181419e-01,6.137990474700927290e-01,6.137028217315674272e-01,6.136066436767577681e-01,6.135105133056640847e-01,6.134143829345702903e-01,6.133183002471923606e-01,6.132221698760986772e-01,6.131261825561523660e-01,6.130301475524901900e-01,6.129342079162597434e-01,6.128382682800292969e-01,6.127423286437988503e-01,6.126464843750000222e-01,6.125505447387695757e-01,6.124547481536865012e-01,6.123589515686035378e-01,6.122632026672363281e-01,6.121674537658691184e-01,6.120717525482177734e-01,6.119760990142821822e-01,6.118803977966308372e-01,6.117847919464111106e-01,6.116892337799072488e-01,6.115936756134032759e-01,6.114981651306152788e-01,6.114026546478271706e-01,6.113071918487549272e-01,6.112117290496825728e-01,4.525256156921386719e-01,4.511511325836181641e-01,4.536787509918213113e-01,6.108303070068359375e-01,3.569075107574463113e-01,3.515098094940185547e-01,3.470295906066894753e-01,6.104493141174316406e-01,6.103541374206542525e-01,6.102590084075927290e-01,6.101638793945312056e-01,6.100687980651855469e-01,6.099737644195556419e-01,6.098787784576416016e-01,6.097837448120116965e-01,6.096887588500976562e-01,6.095938682556152344e-01,6.094989776611328125e-01,6.094040870666503906e-01,6.093092441558838335e-01,6.092144489288330300e-01,6.091196060180663618e-01
5.210229396820068581e-01,5.209536075592040572e-01,5.208843231201172319e-01,5.208149909973144309e-01,5.207457065582274947e-01,5.206764698028564231e-01,5.206072330474853516e-01,5.205379486083984153e-01,5.204687595367432085e-01,5.203995704650878906e-01,5.203303813934325728e-01,5.202612400054931197e-01,5.201921463012695312e-01,5.201230525970459428e-01,5.200539588928222434e-01,5.199848651885986550e-01,5.199157714843749556e-01,5.198467731475829856e-01,5.197777271270751509e-01,5.197087287902831809e-01,5.196397781372070757e-01,5.195708274841308594e-01,5.195018291473388894e-01,5.194329261779785378e-01,5.193640232086181863e-01,5.192951202392578347e-01,5.192262649536132368e-01,5.191574096679687500e-01,5.190886020660400169e-01,5.190197467803955300e-01,5.189509391784667969e-01,5.188821792602539285e-01,5.188134193420410600e-01,5.187446594238280806e-01,5.186759471893310769e-01,5.186072826385498269e-01,5.185385227203369585e-01,5.184698581695557085e-01,5.184012413024902122e-01,5.183325767517089622e-01,5.182640075683593306e-01,5.181953907012939453e-01,5.181268215179443137e-01,5.180582523345946822e-01,5.179896831512451616e-01,5.179211616516112837e-01,5.178526401519775169e-01,5.177841663360596147e-01,5.177156925201416016e-01,5.176472663879394531e-01,5.175788402557373047e-01,5.175103664398192915e-01,5.174419879913330078e-01,5.173736095428467241e-01,5.173052787780761941e-01,5.172369480133056641e-01,5.171686172485351340e-01,5.171002864837646040e-01,4.462433338165283092e-01,4.484703540802001953e-01,5.168954849243163618e-01,5.168272495269775613e-01,3.580175876617431863e-01,3.515620231628417969e-01,3.484585046768188255e-01,5.165544509887695090e-01,5.164863109588623269e-01,5.164182186126708984e-01,5.163500785827637163e-01,5.162819862365722878e-01,5.162139415740967241e-01,5.161458969116210493e-01,5.160778522491454856e-01,5.160098075866699219e-01,5.159418106079101118e-01,5.158738136291504128e-01,5.158058643341064675e-01,5.157379150390625222e-01,5.156700134277343306e-01,5.156020641326903853e-01
4.510461807250976674e-01,4.509942531585693359e-01,4.509423255920410045e-01,4.508903503417968639e-01,4.508384227752685325e-01,4.507865428924560658e-01,4.507346153259277344e-01,4.506827354431152122e-01,4.506308555603027455e-01,4.505789756774902233e-01,4.505270957946777566e-01,4.504752635955810436e-01,4.504234313964843861e-01,4.503715991973876731e-01,4.503198146820068248e-01,4.502680301666259766e-01,4.502162456512451283e-01,4.501644611358642800e-01,4.501127243041992410e-01,4.500609874725342019e-01,4.500092506408691628e-01,4.499575138092041238e-01,4.499058246612548939e-01,4.498540878295898549e-01,4.498023986816406250e-01,4.497507572174072044e-01,4.496991157531738392e-01,4.496474742889404186e-01,4.495958328247070535e-01,4.495441913604736328e-01,4.494925498962402122e-01,4.494409561157226562e-01,4.493893623352051003e-01,4.493378162384032981e-01,4.492862224578857422e-01,4.492346763610839955e-01,4.491831779479980580e-01,4.491315841674804465e-01,4.490800857543945090e-01,4.490285873413085715e-01,4.489770889282226340e-01,4.489255905151366965e-01,4.488741397857666238e-01,4.488226890563964955e-01,4.487712383270263672e-01,4.487197875976562389e-01,4.486683368682861106e-01,4.486169338226318470e-01,4.485655307769775280e-01,4.485141754150390736e-01,4.484627723693847545e-01,4.484114170074463002e-01,4.483600616455077903e-01,4.483087062835693359e-01,4.482573986053466908e-01,4.482060909271240456e-01,4.481547832489013450e-01,4.481034755706786998e-01,4.480522155761718639e-01,4.480009078979492188e-01,4.479496479034423828e-01,4.478983879089355469e-01,3.595551967620849720e-01,3.487689495086669922e-01,3.435527086257934570e-01,3.429747104644775280e-01,4.476423263549804688e-01,4.475911617279052512e-01,4.475399971008300892e-01,4.474888324737548717e-01,4.474377155303955189e-01,4.473865985870361106e-01,4.473354816436767578e-01,4.472843647003174050e-01,4.472332477569579967e-01,4.471821784973144531e-01,4.471311092376709095e-01,4.470800399780273660e-01,4.470289707183837669e-01,4.469779491424560325e-01
3.976405382156372181e-01,3.976001501083373801e-01,3.975597381591796653e-01,3.975193738937378152e-01,3.974790096282959095e-01,3.974386692047119363e-01,3.973983287811279075e-01,3.973580121994018666e-01,3.973176717758178933e-01,3.972773313522338645e-01,3.972370147705078236e-01,3.971967220306396595e-01,3.971564292907714955e-01,3.971161365509033314e-01,3.970758676528930442e-01,3.970356225967407449e-01,3.969953060150146484e-01,3.969550609588622936e-01,3.969148159027099387e-01,3.968745708465576394e-01,3.968343496322631614e-01,3.967941284179687389e-01,3.967539310455322488e-01,3.967137336730957031e-01,3.966734886169433483e-01,3.966333150863647350e-01,3.965931415557861217e-01,3.965529680252075084e-01,3.965128183364868275e-01,3.964726686477660911e-01,3.964325189590454102e-01,3.963923692703247292e-01,3.963522434234619252e-01,3.963121414184570535e-01,3.962720155715942494e-01,3.962319135665893777e-01,3.961918354034423828e-01,3.961517333984375111e-01,3.961116075515747070e-01,3.960715532302856445e-01,3.960314750671386497e-01,3.959914207458495872e-01,3.959513902664184570e-01,3.959113359451293945e-01,3.958713054656982644e-01,3.958312988281250111e-01,3.957912683486938255e-01,3.957512617111206277e-01,3.957112789154052512e-01,3.956712722778320535e-01,3.956312894821166770e-01,3.955913305282592884e-01,3.955513715744018444e-01,3.955113649368285911e-01,3.954714059829712025e-01,3.954314708709716908e-01,3.953915357589721791e-01,3.953516006469726674e-01,3.953116893768310325e-01,3.952717781066894531e-01,3.952318906784057506e-01,3.951919794082641713e-01,3.608652114868163840e-01,3.449864864349365123e-01,3.392838478088379128e-01,3.358657360076904297e-01,3.343618154525757058e-01,3.949527502059936301e-01,3.949129104614257924e-01,3.948730945587158314e-01,3.948332548141479381e-01,3.947934627532959095e-01,3.947536468505859486e-01,3.947138547897338645e-01,3.946740627288818359e-01,3.946342945098876842e-01,3.945945024490356556e-01,3.945547580718994363e-01,3.945149898529052845e-01,3.944752454757690652e-01
3.555428266525268444e-01,3.555105447769165150e-01,3.554782629013061301e-01,3.554459810256958008e-01,3.554137229919433483e-01,3.553814411163330189e-01,3.553491830825805664e-01,3.553169250488281139e-01,3.552846908569335938e-01,3.552524566650390736e-01,3.552202224731445535e-01,3.551879882812499778e-01,3.551557302474975808e-01,3.551235198974609375e-01,3.550913095474242942e-01,3.550591230392455833e-01,3.550269126892089955e-01,3.549947261810302845e-01,3.549625396728515736e-01,3.549303293228149303e-01,3.548981666564941517e-01,3.548660039901733176e-01,3.548338413238525391e-01,3.548016786575317605e-01,3.547695398330688588e-01,3.547373533248901478e-01,3.547052145004272461e-01,3.546730756759643444e-01,3.546409606933593750e-01,3.546088457107544056e-01,3.545767307281494363e-01,3.545446157455444114e-01,3.545125246047973744e-01,3.544804096221924050e-01,3.544483184814453125e-01,3.544162511825561523e-01,3.543841600418090598e-01,3.543520927429198997e-01,3.543200254440307395e-01,3.542879104614257701e-01,3.542558670043945424e-01,3.542238235473632590e-01,3.541917800903320312e-01,3.541597366333008035e-01,3.541276931762695201e-01,3.540956735610961692e-01,3.540636539459228738e-01,3.540316343307495228e-01,3.539996147155761719e-01,3.539676189422607533e-01,3.539356231689453347e-01,3.539036273956298606e-01,3.538716554641723744e-01,3.538396596908569558e-01,3.538076400756836049e-01,3.537756919860839955e-01,3.537437200546264537e-01,3.537117719650268444e-01,3.536798000335693581e-01,3.536478757858276256e-01,3.536159276962280162e-01,3.535839796066284069e-01,3.535520553588867299e-01,3.427884340286254661e-01,3.320616006851196400e-01,3.285227060317993386e-01,3.268170595169067605e-01,3.244080781936645730e-01,3.533605813980102428e-01,3.533286809921264426e-01,3.532968044281005748e-01,3.532649278640747070e-01,3.532330513000488392e-01,3.532011985778808483e-01,3.531693220138549805e-01,3.531374692916869895e-01,3.531056404113769309e-01,3.530737876892089955e-01,3.530419588088989369e-01,3.530101299285888783e-01
3.215054750442504772e-01,3.214790582656860130e-01,3.214526414871216042e-01,3.214262485504150169e-01,3.213998794555664174e-01,3.213734865188598855e-01,3.213471174240112305e-01,3.213207483291625755e-01,3.212943315505981667e-01,3.212679862976074441e-01,3.212416172027587891e-01,3.212152719497680664e-01,3.211889266967773438e-01,3.211625576019286887e-01,3.211362361907958984e-01,3.211098670959472434e-01,3.210835218429565208e-01,3.210572004318237305e-01,3.210308790206909402e-01,3.210045576095580944e-01,3.209782361984253041e-01,3.209519147872924583e-01,3.209255933761596680e-01,3.208992719650268777e-01,3.208729743957519642e-01,3.208467006683349831e-01,3.208203792572021373e-01,3.207940816879272239e-01,3.207678079605102428e-01,3.207415342330932617e-01,3.207152605056762806e-01,3.206889867782592995e-01,3.206627130508422630e-01,3.206364631652832142e-01,3.206102132797241100e-01,3.205839633941650613e-01,3.205577135086059570e-01,3.205314636230468528e-01,3.205052137374878041e-01,3.204789876937866322e-01,3.204527378082275280e-01,3.204265117645263561e-01,3.204002857208251842e-01,3.203740596771240123e-01,3.203478574752807728e-01,3.203216552734374778e-01,3.202954530715942383e-01,3.202692508697509988e-01,3.202430486679077037e-01,3.202168703079223411e-01,3.201906681060791016e-01,3.201644897460937389e-01,3.201383113861083762e-01,3.201121330261230691e-01,3.200859308242797741e-01,3.200597763061523438e-01,3.200336217880249134e-01,3.200074672698974831e-01,3.199812889099121205e-01,3.199551343917846902e-01,3.199290037155151367e-01,3.199028730392455833e-01,3.198767185211181530e-01,3.198505878448486550e-01,3.198244810104370339e-01,3.197983503341674805e-01,3.197722196578979270e-01,3.197461128234863059e-01,3.197200059890746848e-01,3.196938753128051869e-01,3.196677684783935658e-01,3.196416616439819447e-01,3.196155786514282005e-01,3.195894956588745117e-01,3.195634126663208230e-01,3.195373296737670787e-01,3.195112466812133900e-01,3.194851875305175781e-01,3.194591045379638894e-01,3.194330453872680775e-01
2.934157371520996205e-01,2.933937311172485352e-01,2.933717489242553822e-01,2.933497667312622292e-01,2.933277606964111439e-01,2.933058023452758678e-01,2.932838201522827148e-01,2.932618618011474387e-01,2.932399034500122181e-01,2.932179450988769420e-01,2.931959867477417214e-01,2.931740045547485130e-01,2.931520462036132924e-01,2.931300878524780162e-01,2.931081533432006725e-01,2.930862188339233287e-01,2.930642843246459850e-01,2.930423498153686412e-01,2.930203914642334206e-01,2.929984569549560769e-01,2.929765224456787331e-01,2.929546117782592662e-01,2.929327011108398549e-01,2.929107666015625111e-01,2.928888559341430442e-01,2.928669214248657005e-01,2.928450345993042214e-01,2.928231000900268777e-01,2.928011894226074108e-01,2.927793025970458762e-01,2.927574157714843972e-01,2.927355289459228627e-01,2.927136421203613281e-01,2.926917552947997936e-01,2.926698684692382590e-01,2.926480054855346569e-01,2.926261186599731223e-01,2.926042556762695201e-01,2.925823926925659180e-01,2.925605297088623158e-01,2.925386667251587136e-01,2.925168037414550559e-01,2.924949407577514537e-01,2.924731016159057839e-01,2.924512386322021262e-01,2.924293994903564564e-01,2.924075603485107311e-01,2.923857212066650613e-01,2.923639059066772683e-01,2.923420667648315430e-01,2.923202514648437500e-01,2.922984123229980247e-01,2.922765970230102317e-01,2.922547817230224387e-01,2.922329664230346458e-01,2.922111272811889759e-01,2.921893358230590598e-01,2.921675205230712669e-01,2.921457290649414062e-01,2.921239376068115456e-01,2.921021461486816295e-01,2.920803546905517689e-01,2.920585632324218528e-01,2.920367717742919922e-01,2.920150041580200084e-01,2.919932126998901478e-01,2.919714450836181641e-01,2.919496774673461803e-01,2.919279098510741965e-01,2.919061422348022683e-01,2.918843507766723522e-01,2.918625831604003684e-01,2.918408393859863170e-01,2.918190956115722656e-01,2.917973279953002819e-01,2.917755842208862305e-01,2.917538404464721791e-01,2.917321205139160045e-01,2.917103767395019531e-01,2.916886568069457786e-01
2.698399782180785911e-01,2.698213577270507924e-01,2.698027610778808705e-01,2.697841882705688255e-01,2.697655916213989036e-01,2.697469949722289817e-01,2.697284221649169922e-01,2.697098255157470703e-01,2.696912527084350808e-01,2.696726799011230358e-01,2.696541070938110463e-01,2.696355342864990012e-01,2.696169614791870117e-01,2.695983886718750222e-01,2.695798158645629772e-01,2.695612430572509877e-01,2.695426940917968750e-01,2.695241451263427623e-01,2.695055961608886497e-01,2.694870471954345925e-01,2.694684982299804799e-01,2.694499254226684348e-01,2.694314002990722545e-01,2.694128513336181419e-01,2.693943023681640847e-01,2.693757772445678489e-01,2.693572521209716686e-01,2.693387269973754883e-01,2.693201780319213756e-01,2.693016529083251953e-01,2.692831277847290150e-01,2.692645788192749023e-01,2.692460775375365989e-01,2.692275524139404186e-01,2.692090511322021706e-01,2.691905260086059348e-01,2.691720247268676869e-01,2.691535234451293834e-01,2.691350221633911355e-01,2.691165208816528320e-01,2.690980195999145286e-01,2.690795421600341575e-01,2.690610170364379772e-01,2.690425395965576061e-01,2.690240383148193581e-01,2.690055608749389870e-01,2.689870834350586160e-01,2.689686059951782449e-01,2.689501285552978738e-01,2.689316511154175027e-01,2.689131736755371316e-01,2.688947200775146373e-01,2.688762426376342662e-01,2.688577890396118275e-01,2.688393354415893333e-01,2.688208580017089622e-01,2.688023805618285911e-01,2.687839269638061523e-01,2.687654733657837136e-01,2.687470436096191517e-01,2.687285900115966575e-01,2.687101364135742188e-01,2.686917066574096569e-01,2.686732769012450950e-01,2.686548233032226562e-01,2.686363935470580944e-01,2.686179637908935325e-01,2.685995340347290261e-01,2.685811042785644642e-01,2.685626983642578347e-01,2.685442686080932728e-01,2.685258388519287109e-01,2.685074090957641491e-01,2.684890031814575195e-01,2.684705972671508900e-01,2.684521913528442605e-01,2.684337854385375755e-01,2.684153795242309459e-01,2.683969736099243164e-01,2.683785915374755637e-01
2.497710466384887584e-01,2.497551202774047907e-01,2.497391939163207952e-01,2.497232437133788951e-01,2.497073173522949274e-01,2.496913909912109319e-01,2.496754646301269642e-01,2.496595382690429688e-01,2.496436119079589733e-01,2.496277093887329102e-01,2.496117830276489147e-01,2.495958566665649470e-01,2.495799541473388561e-01,2.495640516281127930e-01,2.495481252670287975e-01,2.495322227478027344e-01,2.495163202285766713e-01,2.495004177093505804e-01,2.494845151901245173e-01,2.494686126708984264e-01,2.494527339935302679e-01,2.494368314743042048e-01,2.494209527969360463e-01,2.494050502777099554e-01,2.493891477584838923e-01,2.493732690811157338e-01,2.493573904037475475e-01,2.493415117263793890e-01,2.493256330490112305e-01,2.493097543716430720e-01,2.492938756942749134e-01,2.492779731750488226e-01,2.492621183395385687e-01,2.492462396621704102e-01,2.492303609848022516e-01,2.492145061492919977e-01,2.491986274719238392e-01,2.491827726364135853e-01,2.491669178009033314e-01,2.491510629653930775e-01,2.491352081298828236e-01,2.491193532943725697e-01,2.491034984588623158e-01,2.490876436233520619e-01,2.490717887878418080e-01,2.490559577941894587e-01,2.490401029586792048e-01,2.490242719650268555e-01,2.490084409713745062e-01,2.489926099777221569e-01,2.489767551422119030e-01,2.489609241485595814e-01,2.489450931549072321e-01,2.489292860031127874e-01,2.489134550094604381e-01,2.488976240158081166e-01,2.488818168640136719e-01,2.488659620285034180e-01,2.488501548767089733e-01,2.488343477249145563e-01,2.488185167312622070e-01,2.488027095794677623e-01,2.487869024276733454e-01,2.487710952758789007e-01,2.487552881240844838e-01,2.487394809722900391e-01,2.487236976623535267e-01,2.487078905105590820e-01,2.486920833587646373e-01,2.486763000488281250e-01,2.486604928970336803e-01,2.486447095870971680e-01,2.486289024353027233e-01,2.486131191253662109e-01,2.485973358154296986e-01,2.485815525054931585e-01,2.485657691955566462e-01,2.485499858856201061e-01,2.485342025756835938e-01,2.485184431076049860e-01
2.324806451797485352e-01,2.324668407440185491e-01,2.324530601501464955e-01,2.324392557144165095e-01,2.324254512786865234e-01,2.324116468429565374e-01,2.323978662490844838e-01,2.323840618133544977e-01,2.323702573776245117e-01,2.323564767837524303e-01,2.323426723480224720e-01,2.323288917541503906e-01,2.323151111602783092e-01,2.323013067245483509e-01,2.322875261306762695e-01,2.322737455368041881e-01,2.322599649429321345e-01,2.322461843490600530e-01,2.322324275970459040e-01,2.322186470031738226e-01,2.322048425674438366e-01,2.321910858154296875e-01,2.321773052215576061e-01,2.321635484695434570e-01,2.321497917175293080e-01,2.321360111236572266e-01,2.321222543716430775e-01,2.321084737777709961e-01,2.320947170257568470e-01,2.320809602737426702e-01,2.320672035217285212e-01,2.320534467697143444e-01,2.320396900177001953e-01,2.320259571075439509e-01,2.320121765136718694e-01,2.319984436035156250e-01,2.319846868515014759e-01,2.319709300994872991e-01,2.319571733474731501e-01,2.319434404373169056e-01,2.319297075271606334e-01,2.319159746170043890e-01,2.319022178649902399e-01,2.318884849548339955e-01,2.318747520446777233e-01,2.318610191345214788e-01,2.318472862243652344e-01,2.318335533142089899e-01,2.318198204040527455e-01,2.318061113357544056e-01,2.317923784255981334e-01,2.317786455154418890e-01,2.317649364471435491e-01,2.317512273788452093e-01,2.317374944686889648e-01,2.317237854003906250e-01,2.317100763320922852e-01,2.316963672637939453e-01,2.316826343536377009e-01,2.316689252853393610e-01,2.316552162170410212e-01,2.316415071487426813e-01,2.316278219223022461e-01,2.316141128540039062e-01,2.316004037857055664e-01,2.315867185592651312e-01,2.315730094909667913e-01,2.315593242645263561e-01,2.315456151962280162e-01,2.315319299697876088e-01,2.315182447433471735e-01,2.315045595169067383e-01,2.314908742904663030e-01,2.314771652221679632e-01,2.314634799957275280e-01,2.314497947692871205e-01,2.314361095428466852e-01,2.314224481582641546e-01,2.314087629318237194e-01,2.313950777053833119e-01
2.174291372299194391e-01,2.174170732498169056e-01,2.174049854278564398e-01,2.173928976058960016e-01,2.173808336257934681e-01,2.173687696456909069e-01,2.173567056655883734e-01,2.173446416854858398e-01,2.173325777053833063e-01,2.173205137252807728e-01,2.173084259033203069e-01,2.172963619232177734e-01,2.172843217849731445e-01,2.172722578048706110e-01,2.172601938247680775e-01,2.172481536865234486e-01,2.172360658645629827e-01,2.172240257263183538e-01,2.172119855880737249e-01,2.171999216079711914e-01,2.171878814697265625e-01,2.171758413314819336e-01,2.171637773513794001e-01,2.171517372131347712e-01,2.171396732330322377e-01,2.171276330947876088e-01,2.171155929565429799e-01,2.171035528182983509e-01,2.170915365219116266e-01,2.170794963836669977e-01,2.170674324035644642e-01,2.170554161071777399e-01,2.170433759689331110e-01,2.170313358306884821e-01,2.170193195343017578e-01,2.170072793960571289e-01,2.169952630996704046e-01,2.169832229614257757e-01,2.169712066650390514e-01,2.169591665267944225e-01,2.169471502304077259e-01,2.169351339340210016e-01,2.169230937957763727e-01,2.169110774993896484e-01,2.168990612030029241e-01,2.168870449066161998e-01,2.168750286102295033e-01,2.168630123138427790e-01,2.168509960174560547e-01,2.168389797210693304e-01,2.168269872665405384e-01,2.168149709701538141e-01,2.168029785156249944e-01,2.167909622192382701e-01,2.167789697647094782e-01,2.167669534683227539e-01,2.167549610137939342e-01,2.167429685592651423e-01,2.167309522628784180e-01,2.167189598083495983e-01,2.167069673538208063e-01,2.166949748992919866e-01,2.166829824447631947e-01,2.166709899902343750e-01,2.166589975357055553e-01,2.166470050811767634e-01,2.166350126266479437e-01,2.166230201721191517e-01,2.166110515594482366e-01,2.165990591049194447e-01,2.165870904922485296e-01,2.165750980377197377e-01,2.165631294250488226e-01,2.165511369705200306e-01,2.165391445159912109e-01,2.165271759033203236e-01,2.165152072906494085e-01,2.165032386779785212e-01,2.164912700653076061e-01,2.164792776107788141e-01
2.042080640792846569e-01,2.041974067687988281e-01,2.041867733001709040e-01,2.041761159896850475e-01,2.041654825210571234e-01,2.041548252105712946e-01,2.041441679000854381e-01,2.041335344314575140e-01,2.041228771209716852e-01,2.041122436523437611e-01,2.041016101837158092e-01,2.040909528732299805e-01,2.040803194046020563e-01,2.040696859359741322e-01,2.040590524673461803e-01,2.040483951568603516e-01,2.040377616882324274e-01,2.040271520614624079e-01,2.040165185928344838e-01,2.040058612823486273e-01,2.039952278137207031e-01,2.039846181869506836e-01,2.039739847183227595e-01,2.039633512496948353e-01,2.039527416229248158e-01,2.039421081542968639e-01,2.039314746856689398e-01,2.039208650588989202e-01,2.039102315902709961e-01,2.038996219635009766e-01,2.038889884948730524e-01,2.038783788681030329e-01,2.038677692413330134e-01,2.038571357727050892e-01,2.038465261459350697e-01,2.038359165191650502e-01,2.038253068923950306e-01,2.038146972656250111e-01,2.038040876388549916e-01,2.037934780120849720e-01,2.037828445434570201e-01,2.037722587585449330e-01,2.037616491317749134e-01,2.037510395050048939e-01,2.037404298782348744e-01,2.037298440933227595e-01,2.037192106246948353e-01,2.037086248397827204e-01,2.036980152130127009e-01,2.036874294281005859e-01,2.036768198013305664e-01,2.036662340164184515e-01,2.036556243896484319e-01,2.036450386047363170e-01,2.036344528198242299e-01,2.036238670349121149e-01,2.036132812500000000e-01,2.036026716232299805e-01,2.035920858383178655e-01,2.035815000534057506e-01,2.035709142684936634e-01,2.035603284835815485e-01,2.035497426986694336e-01,2.035391569137573187e-01,2.035285949707031361e-01,2.035180091857910212e-01,2.035074234008789062e-01,2.034968376159667913e-01,2.034862756729126088e-01,2.034756898880004938e-01,2.034651279449462835e-01,2.034545421600341686e-01,2.034439802169799860e-01,2.034334182739257757e-01,2.034228324890136608e-01,2.034122705459594782e-01,2.034016847610473633e-01,2.033911228179931530e-01,2.033805608749389704e-01,2.033699989318847601e-01
1.925027012825012152e-01,1.924932360649108942e-01,1.924837708473205455e-01,1.924742937088012584e-01,1.924648404121399037e-01,1.924553751945495550e-01,1.924459218978881725e-01,1.924364566802978516e-01,1.924270033836364691e-01,1.924175381660461481e-01,1.924080729484557994e-01,1.923986315727233831e-01,1.923891663551330622e-01,1.923797249794006459e-01,1.923702597618102972e-01,1.923608183860778809e-01,1.923513531684875599e-01,1.923418998718261774e-01,1.923324584960937611e-01,1.923230051994323786e-01,1.923135638236999623e-01,1.923041105270385798e-01,1.922946572303771973e-01,1.922852277755737194e-01,1.922757625579833984e-01,1.922663331031799205e-01,1.922568798065185658e-01,1.922474622726440541e-01,1.922380089759826716e-01,1.922285556793212891e-01,1.922191262245178112e-01,1.922096848487853948e-01,1.922002553939819447e-01,1.921908140182495006e-01,1.921813964843749889e-01,1.921719431877136341e-01,1.921625018119811901e-01,1.921530842781066784e-01,1.921436429023742620e-01,1.921342253684997503e-01,1.921247839927673340e-01,1.921153664588928223e-01,1.921059370040893444e-01,1.920964956283569280e-01,1.920870900154113825e-01,1.920776486396789662e-01,1.920682430267333929e-01,1.920588016510009766e-01,1.920493960380554310e-01,1.920399427413940485e-01,1.920305371284484752e-01,1.920211076736450251e-01,1.920117020606994518e-01,1.920022726058960016e-01,1.919928669929504284e-01,1.919834494590759166e-01,1.919740438461303711e-01,1.919646143913268932e-01,1.919552206993103138e-01,1.919458031654358021e-01,1.919363975524902288e-01,1.919269800186157171e-01,1.919175624847412054e-01,1.919081687927245983e-01,1.918987512588500866e-01,1.918893575668335072e-01,1.918799400329589955e-01,1.918705463409423884e-01,1.918611288070678766e-01,1.918517470359802357e-01,1.918423295021057240e-01,1.918329477310180553e-01,1.918235301971435436e-01,1.918141484260559027e-01,1.918047428131103571e-01,1.917953372001647838e-01,1.917859435081482045e-01,1.917765378952026312e-01,1.917671561241149902e-01,1.917577624320983831e-01
1.820664882659911998e-01,1.820580124855041559e-01,1.820495605468749889e-01,1.820410847663879450e-01,1.820326328277587780e-01,1.820241570472717341e-01,1.820156931877136286e-01,1.820072412490844616e-01,1.819987654685974177e-01,1.819903135299682506e-01,1.819818496704101451e-01,1.819733977317810059e-01,1.819649338722229004e-01,1.819564700126647949e-01,1.819480180740356556e-01,1.819395542144775502e-01,1.819311141967773493e-01,1.819226503372192438e-01,1.819142103195190430e-01,1.819057464599609375e-01,1.818972826004028320e-01,1.818888425827026312e-01,1.818803906440734919e-01,1.818719506263732910e-01,1.818634867668151855e-01,1.818550348281860463e-01,1.818465948104858454e-01,1.818381428718566784e-01,1.818297028541565052e-01,1.818212509155273382e-01,1.818128228187561035e-01,1.818043708801269642e-01,1.817959189414977972e-01,1.817874789237975963e-01,1.817790389060974232e-01,1.817706108093261608e-01,1.817621588706970215e-01,1.817537307739257868e-01,1.817452788352966198e-01,1.817368388175964466e-01,1.817284107208251842e-01,1.817199707031250111e-01,1.817115426063537487e-01,1.817031025886535756e-01,1.816946744918823131e-01,1.816862344741821400e-01,1.816777944564819391e-01,1.816693782806396429e-01,1.816609382629394420e-01,1.816525220870971735e-01,1.816440820693969727e-01,1.816356658935546764e-01,1.816272377967834417e-01,1.816187977790832409e-01,1.816103577613830677e-01,1.816019535064697377e-01,1.815935134887695368e-01,1.815851092338562067e-01,1.815766692161560059e-01,1.815682649612426758e-01,1.815598368644714411e-01,1.815514206886291448e-01,1.815429925918579102e-01,1.815345644950866755e-01,1.815261602401733454e-01,1.815177321434021107e-01,1.815093278884887806e-01,1.815009117126464844e-01,1.814925074577331543e-01,1.814840793609619196e-01,1.814756870269775280e-01,1.814672589302062933e-01,1.814588546752929632e-01,1.814504384994506947e-01,1.814420461654663030e-01,1.814336299896240345e-01,1.814252138137817383e-01,1.814168095588684082e-01,1.814083933830261119e-01,1.814000010490417480e-01
1.727036595344543513e-01,1.726960301399231013e-01,1.726884126663207897e-01,1.726808071136474720e-01,1.726731777191162220e-01,1.726655721664428766e-01,1.726579427719116266e-01,1.726503491401672474e-01,1.726427197456359974e-01,1.726351022720336859e-01,1.726274967193603405e-01,1.726198792457580566e-01,1.726122736930847112e-01,1.726046562194824274e-01,1.725970625877380482e-01,1.725894451141357366e-01,1.725818276405334528e-01,1.725742220878601074e-01,1.725666165351867620e-01,1.725590109825134166e-01,1.725514054298400990e-01,1.725438117980956920e-01,1.725361943244934082e-01,1.725285768508911244e-01,1.725209951400756836e-01,1.725133776664733998e-01,1.725057840347289928e-01,1.724981784820556752e-01,1.724905729293823298e-01,1.724829792976379506e-01,1.724753737449646052e-01,1.724677801132202259e-01,1.724601745605468806e-01,1.724525928497314398e-01,1.724449872970580944e-01,1.724373817443847767e-01,1.724298000335693359e-01,1.724221944808959905e-01,1.724146127700805775e-01,1.724070072174072321e-01,1.723994255065917913e-01,1.723918318748474121e-01,1.723842263221740667e-01,1.723766446113586537e-01,1.723690509796142467e-01,1.723614692687988337e-01,1.723538756370544545e-01,1.723462939262390137e-01,1.723387002944946345e-01,1.723311066627502552e-01,1.723235368728637806e-01,1.723159432411193737e-01,1.723083615303039606e-01,1.723007798194885198e-01,1.722931981086731068e-01,1.722856163978576660e-01,1.722780227661132868e-01,1.722704291343689076e-01,1.722628593444824330e-01,1.722552776336669922e-01,1.722477078437805176e-01,1.722401142120361384e-01,1.722325563430786022e-01,1.722249627113342230e-01,1.722173810005188099e-01,1.722098112106323353e-01,1.722022294998168945e-01,1.721946716308593861e-01,1.721870899200439453e-01,1.721795201301574707e-01,1.721719384193420299e-01,1.721643805503845215e-01,1.721567988395690807e-01,1.721492409706115723e-01,1.721416592597961315e-01,1.721341013908386230e-01,1.721265316009521484e-01,1.721189498901367076e-01,1.721113920211791992e-01,1.721038222312927246e-01
1.642566919326782227e-01,1.642498016357421819e-01,1.642429113388061412e-01,1.642360210418701283e-01,1.642291307449340876e-01,1.642222285270690807e-01,1.642153501510620062e-01,1.642084598541259655e-01,1.642015814781188909e-01,1.641946911811828502e-01,1.641878128051757757e-01,1.641809105873107966e-01,1.641740202903747559e-01,1.641671538352966198e-01,1.641602516174316406e-01,1.641533851623535045e-01,1.641464948654174916e-01,1.641396164894103893e-01,1.641327261924743763e-01,1.641258478164672741e-01,1.641189694404601995e-01,1.641120791435241588e-01,1.641052126884460505e-01,1.640983343124389759e-01,1.640914559364318737e-01,1.640845775604247991e-01,1.640776872634887584e-01,1.640708208084106501e-01,1.640639424324035756e-01,1.640570759773254395e-01,1.640501976013183649e-01,1.640433073043823242e-01,1.640364408493041881e-01,1.640295624732971136e-01,1.640227079391479437e-01,1.640158295631408691e-01,1.640089631080627330e-01,1.640020847320556585e-01,1.639952063560485840e-01,1.639883399009704479e-01,1.639814734458923395e-01,1.639746069908142034e-01,1.639677405357360951e-01,1.639608740806579590e-01,1.639540076255798229e-01,1.639471292495727484e-01,1.639402747154235784e-01,1.639333963394165039e-01,1.639265418052673340e-01,1.639196753501891979e-01,1.639128208160400280e-01,1.639059543609619196e-01,1.638990759849548451e-01,1.638922333717346136e-01,1.638853549957275391e-01,1.638785123825073353e-01,1.638716459274291992e-01,1.638647913932800293e-01,1.638579249382018932e-01,1.638510584831237848e-01,1.638441920280456487e-01,1.638373494148254450e-01,1.638304829597473089e-01,1.638236403465271052e-01,1.638167738914489691e-01,1.638099074363708607e-01,1.638030648231506292e-01,1.637962102890014593e-01,1.637893676757812556e-01,1.637825012207031194e-01,1.637756586074829157e-01,1.637688040733337458e-01,1.637619614601135143e-01,1.637551069259643444e-01,1.637482643127441406e-01,1.637414097785949707e-01,1.637345671653747670e-01,1.637277126312255970e-01,1.637208580970764271e-01,1.637140154838561956e-01
1.565974950790405273e-01,1.565912246704101451e-01,1.565849661827087291e-01,1.565786957740783747e-01,1.565724372863769587e-01,1.565661787986755427e-01,1.565599203109741266e-01,1.565536499023437444e-01,1.565473914146423284e-01,1.565411329269409124e-01,1.565348744392394964e-01,1.565286159515380804e-01,1.565223574638366644e-01,1.565160989761352484e-01,1.565098404884338323e-01,1.565035700798034779e-01,1.564973235130310003e-01,1.564910650253295843e-01,1.564848184585571345e-01,1.564785599708557184e-01,1.564723134040832409e-01,1.564660549163818248e-01,1.564597845077514704e-01,1.564535498619079590e-01,1.564472913742065430e-01,1.564410448074340931e-01,1.564347863197326771e-01,1.564285397529601995e-01,1.564222812652587835e-01,1.564160227775573675e-01,1.564097881317138561e-01,1.564035296440124401e-01,1.563972949981689564e-01,1.563910365104675404e-01,1.563847780227661244e-01,1.563785433769226130e-01,1.563722968101501354e-01,1.563660502433776855e-01,1.563598036766052357e-01,1.563535690307617243e-01,1.563473105430603083e-01,1.563410639762878307e-01,1.563348293304443470e-01,1.563285827636718694e-01,1.563223481178283580e-01,1.563161015510559082e-01,1.563098669052123968e-01,1.563036203384399470e-01,1.562973737716674694e-01,1.562911391258239857e-01,1.562848925590515081e-01,1.562786579132079967e-01,1.562724113464355469e-01,1.562661886215210016e-01,1.562599420547485241e-01,1.562536954879760742e-01,1.562474727630615290e-01,1.562412261962890514e-01,1.562350034713745062e-01,1.562287569046020563e-01,1.562225341796875111e-01,1.562162876129150335e-01,1.562100529670715221e-01,1.562038302421569769e-01,1.561975717544555609e-01,1.561913490295410156e-01,1.561851143836975042e-01,1.561788916587829590e-01,1.561726570129394476e-01,1.561664342880249023e-01,1.561601996421813909e-01,1.561539769172668457e-01,1.561477422714233343e-01,1.561415195465087891e-01,1.561352849006652777e-01,1.561290621757507324e-01,1.561228394508361872e-01,1.561166167259216420e-01,1.561103820800781306e-01,1.561041474342346191e-01
