6.199486732482910600e-01,6.356809139251708984e-01,6.522324562072754350e-01,6.696689128875732422e-01,6.880632877349853738e-01,7.074966907501221147e-01,7.280598163604736772e-01,7.498539447784423606e-01,7.729908466339111550e-01,7.976008892059326394e-01,8.238295555114746316e-01,8.518418312072754128e-01,8.818262100219727007e-01,9.139985084533691628e-01,9.486071586608886275e-01,9.859398841857910378e-01,1.000000000000000000e+00,1.000000000000000000e+00,1.000000000000000000e+00,1.000000000000000000e+00,1.000000000000000000e+00,1.000000000000000000e+00,1.000000000000000000e+00,1.000000000000000000e+00,2.340574502944946234e-01,2.314175128936767634e-01,2.340893983840942327e-01,2.334118843078613337e-01,1.000000000000000000e+00,1.000000000000000000e+00,2.295874834060668834e-01,2.242613315582275280e-01,2.194374084472656139e-01,2.160627841949462891e-01,2.128608703613281139e-01,2.104433298110962025e-01,2.100187540054321289e-01,2.105628013610839899e-01,2.118797302246093750e-01,2.228050470352172796e-01,1.000000000000000000e+00,1.000000000000000000e+00,1.000000000000000000e+00,1.000000000000000000e+00,1.000000000000000000e+00,1.000000000000000000e+00,1.000000000000000000e+00,1.000000000000000000e+00,1.000000000000000000e+00,2.717295885086059570e-01,2.656410694122314231e-01,2.593962192535400613e-01,1.000000000000000000e+00,1.000000000000000000e+00,1.000000000000000000e+00,1.000000000000000000e+00,1.000000000000000000e+00,1.000000000000000000e+00,1.000000000000000000e+00,1.000000000000000000e+00,1.000000000000000000e+00,1.000000000000000000e+00,1.000000000000000000e+00,1.000000000000000000e+00,1.000000000000000000e+00,1.000000000000000000e+00,1.000000000000000000e+00,1.000000000000000000e+00,1.000000000000000000e+00,1.000000000000000000e+00,9.682900428771972212e-01,9.366403579711913840e-01,9.069942474365234597e-01,8.791688919067383035e-01,8.530001640319824219e-01,8.283441543579102007e-01,8.050735473632812944e-01,7.830747604370117410e-01,7.622462272644042747e-01,7.424968719482422097e-01
6.199354648590087447e-01,6.356670379638671431e-01,6.522178173065185103e-01,6.696535587310791238e-01,6.880470752716064675e-01,7.074795246124268022e-01,7.280416011810302290e-01,7.498346805572509988e-01,7.729726791381835715e-01,7.975816726684570312e-01,8.238089561462402788e-01,8.518198966979980691e-01,8.818026542663573997e-01,9.139731407165527788e-01,9.485798835754394309e-01,9.859104156494140625e-01,1.000000000000000000e+00,1.000000000000000000e+00,1.000000000000000000e+00,1.000000000000000000e+00,1.000000000000000000e+00,1.000000000000000000e+00,1.000000000000000000e+00,1.000000000000000000e+00,2.337972402572631725e-01,2.307118892669677845e-01,1.000000000000000000e+00,2.327936887741088867e-01,1.000000000000000000e+00,1.000000000000000000e+00,1.000000000000000000e+00,2.256828069686889759e-01,2.208762645721435436e-01,2.167428731918334961e-01,2.135458230972289984e-01,2.100217103958129938e-01,2.093475580215454213e-01,2.089776992797851562e-01,2.095163583755493275e-01,2.180108547210693470e-01,1.000000000000000000e+00,1.000000000000000000e+00,1.000000000000000000e+00,1.000000000000000000e+00,1.000000000000000000e+00,1.000000000000000000e+00,1.000000000000000000e+00,1.000000000000000000e+00,1.000000000000000000e+00,1.000000000000000000e+00,1.000000000000000000e+00,1.000000000000000000e+00,1.000000000000000000e+00,1.000000000000000000e+00,1.000000000000000000e+00,1.000000000000000000e+00,1.000000000000000000e+00,1.000000000000000000e+00,1.000000000000000000e+00,1.000000000000000000e+00,1.000000000000000000e+00,1.000000000000000000e+00,1.000000000000000000e+00,1.000000000000000000e+00,1.000000000000000000e+00,1.000000000000000000e+00,1.000000000000000000e+00,1.000000000000000000e+00,1.000000000000000000e+00,1.000000000000000000e+00,9.683191299438476118e-01,9.366696357727051225e-01,9.070235252380370872e-01,8.791966438293457031e-01,8.530262947082519753e-01,8.283687591552734153e-01,8.050968170166015181e-01,7.830967426300048384e-01,7.622669696807861106e-01,7.425166606903076394e-01
6.199223041534424050e-01,6.356532096862792525e-01,6.522032260894775613e-01,6.696382045745850053e-01,6.880308628082275613e-01,7.074623584747314897e-01,7.280234336853027566e-01,7.498154163360595259e-01,7.729522228240967019e-01,7.975623130798339400e-01,8.237883567810058150e-01,8.517978668212891069e-01,8.817790031433105913e-01,9.139477729797362837e-01,9.485525131225586160e-01,9.858809471130370872e-01,1.000000000000000000e+00,1.000000000000000000e+00,1.000000000000000000e+00,1.000000000000000000e+00,1.000000000000000000e+00,1.000000000000000000e+00,1.000000000000000000e+00,1.000000000000000000e+00,2.328409671783447377e-01,2.348788499832153431e-01,2.306155920028686579e-01,1.000000000000000000e+00,1.000000000000000000e+00,1.000000000000000000e+00,1.000000000000000000e+00,2.269003152847290095e-01,2.223341226577758845e-01,2.176676750183105524e-01,2.142101287841796931e-01,2.107579708099365234e-01,2.087203264236450195e-01,2.082631111145019642e-01,2.079468965530395508e-01,2.134186029434204102e-01,1.000000000000000000e+00,1.000000000000000000e+00,1.000000000000000000e+00,1.000000000000000000e+00,1.000000000000000000e+00,1.000000000000000000e+00,1.000000000000000000e+00,1.000000000000000000e+00,1.000000000000000000e+00,1.000000000000000000e+00,1.000000000000000000e+00,1.000000000000000000e+00,1.000000000000000000e+00,1.000000000000000000e+00,1.000000000000000000e+00,1.000000000000000000e+00,1.000000000000000000e+00,1.000000000000000000e+00,1.000000000000000000e+00,1.000000000000000000e+00,1.000000000000000000e+00,1.000000000000000000e+00,1.000000000000000000e+00,1.000000000000000000e+00,1.000000000000000000e+00,1.000000000000000000e+00,1.000000000000000000e+00,1.000000000000000000e+00,1.000000000000000000e+00,1.000000000000000000e+00,9.683527946472167969e-01,9.367011070251465288e-01,9.070530891418456809e-01,8.792243003845214844e-01,8.530524253845215288e-01,8.283934593200683594e-01,8.051200866699218528e-01,7.831187725067139116e-01,7.622878551483154297e-01,7.425364494323730691e-01
6.199091434478759544e-01,6.356393337249756081e-01,6.521886825561523660e-01,6.696227550506591575e-01,6.880146026611327903e-01,7.074452400207519309e-01,7.280052661895751731e-01,7.497960567474365456e-01,7.729317665100097212e-01,7.975405216217040794e-01,8.237677574157714622e-01,8.517758369445800337e-01,8.817554473876952903e-01,9.139225006103515181e-01,9.485252380371094194e-01,9.858513832092284934e-01,1.000000000000000000e+00,1.000000000000000000e+00,1.000000000000000000e+00,1.000000000000000000e+00,1.000000000000000000e+00,1.000000000000000000e+00,1.000000000000000000e+00,1.000000000000000000e+00,2.324903249740600530e-01,1.000000000000000000e+00,2.291530847549438366e-01,1.000000000000000000e+00,1.000000000000000000e+00,1.000000000000000000e+00,1.000000000000000000e+00,1.000000000000000000e+00,2.234550714492797852e-01,2.190833568572997936e-01,2.148785352706909235e-01,2.114994287490844782e-01,2.080968856811523382e-01,2.076423645019531139e-01,2.071898460388183483e-01,2.090158462524414062e-01,2.173419952392578181e-01,1.000000000000000000e+00,1.000000000000000000e+00,1.000000000000000000e+00,1.000000000000000000e+00,1.000000000000000000e+00,1.000000000000000000e+00,1.000000000000000000e+00,1.000000000000000000e+00,1.000000000000000000e+00,1.000000000000000000e+00,1.000000000000000000e+00,1.000000000000000000e+00,1.000000000000000000e+00,1.000000000000000000e+00,1.000000000000000000e+00,1.000000000000000000e+00,1.000000000000000000e+00,1.000000000000000000e+00,1.000000000000000000e+00,1.000000000000000000e+00,1.000000000000000000e+00,1.000000000000000000e+00,1.000000000000000000e+00,1.000000000000000000e+00,1.000000000000000000e+00,1.000000000000000000e+00,1.000000000000000000e+00,1.000000000000000000e+00,1.000000000000000000e+00,9.683864593505859819e-01,9.367325782775879350e-01,9.070826530456542747e-01,8.792521476745605025e-01,8.530784606933593528e-01,8.284180641174316850e-01,8.051433563232421875e-01,7.831408023834228738e-01,7.623087406158447488e-01,7.425562858581542525e-01
6.198959827423096147e-01,6.356255054473877175e-01,6.521740913391113059e-01,6.696074008941650391e-01,6.879983901977538840e-01,7.074280738830566184e-01,7.279870986938477007e-01,7.497767925262450728e-01,7.729112625122069868e-01,7.975187301635742188e-01,8.237445831298828569e-01,8.517538070678710715e-01,8.817318916320801003e-01,9.138970375061035156e-01,9.484979629516601118e-01,9.858219146728515181e-01,1.000000000000000000e+00,1.000000000000000000e+00,1.000000000000000000e+00,1.000000000000000000e+00,1.000000000000000000e+00,1.000000000000000000e+00,1.000000000000000000e+00,1.000000000000000000e+00,2.317919731140136719e-01,1.000000000000000000e+00,1.000000000000000000e+00,1.000000000000000000e+00,1.000000000000000000e+00,1.000000000000000000e+00,1.000000000000000000e+00,1.000000000000000000e+00,2.242575883865356445e-01,2.201129198074340820e-01,2.159262895584106445e-01,2.122461080551147350e-01,2.087192296981811579e-01,2.070155858993530384e-01,2.063658714294433483e-01,2.068511009216308649e-01,2.137019634246826172e-01,1.000000000000000000e+00,1.000000000000000000e+00,1.000000000000000000e+00,1.000000000000000000e+00,1.000000000000000000e+00,1.000000000000000000e+00,1.000000000000000000e+00,1.000000000000000000e+00,1.000000000000000000e+00,1.000000000000000000e+00,1.000000000000000000e+00,1.000000000000000000e+00,1.000000000000000000e+00,1.000000000000000000e+00,1.000000000000000000e+00,1.000000000000000000e+00,1.000000000000000000e+00,1.000000000000000000e+00,1.000000000000000000e+00,1.000000000000000000e+00,1.000000000000000000e+00,1.000000000000000000e+00,1.000000000000000000e+00,1.000000000000000000e+00,1.000000000000000000e+00,1.000000000000000000e+00,1.000000000000000000e+00,1.000000000000000000e+00,1.000000000000000000e+00,9.684200286865234375e-01,9.367641448974609597e-01,9.071122169494628684e-01,8.792798995971680132e-01,8.531045913696289062e-01,8.284426689147948997e-01,8.051666259765625222e-01,7.831628322601318359e-01,7.623295783996582031e-01,7.425760746002196822e-01
6.198827266693115456e-01,6.356116771697998269e-01,6.521595001220703569e-01,6.695920467376709206e-01,6.879821300506592241e-01,7.074109077453613059e-01,7.279689311981201172e-01,7.497575283050537109e-01,7.728907108306884988e-01,7.974969387054443581e-01,8.237212181091309038e-01,8.517290115356445090e-01,8.817082405090331809e-01,9.138717651367187500e-01,9.484706878662109153e-01,9.857924461364746538e-01,1.000000000000000000e+00,1.000000000000000000e+00,1.000000000000000000e+00,1.000000000000000000e+00,1.000000000000000000e+00,1.000000000000000000e+00,1.000000000000000000e+00,1.000000000000000000e+00,1.000000000000000000e+00,1.000000000000000000e+00,1.000000000000000000e+00,1.000000000000000000e+00,1.000000000000000000e+00,1.000000000000000000e+00,1.000000000000000000e+00,1.000000000000000000e+00,2.674417734146118386e-01,2.208915472030639759e-01,2.168692588806152288e-01,2.129980802536010631e-01,2.095484972000122015e-01,2.070714712142944225e-01,2.062048435211181752e-01,2.056493282318115345e-01,2.108808040618896373e-01,1.000000000000000000e+00,1.000000000000000000e+00,1.000000000000000000e+00,1.000000000000000000e+00,1.000000000000000000e+00,1.000000000000000000e+00,1.000000000000000000e+00,1.000000000000000000e+00,1.000000000000000000e+00,1.000000000000000000e+00,1.000000000000000000e+00,1.000000000000000000e+00,1.000000000000000000e+00,1.000000000000000000e+00,1.000000000000000000e+00,1.000000000000000000e+00,1.000000000000000000e+00,1.000000000000000000e+00,1.000000000000000000e+00,1.000000000000000000e+00,1.000000000000000000e+00,1.000000000000000000e+00,1.000000000000000000e+00,1.000000000000000000e+00,1.000000000000000000e+00,1.000000000000000000e+00,1.000000000000000000e+00,1.000000000000000000e+00,1.000000000000000000e+00,9.684536933898926225e-01,9.367956161499023660e-01,9.071417808532714622e-01,8.793076515197754128e-01,8.531307220458984597e-01,8.284673690795898438e-01,8.051898956298828569e-01,7.831847667694091797e-01,7.623504638671875222e-01,7.425958633422851118e-01
6.198695659637450950e-01,6.355978012084960715e-01,6.521449565887451616e-01,6.695766448974609375e-01,6.879658699035644531e-01,7.073937892913818581e-01,7.279507637023925337e-01,7.497382640838623491e-01,7.728702545166015181e-01,7.974750995635986328e-01,8.236980438232421875e-01,8.517042160034179465e-01,8.816817283630371538e-01,9.138463973999023660e-01,9.484433174133301003e-01,9.857628822326660600e-01,1.000000000000000000e+00,1.000000000000000000e+00,1.000000000000000000e+00,1.000000000000000000e+00,1.000000000000000000e+00,1.000000000000000000e+00,1.000000000000000000e+00,1.000000000000000000e+00,1.000000000000000000e+00,1.000000000000000000e+00,1.000000000000000000e+00,1.000000000000000000e+00,1.000000000000000000e+00,1.000000000000000000e+00,1.000000000000000000e+00,1.000000000000000000e+00,2.675737142562866211e-01,2.216757059097290150e-01,2.176683664321899525e-01,2.138818979263305553e-01,2.103867769241332952e-01,2.073744058609008900e-01,2.063747644424438477e-01,2.061117410659790150e-01,2.113716602325439453e-01,1.000000000000000000e+00,1.000000000000000000e+00,1.000000000000000000e+00,1.000000000000000000e+00,1.000000000000000000e+00,1.000000000000000000e+00,1.000000000000000000e+00,1.000000000000000000e+00,1.000000000000000000e+00,1.000000000000000000e+00,1.000000000000000000e+00,1.000000000000000000e+00,1.000000000000000000e+00,1.000000000000000000e+00,1.000000000000000000e+00,1.000000000000000000e+00,1.000000000000000000e+00,1.000000000000000000e+00,1.000000000000000000e+00,1.000000000000000000e+00,1.000000000000000000e+00,1.000000000000000000e+00,1.000000000000000000e+00,1.000000000000000000e+00,1.000000000000000000e+00,1.000000000000000000e+00,1.000000000000000000e+00,1.000000000000000000e+00,1.000000000000000000e+00,9.684874534606933150e-01,9.368270874023437722e-01,9.071712493896484375e-01,8.793353080749511941e-01,8.531568527221680132e-01,8.284919738769531694e-01,8.052131652832030806e-01,7.832067966461181419e-01,7.623713493347168413e-01,7.426156044006347878e-01
6.198564052581787553e-01,6.355839252471924272e-01,6.521303653717041016e-01,6.695612907409668191e-01,6.879496574401855469e-01,7.073765277862549272e-01,7.279325962066650613e-01,7.497189998626708762e-01,7.728497505187987837e-01,7.974532127380371538e-01,8.236747741699218528e-01,8.516792297363281472e-01,8.816551208496093972e-01,9.138179779052734153e-01,9.484160423278809038e-01,9.857334136962890847e-01,1.000000000000000000e+00,1.000000000000000000e+00,1.000000000000000000e+00,1.000000000000000000e+00,1.000000000000000000e+00,1.000000000000000000e+00,1.000000000000000000e+00,1.000000000000000000e+00,1.000000000000000000e+00,1.000000000000000000e+00,1.000000000000000000e+00,1.000000000000000000e+00,1.000000000000000000e+00,1.000000000000000000e+00,1.000000000000000000e+00,1.000000000000000000e+00,2.677058458328246959e-01,2.644691228866576926e-01,2.187116384506225530e-01,2.142225980758666881e-01,2.100820064544677845e-01,2.079812049865722712e-01,2.070803403854370173e-01,2.070879697799682673e-01,2.123774528503417913e-01,1.000000000000000000e+00,1.000000000000000000e+00,1.000000000000000000e+00,1.000000000000000000e+00,1.000000000000000000e+00,1.000000000000000000e+00,1.000000000000000000e+00,1.000000000000000000e+00,1.000000000000000000e+00,1.000000000000000000e+00,1.000000000000000000e+00,1.000000000000000000e+00,1.000000000000000000e+00,1.000000000000000000e+00,1.000000000000000000e+00,1.000000000000000000e+00,1.000000000000000000e+00,1.000000000000000000e+00,1.000000000000000000e+00,1.000000000000000000e+00,1.000000000000000000e+00,1.000000000000000000e+00,1.000000000000000000e+00,1.000000000000000000e+00,1.000000000000000000e+00,1.000000000000000000e+00,1.000000000000000000e+00,1.000000000000000000e+00,1.000000000000000000e+00,9.685211181640625000e-01,9.368586540222167969e-01,9.072008132934570312e-01,8.793631553649902122e-01,8.531829833984374556e-01,8.285166740417480025e-01,8.052364349365234153e-01,7.832288265228271040e-01,7.623922348022460493e-01,7.426353931427002175e-01
6.198356151580810547e-01,6.355665206909180132e-01,6.521157741546630415e-01,6.695459365844727007e-01,6.879334449768066406e-01,7.073594093322753684e-01,7.279144287109374778e-01,7.496997356414795144e-01,7.728292942047119141e-01,7.974314212799071822e-01,8.236515045166015181e-01,8.516544342041015847e-01,8.816285133361816406e-01,9.137893676757812278e-01,9.483855247497559038e-01,9.857039451599121094e-01,1.000000000000000000e+00,1.000000000000000000e+00,1.000000000000000000e+00,1.000000000000000000e+00,1.000000000000000000e+00,1.000000000000000000e+00,1.000000000000000000e+00,1.000000000000000000e+00,1.000000000000000000e+00,1.000000000000000000e+00,1.000000000000000000e+00,1.000000000000000000e+00,1.000000000000000000e+00,1.000000000000000000e+00,1.000000000000000000e+00,1.000000000000000000e+00,2.678380727767944447e-01,2.652534008026122825e-01,2.184949159622192327e-01,2.133037090301513616e-01,2.100855350494384710e-01,2.088868618011474609e-01,2.081108570098876842e-01,2.084718704223632868e-01,2.138331890106201227e-01,1.000000000000000000e+00,1.000000000000000000e+00,1.000000000000000000e+00,1.000000000000000000e+00,1.000000000000000000e+00,1.000000000000000000e+00,1.000000000000000000e+00,1.000000000000000000e+00,1.000000000000000000e+00,1.000000000000000000e+00,1.000000000000000000e+00,1.000000000000000000e+00,1.000000000000000000e+00,1.000000000000000000e+00,1.000000000000000000e+00,1.000000000000000000e+00,1.000000000000000000e+00,1.000000000000000000e+00,1.000000000000000000e+00,1.000000000000000000e+00,1.000000000000000000e+00,1.000000000000000000e+00,1.000000000000000000e+00,1.000000000000000000e+00,1.000000000000000000e+00,1.000000000000000000e+00,1.000000000000000000e+00,1.000000000000000000e+00,1.000000000000000000e+00,9.685546874999999556e-01,9.368901252746582031e-01,9.072303771972656250e-01,8.793909072875976118e-01,8.532091140747070090e-01,8.285412788391113281e-01,8.052597045898437500e-01,7.832508563995361772e-01,7.624130725860596147e-01,7.426551818847656472e-01
6.198127746582031694e-01,6.355424880981445090e-01,6.520914077758789285e-01,6.695251464843750000e-01,6.879167556762695312e-01,7.073422431945800559e-01,7.278962135314941406e-01,7.496804714202880415e-01,7.728088378906250444e-01,7.974096298217773215e-01,8.236282348632812944e-01,8.516295433044434038e-01,8.816018104553222656e-01,9.137607574462890403e-01,9.483546257019043191e-01,9.856710433959960938e-01,1.000000000000000000e+00,1.000000000000000000e+00,1.000000000000000000e+00,1.000000000000000000e+00,1.000000000000000000e+00,1.000000000000000000e+00,1.000000000000000000e+00,1.000000000000000000e+00,1.000000000000000000e+00,1.000000000000000000e+00,1.000000000000000000e+00,1.000000000000000000e+00,1.000000000000000000e+00,1.000000000000000000e+00,1.000000000000000000e+00,1.000000000000000000e+00,2.685785293579101562e-01,2.660422801971435436e-01,2.178181648254394476e-01,2.128296852111816462e-01,2.101227760314941517e-01,2.095072746276855358e-01,2.091516494750976507e-01,2.098743677139282282e-01,2.159663438796997070e-01,1.000000000000000000e+00,1.000000000000000000e+00,1.000000000000000000e+00,1.000000000000000000e+00,1.000000000000000000e+00,1.000000000000000000e+00,1.000000000000000000e+00,1.000000000000000000e+00,1.000000000000000000e+00,1.000000000000000000e+00,1.000000000000000000e+00,1.000000000000000000e+00,1.000000000000000000e+00,1.000000000000000000e+00,1.000000000000000000e+00,1.000000000000000000e+00,1.000000000000000000e+00,1.000000000000000000e+00,1.000000000000000000e+00,1.000000000000000000e+00,1.000000000000000000e+00,1.000000000000000000e+00,1.000000000000000000e+00,1.000000000000000000e+00,1.000000000000000000e+00,1.000000000000000000e+00,1.000000000000000000e+00,1.000000000000000000e+00,1.000000000000000000e+00,9.685884475708007590e-01,9.369215965270996094e-01,9.072599411010742188e-01,8.794186592102051225e-01,8.532352447509765625e-01,8.285658836364746538e-01,8.052829742431640847e-01,7.832728862762451394e-01,7.624339580535888228e-01,7.426750183105468306e-01
6.197921752929687056e-01,6.355185031890868697e-01,6.520661354064941628e-01,6.694984912872314897e-01,6.878885746002196822e-01,7.073174953460693581e-01,7.278758525848388894e-01,7.496612071990966797e-01,7.727883815765380637e-01,7.973878383636474609e-01,8.236049652099609597e-01,8.516047477722168413e-01,8.815752029418945090e-01,9.137321472167968528e-01,9.483238220214843528e-01,9.856377601623534934e-01,1.000000000000000000e+00,1.000000000000000000e+00,1.000000000000000000e+00,1.000000000000000000e+00,1.000000000000000000e+00,1.000000000000000000e+00,1.000000000000000000e+00,1.000000000000000000e+00,1.000000000000000000e+00,1.000000000000000000e+00,1.000000000000000000e+00,1.000000000000000000e+00,1.000000000000000000e+00,1.000000000000000000e+00,1.000000000000000000e+00,2.817531824111938477e-01,2.691778898239135520e-01,2.667442798614502175e-01,2.169614553451538197e-01,2.125767230987548884e-01,2.105176925659179576e-01,2.101313591003418080e-01,2.102029085159301813e-01,2.112958908081054576e-01,2.202816963195800837e-01,1.000000000000000000e+00,1.000000000000000000e+00,1.000000000000000000e+00,1.000000000000000000e+00,1.000000000000000000e+00,1.000000000000000000e+00,1.000000000000000000e+00,1.000000000000000000e+00,1.000000000000000000e+00,1.000000000000000000e+00,1.000000000000000000e+00,1.000000000000000000e+00,1.000000000000000000e+00,1.000000000000000000e+00,1.000000000000000000e+00,1.000000000000000000e+00,1.000000000000000000e+00,1.000000000000000000e+00,1.000000000000000000e+00,1.000000000000000000e+00,1.000000000000000000e+00,1.000000000000000000e+00,1.000000000000000000e+00,1.000000000000000000e+00,1.000000000000000000e+00,1.000000000000000000e+00,1.000000000000000000e+00,1.000000000000000000e+00,1.000000000000000000e+00,9.686221122741699441e-01,9.369531631469726340e-01,9.072894096374511941e-01,8.794464111328125222e-01,8.532613754272461160e-01,8.285905838012694868e-01,8.053062438964844194e-01,7.832949161529541016e-01,7.624547481536865234e-01,7.426948070526122603e-01
6.197790622711181197e-01,6.355025291442870650e-01,6.520446300506591575e-01,6.694718360900878684e-01,6.878604888916015625e-01,7.072877407073974165e-01,7.278443336486816184e-01,7.496315956115722212e-01,7.727634429931640181e-01,7.973660469055176003e-01,8.235816955566406250e-01,8.515797615051269309e-01,8.815485000610351340e-01,9.137034416198730469e-01,9.482930183410644975e-01,9.856043815612792747e-01,1.000000000000000000e+00,1.000000000000000000e+00,1.000000000000000000e+00,1.000000000000000000e+00,1.000000000000000000e+00,1.000000000000000000e+00,1.000000000000000000e+00,1.000000000000000000e+00,1.000000000000000000e+00,1.000000000000000000e+00,1.000000000000000000e+00,1.000000000000000000e+00,1.000000000000000000e+00,1.000000000000000000e+00,1.000000000000000000e+00,2.739428520202636941e-01,2.707383871078491433e-01,2.677136659622192383e-01,2.161114692687988170e-01,2.125226497650146429e-01,2.109141111373901423e-01,2.107591867446899359e-01,2.112467765808105358e-01,2.127367973327636830e-01,1.000000000000000000e+00,1.000000000000000000e+00,1.000000000000000000e+00,1.000000000000000000e+00,1.000000000000000000e+00,1.000000000000000000e+00,1.000000000000000000e+00,1.000000000000000000e+00,1.000000000000000000e+00,1.000000000000000000e+00,1.000000000000000000e+00,1.000000000000000000e+00,1.000000000000000000e+00,1.000000000000000000e+00,1.000000000000000000e+00,1.000000000000000000e+00,1.000000000000000000e+00,1.000000000000000000e+00,1.000000000000000000e+00,1.000000000000000000e+00,1.000000000000000000e+00,1.000000000000000000e+00,1.000000000000000000e+00,1.000000000000000000e+00,1.000000000000000000e+00,1.000000000000000000e+00,1.000000000000000000e+00,1.000000000000000000e+00,1.000000000000000000e+00,1.000000000000000000e+00,9.686557769775390181e-01,9.369846343994140403e-01,9.073189735412597878e-01,8.794741630554199219e-01,8.532875061035156694e-01,8.286151885986328125e-01,8.053296089172363725e-01,7.833169460296630637e-01,7.624756336212158425e-01,7.427146434783935547e-01
6.197659492492675337e-01,6.354887485504150391e-01,6.520301342010498269e-01,6.694555759429932085e-01,6.878380298614501509e-01,7.072584629058837891e-01,7.278128623962402122e-01,7.495981693267822488e-01,7.727279186248778853e-01,7.973305225372314675e-01,8.235512733459472434e-01,8.515549659729003684e-01,8.815218925476073775e-01,9.136748313903808594e-01,9.482622146606445312e-01,9.855710983276366743e-01,1.000000000000000000e+00,1.000000000000000000e+00,1.000000000000000000e+00,1.000000000000000000e+00,1.000000000000000000e+00,1.000000000000000000e+00,1.000000000000000000e+00,1.000000000000000000e+00,1.000000000000000000e+00,1.000000000000000000e+00,1.000000000000000000e+00,1.000000000000000000e+00,1.000000000000000000e+00,1.000000000000000000e+00,2.852171897888183816e-01,2.768353939056396595e-01,2.728164911270141713e-01,2.693506002426147572e-01,2.152681112289428766e-01,2.129266738891601451e-01,2.113120317459106501e-01,2.113907814025878795e-01,2.118812799453735352e-01,2.157998323440551702e-01,1.000000000000000000e+00,1.000000000000000000e+00,1.000000000000000000e+00,1.000000000000000000e+00,1.000000000000000000e+00,1.000000000000000000e+00,1.000000000000000000e+00,1.000000000000000000e+00,1.000000000000000000e+00,1.000000000000000000e+00,1.000000000000000000e+00,1.000000000000000000e+00,1.000000000000000000e+00,1.000000000000000000e+00,1.000000000000000000e+00,1.000000000000000000e+00,1.000000000000000000e+00,1.000000000000000000e+00,1.000000000000000000e+00,1.000000000000000000e+00,1.000000000000000000e+00,1.000000000000000000e+00,1.000000000000000000e+00,1.000000000000000000e+00,1.000000000000000000e+00,1.000000000000000000e+00,1.000000000000000000e+00,1.000000000000000000e+00,1.000000000000000000e+00,1.000000000000000000e+00,9.686895370483398215e-01,9.370162010192870650e-01,9.073485374450683816e-01,8.795019149780273215e-01,8.533136367797851118e-01,8.286397933959961382e-01,8.053527832031249778e-01,7.833389759063720259e-01,7.624965190887451616e-01,7.427344322204589844e-01
6.197527885437011941e-01,6.354749679565430132e-01,6.520156383514403853e-01,6.694402694702148438e-01,6.878219127655029741e-01,7.072413921356200950e-01,7.277894020080566406e-01,7.495670318603515625e-01,7.726924419403076172e-01,7.972927570343018022e-01,8.235109329223633257e-01,8.515120506286620872e-01,8.814845085144042969e-01,9.136438369750976562e-01,9.482313156127929465e-01,9.855378150939941850e-01,1.000000000000000000e+00,1.000000000000000000e+00,1.000000000000000000e+00,1.000000000000000000e+00,1.000000000000000000e+00,1.000000000000000000e+00,1.000000000000000000e+00,1.000000000000000000e+00,1.000000000000000000e+00,1.000000000000000000e+00,1.000000000000000000e+00,1.000000000000000000e+00,1.000000000000000000e+00,2.962989091873168834e-01,2.840182304382324330e-01,2.797867536544799694e-01,2.752260684967041127e-01,2.733292818069458230e-01,2.149780035018920843e-01,2.133322000503539984e-01,2.117058753967285267e-01,2.118755340576171931e-01,2.122828245162963756e-01,2.180012941360473522e-01,1.000000000000000000e+00,1.000000000000000000e+00,1.000000000000000000e+00,1.000000000000000000e+00,1.000000000000000000e+00,1.000000000000000000e+00,1.000000000000000000e+00,1.000000000000000000e+00,1.000000000000000000e+00,1.000000000000000000e+00,1.000000000000000000e+00,1.000000000000000000e+00,1.000000000000000000e+00,1.000000000000000000e+00,1.000000000000000000e+00,1.000000000000000000e+00,1.000000000000000000e+00,1.000000000000000000e+00,1.000000000000000000e+00,1.000000000000000000e+00,1.000000000000000000e+00,1.000000000000000000e+00,1.000000000000000000e+00,1.000000000000000000e+00,1.000000000000000000e+00,1.000000000000000000e+00,1.000000000000000000e+00,1.000000000000000000e+00,1.000000000000000000e+00,1.000000000000000000e+00,9.687231063842773882e-01,9.370476722717284712e-01,9.073781013488769753e-01,8.795296669006347212e-01,8.533397674560546653e-01,8.286644935607909712e-01,8.053761482238769309e-01,7.833609580993652344e-01,7.625167846679687944e-01,7.427523612976074663e-01
6.197396755218506081e-01,6.354611873626708762e-01,6.520010471343994363e-01,6.694249629974364790e-01,6.878057003021240678e-01,7.072243213653564009e-01,7.277713298797607866e-01,7.495478630065918191e-01,7.726678848266601562e-01,7.972594738006592019e-01,8.234705924987792969e-01,8.514689445495605691e-01,8.814382553100585938e-01,9.135942459106445312e-01,9.481851577758788618e-01,9.854986190795897993e-01,1.000000000000000000e+00,1.000000000000000000e+00,1.000000000000000000e+00,1.000000000000000000e+00,1.000000000000000000e+00,1.000000000000000000e+00,1.000000000000000000e+00,1.000000000000000000e+00,1.000000000000000000e+00,1.000000000000000000e+00,1.000000000000000000e+00,1.000000000000000000e+00,1.000000000000000000e+00,2.905810594558715931e-01,2.860536575317382812e-01,2.812881469726562500e-01,2.797394752502441184e-01,2.788803815841675027e-01,2.153426408767700195e-01,2.136656761169433705e-01,2.120221614837646540e-01,2.116582155227661188e-01,2.120646715164184459e-01,2.167684316635131725e-01,1.000000000000000000e+00,1.000000000000000000e+00,1.000000000000000000e+00,1.000000000000000000e+00,1.000000000000000000e+00,1.000000000000000000e+00,1.000000000000000000e+00,1.000000000000000000e+00,1.000000000000000000e+00,1.000000000000000000e+00,1.000000000000000000e+00,1.000000000000000000e+00,1.000000000000000000e+00,1.000000000000000000e+00,1.000000000000000000e+00,1.000000000000000000e+00,1.000000000000000000e+00,1.000000000000000000e+00,1.000000000000000000e+00,1.000000000000000000e+00,1.000000000000000000e+00,1.000000000000000000e+00,1.000000000000000000e+00,1.000000000000000000e+00,1.000000000000000000e+00,1.000000000000000000e+00,1.000000000000000000e+00,1.000000000000000000e+00,1.000000000000000000e+00,1.000000000000000000e+00,9.687568664550780806e-01,9.370791435241698775e-01,9.074076652526855691e-01,8.795575141906738503e-01,8.533658981323242188e-01,8.286890983581542969e-01,8.053979873657226562e-01,7.833801269531249778e-01,7.625341892242432085e-01,7.427688598632812278e-01
6.197265625000000222e-01,6.354473590850829856e-01,6.519865512847899947e-01,6.694097042083739790e-01,6.877895355224609153e-01,7.072072505950928178e-01,7.277531623840332031e-01,7.495286941528320757e-01,7.726474285125732866e-01,7.972378253936767134e-01,8.234447479248047097e-01,8.514333724975585715e-01,8.813920974731445090e-01,9.135446548461914062e-01,9.481317520141601118e-01,9.854409217834472212e-01,1.000000000000000000e+00,1.000000000000000000e+00,1.000000000000000000e+00,1.000000000000000000e+00,1.000000000000000000e+00,1.000000000000000000e+00,1.000000000000000000e+00,1.000000000000000000e+00,1.000000000000000000e+00,1.000000000000000000e+00,1.000000000000000000e+00,1.000000000000000000e+00,1.000000000000000000e+00,2.912940025329590066e-01,2.869677066802978627e-01,2.862928152084350808e-01,2.851941108703613392e-01,2.846616506576538086e-01,2.156620740890503041e-01,2.139801740646362360e-01,2.123465299606323298e-01,2.114475488662719838e-01,2.118469476699829102e-01,2.155494451522827204e-01,1.000000000000000000e+00,1.000000000000000000e+00,1.000000000000000000e+00,1.000000000000000000e+00,1.000000000000000000e+00,1.000000000000000000e+00,1.000000000000000000e+00,1.000000000000000000e+00,1.000000000000000000e+00,1.000000000000000000e+00,1.000000000000000000e+00,1.000000000000000000e+00,1.000000000000000000e+00,1.000000000000000000e+00,1.000000000000000000e+00,1.000000000000000000e+00,1.000000000000000000e+00,1.000000000000000000e+00,1.000000000000000000e+00,1.000000000000000000e+00,1.000000000000000000e+00,1.000000000000000000e+00,1.000000000000000000e+00,1.000000000000000000e+00,1.000000000000000000e+00,1.000000000000000000e+00,1.000000000000000000e+00,1.000000000000000000e+00,1.000000000000000000e+00,1.000000000000000000e+00,9.687905311584472656e-01,9.371107101440430132e-01,9.074372291564941628e-01,8.795843124389648438e-01,8.533895492553711382e-01,8.287097930908202681e-01,8.054173469543457475e-01,7.833985328674316628e-01,7.625515937805176225e-01,7.427854061126708540e-01
6.197134494781494363e-01,6.354335784912109597e-01,6.519720554351806641e-01,6.693943500518798606e-01,6.877734184265136275e-01,7.071901321411132590e-01,7.277350902557373491e-01,7.495095252990722212e-01,7.726270675659179243e-01,7.972161293029784712e-01,8.234216690063476118e-01,8.514085769653320090e-01,8.813649177551269309e-01,9.135062217712401900e-01,9.480803489685059038e-01,9.853832244873046431e-01,1.000000000000000000e+00,1.000000000000000000e+00,1.000000000000000000e+00,1.000000000000000000e+00,1.000000000000000000e+00,1.000000000000000000e+00,1.000000000000000000e+00,1.000000000000000000e+00,1.000000000000000000e+00,1.000000000000000000e+00,1.000000000000000000e+00,1.000000000000000000e+00,3.030588150024414174e-01,2.920104503631592019e-01,2.887620210647582897e-01,2.890366554260254128e-01,2.891206979751587136e-01,1.000000000000000000e+00,2.162522315979003851e-01,2.142956018447876032e-01,2.126718759536743164e-01,2.115024328231811523e-01,2.116297006607055775e-01,2.143440961837768666e-01,1.000000000000000000e+00,1.000000000000000000e+00,1.000000000000000000e+00,1.000000000000000000e+00,1.000000000000000000e+00,1.000000000000000000e+00,1.000000000000000000e+00,1.000000000000000000e+00,1.000000000000000000e+00,1.000000000000000000e+00,1.000000000000000000e+00,1.000000000000000000e+00,1.000000000000000000e+00,1.000000000000000000e+00,1.000000000000000000e+00,1.000000000000000000e+00,1.000000000000000000e+00,1.000000000000000000e+00,1.000000000000000000e+00,1.000000000000000000e+00,1.000000000000000000e+00,1.000000000000000000e+00,1.000000000000000000e+00,1.000000000000000000e+00,1.000000000000000000e+00,1.000000000000000000e+00,1.000000000000000000e+00,1.000000000000000000e+00,1.000000000000000000e+00,1.000000000000000000e+00,9.688241958618164507e-01,9.371401786804198775e-01,9.074628829956055132e-01,8.796074867248535600e-01,8.534112930297851340e-01,8.287302970886230025e-01,8.054368019104003462e-01,7.834168910980224831e-01,7.625690460205077903e-01,7.428018569946288618e-01
6.197002887725829856e-01,6.354197978973388228e-01,6.519574642181396040e-01,6.693790435791016069e-01,6.877572536468505859e-01,7.071730613708495650e-01,7.277170181274413840e-01,7.494902610778808594e-01,7.726067066192626731e-01,7.971943378448486106e-01,8.233984947204590066e-01,8.513838768005370650e-01,8.813384056091309038e-01,9.134777069091797319e-01,9.480497360229491743e-01,9.853415489196777344e-01,1.000000000000000000e+00,1.000000000000000000e+00,1.000000000000000000e+00,1.000000000000000000e+00,1.000000000000000000e+00,1.000000000000000000e+00,1.000000000000000000e+00,1.000000000000000000e+00,1.000000000000000000e+00,1.000000000000000000e+00,1.000000000000000000e+00,1.000000000000000000e+00,2.972335338592529408e-01,2.929883241653442605e-01,2.915254592895507590e-01,2.918335914611816517e-01,2.921931982040405495e-01,1.000000000000000000e+00,2.183206796646118275e-01,2.146119594573974720e-01,2.129982233047485463e-01,2.115573406219482533e-01,2.114128828048706110e-01,2.131521701812744141e-01,1.000000000000000000e+00,1.000000000000000000e+00,1.000000000000000000e+00,1.000000000000000000e+00,1.000000000000000000e+00,1.000000000000000000e+00,1.000000000000000000e+00,1.000000000000000000e+00,1.000000000000000000e+00,1.000000000000000000e+00,1.000000000000000000e+00,1.000000000000000000e+00,1.000000000000000000e+00,1.000000000000000000e+00,1.000000000000000000e+00,1.000000000000000000e+00,1.000000000000000000e+00,1.000000000000000000e+00,1.000000000000000000e+00,1.000000000000000000e+00,1.000000000000000000e+00,1.000000000000000000e+00,1.000000000000000000e+00,1.000000000000000000e+00,1.000000000000000000e+00,1.000000000000000000e+00,1.000000000000000000e+00,1.000000000000000000e+00,1.000000000000000000e+00,1.000000000000000000e+00,9.688523292541504350e-01,9.371664047241210493e-01,9.074874877929687278e-01,8.796306610107421653e-01,8.534331321716308594e-01,8.287508010864257368e-01,8.054561614990234375e-01,7.834352970123290572e-01,7.625863552093505859e-01,7.428183555603027344e-01
6.196872234344482644e-01,6.354060173034667969e-01,6.519429683685302734e-01,6.693637371063232422e-01,6.877410411834716797e-01,7.071559906005859819e-01,7.276988983154296653e-01,7.494710922241211160e-01,7.725862979888915572e-01,7.971726417541503684e-01,8.233753204345702903e-01,8.513590812683105025e-01,8.813118934631347656e-01,9.134491920471191628e-01,9.480189323425293191e-01,9.853083610534667525e-01,1.000000000000000000e+00,1.000000000000000000e+00,1.000000000000000000e+00,1.000000000000000000e+00,1.000000000000000000e+00,1.000000000000000000e+00,1.000000000000000000e+00,1.000000000000000000e+00,1.000000000000000000e+00,1.000000000000000000e+00,1.000000000000000000e+00,1.000000000000000000e+00,2.981801748275756947e-01,2.940388441085815541e-01,2.943423271179199108e-01,2.946851253509521484e-01,1.000000000000000000e+00,1.000000000000000000e+00,2.201494455337524303e-01,2.149292469024658148e-01,2.133255720138549916e-01,2.117688655853271484e-01,2.113988876342773326e-01,2.119733810424804799e-01,1.000000000000000000e+00,1.000000000000000000e+00,1.000000000000000000e+00,1.000000000000000000e+00,1.000000000000000000e+00,1.000000000000000000e+00,1.000000000000000000e+00,1.000000000000000000e+00,1.000000000000000000e+00,1.000000000000000000e+00,1.000000000000000000e+00,1.000000000000000000e+00,1.000000000000000000e+00,1.000000000000000000e+00,1.000000000000000000e+00,1.000000000000000000e+00,1.000000000000000000e+00,1.000000000000000000e+00,1.000000000000000000e+00,1.000000000000000000e+00,1.000000000000000000e+00,1.000000000000000000e+00,1.000000000000000000e+00,1.000000000000000000e+00,1.000000000000000000e+00,1.000000000000000000e+00,1.000000000000000000e+00,1.000000000000000000e+00,1.000000000000000000e+00,1.000000000000000000e+00,9.688803672790526900e-01,9.371927261352539507e-01,9.075120925903320535e-01,8.796538352966308816e-01,8.534548759460449663e-01,8.287714004516602007e-01,8.054756164550781472e-01,7.834536552429198775e-01,7.626037597656250000e-01,7.428349018096923606e-01
6.196741104125976785e-01,6.353921890258789062e-01,6.519284725189209428e-01,6.693484783172607422e-01,6.877249240875243919e-01,7.071389198303222878e-01,7.276808261871338113e-01,7.494519233703613725e-01,7.725658416748046875e-01,7.971509456634521262e-01,8.233521461486816850e-01,8.513343811035156694e-01,8.812853813171386275e-01,9.134206771850585938e-01,9.479883193969727007e-01,9.852751731872558816e-01,1.000000000000000000e+00,1.000000000000000000e+00,1.000000000000000000e+00,1.000000000000000000e+00,1.000000000000000000e+00,1.000000000000000000e+00,1.000000000000000000e+00,1.000000000000000000e+00,1.000000000000000000e+00,1.000000000000000000e+00,1.000000000000000000e+00,3.114550590515136608e-01,2.996701002120971680e-01,2.967234611511230247e-01,2.972141265869140403e-01,2.975929975509643555e-01,1.000000000000000000e+00,1.000000000000000000e+00,2.213140487670898493e-01,2.152474880218505915e-01,2.136539459228515569e-01,2.120924472808837780e-01,2.114537715911865290e-01,2.113844394683837835e-01,2.215542078018188366e-01,1.000000000000000000e+00,1.000000000000000000e+00,1.000000000000000000e+00,1.000000000000000000e+00,1.000000000000000000e+00,1.000000000000000000e+00,1.000000000000000000e+00,1.000000000000000000e+00,1.000000000000000000e+00,1.000000000000000000e+00,1.000000000000000000e+00,1.000000000000000000e+00,1.000000000000000000e+00,1.000000000000000000e+00,1.000000000000000000e+00,1.000000000000000000e+00,1.000000000000000000e+00,1.000000000000000000e+00,1.000000000000000000e+00,1.000000000000000000e+00,1.000000000000000000e+00,1.000000000000000000e+00,1.000000000000000000e+00,1.000000000000000000e+00,1.000000000000000000e+00,1.000000000000000000e+00,1.000000000000000000e+00,1.000000000000000000e+00,1.000000000000000000e+00,9.689084053039550559e-01,9.372190475463867410e-01,9.075367927551269975e-01,8.796769142150878684e-01,8.534767150878905806e-01,8.287919044494629350e-01,8.054949760437011275e-01,7.834719657897949441e-01,7.626212120056152788e-01,7.428514003753662331e-01
6.196609973907470925e-01,6.353784084320068803e-01,6.519139766693115012e-01,6.693331241607666238e-01,6.877087593078613503e-01,7.071218013763427290e-01,7.276627540588378462e-01,7.494327545166015181e-01,7.725454807281494363e-01,7.971292972564697488e-01,8.233289718627929688e-01,8.513095855712891069e-01,8.812588691711426003e-01,9.133921623229980247e-01,9.479576110839843528e-01,9.852420806884765181e-01,1.000000000000000000e+00,1.000000000000000000e+00,1.000000000000000000e+00,1.000000000000000000e+00,1.000000000000000000e+00,1.000000000000000000e+00,1.000000000000000000e+00,1.000000000000000000e+00,1.000000000000000000e+00,1.000000000000000000e+00,1.000000000000000000e+00,3.060929775238037109e-01,3.012273550033569558e-01,2.998255491256713867e-01,3.002327919006347878e-01,1.000000000000000000e+00,1.000000000000000000e+00,1.000000000000000000e+00,2.224910497665405218e-01,2.155728816986083873e-01,2.139833211898803655e-01,2.124170303344726507e-01,2.115523815155029297e-01,2.114020586013793945e-01,2.204653263092040960e-01,1.000000000000000000e+00,1.000000000000000000e+00,1.000000000000000000e+00,1.000000000000000000e+00,1.000000000000000000e+00,1.000000000000000000e+00,1.000000000000000000e+00,1.000000000000000000e+00,1.000000000000000000e+00,1.000000000000000000e+00,1.000000000000000000e+00,1.000000000000000000e+00,1.000000000000000000e+00,1.000000000000000000e+00,1.000000000000000000e+00,1.000000000000000000e+00,1.000000000000000000e+00,1.000000000000000000e+00,1.000000000000000000e+00,1.000000000000000000e+00,1.000000000000000000e+00,1.000000000000000000e+00,1.000000000000000000e+00,1.000000000000000000e+00,1.000000000000000000e+00,1.000000000000000000e+00,1.000000000000000000e+00,1.000000000000000000e+00,1.000000000000000000e+00,9.689365386962890403e-01,9.372452735900879128e-01,9.075614929199218306e-01,8.797000885009765847e-01,8.534984588623046875e-01,8.288125038146972878e-01,8.055144309997558372e-01,7.834903717041015181e-01,7.626386165618896928e-01,7.428679466247558594e-01
6.196478366851806419e-01,6.353646278381347434e-01,6.518993854522705522e-01,6.693178176879882590e-01,6.876926422119140625e-01,7.071047306060791460e-01,7.276446819305419922e-01,7.494134902954101562e-01,7.725251197814941850e-01,7.971075057983398882e-01,8.233057975769042525e-01,8.512847900390625444e-01,8.812323570251464622e-01,9.133637428283691850e-01,9.479269027709961160e-01,9.852088928222656472e-01,1.000000000000000000e+00,1.000000000000000000e+00,1.000000000000000000e+00,1.000000000000000000e+00,1.000000000000000000e+00,1.000000000000000000e+00,1.000000000000000000e+00,1.000000000000000000e+00,1.000000000000000000e+00,1.000000000000000000e+00,1.000000000000000000e+00,3.077386856079101785e-01,3.030100107192993386e-01,3.029949903488159402e-01,3.081765174865722656e-01,1.000000000000000000e+00,1.000000000000000000e+00,1.000000000000000000e+00,2.240155220031738170e-01,2.159263849258422907e-01,2.143730878829956110e-01,2.128419637680053766e-01,2.121713638305663951e-01,2.120201826095580999e-01,2.195178985595703236e-01,1.000000000000000000e+00,1.000000000000000000e+00,1.000000000000000000e+00,1.000000000000000000e+00,1.000000000000000000e+00,1.000000000000000000e+00,1.000000000000000000e+00,1.000000000000000000e+00,1.000000000000000000e+00,1.000000000000000000e+00,1.000000000000000000e+00,1.000000000000000000e+00,1.000000000000000000e+00,1.000000000000000000e+00,1.000000000000000000e+00,1.000000000000000000e+00,1.000000000000000000e+00,1.000000000000000000e+00,1.000000000000000000e+00,1.000000000000000000e+00,1.000000000000000000e+00,1.000000000000000000e+00,1.000000000000000000e+00,1.000000000000000000e+00,1.000000000000000000e+00,1.000000000000000000e+00,1.000000000000000000e+00,1.000000000000000000e+00,1.000000000000000000e+00,9.689645767211914062e-01,9.372715950012207031e-01,9.075860977172851562e-01,8.797232627868651900e-01,8.535202980041504128e-01,8.288330078125000222e-01,8.055337905883789285e-01,7.835087299346923384e-01,7.626560211181641069e-01,7.428843975067138672e-01
6.196347236633300559e-01,6.353508472442627175e-01,6.518848896026611106e-01,6.693025112152100053e-01,6.876764297485351562e-01,7.070876598358154519e-01,7.276265144348144087e-01,7.493943214416504128e-01,7.725047588348388228e-01,7.970858097076416460e-01,8.232827186584472656e-01,8.512600898742676003e-01,8.812057495117187056e-01,9.133352279663086160e-01,9.478961944580077681e-01,9.710716247558593972e-01,9.708331108093262163e-01,9.705947875976562722e-01,9.703565597534179465e-01,9.701184272766113503e-01,9.698804855346679910e-01,9.696425437927246316e-01,9.694047927856445090e-01,9.691671371459961160e-01,9.689296722412109597e-01,9.686922073364258035e-01,9.684549331665038840e-01,3.093135118484496848e-01,3.060357093811035267e-01,3.062321186065674050e-01,9.675069808959960715e-01,9.672701835632324663e-01,9.670335769653319868e-01,9.667971611022949663e-01,9.665607452392578347e-01,2.163844108581542969e-01,2.148245334625244196e-01,2.132869958877563477e-01,2.122679710388183649e-01,2.126419067382812611e-01,2.185786247253417858e-01,9.649093627929687944e-01,9.646739959716796875e-01,9.644386291503905806e-01,9.642033576965332031e-01,9.639682769775390625e-01,9.637332916259765403e-01,9.634984016418457475e-01,9.632637023925780806e-01,9.630290031433105247e-01,9.627944946289062056e-01,9.625600814819336160e-01,9.623257637023925337e-01,9.620915412902831809e-01,9.618575096130370650e-01,9.616234779357910600e-01,9.613896369934081809e-01,9.611558914184570312e-01,9.609223365783691184e-01,9.606887817382812056e-01,9.604554176330566406e-01,9.602221488952636941e-01,9.599889755249023660e-01,9.597558975219726562e-01,9.595229148864745650e-01,9.592901229858398215e-01,9.590574264526366965e-01,9.588248252868651900e-01,9.585923194885254128e-01,9.583600044250488725e-01,9.581276893615722212e-01,9.372978210449218750e-01,9.076107025146484819e-01,8.797464370727539062e-01,8.535420417785644087e-01,8.288536071777343750e-01,8.055532455444336382e-01,7.835271358489990234e-01,7.626733779907226562e-01,7.429009437561034934e-01
6.196216583251953347e-01,6.353370189666748269e-01,6.518703937530517800e-01,6.692872047424316406e-01,6.876603126525878684e-01,7.070705890655517578e-01,7.276084423065185547e-01,7.493752002716064231e-01,7.542699813842773660e-01,7.541261196136475053e-01,7.539822578430175337e-01,7.538385391235351562e-01,7.536947727203369141e-01,7.535511493682861550e-01,7.534075260162353960e-01,7.532639980316162553e-01,7.531204700469971147e-01,7.529770851135253462e-01,7.528336524963379350e-01,7.526903629302978960e-01,7.525470256805419922e-01,7.524038314819335715e-01,7.522606372833251509e-01,7.521175861358642134e-01,7.519744873046875222e-01,7.518314838409423384e-01,3.194269180297851785e-01,3.140999317169189675e-01,3.091224431991577148e-01,7.512600421905517578e-01,7.511173248291015403e-01,7.509746074676513228e-01,7.508320331573485884e-01,7.506894111633301003e-01,7.505469322204589844e-01,2.180150270462036244e-01,2.152778863906860407e-01,2.137411832809448242e-01,2.122993230819702204e-01,2.132673263549804688e-01,2.176473140716552734e-01,7.495507717132567915e-01,7.494087219238281250e-01,7.492666721343994585e-01,7.491247177124022993e-01,7.489827632904052512e-01,7.488409519195556863e-01,7.486990928649902566e-01,7.485573768615723100e-01,7.484156131744384988e-01,7.482739925384521706e-01,7.481323719024658425e-01,7.479908466339111328e-01,7.478493213653564231e-01,7.477079391479491965e-01,7.475665092468262163e-01,7.474251747131347434e-01,7.472838878631591353e-01,7.471426963806152566e-01,7.470014572143555132e-01,7.468604087829590066e-01,7.467192649841308816e-01,7.465783119201659934e-01,7.464373111724853516e-01,7.462964534759521928e-01,7.461555480957031694e-01,7.460147857666015181e-01,7.458739757537842241e-01,7.457333564758300559e-01,7.455926418304443803e-01,7.454521179199218306e-01,7.453115463256836382e-01,7.451710700988769531e-01,7.450305938720702681e-01,7.448902606964111772e-01,7.447499275207519753e-01,7.446096897125243919e-01,7.444694042205810547e-01,7.443293094635009544e-01,7.429174423217773660e-01
6.167026996612549050e-01,6.166064739227294922e-01,6.165102958679199441e-01,6.164141178131103960e-01,6.163179874420166016e-01,6.162219047546386719e-01,6.161259174346923606e-01,6.160298824310302956e-01,6.159339427947998491e-01,6.158379554748535378e-01,6.157420635223388450e-01,6.156461238861083984e-01,6.155503273010254350e-01,6.154544353485107422e-01,6.153586864471435325e-01,6.152628898620605691e-01,6.151671886444092241e-01,6.150714397430420144e-01,6.149757862091064231e-01,6.148801326751709428e-01,6.147845268249512163e-01,6.146889209747314897e-01,6.145933628082275169e-01,6.144978046417236550e-01,6.144023418426514116e-01,6.143068313598633035e-01,3.165868759155273660e-01,3.142176151275634655e-01,3.222882986068725808e-01,6.139253139495849387e-01,6.138299465179443137e-01,6.137347221374511719e-01,6.136394023895264116e-01,6.135442256927490234e-01,6.134489536285400169e-01,2.199082136154174860e-01,2.157331705093383789e-01,2.142063379287719727e-01,2.127582550048828236e-01,2.138963937759399414e-01,2.167239427566528265e-01,6.127834320068359375e-01,6.126884460449218972e-01,6.125935077667236106e-01,6.124985694885254350e-01,6.124037265777587669e-01,6.123088359832763450e-01,6.122140407562255415e-01,6.121192455291748491e-01,6.120244979858397993e-01,6.119297504425048606e-01,6.118350505828857866e-01,6.117403507232666016e-01,6.116457462310791460e-01,6.115510940551758257e-01,6.114565372467041238e-01,6.113619327545165572e-01,6.112674236297607200e-01,6.111729145050048828e-01,6.110784530639647993e-01,6.109839916229248269e-01,6.108896255493163618e-01,6.107952117919921431e-01,6.107008934020996538e-01,6.106065273284911887e-01,6.105122566223144531e-01,6.104179859161377175e-01,6.103237628936767356e-01,6.102295398712158647e-01,6.101353645324707475e-01,6.100411891937256303e-01,6.099471092224121316e-01,6.098529815673827681e-01,6.097589492797851340e-01,6.096649169921875000e-01,6.095709323883056197e-01,6.094769477844238503e-01,6.093830108642578347e-01,6.092890739440918191e-01,6.091951847076415572e-01
5.210253715515136275e-01,5.209567070007323775e-01,5.208880424499511275e-01,5.208193778991698775e-01,5.207507610321044922e-01,5.206821441650391069e-01,5.206135749816894753e-01,5.205450057983398438e-01,5.204764842987060769e-01,5.204079627990723100e-01,5.203394412994384322e-01,5.202709674835205300e-01,5.202024936676025169e-01,5.201340675354003684e-01,5.200656414031982200e-01,5.199972629547119363e-01,5.199288368225097878e-01,5.198605060577392578e-01,5.197921276092529741e-01,5.197237968444824441e-01,5.196554660797119141e-01,5.195871829986572488e-01,5.195188999176025835e-01,5.194506645202636719e-01,5.193823814392090066e-01,5.193141937255859597e-01,3.147653579711914285e-01,3.117498636245727428e-01,3.163464307785034402e-01,5.190414428710937722e-01,5.189733505249023438e-01,5.189052104949951616e-01,5.188371181488037331e-01,5.187690258026123047e-01,5.187009811401367410e-01,2.214751243591308594e-01,2.161903619766235296e-01,2.146735429763793890e-01,2.132191419601440485e-01,2.137916564941406139e-01,2.158083438873291127e-01,5.182250022888184038e-01,5.181571006774902122e-01,5.180891990661621316e-01,5.180212974548339400e-01,5.179534435272217241e-01,5.178855895996093972e-01,5.178177356719970703e-01,5.177499294281006081e-01,5.176821231842041460e-01,5.176143646240234375e-01,5.175466060638427290e-01,5.174788475036621316e-01,5.174111366271972878e-01,5.173434257507324441e-01,5.172757148742676003e-01,5.172080516815185103e-01,5.171403884887695312e-01,5.170727729797363059e-01,5.170051574707030806e-01,5.169375419616699663e-01,5.168699741363524947e-01,5.168024063110351340e-01,5.167348384857177734e-01,5.166673183441161665e-01,5.165997982025146706e-01,5.165323257446289285e-01,5.164648056030273215e-01,5.163973808288574441e-01,5.163299083709717019e-01,5.162624835968017134e-01,5.161950588226318359e-01,5.161277294158935769e-01,5.160603046417235884e-01,5.159929752349853294e-01,5.159255981445312056e-01,5.158583164215088113e-01,5.157909870147705522e-01,5.157237052917480469e-01,5.156564235687255415e-01
4.510482311248779075e-01,4.509967803955078347e-01,4.509452819824218972e-01,4.508938789367675781e-01,4.508424282073974498e-01,4.507910251617431863e-01,4.507395744323730580e-01,4.506881713867187389e-01,4.506368160247802845e-01,4.505854606628417747e-01,4.505341053009033203e-01,4.504827499389648660e-01,4.504313945770263561e-01,4.503800868988037109e-01,4.503287792205810658e-01,4.502774715423584206e-01,4.502262115478515847e-01,4.501749515533447488e-01,4.501236915588379128e-01,4.500724315643310769e-01,4.500212192535400502e-01,4.499700069427490234e-01,4.499187946319579967e-01,4.498675823211669700e-01,4.498164176940918080e-01,4.497652053833007812e-01,3.159862756729125977e-01,3.084250926971435769e-01,3.129459381103515403e-01,4.495606899261474498e-01,4.495095252990722878e-01,4.494584560394286887e-01,4.494073390960693359e-01,4.493562698364257924e-01,4.493052005767822488e-01,2.228327751159668024e-01,2.166495084762573298e-01,2.151427745819091686e-01,2.136820316314697321e-01,2.136609077453613392e-01,2.150102853775024414e-01,4.489480495452881081e-01,4.488970279693603738e-01,4.488461017608642578e-01,4.487951278686523326e-01,4.487442016601562722e-01,4.486932754516601562e-01,4.486423492431640403e-01,4.485914230346679799e-01,4.485405445098876731e-01,4.484896659851074219e-01,4.484387874603271706e-01,4.483879089355468639e-01,4.483370780944824219e-01,4.482862472534179799e-01,4.482354164123535378e-01,4.481845855712890403e-01,4.481338024139404075e-01,4.480829715728759655e-01,4.480322360992431419e-01,4.479814529418945090e-01,4.479307174682617410e-01,4.478799343109131081e-01,4.478291988372802845e-01,4.477784633636474609e-01,4.477277755737304465e-01,4.476770877838134877e-01,4.476263999938964733e-01,4.475757122039795144e-01,4.475250720977783092e-01,4.474743843078613503e-01,4.474237442016601451e-01,4.473731040954589955e-01,4.473225116729736550e-01,4.472718715667724498e-01,4.472212791442871094e-01,4.471706867218017689e-01,4.471201419830322377e-01,4.470695495605468972e-01,4.470190048217773660e-01
3.976422786712646706e-01,3.976022720336914174e-01,3.975622892379760964e-01,3.975222826004028431e-01,3.974823236465453991e-01,3.974423408508300781e-01,3.974023818969726340e-01,3.973624229431152455e-01,3.973224878311157338e-01,3.972825527191162220e-01,3.972426176071167103e-01,3.972026824951171986e-01,3.971627712249755637e-01,3.971228599548339844e-01,3.970829725265502819e-01,3.970430850982665794e-01,3.970031976699829324e-01,3.969633817672729714e-01,3.969234943389892689e-01,3.968836307525634988e-01,3.968437910079956055e-01,3.968039989471435769e-01,3.967641592025756836e-01,3.967243432998657227e-01,3.966845035552978294e-01,3.966447591781616100e-01,3.071977853775024192e-01,3.045115947723388561e-01,3.089063405990600808e-01,3.964856386184692494e-01,3.964458703994750977e-01,3.964061021804809459e-01,3.963663816452026589e-01,3.963266372680663840e-01,3.962869167327880970e-01,3.962471723556518777e-01,2.171106100082397516e-01,2.156140804290771484e-01,2.141469478607177790e-01,2.135303258895873968e-01,2.154701471328735463e-01,3.960090398788452259e-01,3.959693670272826926e-01,3.959296941757202148e-01,3.958900928497314231e-01,3.958504438400268777e-01,3.958107948303222767e-01,3.957711458206176758e-01,3.957315683364868164e-01,3.956919431686401478e-01,3.956523418426513561e-01,3.956127405166626199e-01,3.955731868743896373e-01,3.955335855484009011e-01,3.954940080642700417e-01,3.954544305801391824e-01,3.954149246215820090e-01,3.953753709793090820e-01,3.953358173370361550e-01,3.952962636947631725e-01,3.952567815780639870e-01,3.952172517776489369e-01,3.951777458190918191e-01,3.951382398605346458e-01,3.950987815856933372e-01,3.950592756271362194e-01,3.950197935104370339e-01,3.949803113937377930e-01,3.949409008026122936e-01,3.949014425277709850e-01,3.948619842529296764e-01,3.948225259780883678e-01,3.947831392288208008e-01,3.947437047958374245e-01,3.947042942047119252e-01,3.946648836135864258e-01,3.946255207061767356e-01,3.945861101150512917e-01,3.945467233657836692e-01,3.945073366165161022e-01
3.555443525314331277e-01,3.555123805999755859e-01,3.554804086685180442e-01,3.554484367370605580e-01,3.554164648056030162e-01,3.553845167160034069e-01,3.553525686264037975e-01,3.553206205368041881e-01,3.552886724472045787e-01,3.552567481994629017e-01,3.552248001098632924e-01,3.551928758621215598e-01,3.551609754562378152e-01,3.551290512084960826e-01,3.550971508026122825e-01,3.550652503967285378e-01,3.550333738327026145e-01,3.550014972686767467e-01,3.549696207046508789e-01,3.549377441406250111e-01,3.549058675765991433e-01,3.548739910125732200e-01,3.548421382904052845e-01,3.548102617263794167e-01,3.547784566879272350e-01,3.547466278076171764e-01,3.046984195709228627e-01,2.988789558410644420e-01,3.019413709640502708e-01,3.121928453445434459e-01,3.545875072479248158e-01,3.545557498931884988e-01,3.545239448547363170e-01,3.544921398162841908e-01,3.544603347778320090e-01,3.544286012649536244e-01,3.543968200683593750e-01,2.178758621215820257e-01,2.166393756866455134e-01,2.161349058151245117e-01,3.542697906494140514e-01,3.542380332946777344e-01,3.542062759399414174e-01,3.541745662689209095e-01,3.541428327560424694e-01,3.541110992431640847e-01,3.540793895721435769e-01,3.540477037429809459e-01,3.540159940719604381e-01,3.539842844009399303e-01,3.539525747299194225e-01,3.539209127426147239e-01,3.538892269134521484e-01,3.538575410842895730e-01,3.538258552551269420e-01,3.537942171096801758e-01,3.537625551223754772e-01,3.537308931350707786e-01,3.536992311477661355e-01,3.536676168441772461e-01,3.536359786987304799e-01,3.536043405532837136e-01,3.535727024078368919e-01,3.535411119461059348e-01,3.535094976425171009e-01,3.534778594970703347e-01,3.534462451934814453e-01,3.534146785736084206e-01,3.533830881118774636e-01,3.533514976501465066e-01,3.533199071884155495e-01,3.532883644104004017e-01,3.532567739486694447e-01,3.532252073287963645e-01,3.531936407089233398e-01,3.531621217727661244e-01,3.531305789947509766e-01,3.530990362167358287e-01,3.530674934387206809e-01,3.530359745025634655e-01
3.215068340301513450e-01,3.214806795120239147e-01,3.214545249938964844e-01,3.214283704757690541e-01,3.214022397994995006e-01,3.213761091232300027e-01,3.213499784469604492e-01,3.213238477706908958e-01,3.212977170944213978e-01,3.212716102600097767e-01,3.212455034255981556e-01,3.212193965911865345e-01,3.211932897567749134e-01,3.211671829223632924e-01,3.211410760879516713e-01,3.211149930953979270e-01,3.210889339447021706e-01,3.210628509521484264e-01,3.210367679595947377e-01,3.210106849670409934e-01,3.209846258163452370e-01,3.209585666656494252e-01,3.209324836730956809e-01,3.209064245223999245e-01,3.208803892135619895e-01,3.208543300628662331e-01,3.208282947540282981e-01,2.956248044967651478e-01,2.957822799682617299e-01,3.065522193908691295e-01,3.207242012023925892e-01,3.206981897354125866e-01,3.206721544265747070e-01,3.206461429595947044e-01,3.206201553344726340e-01,3.205941438674926869e-01,3.205681562423706166e-01,2.183592796325683483e-01,2.163368701934814398e-01,2.157687425613403209e-01,2.163094043731689509e-01,3.204382181167602650e-01,3.204122781753540039e-01,3.203863143920898660e-01,3.203603267669677956e-01,3.203343629837036022e-01,3.203084468841552734e-01,3.202824831008911355e-01,3.202565193176269420e-01,3.202305793762206809e-01,3.202046632766723522e-01,3.201787233352660911e-01,3.201527833938598855e-01,3.201268672943115012e-01,3.201009511947631725e-01,3.200750350952148438e-01,3.200491189956665150e-01,3.200232028961181863e-01,3.199973106384277344e-01,3.199714183807372825e-01,3.199455022811889537e-01,3.199196100234985574e-01,3.198937416076660378e-01,3.198678493499755859e-01,3.198419809341430664e-01,3.198160886764526145e-01,3.197902441024780273e-01,3.197643756866455078e-01,3.197385072708129883e-01,3.197126388549804688e-01,3.196867942810058816e-01,3.196609497070312389e-01,3.196351051330566517e-01,3.196092367172241322e-01,3.195834398269653542e-01,3.195575952529907116e-01,3.195317506790161244e-01,3.195059299468994141e-01,3.194801330566406361e-01,3.194543123245239258e-01
2.934169530868530051e-01,2.933951854705810769e-01,2.933733940124511608e-01,2.933516263961791770e-01,2.933298587799072488e-01,2.933080673217773326e-01,2.932863235473632812e-01,2.932645559310912975e-01,2.932427883148193137e-01,2.932210445404052623e-01,2.931992769241332786e-01,2.931775331497192272e-01,2.931557893753051758e-01,2.931340456008911244e-01,2.931123018264770730e-01,2.930905580520629661e-01,2.930688619613647239e-01,2.930471181869506725e-01,2.930253982543945535e-01,2.930036783218383789e-01,2.929819583892822044e-01,2.929602384567260853e-01,2.929385185241699108e-01,2.929167985916137917e-01,2.928951025009155495e-01,2.928734064102173074e-01,2.928516864776611328e-01,2.928299903869628906e-01,2.928082942962646484e-01,2.927866458892822155e-01,2.927649497985839733e-01,2.927432537078857311e-01,2.927215814590454213e-01,2.926999330520629883e-01,2.926782608032226785e-01,2.926565885543823131e-01,2.926349163055420033e-01,2.183533430099487416e-01,2.154874801635742188e-01,2.139842271804809626e-01,2.127131223678588867e-01,2.135992765426635853e-01,2.925050258636474609e-01,2.924833774566650280e-01,2.924617290496825950e-01,2.924401044845580944e-01,2.924184799194335938e-01,2.923968315124511608e-01,2.923752069473266602e-01,2.923536062240600364e-01,2.923319816589355358e-01,2.923103570938110352e-01,2.922887563705444114e-01,2.922671556472778431e-01,2.922455549240112194e-01,2.922239303588867188e-01,2.922023296356200950e-01,2.921807527542114036e-01,2.921591520309448353e-01,2.921375513076782116e-01,2.921159744262695201e-01,2.920943975448608287e-01,2.920728206634521373e-01,2.920512437820434459e-01,2.920296669006347545e-01,2.920081138610839955e-01,2.919865369796753041e-01,2.919649600982666127e-01,2.919434070587157981e-01,2.919218540191650391e-01,2.919003009796142800e-01,2.918787479400634655e-01,2.918571949005127064e-01,2.918356657028198242e-01,2.918141126632690652e-01,2.917925596237182506e-01,2.917710304260253684e-01,2.917495250701904186e-01,2.917279720306396595e-01,2.917064428329467773e-01
2.698410987854004128e-01,2.698226690292358509e-01,2.698042392730712891e-01,2.697858333587646595e-01,2.697674036026000977e-01,2.697489976882934681e-01,2.697305917739868386e-01,2.697121858596801536e-01,2.696937799453735241e-01,2.696753740310668945e-01,2.696569681167602650e-01,2.696385860443115123e-01,2.696201801300048828e-01,2.696017980575561301e-01,2.695834159851074330e-01,2.695650100708008035e-01,2.695466518402099831e-01,2.695282697677612305e-01,2.695098876953124778e-01,2.694915294647216575e-01,2.694731473922729603e-01,2.694547891616821400e-01,2.694364070892333873e-01,2.694180488586425670e-01,2.693996667861938699e-01,2.693813085556030495e-01,2.693629503250122292e-01,2.693445920944214089e-01,2.693262338638305886e-01,2.693078994750976451e-01,2.692895412445068248e-01,2.692712068557739369e-01,2.692528724670409934e-01,2.692345380783081055e-01,2.692162036895752175e-01,2.691978454589843972e-01,2.691795349121093861e-01,2.186784505844116266e-01,2.142552614212036022e-01,2.117798089981079157e-01,2.102265596389770452e-01,2.096404314041137584e-01,2.102989912033081110e-01,2.690512895584106223e-01,2.690330028533935436e-01,2.690146923065185325e-01,2.689963817596435769e-01,2.689780712127685658e-01,2.689597845077514870e-01,2.689414739608764759e-01,2.689231872558593972e-01,2.689048767089843861e-01,2.688866138458251842e-01,2.688683271408081055e-01,2.688500404357910267e-01,2.688317537307739480e-01,2.688134670257568137e-01,2.687952041625976674e-01,2.687769174575805886e-01,2.687586307525634544e-01,2.687403917312621848e-01,2.687221050262451061e-01,2.687038421630859597e-01,2.686855792999267578e-01,2.686673402786254883e-01,2.686490774154662864e-01,2.686308145523071400e-01,2.686125516891479381e-01,2.685943126678466686e-01,2.685760736465453991e-01,2.685578107833862527e-01,2.685395717620849831e-01,2.685213327407837136e-01,2.685030937194824441e-01,2.684848546981811745e-01,2.684666156768799050e-01,2.684484004974365123e-01,2.684301853179931752e-01,2.684119462966919056e-01,2.683937072753906361e-01
2.497720718383789062e-01,2.497562885284423939e-01,2.497405052185058538e-01,2.497247219085693415e-01,2.497089385986328014e-01,2.496931791305541937e-01,2.496773958206176813e-01,2.496616125106811412e-01,2.496458530426025335e-01,2.496300935745239258e-01,2.496143102645874134e-01,2.495985507965087780e-01,2.495827913284301702e-01,2.495670318603515625e-01,2.495512723922729548e-01,2.495355129241943470e-01,2.495197772979736439e-01,2.495040178298950084e-01,2.494882822036743053e-01,2.494725227355956976e-01,2.494567871093749944e-01,2.494410514831542913e-01,2.494252920150756836e-01,2.494095563888549805e-01,2.493938207626342773e-01,2.493780851364135742e-01,2.493623495101928711e-01,2.493466138839721680e-01,2.493308782577514648e-01,2.493151664733886663e-01,2.492994308471679632e-01,2.492837190628051647e-01,2.492680072784423939e-01,2.492522716522216908e-01,2.492365360260009877e-01,2.492208480834960938e-01,2.492051362991332952e-01,2.187247514724731390e-01,2.128956556320190374e-01,2.097319364547729492e-01,2.077149152755737305e-01,2.067515134811401256e-01,2.061121225357055720e-01,2.066821336746215709e-01,2.078898906707763727e-01,2.490638256072998102e-01,2.490481376647949163e-01,2.490324497222900502e-01,2.490167617797851562e-01,2.490010738372802623e-01,2.489853858947753962e-01,2.489697217941284069e-01,2.489540338516235407e-01,2.489383697509765514e-01,2.489226818084716852e-01,2.489070177078246959e-01,2.488913536071777344e-01,2.488756895065307728e-01,2.488600015640258789e-01,2.488443613052368220e-01,2.488286972045898326e-01,2.488130331039428711e-01,2.487973690032959095e-01,2.487817287445068248e-01,2.487660646438598633e-01,2.487504005432129017e-01,2.487347364425659124e-01,2.487191200256347601e-01,2.487034559249877985e-01,2.486878156661987416e-01,2.486721754074096569e-01,2.486565351486205999e-01,2.486408948898315430e-01,2.486252546310424860e-01,2.486096143722534291e-01,2.485939979553222767e-01,2.485783576965331920e-01,2.485627174377441351e-01,2.485471010208129827e-01,2.485314846038818304e-01
2.324815988540649414e-01,2.324679374694824108e-01,2.324542522430420033e-01,2.324405908584594727e-01,2.324269056320190374e-01,2.324132442474365345e-01,2.323995828628540039e-01,2.323859214782714733e-01,2.323722600936889704e-01,2.323585987091064398e-01,2.323449373245239369e-01,2.323312759399414062e-01,2.323176145553588756e-01,2.323039531707763727e-01,2.322903156280517467e-01,2.322766542434692438e-01,2.322630167007446178e-01,2.322493791580200195e-01,2.322357177734374889e-01,2.322220802307128906e-01,2.322084426879882924e-01,2.321948051452636663e-01,2.321811437606811634e-01,2.321675062179565374e-01,2.321538686752319391e-01,2.321402311325073131e-01,2.321266174316406194e-01,2.321129798889160212e-01,2.320993423461913951e-01,2.320857048034667969e-01,2.320720911026001032e-01,2.320584774017334095e-01,2.320448398590087835e-01,2.320312261581420898e-01,2.320176124572753962e-01,2.320039749145507701e-01,2.319903612136840765e-01,2.319767475128173828e-01,2.128868818283081166e-01,2.070000410079955999e-01,2.042773723602294977e-01,2.030572414398193470e-01,2.024901628494262806e-01,2.024754047393798884e-01,2.011704921722411998e-01,2.023791313171386663e-01,2.000405788421630859e-01,2.318407058715820368e-01,2.318270921707153431e-01,2.318135023117065541e-01,2.317999124526977650e-01,2.317863225936889759e-01,2.317727327346801869e-01,2.317591428756713978e-01,2.317455768585205134e-01,2.317319869995117243e-01,2.317183971405029352e-01,2.317048072814941462e-01,2.316912412643432617e-01,2.316776514053344727e-01,2.316640853881835882e-01,2.316504955291747991e-01,2.316369533538818470e-01,2.316233634948730580e-01,2.316097974777221735e-01,2.315962314605712891e-01,2.315826654434204046e-01,2.315690994262695201e-01,2.315555334091186634e-01,2.315419673919677790e-01,2.315284252166747991e-01,2.315148591995239147e-01,2.315012931823730580e-01,2.314877271652221735e-01,2.314741849899291937e-01,2.314606428146362416e-01,2.314470767974853571e-01,2.314335346221923773e-01,2.314199924468994252e-01,2.314064502716064453e-01
2.174300193786621038e-01,2.174180507659912165e-01,2.174060821533203014e-01,2.173941373825073187e-01,2.173821687698364313e-01,2.173702239990234486e-01,2.173582553863525335e-01,2.173463106155395508e-01,2.173343658447265681e-01,2.173223972320556530e-01,2.173104524612426702e-01,2.172985076904296875e-01,2.172865629196167048e-01,2.172746181488037220e-01,2.172626733779907116e-01,2.172507286071777288e-01,2.172388076782226507e-01,2.172268629074096680e-01,2.172149181365966852e-01,2.172029972076416071e-01,2.171910524368286244e-01,2.171791076660156139e-01,2.171671867370605358e-01,2.171552419662475530e-01,2.171433210372924749e-01,2.171314001083373968e-01,2.171194553375244141e-01,2.171075344085693359e-01,2.170956134796142578e-01,2.170836925506591797e-01,2.170717716217041016e-01,2.170598506927490234e-01,2.170479297637939453e-01,2.170360088348388672e-01,2.170241117477416937e-01,2.170121908187866155e-01,2.170002698898315374e-01,2.169883489608764593e-01,2.169764518737792858e-01,2.169645309448242076e-01,2.016640424728393666e-01,1.996999621391296331e-01,1.999940991401672474e-01,1.969936847686767634e-01,1.965196013450622448e-01,1.969059944152831976e-01,1.984905838966369573e-01,2.168693065643310658e-01,2.168574094772338923e-01,2.168455123901367188e-01,2.168336153030395452e-01,2.168217182159423717e-01,2.168098211288452259e-01,2.167979478836059570e-01,2.167860507965087835e-01,2.167741775512695424e-01,2.167622804641723688e-01,2.167504072189330999e-01,2.167385339736938588e-01,2.167266368865966852e-01,2.167147636413574163e-01,2.167028903961181752e-01,2.166909933090210016e-01,2.166791200637817327e-01,2.166672468185424916e-01,2.166553735733032227e-01,2.166435003280639537e-01,2.166316270828247126e-01,2.166197538375854437e-01,2.166079044342041071e-01,2.165960311889648382e-01,2.165841579437255970e-01,2.165722846984863281e-01,2.165604352951049916e-01,2.165485620498657227e-01,2.165367126464843861e-01,2.165248394012451172e-01,2.165129899978637806e-01,2.165011405944824163e-01,2.164892673492431752e-01
2.042088747024536077e-01,2.041983366012573298e-01,2.041877746582031194e-01,2.041772365570068415e-01,2.041666984558105358e-01,2.041561365127563532e-01,2.041455984115600475e-01,2.041350603103637695e-01,2.041245222091674916e-01,2.041139602661132812e-01,2.041034221649170033e-01,2.040928840637206976e-01,2.040823459625244196e-01,2.040718078613281139e-01,2.040612697601318359e-01,2.040507316589355580e-01,2.040402173995971569e-01,2.040296792984008789e-01,2.040191411972046009e-01,2.040086269378661998e-01,2.039980888366699219e-01,2.039875507354736439e-01,2.039770364761352428e-01,2.039664983749389648e-01,2.039559841156005915e-01,2.039454460144042858e-01,2.039349317550659124e-01,2.039244174957275391e-01,2.039138793945312611e-01,2.039033651351928600e-01,2.038928508758544866e-01,2.038823366165161133e-01,2.038718223571777399e-01,2.038613080978393666e-01,2.038507938385009655e-01,2.038402795791625921e-01,2.038297653198242188e-01,2.038192510604858454e-01,2.038087606430053766e-01,2.037982463836670033e-01,2.037877321243286022e-01,2.037772178649902288e-01,1.962424516677856445e-01,1.961851477622985895e-01,2.037456989288330134e-01,2.037352085113525446e-01,2.037246942520141713e-01,2.037142038345337025e-01,2.037037134170532338e-01,2.036932229995727650e-01,2.036827087402343639e-01,2.036722183227538951e-01,2.036617517471313588e-01,2.036512374877929576e-01,2.036407470703124889e-01,2.036302566528320201e-01,2.036197900772094838e-01,2.036092996597290150e-01,2.035988092422485463e-01,2.035883188247680775e-01,2.035778522491455134e-01,2.035673618316650446e-01,2.035568714141845759e-01,2.035463809967041071e-01,2.035359144210815430e-01,2.035254478454589788e-01,2.035149574279785101e-01,2.035044670104980413e-01,2.034940004348754772e-01,2.034835338592529408e-01,2.034730672836303766e-01,2.034625768661499079e-01,2.034521102905273438e-01,2.034416437149047796e-01,2.034311771392822155e-01,2.034207105636596791e-01,2.034102439880371149e-01,2.033997774124145508e-01,2.033893108367919866e-01,2.033788442611694225e-01
1.925034642219543568e-01,1.924940824508666881e-01,1.924847245216369518e-01,1.924753308296203724e-01,1.924659609794616699e-01,1.924565792083740290e-01,1.924472212791442927e-01,1.924378395080566517e-01,1.924284815788269154e-01,1.924190998077392467e-01,1.924097537994384766e-01,1.924003720283508356e-01,1.923910140991210993e-01,1.923816442489623968e-01,1.923722863197326605e-01,1.923629164695739857e-01,1.923535585403442494e-01,1.923442125320434515e-01,1.923348426818847767e-01,1.923254966735839788e-01,1.923161268234253041e-01,1.923067808151245062e-01,1.922974109649658314e-01,1.922880649566650335e-01,1.922786951065063588e-01,1.922693610191345270e-01,1.922599911689758245e-01,1.922506451606750544e-01,1.922412872314453181e-01,1.922319531440734863e-01,1.922225832939147838e-01,1.922132492065429799e-01,1.922039151191711481e-01,1.921945571899414118e-01,1.921852231025695801e-01,1.921758651733398438e-01,1.921665310859680120e-01,1.921571731567382757e-01,1.921478509902954102e-01,1.921384930610656738e-01,1.921291708946228083e-01,1.921198129653930720e-01,1.921104907989502064e-01,1.921011447906494085e-01,1.920918107032775768e-01,1.920824646949768066e-01,1.920731425285339411e-01,1.920638203620910756e-01,1.920544743537902777e-01,1.920451283454895075e-01,1.920358061790466420e-01,1.920264959335327148e-01,1.920171499252319447e-01,1.920078396797180176e-01,1.919984936714172474e-01,1.919891834259033203e-01,1.919798612594604548e-01,1.919705271720886230e-01,1.919612169265746959e-01,1.919519066810607966e-01,1.919425725936889648e-01,1.919332623481750377e-01,1.919239282608032338e-01,1.919146180152893066e-01,1.919053077697753795e-01,1.918959856033325140e-01,1.918866753578186146e-01,1.918773770332336537e-01,1.918680429458618220e-01,1.918587446212768610e-01,1.918494224548339955e-01,1.918401122093200684e-01,1.918308138847351074e-01,1.918214917182922419e-01,1.918121933937072809e-01,1.918028950691223200e-01,1.917935848236083929e-01,1.917842864990234319e-01,1.917749643325805664e-01,1.917656660079956055e-01
1.820672035217285045e-01,1.820588231086731068e-01,1.820504307746887152e-01,1.820420503616332897e-01,1.820336580276489258e-01,1.820252895355224665e-01,1.820168972015380748e-01,1.820085167884826771e-01,1.820001244544982855e-01,1.819917559623718262e-01,1.819833636283874623e-01,1.819749951362609752e-01,1.819666147232055775e-01,1.819582462310790905e-01,1.819498538970947266e-01,1.819414854049682673e-01,1.819331288337707464e-01,1.819247364997863825e-01,1.819163799285888616e-01,1.819079995155334362e-01,1.818996310234069769e-01,1.818912506103515514e-01,1.818828821182250921e-01,1.818745136260986328e-01,1.818661451339721735e-01,1.818577766418457142e-01,1.818494081497192272e-01,1.818410396575927679e-01,1.818326830863952748e-01,1.818243026733398493e-01,1.818159461021423284e-01,1.818076014518737737e-01,1.817992210388183483e-01,1.817908763885497936e-01,1.817824959754943959e-01,1.817741513252258412e-01,1.817657828330993541e-01,1.817574262619018610e-01,1.817490577697754017e-01,1.817407131195068470e-01,1.817323446273803600e-01,1.817239999771118053e-01,1.817156434059143122e-01,1.817072987556457575e-01,1.816989302635192982e-01,1.816905856132507435e-01,1.816822290420532227e-01,1.816738843917846680e-01,1.816655397415161133e-01,1.816571831703185924e-01,1.816488385200500377e-01,1.816404819488525446e-01,1.816321492195129284e-01,1.816237926483154352e-01,1.816154599189758190e-01,1.816071033477783259e-01,1.815987706184387096e-01,1.815904140472412165e-01,1.815820813179016002e-01,1.815737485885620117e-01,1.815653920173644909e-01,1.815570592880249023e-01,1.815487265586853138e-01,1.815403819084167591e-01,1.815320491790771429e-01,1.815237045288085882e-01,1.815153837203979381e-01,1.815070509910583496e-01,1.814987063407897949e-01,1.814903855323791448e-01,1.814820647239684948e-01,1.814737200736999401e-01,1.814653992652893177e-01,1.814570546150207631e-01,1.814487338066101130e-01,1.814404129981994629e-01,1.814320802688598744e-01,1.814237594604492243e-01,1.814154386520385742e-01,1.814071059226989857e-01
1.727043390274047852e-01,1.726967811584472767e-01,1.726892471313476451e-01,1.726816892623901367e-01,1.726741552352905329e-01,1.726665973663329967e-01,1.726590633392333929e-01,1.726515173912048229e-01,1.726439833641052191e-01,1.726364374160766491e-01,1.726289033889770452e-01,1.726213574409484752e-01,1.726138234138488714e-01,1.726062774658203014e-01,1.725987434387206976e-01,1.725911974906921276e-01,1.725836753845214899e-01,1.725761413574218861e-01,1.725685954093933161e-01,1.725610733032226507e-01,1.725535273551940807e-01,1.725460052490234431e-01,1.725384712219238392e-01,1.725309371948242076e-01,1.725234031677246038e-01,1.725158810615539662e-01,1.725083470344543346e-01,1.725008249282836970e-01,1.724932789802551270e-01,1.724857687950134277e-01,1.724782228469848577e-01,1.724707126617431585e-01,1.724631905555725209e-01,1.724556565284728893e-01,1.724481463432311901e-01,1.724406123161315862e-01,1.724330902099609486e-01,1.724255681037902832e-01,1.724180459976196178e-01,1.724105238914489802e-01,1.724030017852783148e-01,1.723954796791076771e-01,1.723879694938659779e-01,1.723804354667663463e-01,1.723729252815246471e-01,1.723654031753540095e-01,1.723578929901123102e-01,1.723503828048706110e-01,1.723428606986999456e-01,1.723353624343872126e-01,1.723278403282165472e-01,1.723203301429748480e-01,1.723128080368042103e-01,1.723053097724914495e-01,1.722977876663208119e-01,1.722902774810791127e-01,1.722827672958374134e-01,1.722752571105957142e-01,1.722677469253540150e-01,1.722602486610412542e-01,1.722527265548706166e-01,1.722452282905578558e-01,1.722377300262451227e-01,1.722302198410034235e-01,1.722227215766906627e-01,1.722152233123779297e-01,1.722077131271362305e-01,1.722002148628234974e-01,1.721927046775817982e-01,1.721852183341980036e-01,1.721777200698852428e-01,1.721702098846435436e-01,1.721627235412597767e-01,1.721552252769470159e-01,1.721477270126342829e-01,1.721402287483215221e-01,1.721327304840087891e-01,1.721252441406249944e-01,1.721177577972411998e-01,1.721102476119995006e-01
1.642573356628417858e-01,1.642505168914794866e-01,1.642436742782592829e-01,1.642368674278259222e-01,1.642300248146057184e-01,1.642232179641723577e-01,1.642163872718810924e-01,1.642095685005187933e-01,1.642027378082275280e-01,1.641959190368652288e-01,1.641890883445739635e-01,1.641822814941406306e-01,1.641754508018493652e-01,1.641686439514160045e-01,1.641618132591247670e-01,1.641550064086914062e-01,1.641481995582580455e-01,1.641413688659668080e-01,1.641345620155334473e-01,1.641277432441711481e-01,1.641209363937377874e-01,1.641141057014465221e-01,1.641072988510131891e-01,1.641004800796508900e-01,1.640936732292175293e-01,1.640868544578552302e-01,1.640800476074218694e-01,1.640732288360595703e-01,1.640664219856262096e-01,1.640596032142639105e-01,1.640528082847595159e-01,1.640460014343261830e-01,1.640391945838928223e-01,1.640323877334594616e-01,1.640255689620971624e-01,1.640187740325927679e-01,1.640119552612304688e-01,1.640051603317260742e-01,1.639983534812927135e-01,1.639915466308593806e-01,1.639847397804260198e-01,1.639779448509216253e-01,1.639711380004882924e-01,1.639643430709838978e-01,1.639575242996215709e-01,1.639507293701171764e-01,1.639439225196838434e-01,1.639371275901794489e-01,1.639303445816039928e-01,1.639235377311706598e-01,1.639167428016662653e-01,1.639099359512329046e-01,1.639031529426574763e-01,1.638963460922241155e-01,1.638895511627197210e-01,1.638827562332153265e-01,1.638759613037109319e-01,1.638691663742065374e-01,1.638623714447021429e-01,1.638555765151977484e-01,1.638487815856933538e-01,1.638419866561889593e-01,1.638352036476135309e-01,1.638284087181091364e-01,1.638216257095336803e-01,1.638148427009582520e-01,1.638080358505248912e-01,1.638012647628784291e-01,1.637944817543029730e-01,1.637876868247985784e-01,1.637809038162231501e-01,1.637741088867187556e-01,1.637673258781432994e-01,1.637605547904968373e-01,1.637537598609924427e-01,1.637469887733459528e-01,1.637402057647704967e-01,1.637334108352661022e-01,1.637266397476196400e-01,1.637198448181152455e-01
1.565981030464172474e-01,1.565918922424316406e-01,1.565856933593750000e-01,1.565794825553893932e-01,1.565732955932617188e-01,1.565670847892761119e-01,1.565608859062194713e-01,1.565546751022338923e-01,1.565484762191772516e-01,1.565422773361206110e-01,1.565360784530639704e-01,1.565298795700073298e-01,1.565236806869506891e-01,1.565174698829650823e-01,1.565112829208374079e-01,1.565050840377807673e-01,1.564988851547241266e-01,1.564926981925964244e-01,1.564864993095397838e-01,1.564803123474121094e-01,1.564741015434265026e-01,1.564679145812988281e-01,1.564617156982421875e-01,1.564555287361145131e-01,1.564493298530578724e-01,1.564431428909301702e-01,1.564369440078735296e-01,1.564307570457458552e-01,1.564245581626892145e-01,1.564183712005615123e-01,1.564121842384338379e-01,1.564059972763061634e-01,1.563998103141784612e-01,1.563936233520507868e-01,1.563874363899230846e-01,1.563812375068664440e-01,1.563750624656677357e-01,1.563688635826110951e-01,1.563626885414123591e-01,1.563564896583557184e-01,1.563503146171569824e-01,1.563441276550293080e-01,1.563379406929016058e-01,1.563317537307739313e-01,1.563255786895751953e-01,1.563193917274475209e-01,1.563132166862487848e-01,1.563070416450500488e-01,1.563008546829223744e-01,1.562946796417236384e-01,1.562884926795959362e-01,1.562823176383972279e-01,1.562761306762695257e-01,1.562699556350707897e-01,1.562637686729431152e-01,1.562575936317443792e-01,1.562514185905456432e-01,1.562452435493469349e-01,1.562390565872192327e-01,1.562328934669494629e-01,1.562267065048217884e-01,1.562205433845519909e-01,1.562143564224243164e-01,1.562081933021545466e-01,1.562020063400268444e-01,1.561958432197570745e-01,1.561896681785583385e-01,1.561834931373596302e-01,1.561773300170898326e-01,1.561711549758911244e-01,1.561649918556213268e-01,1.561588287353515569e-01,1.561526536941528209e-01,1.561464905738830511e-01,1.561403155326843151e-01,1.561341524124145452e-01,1.561279892921447754e-01,1.561218142509460394e-01,1.561156511306762695e-01,1.561094999313354381e-01
1.496213316917419378e-01,1.496156692504882757e-01,1.496100068092346136e-01,1.496043443679809515e-01,1.495986700057983509e-01,1.495930194854736273e-01,1.495873570442199652e-01,1.495816946029663030e-01,1.495760321617126409e-01,1.495703697204589788e-01,1.495647072792053167e-01,1.495590567588806208e-01,1.495533943176269587e-01,1.495477318763732966e-01,1.495420694351196345e-01,1.495364189147949108e-01,1.495307683944702148e-01,1.495251059532165527e-01,1.495194554328918568e-01,1.495137929916381947e-01,1.495081424713134710e-01,1.495024800300598089e-01,1.494968295097351130e-01,1.494911670684814509e-01,1.494855284690856934e-01,1.494798660278320312e-01,1.494742155075073353e-01,1.494685530662536732e-01,1.494629144668579157e-01,1.494572520256042536e-01,1.494516015052795299e-01,1.494459629058838002e-01,1.494403004646301381e-01,1.494346618652343806e-01,1.494289994239807184e-01,1.494233608245849609e-01,1.494177103042602650e-01,1.494120597839355413e-01,1.494064092636108454e-01,1.494007706642150879e-01,1.493951082229614258e-01,1.493894696235656683e-01,1.493838191032409723e-01,1.493781805038452148e-01,1.493725299835205189e-01,1.493668913841247614e-01,1.493612408638000377e-01,1.493556022644043080e-01,1.493499636650085505e-01,1.493443131446838268e-01,1.493386745452880970e-01,1.493330240249633734e-01,1.493273854255676159e-01,1.493217468261718861e-01,1.493161082267761286e-01,1.493104577064514049e-01,1.493048310279846136e-01,1.492991805076599177e-01,1.492935419082641602e-01,1.492879033088684027e-01,1.492822647094726451e-01,1.492766261100769154e-01,1.492709875106811579e-01,1.492653608322143666e-01,1.492597103118896429e-01,1.492540836334228516e-01,1.492484450340270941e-01,1.492428183555603027e-01,1.492371678352356068e-01,1.492315292358398493e-01,1.492259025573730580e-01,1.492202758789062389e-01,1.492146372795105091e-01,1.492090106010436901e-01,1.492033839225768987e-01,1.491977453231811412e-01,1.491921186447143499e-01,1.491864800453185924e-01,1.491808533668518011e-01,1.491752266883850098e-01
1.432397127151489313e-01,1.432345151901245062e-01,1.432293295860290472e-01,1.432241320610046498e-01,1.432189464569091908e-01,1.432137489318847656e-01,1.432085633277893066e-01,1.432033777236938477e-01,1.431981921195983887e-01,1.431929945945739635e-01,1.431878209114074707e-01,1.431826233863830455e-01,1.431774377822875866e-01,1.431722521781921276e-01,1.431670665740966686e-01,1.431618809700012096e-01,1.431566953659057506e-01,1.431515216827392578e-01,1.431463241577148326e-01,1.431411504745483398e-01,1.431359529495239147e-01,1.431307792663574219e-01,1.431255936622619629e-01,1.431204199790954701e-01,1.431152224540710449e-01,1.431100487709045521e-01,1.431048631668090931e-01,1.430996894836425726e-01,1.430945038795471136e-01,1.430893301963806208e-01,1.430841326713561956e-01,1.430789589881897028e-01,1.430737853050231823e-01,1.430685997009277233e-01,1.430634379386901966e-01,1.430582523345947377e-01,1.430530786514282171e-01,1.430478930473327581e-01,1.430427193641662653e-01,1.430375337600708063e-01,1.430323719978332520e-01,1.430271863937377930e-01,1.430220127105713002e-01,1.430168390274047796e-01,1.430116653442382868e-01,1.430064797401428278e-01,1.430013179779052734e-01,1.429961442947387806e-01,1.429909706115722601e-01,1.429858088493347057e-01,1.429806232452392467e-01,1.429754614830017201e-01,1.429702758789062611e-01,1.429651141166687067e-01,1.429599404335021862e-01,1.429547667503356934e-01,1.429495930671692006e-01,1.429444313049316462e-01,1.429392576217651256e-01,1.429340958595275990e-01,1.429289221763610784e-01,1.429237484931945856e-01,1.429185748100280651e-01,1.429134130477905384e-01,1.429082512855529841e-01,1.429030776023864635e-01,1.428979277610778753e-01,1.428927540779113825e-01,1.428875923156738281e-01,1.428824186325073353e-01,1.428772568702697809e-01,1.428720831871032604e-01,1.428669214248657338e-01,1.428617596626281794e-01,1.428565979003906250e-01,1.428514361381530706e-01,1.428462743759155162e-01,1.428411126136779896e-01,1.428359508514404352e-01,1.428307890892028809e-01
1.373801946640014759e-01,1.373754143714904785e-01,1.373706340789794811e-01,1.373658657073974498e-01,1.373610854148864802e-01,1.373563170433044489e-01,1.373515486717224177e-01,1.373467803001403864e-01,1.373420000076293890e-01,1.373372316360473577e-01,1.373324513435363881e-01,1.373276829719543568e-01,1.373229146003723256e-01,1.373181462287902943e-01,1.373133659362792969e-01,1.373085975646972656e-01,1.373038411140442006e-01,1.372990608215332031e-01,1.372942924499511719e-01,1.372895240783691406e-01,1.372847557067871094e-01,1.372799873352050781e-01,1.372752189636230469e-01,1.372704505920410156e-01,1.372656822204589844e-01,1.372609138488769531e-01,1.372561573982238881e-01,1.372513771057128906e-01,1.372466206550598256e-01,1.372418522834777943e-01,1.372370839118957631e-01,1.372323274612426702e-01,1.372275590896606390e-01,1.372228026390075739e-01,1.372180342674255427e-01,1.372132658958435114e-01,1.372084975242614802e-01,1.372037410736083873e-01,1.371989727020263561e-01,1.371942162513732910e-01,1.371894478797912598e-01,1.371846914291381947e-01,1.371799230575561634e-01,1.371751666069030706e-01,1.371704101562500056e-01,1.371656537055969127e-01,1.371608853340148815e-01,1.371561288833618164e-01,1.371513724327087513e-01,1.371466159820556585e-01,1.371418595314025934e-01,1.371370911598205622e-01,1.371323347091674694e-01,1.371275782585144043e-01,1.371228218078613392e-01,1.371180653572082464e-01,1.371133089065551813e-01,1.371085524559020885e-01,1.371037960052490234e-01,1.370990395545959584e-01,1.370942831039428655e-01,1.370895266532898005e-01,1.370847702026367076e-01,1.370800256729126088e-01,1.370752692222595159e-01,1.370705127716064509e-01,1.370657563209533580e-01,1.370610117912292591e-01,1.370562553405761663e-01,1.370515108108520397e-01,1.370467424392700084e-01,1.370419979095459095e-01,1.370372414588928167e-01,1.370324969291686901e-01,1.370277404785156250e-01,1.370229840278625599e-01,1.370182394981384333e-01,1.370134949684143066e-01,1.370087385177612416e-01,1.370039939880371149e-01
1.319812297821044977e-01,1.319768190383911188e-01,1.319724202156066784e-01,1.319679975509643610e-01,1.319635987281799205e-01,1.319591879844665416e-01,1.319547891616821289e-01,1.319503784179687500e-01,1.319459795951843373e-01,1.319415688514709584e-01,1.319371700286865179e-01,1.319327592849731390e-01,1.319283604621887263e-01,1.319239497184753473e-01,1.319195508956909069e-01,1.319151520729064941e-01,1.319107532501220814e-01,1.319063544273376409e-01,1.319019436836242620e-01,1.318975448608398493e-01,1.318931460380554088e-01,1.318887472152709961e-01,1.318843364715576172e-01,1.318799376487732045e-01,1.318755388259887640e-01,1.318711400032043513e-01,1.318667411804199108e-01,1.318623423576354980e-01,1.318579435348510853e-01,1.318535447120666448e-01,1.318491458892822321e-01,1.318447470664977916e-01,1.318403601646423451e-01,1.318359494209289662e-01,1.318315625190734919e-01,1.318271517753601130e-01,1.318227648735046387e-01,1.318183660507202259e-01,1.318139672279357855e-01,1.318095684051513727e-01,1.318051815032958984e-01,1.318007826805114857e-01,1.317963957786560114e-01,1.317919850349426325e-01,1.317875981330871582e-01,1.317831993103027455e-01,1.317788124084472712e-01,1.317744255065917969e-01,1.317700266838073841e-01,1.317656397819519098e-01,1.317612409591674694e-01,1.317568540573120228e-01,1.317524552345275823e-01,1.317480683326721080e-01,1.317436695098876953e-01,1.317392826080322210e-01,1.317348837852478083e-01,1.317304968833923340e-01,1.317261099815368597e-01,1.317217230796813854e-01,1.317173242568969727e-01,1.317129373550414984e-01,1.317085504531860241e-01,1.317041635513305775e-01,1.316997766494751032e-01,1.316953897476196289e-01,1.316910028457641546e-01,1.316866040229797419e-01,1.316822290420532338e-01,1.316778302192687933e-01,1.316734552383422852e-01,1.316690564155578724e-01,1.316646814346313366e-01,1.316602826118469238e-01,1.316559076309204157e-01,1.316515207290649414e-01,1.316471338272094671e-01,1.316427469253539928e-01,1.316383719444274847e-01,1.316339731216430720e-01
1.269905567169189453e-01,1.269864916801452526e-01,1.269824028015136830e-01,1.269783258438110241e-01,1.269742369651794545e-01,1.269701719284057617e-01,1.269660830497741644e-01,1.269620060920715332e-01,1.269579291343689020e-01,1.269538521766662709e-01,1.269497752189636119e-01,1.269456982612609808e-01,1.269416213035583496e-01,1.269375443458557184e-01,1.269334673881530873e-01,1.269293904304504284e-01,1.269253134727477972e-01,1.269212365150451660e-01,1.269171714782714733e-01,1.269130825996399037e-01,1.269090175628662109e-01,1.269049406051635798e-01,1.269008636474609486e-01,1.268967866897582897e-01,1.268927216529846247e-01,1.268886446952819935e-01,1.268845677375793346e-01,1.268804907798767034e-01,1.268764257431030384e-01,1.268723487854003795e-01,1.268682837486267145e-01,1.268642067909240834e-01,1.268601298332214244e-01,1.268560647964477595e-01,1.268519878387451283e-01,1.268479228019714355e-01,1.268438458442688044e-01,1.268397808074951116e-01,1.268357038497924805e-01,1.268316388130187877e-01,1.268275618553161566e-01,1.268234968185424916e-01,1.268194317817687988e-01,1.268153667449951061e-01,1.268112897872924749e-01,1.268072247505188099e-01,1.268031477928161510e-01,1.267990946769714244e-01,1.267950296401977595e-01,1.267909526824951283e-01,1.267868876457214355e-01,1.267828226089477428e-01,1.267787575721740778e-01,1.267746806144714466e-01,1.267706274986267201e-01,1.267665505409240612e-01,1.267624974250793346e-01,1.267584204673767034e-01,1.267543554306030384e-01,1.267502903938293457e-01,1.267462372779846191e-01,1.267421603202819880e-01,1.267381072044372614e-01,1.267340421676635687e-01,1.267299771308899037e-01,1.267259120941162109e-01,1.267218470573425182e-01,1.267177820205688532e-01,1.267137169837951605e-01,1.267096638679504339e-01,1.267055988311767689e-01,1.267015337944030762e-01,1.266974687576293834e-01,1.266934156417846569e-01,1.266893506050109919e-01,1.266852974891662653e-01,1.266812324523925726e-01,1.266771674156189076e-01,1.266731023788452148e-01,1.266690492630004883e-01
1.223635911941528265e-01,1.223598003387451200e-01,1.223560094833373996e-01,1.223522186279296931e-01,1.223484396934509250e-01,1.223446488380432184e-01,1.223408579826354980e-01,1.223370671272277777e-01,1.223332881927490234e-01,1.223294973373413030e-01,1.223257184028625488e-01,1.223219275474548284e-01,1.223181486129760742e-01,1.223143577575683538e-01,1.223105669021606473e-01,1.223067879676818792e-01,1.223029971122741727e-01,1.222992181777954046e-01,1.222954392433166504e-01,1.222916483879089300e-01,1.222878694534301758e-01,1.222840905189514216e-01,1.222802996635437012e-01,1.222765207290649470e-01,1.222727298736572266e-01,1.222689509391784723e-01,1.222651720046997043e-01,1.222613930702209500e-01,1.222576022148132296e-01,1.222538232803344754e-01,1.222500443458557073e-01,1.222462654113769531e-01,1.222424864768981989e-01,1.222386956214904785e-01,1.222349286079406766e-01,1.222311377525329562e-01,1.222273588180542020e-01,1.222235798835754339e-01,1.222198009490966797e-01,1.222160220146179255e-01,1.222122430801391574e-01,1.222084641456604032e-01,1.222046852111816351e-01,1.222009062767028809e-01,1.221971273422241266e-01,1.221933484077453586e-01,1.221895694732666043e-01,1.221858024597168024e-01,1.221820235252380343e-01,1.221782445907592801e-01,1.221744656562805120e-01,1.221706986427307101e-01,1.221669077873230036e-01,1.221631407737731878e-01,1.221593618392944336e-01,1.221555829048156794e-01,1.221518039703369113e-01,1.221480369567871094e-01,1.221442580223083552e-01,1.221404910087585394e-01,1.221367120742797852e-01,1.221329450607299832e-01,1.221291661262512152e-01,1.221253871917724609e-01,1.221216201782226590e-01,1.221178412437438909e-01,1.221140742301940890e-01,1.221102952957153348e-01,1.221065282821655329e-01,1.221027493476867648e-01,1.220989823341369629e-01,1.220952033996582087e-01,1.220914363861083929e-01,1.220876693725585910e-01,1.220839023590087891e-01,1.220801234245300348e-01,1.220763564109802191e-01,1.220725774765014648e-01,1.220688104629516629e-01,1.220650553703308133e-01
