6.198774814605713113e-01,6.356060028076171431e-01,6.521535396575928178e-01,6.695856571197509322e-01,6.879754066467285156e-01,7.074037075042725053e-01,7.279612541198730025e-01,7.497493267059326394e-01,7.728819847106933594e-01,7.974914073944091575e-01,8.237196922302245650e-01,8.517318725585937278e-01,8.817163467407226340e-01,9.138890266418456809e-01,9.484984397888183150e-01,4.506741046905517467e-01,4.347506523132323997e-01,4.331426620483398438e-01,4.324083805084228405e-01,4.333341121673583984e-01,4.344843387603759544e-01,4.392453670501709206e-01,4.435769081115722434e-01,4.524361133575439675e-01,1.000000000000000000e+00,4.685009002685546764e-01,4.663770675659179576e-01,4.732746601104736439e-01,1.000000000000000000e+00,1.000000000000000000e+00,1.000000000000000000e+00,1.000000000000000000e+00,1.000000000000000000e+00,1.000000000000000000e+00,1.000000000000000000e+00,1.000000000000000000e+00,1.000000000000000000e+00,1.000000000000000000e+00,1.000000000000000000e+00,1.000000000000000000e+00,1.000000000000000000e+00,1.000000000000000000e+00,1.000000000000000000e+00,1.000000000000000000e+00,1.000000000000000000e+00,1.000000000000000000e+00,1.000000000000000000e+00,1.000000000000000000e+00,1.000000000000000000e+00,1.000000000000000000e+00,1.000000000000000000e+00,1.000000000000000000e+00,1.000000000000000000e+00,1.000000000000000000e+00,1.000000000000000000e+00,1.000000000000000000e+00,1.000000000000000000e+00,1.000000000000000000e+00,1.000000000000000000e+00,1.000000000000000000e+00,1.000000000000000000e+00,1.000000000000000000e+00,1.000000000000000000e+00,1.000000000000000000e+00,1.000000000000000000e+00,1.000000000000000000e+00,1.000000000000000000e+00,1.000000000000000000e+00,1.000000000000000000e+00,1.000000000000000000e+00,9.684429168701171875e-01,9.367822647094726785e-01,9.071262359619141069e-01,8.792901992797851340e-01,8.531117439270019531e-01,8.284469604492187278e-01,8.051682472229003684e-01,7.831621170043945312e-01,7.623268127441406028e-01,7.425714492797851340e-01
6.198641777038573775e-01,6.355920314788818803e-01,6.521388530731201394e-01,6.695701599121093306e-01,6.879590511322021262e-01,7.073863983154297097e-01,7.279429435729980469e-01,7.497299194335937944e-01,7.728613376617431419e-01,7.974654674530029519e-01,8.236919403076171653e-01,8.517022132873535156e-01,8.816845893859863725e-01,9.138548851013184038e-01,9.484617233276366743e-01,4.485269546508788840e-01,4.319920063018798939e-01,4.314652442932128684e-01,4.333780288696288951e-01,4.368675708770751731e-01,4.363234043121337891e-01,4.411822319030761497e-01,4.444666385650634655e-01,4.522143840789795144e-01,1.000000000000000000e+00,4.673160076141357200e-01,4.628020763397217019e-01,4.686407089233398660e-01,1.000000000000000000e+00,1.000000000000000000e+00,1.000000000000000000e+00,1.000000000000000000e+00,1.000000000000000000e+00,1.000000000000000000e+00,1.000000000000000000e+00,1.000000000000000000e+00,1.000000000000000000e+00,1.000000000000000000e+00,1.000000000000000000e+00,1.000000000000000000e+00,1.000000000000000000e+00,1.000000000000000000e+00,1.000000000000000000e+00,1.000000000000000000e+00,1.000000000000000000e+00,1.000000000000000000e+00,1.000000000000000000e+00,1.000000000000000000e+00,1.000000000000000000e+00,1.000000000000000000e+00,1.000000000000000000e+00,1.000000000000000000e+00,1.000000000000000000e+00,1.000000000000000000e+00,1.000000000000000000e+00,1.000000000000000000e+00,1.000000000000000000e+00,1.000000000000000000e+00,1.000000000000000000e+00,1.000000000000000000e+00,1.000000000000000000e+00,1.000000000000000000e+00,1.000000000000000000e+00,1.000000000000000000e+00,1.000000000000000000e+00,1.000000000000000000e+00,1.000000000000000000e+00,1.000000000000000000e+00,1.000000000000000000e+00,1.000000000000000000e+00,9.684679031372069868e-01,9.368057250976562500e-01,9.071481704711914507e-01,8.793108940124512163e-01,8.531311988830566628e-01,8.284652709960937944e-01,8.051856040954590288e-01,7.831784725189209206e-01,7.623423099517822044e-01,7.425861835479736772e-01
6.198508262634276900e-01,6.355780601501465066e-01,6.521240711212158425e-01,6.695546627044677290e-01,6.879426002502441184e-01,7.073690891265869141e-01,7.279245376586913618e-01,7.497104644775390847e-01,7.728405952453613059e-01,7.974434852600097434e-01,8.236641883850097656e-01,8.516725540161133035e-01,8.816527366638183816e-01,9.138207435607910156e-01,9.484249114990234153e-01,4.468224048614501953e-01,4.275224208831787109e-01,4.271597862243652344e-01,4.289165973663330300e-01,4.374134063720703236e-01,4.417089462280273660e-01,4.450802803039550781e-01,4.443375587463379017e-01,4.505035400390625111e-01,1.000000000000000000e+00,1.000000000000000000e+00,4.577507019042968972e-01,4.630305767059326172e-01,1.000000000000000000e+00,1.000000000000000000e+00,1.000000000000000000e+00,1.000000000000000000e+00,1.000000000000000000e+00,1.000000000000000000e+00,1.000000000000000000e+00,1.000000000000000000e+00,1.000000000000000000e+00,1.000000000000000000e+00,1.000000000000000000e+00,1.000000000000000000e+00,1.000000000000000000e+00,1.000000000000000000e+00,1.000000000000000000e+00,1.000000000000000000e+00,1.000000000000000000e+00,1.000000000000000000e+00,1.000000000000000000e+00,1.000000000000000000e+00,1.000000000000000000e+00,1.000000000000000000e+00,1.000000000000000000e+00,1.000000000000000000e+00,1.000000000000000000e+00,1.000000000000000000e+00,1.000000000000000000e+00,1.000000000000000000e+00,1.000000000000000000e+00,1.000000000000000000e+00,1.000000000000000000e+00,1.000000000000000000e+00,1.000000000000000000e+00,1.000000000000000000e+00,1.000000000000000000e+00,1.000000000000000000e+00,1.000000000000000000e+00,1.000000000000000000e+00,1.000000000000000000e+00,1.000000000000000000e+00,1.000000000000000000e+00,1.000000000000000000e+00,9.684929847717285156e-01,9.368290901184082031e-01,9.071701049804687944e-01,8.793314933776855691e-01,8.531505584716796431e-01,8.284835815429687500e-01,8.052028656005859597e-01,7.831948280334473100e-01,7.623579025268554243e-01,7.426008701324462447e-01
6.198375701904297319e-01,6.355640888214111328e-01,6.521093845367431641e-01,6.695391654968261275e-01,6.879262447357177290e-01,7.073517799377441184e-01,7.279062271118164062e-01,7.496910572052002397e-01,7.728199481964110884e-01,7.974215030670166460e-01,8.236407279968261941e-01,8.516428947448730913e-01,8.816209793090820090e-01,9.137866020202636275e-01,4.493325710296630637e-01,4.444528102874755748e-01,4.255421161651611328e-01,4.247282028198242076e-01,4.244563102722168080e-01,4.312467575073242188e-01,4.500496387481689453e-01,4.427553176879882590e-01,4.418949127197265847e-01,4.471118450164794922e-01,1.000000000000000000e+00,1.000000000000000000e+00,1.000000000000000000e+00,4.603432178497314231e-01,1.000000000000000000e+00,1.000000000000000000e+00,1.000000000000000000e+00,1.000000000000000000e+00,1.000000000000000000e+00,1.000000000000000000e+00,1.000000000000000000e+00,1.000000000000000000e+00,1.000000000000000000e+00,1.000000000000000000e+00,1.000000000000000000e+00,1.000000000000000000e+00,1.000000000000000000e+00,1.000000000000000000e+00,1.000000000000000000e+00,1.000000000000000000e+00,1.000000000000000000e+00,1.000000000000000000e+00,1.000000000000000000e+00,1.000000000000000000e+00,1.000000000000000000e+00,1.000000000000000000e+00,1.000000000000000000e+00,1.000000000000000000e+00,1.000000000000000000e+00,1.000000000000000000e+00,1.000000000000000000e+00,1.000000000000000000e+00,1.000000000000000000e+00,1.000000000000000000e+00,1.000000000000000000e+00,1.000000000000000000e+00,1.000000000000000000e+00,1.000000000000000000e+00,1.000000000000000000e+00,1.000000000000000000e+00,1.000000000000000000e+00,1.000000000000000000e+00,1.000000000000000000e+00,1.000000000000000000e+00,1.000000000000000000e+00,1.000000000000000000e+00,9.685179710388183150e-01,9.368525505065917747e-01,9.071921348571777566e-01,8.793521881103515403e-01,8.531700134277343528e-01,8.285018920898437056e-01,8.052202224731445090e-01,7.832111835479735884e-01,7.623733997344970259e-01,7.426156044006347878e-01
6.198242664337157981e-01,6.355500698089600053e-01,6.520946979522704856e-01,6.695236206054687722e-01,6.879098892211914507e-01,7.073344230651855691e-01,7.278879165649414507e-01,7.496715068817139116e-01,7.727993011474609819e-01,7.973994255065918191e-01,8.236172676086426225e-01,8.516177177429199441e-01,8.815892219543457475e-01,9.137524604797363503e-01,4.462817668914794700e-01,4.439743041992187389e-01,4.243833065032959206e-01,4.235680103302001953e-01,4.227558612823486550e-01,4.292203426361084206e-01,4.455694675445556752e-01,4.401755809783935436e-01,4.395243644714355580e-01,4.446525096893310658e-01,4.521821022033691295e-01,1.000000000000000000e+00,4.502280235290527233e-01,4.534816741943359375e-01,1.000000000000000000e+00,1.000000000000000000e+00,1.000000000000000000e+00,1.000000000000000000e+00,1.000000000000000000e+00,1.000000000000000000e+00,1.000000000000000000e+00,1.000000000000000000e+00,1.000000000000000000e+00,1.000000000000000000e+00,1.000000000000000000e+00,1.000000000000000000e+00,1.000000000000000000e+00,1.000000000000000000e+00,1.000000000000000000e+00,1.000000000000000000e+00,1.000000000000000000e+00,1.000000000000000000e+00,1.000000000000000000e+00,1.000000000000000000e+00,1.000000000000000000e+00,1.000000000000000000e+00,1.000000000000000000e+00,1.000000000000000000e+00,1.000000000000000000e+00,1.000000000000000000e+00,1.000000000000000000e+00,1.000000000000000000e+00,1.000000000000000000e+00,1.000000000000000000e+00,1.000000000000000000e+00,1.000000000000000000e+00,1.000000000000000000e+00,1.000000000000000000e+00,1.000000000000000000e+00,1.000000000000000000e+00,1.000000000000000000e+00,1.000000000000000000e+00,1.000000000000000000e+00,1.000000000000000000e+00,1.000000000000000000e+00,1.000000000000000000e+00,9.685430526733398438e-01,9.368759155273437278e-01,9.072140693664551003e-01,8.793727874755858931e-01,8.531894683837890625e-01,8.285202026367187722e-01,8.052374839782714400e-01,7.832275390624999778e-01,7.623889446258544922e-01,7.426302909851074663e-01
6.198109626770019753e-01,6.355360984802246316e-01,6.520799160003661887e-01,6.695081233978271706e-01,6.878934860229491965e-01,7.073171138763427734e-01,7.278695106506347656e-01,7.496520996093749556e-01,7.727785587310791460e-01,7.973774433135986106e-01,8.235937118530273215e-01,8.515926361083984153e-01,8.815621376037597878e-01,9.137183189392089622e-01,4.480753421783447155e-01,4.446500301361083762e-01,4.238733768463134877e-01,4.228026390075683705e-01,4.219933986663818581e-01,4.280945301055908425e-01,4.435039520263671653e-01,4.396021842956542858e-01,4.388585090637207031e-01,4.437766551971435436e-01,4.513223171234130859e-01,1.000000000000000000e+00,4.457532882690429799e-01,4.476006031036376953e-01,1.000000000000000000e+00,1.000000000000000000e+00,1.000000000000000000e+00,1.000000000000000000e+00,1.000000000000000000e+00,1.000000000000000000e+00,1.000000000000000000e+00,1.000000000000000000e+00,1.000000000000000000e+00,1.000000000000000000e+00,1.000000000000000000e+00,1.000000000000000000e+00,1.000000000000000000e+00,1.000000000000000000e+00,1.000000000000000000e+00,1.000000000000000000e+00,1.000000000000000000e+00,1.000000000000000000e+00,1.000000000000000000e+00,1.000000000000000000e+00,1.000000000000000000e+00,1.000000000000000000e+00,1.000000000000000000e+00,1.000000000000000000e+00,1.000000000000000000e+00,1.000000000000000000e+00,1.000000000000000000e+00,1.000000000000000000e+00,1.000000000000000000e+00,1.000000000000000000e+00,1.000000000000000000e+00,1.000000000000000000e+00,1.000000000000000000e+00,1.000000000000000000e+00,1.000000000000000000e+00,1.000000000000000000e+00,1.000000000000000000e+00,1.000000000000000000e+00,1.000000000000000000e+00,1.000000000000000000e+00,1.000000000000000000e+00,1.000000000000000000e+00,9.685680389404296431e-01,9.368993759155272993e-01,9.072360992431640625e-01,8.793933868408203569e-01,8.532088279724121538e-01,8.285385131835937278e-01,8.052547454833984819e-01,7.832439899444579856e-01,7.624044418334960938e-01,7.426450252532958984e-01
6.197976589202880415e-01,6.355221748352051225e-01,6.520652294158935103e-01,6.694926261901855691e-01,6.878771305084228072e-01,7.072998523712158425e-01,7.278512001037598100e-01,7.496326446533203569e-01,7.727579116821289285e-01,7.973554611206055132e-01,8.235702514648437500e-01,8.515675544738769975e-01,8.815352439880370650e-01,9.136891365051269531e-01,4.402263164520263672e-01,4.391894817352294811e-01,4.269297599792480358e-01,4.222077369689941628e-01,4.212336540222167969e-01,4.268921852111816628e-01,4.411745071411132812e-01,4.397297382354736217e-01,4.391438961029052734e-01,4.434710502624511497e-01,4.512565612792968639e-01,1.000000000000000000e+00,1.000000000000000000e+00,4.421049594879150613e-01,1.000000000000000000e+00,1.000000000000000000e+00,1.000000000000000000e+00,1.000000000000000000e+00,1.000000000000000000e+00,1.000000000000000000e+00,1.000000000000000000e+00,1.000000000000000000e+00,1.000000000000000000e+00,1.000000000000000000e+00,1.000000000000000000e+00,1.000000000000000000e+00,1.000000000000000000e+00,1.000000000000000000e+00,1.000000000000000000e+00,1.000000000000000000e+00,1.000000000000000000e+00,1.000000000000000000e+00,1.000000000000000000e+00,1.000000000000000000e+00,1.000000000000000000e+00,1.000000000000000000e+00,1.000000000000000000e+00,1.000000000000000000e+00,1.000000000000000000e+00,1.000000000000000000e+00,1.000000000000000000e+00,1.000000000000000000e+00,1.000000000000000000e+00,1.000000000000000000e+00,1.000000000000000000e+00,1.000000000000000000e+00,1.000000000000000000e+00,1.000000000000000000e+00,1.000000000000000000e+00,1.000000000000000000e+00,1.000000000000000000e+00,1.000000000000000000e+00,1.000000000000000000e+00,1.000000000000000000e+00,1.000000000000000000e+00,1.000000000000000000e+00,9.685931205749511719e-01,9.369227409362792525e-01,9.072580337524414062e-01,8.794140815734863281e-01,8.532282829284667525e-01,8.285568237304687944e-01,8.052721023559570312e-01,7.832603454589843750e-01,7.624199390411376953e-01,7.426597118377685769e-01
6.197947978973388228e-01,6.355130195617675337e-01,6.520505428314209428e-01,6.694770812988281028e-01,6.878607273101806641e-01,7.072824478149414285e-01,7.278328895568847434e-01,7.496131420135497825e-01,7.727372646331787109e-01,7.973333835601806863e-01,8.235467910766601785e-01,8.515423774719238503e-01,8.815083503723144531e-01,9.136602401733397993e-01,4.370559215545654075e-01,4.370435714721679910e-01,1.000000000000000000e+00,4.217225551605224831e-01,4.204707622528076061e-01,4.254838943481445424e-01,4.385735988616943359e-01,4.395257949829101674e-01,4.394296169281005637e-01,4.431657791137695312e-01,4.513556480407714955e-01,1.000000000000000000e+00,1.000000000000000000e+00,1.000000000000000000e+00,4.538124561309814231e-01,1.000000000000000000e+00,1.000000000000000000e+00,1.000000000000000000e+00,1.000000000000000000e+00,1.000000000000000000e+00,1.000000000000000000e+00,1.000000000000000000e+00,1.000000000000000000e+00,1.000000000000000000e+00,1.000000000000000000e+00,1.000000000000000000e+00,1.000000000000000000e+00,1.000000000000000000e+00,1.000000000000000000e+00,1.000000000000000000e+00,1.000000000000000000e+00,1.000000000000000000e+00,1.000000000000000000e+00,1.000000000000000000e+00,1.000000000000000000e+00,1.000000000000000000e+00,1.000000000000000000e+00,1.000000000000000000e+00,1.000000000000000000e+00,1.000000000000000000e+00,1.000000000000000000e+00,1.000000000000000000e+00,1.000000000000000000e+00,1.000000000000000000e+00,1.000000000000000000e+00,1.000000000000000000e+00,1.000000000000000000e+00,1.000000000000000000e+00,1.000000000000000000e+00,1.000000000000000000e+00,1.000000000000000000e+00,1.000000000000000000e+00,1.000000000000000000e+00,1.000000000000000000e+00,1.000000000000000000e+00,1.000000000000000000e+00,9.686181068420409712e-01,9.369462013244629350e-01,9.072799682617187500e-01,8.794346809387206809e-01,8.532477378845214622e-01,8.285751342773437500e-01,8.052893638610839622e-01,7.832767486572265181e-01,7.624354362487792969e-01,7.426744461059570090e-01
6.197947978973388228e-01,6.355130195617675337e-01,6.520492076873779519e-01,6.694689273834228960e-01,6.878449440002440962e-01,7.072651863098144975e-01,7.278145790100097878e-01,7.495937347412109375e-01,7.727166652679443581e-01,7.973114013671874778e-01,8.235233306884766069e-01,8.515172958374023215e-01,8.814814567565918413e-01,9.136313438415527566e-01,4.337141990661620983e-01,9.855202674865722878e-01,1.000000000000000000e+00,4.203495025634765847e-01,4.191058158874511608e-01,4.241304874420165905e-01,4.345410346984863170e-01,4.393220424652099498e-01,4.393858909606933594e-01,4.431807518005371205e-01,1.000000000000000000e+00,1.000000000000000000e+00,1.000000000000000000e+00,1.000000000000000000e+00,1.000000000000000000e+00,1.000000000000000000e+00,1.000000000000000000e+00,1.000000000000000000e+00,1.000000000000000000e+00,1.000000000000000000e+00,1.000000000000000000e+00,1.000000000000000000e+00,1.000000000000000000e+00,1.000000000000000000e+00,1.000000000000000000e+00,1.000000000000000000e+00,1.000000000000000000e+00,1.000000000000000000e+00,1.000000000000000000e+00,1.000000000000000000e+00,1.000000000000000000e+00,1.000000000000000000e+00,1.000000000000000000e+00,1.000000000000000000e+00,1.000000000000000000e+00,1.000000000000000000e+00,1.000000000000000000e+00,1.000000000000000000e+00,1.000000000000000000e+00,1.000000000000000000e+00,1.000000000000000000e+00,1.000000000000000000e+00,1.000000000000000000e+00,1.000000000000000000e+00,1.000000000000000000e+00,1.000000000000000000e+00,1.000000000000000000e+00,1.000000000000000000e+00,1.000000000000000000e+00,1.000000000000000000e+00,1.000000000000000000e+00,1.000000000000000000e+00,1.000000000000000000e+00,1.000000000000000000e+00,1.000000000000000000e+00,1.000000000000000000e+00,9.686431884765625000e-01,9.369696617126465066e-01,9.073019027709960938e-01,8.794552803039550337e-01,8.532671928405761719e-01,8.285934448242187056e-01,8.053067207336426225e-01,7.832931041717529075e-01,7.624509334564208984e-01,7.426891326904296875e-01
6.197917461395263672e-01,6.355130672454833984e-01,6.520492553710937056e-01,6.694689273834228960e-01,6.878449440002440962e-01,7.072582244873046875e-01,7.277991771697998047e-01,7.495743274688720925e-01,7.726959228515625222e-01,7.972894191741943803e-01,8.234998703002929243e-01,8.514922142028809038e-01,8.814545631408691184e-01,9.136024475097656028e-01,9.481841087341308372e-01,9.854866027832031028e-01,1.000000000000000000e+00,4.201384067535400280e-01,4.177496910095214733e-01,4.226246356964111217e-01,4.314820289611816517e-01,4.391647338867187278e-01,4.395662307739257590e-01,4.425469398498534934e-01,1.000000000000000000e+00,1.000000000000000000e+00,1.000000000000000000e+00,1.000000000000000000e+00,1.000000000000000000e+00,1.000000000000000000e+00,1.000000000000000000e+00,1.000000000000000000e+00,1.000000000000000000e+00,1.000000000000000000e+00,1.000000000000000000e+00,1.000000000000000000e+00,1.000000000000000000e+00,1.000000000000000000e+00,1.000000000000000000e+00,1.000000000000000000e+00,1.000000000000000000e+00,1.000000000000000000e+00,1.000000000000000000e+00,1.000000000000000000e+00,1.000000000000000000e+00,1.000000000000000000e+00,1.000000000000000000e+00,1.000000000000000000e+00,1.000000000000000000e+00,1.000000000000000000e+00,1.000000000000000000e+00,1.000000000000000000e+00,1.000000000000000000e+00,1.000000000000000000e+00,1.000000000000000000e+00,1.000000000000000000e+00,1.000000000000000000e+00,1.000000000000000000e+00,1.000000000000000000e+00,1.000000000000000000e+00,1.000000000000000000e+00,1.000000000000000000e+00,1.000000000000000000e+00,1.000000000000000000e+00,1.000000000000000000e+00,1.000000000000000000e+00,1.000000000000000000e+00,1.000000000000000000e+00,1.000000000000000000e+00,1.000000000000000000e+00,9.686681747436522993e-01,9.369931221008300781e-01,9.073239326477050559e-01,8.794759750366211160e-01,8.532865524291992632e-01,8.286117553710937722e-01,8.053239822387695535e-01,7.833094596862792969e-01,7.624664306640625000e-01,7.427038669586181197e-01
6.197784900665282981e-01,6.355020046234131081e-01,6.520440578460693359e-01,6.694689750671386497e-01,6.878450393676758257e-01,7.072583198547363059e-01,7.277991771697998047e-01,7.495689392089843750e-01,7.726812362670898438e-01,7.972674369812011719e-01,8.234764099121093528e-01,8.514671325683593750e-01,8.814276695251465066e-01,9.135736465454101785e-01,9.481530189514160156e-01,9.854530334472656472e-01,1.000000000000000000e+00,4.220352172851562500e-01,4.164023399353027344e-01,4.207457542419433816e-01,4.300297737121582253e-01,4.391905784606933705e-01,4.398014068603515736e-01,4.418658256530761941e-01,1.000000000000000000e+00,1.000000000000000000e+00,1.000000000000000000e+00,1.000000000000000000e+00,1.000000000000000000e+00,1.000000000000000000e+00,1.000000000000000000e+00,1.000000000000000000e+00,1.000000000000000000e+00,1.000000000000000000e+00,1.000000000000000000e+00,1.000000000000000000e+00,1.000000000000000000e+00,1.000000000000000000e+00,1.000000000000000000e+00,1.000000000000000000e+00,1.000000000000000000e+00,1.000000000000000000e+00,1.000000000000000000e+00,1.000000000000000000e+00,1.000000000000000000e+00,1.000000000000000000e+00,1.000000000000000000e+00,1.000000000000000000e+00,1.000000000000000000e+00,1.000000000000000000e+00,1.000000000000000000e+00,1.000000000000000000e+00,1.000000000000000000e+00,1.000000000000000000e+00,1.000000000000000000e+00,1.000000000000000000e+00,1.000000000000000000e+00,1.000000000000000000e+00,1.000000000000000000e+00,1.000000000000000000e+00,1.000000000000000000e+00,1.000000000000000000e+00,1.000000000000000000e+00,1.000000000000000000e+00,1.000000000000000000e+00,1.000000000000000000e+00,1.000000000000000000e+00,1.000000000000000000e+00,1.000000000000000000e+00,1.000000000000000000e+00,9.686931610107422097e-01,9.370164871215820312e-01,9.073458671569823997e-01,8.794965744018554688e-01,8.533060073852538618e-01,8.286301612854003462e-01,8.053413391113281028e-01,7.833258152008056863e-01,7.624819755554199663e-01,7.427185535430907981e-01
6.197652816772460938e-01,6.354880332946777344e-01,6.520293712615966575e-01,6.694548130035400391e-01,6.878372669219970925e-01,7.072576522827148660e-01,7.277992725372314231e-01,7.495690345764159934e-01,7.726813316345214622e-01,7.972642421722412331e-01,8.234626770019530806e-01,8.514420509338378462e-01,8.814007759094237837e-01,9.135446548461914062e-01,9.481218338012695757e-01,9.854194641113280806e-01,1.000000000000000000e+00,4.346735954284667858e-01,4.160028457641601340e-01,4.196412086486816517e-01,4.281649589538574219e-01,4.400449752807616965e-01,4.395067691802978516e-01,4.411867618560790794e-01,1.000000000000000000e+00,1.000000000000000000e+00,1.000000000000000000e+00,1.000000000000000000e+00,1.000000000000000000e+00,1.000000000000000000e+00,1.000000000000000000e+00,1.000000000000000000e+00,1.000000000000000000e+00,1.000000000000000000e+00,1.000000000000000000e+00,1.000000000000000000e+00,1.000000000000000000e+00,1.000000000000000000e+00,1.000000000000000000e+00,1.000000000000000000e+00,1.000000000000000000e+00,1.000000000000000000e+00,1.000000000000000000e+00,1.000000000000000000e+00,1.000000000000000000e+00,1.000000000000000000e+00,1.000000000000000000e+00,1.000000000000000000e+00,1.000000000000000000e+00,1.000000000000000000e+00,1.000000000000000000e+00,1.000000000000000000e+00,1.000000000000000000e+00,1.000000000000000000e+00,1.000000000000000000e+00,1.000000000000000000e+00,1.000000000000000000e+00,1.000000000000000000e+00,1.000000000000000000e+00,1.000000000000000000e+00,1.000000000000000000e+00,1.000000000000000000e+00,1.000000000000000000e+00,1.000000000000000000e+00,1.000000000000000000e+00,1.000000000000000000e+00,1.000000000000000000e+00,1.000000000000000000e+00,1.000000000000000000e+00,1.000000000000000000e+00,9.687183380126953569e-01,9.370399475097656028e-01,9.073678016662597434e-01,8.795172691345214400e-01,8.533254623413085715e-01,8.286484718322754128e-01,8.053586006164550337e-01,7.833422183990478294e-01,7.624974727630615678e-01,7.427332878112793413e-01
6.197519779205322710e-01,6.354741573333739790e-01,6.520147323608398438e-01,6.694393157958984375e-01,6.878209114074707031e-01,7.072404384613036887e-01,7.277883052825927512e-01,7.495659351348876731e-01,7.726813316345214622e-01,7.972642421722412331e-01,8.234626770019530806e-01,8.514415740966796431e-01,8.813884735107422319e-01,9.135189056396484375e-01,9.480907440185546431e-01,9.853858947753906250e-01,1.000000000000000000e+00,1.000000000000000000e+00,4.179180622100829856e-01,4.212321758270263783e-01,4.293498992919921875e-01,4.410102844238281139e-01,4.396708488464355358e-01,4.412921428680419700e-01,1.000000000000000000e+00,1.000000000000000000e+00,1.000000000000000000e+00,1.000000000000000000e+00,1.000000000000000000e+00,1.000000000000000000e+00,1.000000000000000000e+00,1.000000000000000000e+00,1.000000000000000000e+00,1.000000000000000000e+00,1.000000000000000000e+00,1.000000000000000000e+00,1.000000000000000000e+00,1.000000000000000000e+00,1.000000000000000000e+00,1.000000000000000000e+00,1.000000000000000000e+00,1.000000000000000000e+00,1.000000000000000000e+00,1.000000000000000000e+00,1.000000000000000000e+00,1.000000000000000000e+00,1.000000000000000000e+00,1.000000000000000000e+00,1.000000000000000000e+00,1.000000000000000000e+00,1.000000000000000000e+00,1.000000000000000000e+00,1.000000000000000000e+00,1.000000000000000000e+00,1.000000000000000000e+00,1.000000000000000000e+00,1.000000000000000000e+00,1.000000000000000000e+00,1.000000000000000000e+00,1.000000000000000000e+00,1.000000000000000000e+00,1.000000000000000000e+00,1.000000000000000000e+00,1.000000000000000000e+00,1.000000000000000000e+00,1.000000000000000000e+00,1.000000000000000000e+00,1.000000000000000000e+00,1.000000000000000000e+00,1.000000000000000000e+00,9.687433242797851562e-01,9.370633125305175559e-01,9.073898315429687056e-01,8.795378684997559038e-01,8.533448219299316628e-01,8.286667823791503684e-01,8.053759574890136941e-01,7.833585739135742188e-01,7.625133037567138894e-01,7.427491664886474165e-01
6.197387695312499556e-01,6.354601860046387163e-01,6.520000457763671653e-01,6.694239139556884544e-01,6.878045558929443137e-01,7.072231292724608931e-01,7.277700424194335493e-01,7.495465278625488281e-01,7.726664543151855469e-01,7.972580909729003462e-01,8.234627723693848100e-01,8.514415740966796431e-01,8.813885688781738503e-01,9.135189056396484375e-01,9.480804443359375222e-01,9.853600502014160378e-01,1.000000000000000000e+00,1.000000000000000000e+00,4.228304862976074441e-01,4.241181850433349831e-01,4.341716289520263783e-01,4.446062088012695535e-01,4.416218280792236217e-01,4.431432247161865012e-01,1.000000000000000000e+00,1.000000000000000000e+00,1.000000000000000000e+00,1.000000000000000000e+00,1.000000000000000000e+00,1.000000000000000000e+00,1.000000000000000000e+00,1.000000000000000000e+00,1.000000000000000000e+00,1.000000000000000000e+00,1.000000000000000000e+00,1.000000000000000000e+00,1.000000000000000000e+00,1.000000000000000000e+00,1.000000000000000000e+00,1.000000000000000000e+00,1.000000000000000000e+00,1.000000000000000000e+00,1.000000000000000000e+00,1.000000000000000000e+00,1.000000000000000000e+00,1.000000000000000000e+00,1.000000000000000000e+00,1.000000000000000000e+00,1.000000000000000000e+00,1.000000000000000000e+00,1.000000000000000000e+00,1.000000000000000000e+00,1.000000000000000000e+00,1.000000000000000000e+00,1.000000000000000000e+00,1.000000000000000000e+00,1.000000000000000000e+00,1.000000000000000000e+00,1.000000000000000000e+00,1.000000000000000000e+00,1.000000000000000000e+00,1.000000000000000000e+00,1.000000000000000000e+00,1.000000000000000000e+00,1.000000000000000000e+00,1.000000000000000000e+00,1.000000000000000000e+00,1.000000000000000000e+00,1.000000000000000000e+00,1.000000000000000000e+00,9.687684059143066850e-01,9.370867729187011275e-01,9.074117660522460493e-01,8.795585632324218750e-01,8.533642768859863725e-01,8.286850929260254350e-01,8.053940773010254128e-01,7.833766460418700728e-01,7.625308990478515403e-01,7.427658557891845259e-01
6.197255134582519975e-01,6.354462623596190962e-01,6.519853591918944868e-01,6.694084167480468528e-01,6.877882957458496538e-01,7.072058200836182085e-01,7.277517318725585938e-01,7.495271682739257368e-01,7.726458072662353294e-01,7.972361087799072488e-01,8.234430313110351340e-01,8.514314651489257590e-01,8.813886642456054688e-01,9.135190010070800559e-01,9.480805397033691406e-01,9.853601455688476562e-01,1.000000000000000000e+00,4.340627193450927734e-01,4.264053821563720814e-01,4.271209716796874889e-01,4.369922637939452903e-01,4.563559055328368919e-01,4.490915298461913840e-01,4.572996616363525502e-01,1.000000000000000000e+00,1.000000000000000000e+00,1.000000000000000000e+00,1.000000000000000000e+00,1.000000000000000000e+00,1.000000000000000000e+00,1.000000000000000000e+00,1.000000000000000000e+00,1.000000000000000000e+00,1.000000000000000000e+00,1.000000000000000000e+00,1.000000000000000000e+00,1.000000000000000000e+00,1.000000000000000000e+00,1.000000000000000000e+00,1.000000000000000000e+00,1.000000000000000000e+00,1.000000000000000000e+00,1.000000000000000000e+00,1.000000000000000000e+00,1.000000000000000000e+00,1.000000000000000000e+00,1.000000000000000000e+00,1.000000000000000000e+00,1.000000000000000000e+00,1.000000000000000000e+00,1.000000000000000000e+00,1.000000000000000000e+00,1.000000000000000000e+00,1.000000000000000000e+00,1.000000000000000000e+00,1.000000000000000000e+00,1.000000000000000000e+00,1.000000000000000000e+00,1.000000000000000000e+00,1.000000000000000000e+00,1.000000000000000000e+00,1.000000000000000000e+00,1.000000000000000000e+00,1.000000000000000000e+00,1.000000000000000000e+00,1.000000000000000000e+00,1.000000000000000000e+00,1.000000000000000000e+00,1.000000000000000000e+00,1.000000000000000000e+00,9.687933921813964844e-01,9.371102333068848100e-01,9.074337959289551225e-01,8.795797348022460493e-01,8.533852577209473100e-01,8.287057876586914062e-01,8.054137229919433594e-01,7.833951473236083762e-01,7.625484943389893022e-01,7.427824497222900169e-01
6.197122097015380637e-01,6.354322910308838335e-01,6.519707202911376731e-01,6.693929195404052512e-01,6.877719402313232644e-01,7.071886062622070312e-01,7.277334213256836382e-01,7.495077610015868919e-01,7.726252555847168413e-01,7.972142219543456587e-01,8.234196662902831809e-01,8.514064788818359597e-01,8.813627243041992632e-01,9.135037422180175559e-01,9.480777740478515403e-01,9.853601455688476562e-01,1.000000000000000000e+00,4.356474399566650502e-01,4.289719104766845925e-01,4.303325653076172097e-01,4.375012874603271262e-01,4.689181327819824108e-01,4.639657020568847545e-01,4.737901210784912220e-01,1.000000000000000000e+00,1.000000000000000000e+00,1.000000000000000000e+00,1.000000000000000000e+00,1.000000000000000000e+00,1.000000000000000000e+00,1.000000000000000000e+00,1.000000000000000000e+00,1.000000000000000000e+00,1.000000000000000000e+00,1.000000000000000000e+00,1.000000000000000000e+00,1.000000000000000000e+00,1.000000000000000000e+00,1.000000000000000000e+00,1.000000000000000000e+00,1.000000000000000000e+00,1.000000000000000000e+00,1.000000000000000000e+00,1.000000000000000000e+00,1.000000000000000000e+00,1.000000000000000000e+00,1.000000000000000000e+00,1.000000000000000000e+00,1.000000000000000000e+00,1.000000000000000000e+00,1.000000000000000000e+00,1.000000000000000000e+00,1.000000000000000000e+00,1.000000000000000000e+00,1.000000000000000000e+00,1.000000000000000000e+00,1.000000000000000000e+00,1.000000000000000000e+00,1.000000000000000000e+00,1.000000000000000000e+00,1.000000000000000000e+00,1.000000000000000000e+00,1.000000000000000000e+00,1.000000000000000000e+00,1.000000000000000000e+00,1.000000000000000000e+00,1.000000000000000000e+00,1.000000000000000000e+00,1.000000000000000000e+00,1.000000000000000000e+00,9.688184738159180132e-01,9.371349334716796431e-01,9.074580192565917525e-01,8.796030998229980025e-01,8.534071922302246538e-01,8.287265777587891069e-01,8.054332733154296875e-01,7.834136962890625444e-01,7.625659942626953347e-01,7.427991390228271262e-01
6.196990013122558594e-01,6.354183673858642134e-01,6.519560337066649947e-01,6.693775177001952681e-01,6.877556324005127397e-01,7.071713447570801003e-01,7.277152061462401900e-01,7.494884014129639116e-01,7.726046562194823775e-01,7.971922397613525613e-01,8.233962059020996094e-01,8.513813972473144309e-01,8.813359260559081587e-01,9.134749412536621316e-01,9.480467796325683372e-01,9.853384017944335493e-01,1.000000000000000000e+00,1.000000000000000000e+00,4.298334121704101562e-01,4.306342124938964955e-01,4.376405239105224387e-01,4.773906707763672097e-01,4.745450019836425781e-01,4.953882694244384766e-01,1.000000000000000000e+00,1.000000000000000000e+00,1.000000000000000000e+00,1.000000000000000000e+00,1.000000000000000000e+00,1.000000000000000000e+00,1.000000000000000000e+00,1.000000000000000000e+00,1.000000000000000000e+00,1.000000000000000000e+00,1.000000000000000000e+00,1.000000000000000000e+00,1.000000000000000000e+00,1.000000000000000000e+00,1.000000000000000000e+00,1.000000000000000000e+00,1.000000000000000000e+00,1.000000000000000000e+00,1.000000000000000000e+00,1.000000000000000000e+00,1.000000000000000000e+00,1.000000000000000000e+00,1.000000000000000000e+00,1.000000000000000000e+00,1.000000000000000000e+00,1.000000000000000000e+00,1.000000000000000000e+00,1.000000000000000000e+00,1.000000000000000000e+00,1.000000000000000000e+00,1.000000000000000000e+00,1.000000000000000000e+00,1.000000000000000000e+00,1.000000000000000000e+00,1.000000000000000000e+00,1.000000000000000000e+00,1.000000000000000000e+00,1.000000000000000000e+00,1.000000000000000000e+00,1.000000000000000000e+00,1.000000000000000000e+00,1.000000000000000000e+00,1.000000000000000000e+00,1.000000000000000000e+00,1.000000000000000000e+00,1.000000000000000000e+00,9.688467979431152344e-01,9.371614456176757812e-01,9.074829101562500444e-01,8.796264648437499556e-01,8.534292221069336160e-01,8.287472724914550781e-01,8.054529190063476340e-01,7.834322452545166016e-01,7.625835895538329856e-01,7.428158283233642356e-01
6.196856975555420366e-01,6.354044437408447044e-01,6.519413948059081809e-01,6.693620204925536665e-01,6.877392768859863503e-01,7.071541309356689231e-01,7.276968955993652344e-01,7.494689941406249556e-01,7.725841045379638894e-01,7.971702575683593528e-01,8.233728408813476562e-01,8.513564109802246316e-01,8.813090324401855469e-01,9.134462356567383257e-01,9.480157852172851340e-01,9.853048324584960938e-01,1.000000000000000000e+00,1.000000000000000000e+00,4.313453674316406472e-01,4.309363365173339844e-01,4.378023147583007812e-01,4.862557888031006081e-01,4.836863517761230691e-01,1.000000000000000000e+00,1.000000000000000000e+00,1.000000000000000000e+00,1.000000000000000000e+00,1.000000000000000000e+00,1.000000000000000000e+00,1.000000000000000000e+00,1.000000000000000000e+00,1.000000000000000000e+00,1.000000000000000000e+00,1.000000000000000000e+00,1.000000000000000000e+00,1.000000000000000000e+00,1.000000000000000000e+00,1.000000000000000000e+00,1.000000000000000000e+00,1.000000000000000000e+00,1.000000000000000000e+00,1.000000000000000000e+00,1.000000000000000000e+00,1.000000000000000000e+00,1.000000000000000000e+00,1.000000000000000000e+00,1.000000000000000000e+00,1.000000000000000000e+00,1.000000000000000000e+00,1.000000000000000000e+00,1.000000000000000000e+00,1.000000000000000000e+00,1.000000000000000000e+00,1.000000000000000000e+00,1.000000000000000000e+00,1.000000000000000000e+00,1.000000000000000000e+00,1.000000000000000000e+00,1.000000000000000000e+00,1.000000000000000000e+00,1.000000000000000000e+00,1.000000000000000000e+00,1.000000000000000000e+00,1.000000000000000000e+00,1.000000000000000000e+00,1.000000000000000000e+00,1.000000000000000000e+00,1.000000000000000000e+00,1.000000000000000000e+00,1.000000000000000000e+00,9.688752174377441850e-01,9.371879577636719194e-01,9.075078010559082253e-01,8.796498298645019087e-01,8.534512519836425781e-01,8.287680625915527788e-01,8.054724693298339622e-01,7.834507465362549050e-01,7.626011848449707475e-01,7.428324222564697266e-01
6.196724891662597212e-01,6.353905200958251953e-01,6.519267082214355025e-01,6.693465709686279297e-01,6.877229213714599609e-01,7.071368217468261275e-01,7.276786804199218972e-01,7.494495868682861106e-01,7.725634574890136719e-01,7.971484184265136275e-01,8.233493804931640847e-01,8.513314247131347212e-01,8.812822341918945535e-01,9.134173393249511719e-01,9.479847908020019309e-01,9.852713584899902566e-01,1.000000000000000000e+00,1.000000000000000000e+00,4.339993476867675670e-01,4.312252998352050781e-01,4.379642486572265514e-01,4.961859703063964955e-01,4.982995986938476562e-01,1.000000000000000000e+00,1.000000000000000000e+00,1.000000000000000000e+00,1.000000000000000000e+00,1.000000000000000000e+00,1.000000000000000000e+00,1.000000000000000000e+00,1.000000000000000000e+00,1.000000000000000000e+00,1.000000000000000000e+00,1.000000000000000000e+00,1.000000000000000000e+00,1.000000000000000000e+00,1.000000000000000000e+00,1.000000000000000000e+00,1.000000000000000000e+00,1.000000000000000000e+00,1.000000000000000000e+00,1.000000000000000000e+00,1.000000000000000000e+00,1.000000000000000000e+00,1.000000000000000000e+00,1.000000000000000000e+00,1.000000000000000000e+00,1.000000000000000000e+00,1.000000000000000000e+00,1.000000000000000000e+00,1.000000000000000000e+00,1.000000000000000000e+00,1.000000000000000000e+00,1.000000000000000000e+00,1.000000000000000000e+00,1.000000000000000000e+00,1.000000000000000000e+00,1.000000000000000000e+00,1.000000000000000000e+00,1.000000000000000000e+00,1.000000000000000000e+00,1.000000000000000000e+00,1.000000000000000000e+00,1.000000000000000000e+00,1.000000000000000000e+00,1.000000000000000000e+00,1.000000000000000000e+00,1.000000000000000000e+00,1.000000000000000000e+00,1.000000000000000000e+00,9.689035415649414062e-01,9.372144699096679465e-01,9.075326919555664062e-01,8.796731948852538618e-01,8.534731864929199219e-01,8.287887573242187500e-01,8.054920196533202903e-01,7.834692955017089622e-01,7.626186847686767800e-01,7.428491115570068359e-01
6.196592330932617632e-01,6.353765964508056863e-01,6.519120216369629350e-01,6.693311214447021928e-01,6.877066612243651900e-01,7.071195602416991965e-01,7.276603698730468306e-01,7.494302272796631303e-01,7.725428104400634544e-01,7.971264362335205300e-01,8.233260154724121316e-01,8.513064384460449219e-01,8.812554359436035600e-01,9.133885383605957475e-01,9.479537963867187278e-01,9.852378845214844194e-01,1.000000000000000000e+00,1.000000000000000000e+00,4.371030807495117076e-01,4.319541931152343639e-01,4.384228706359863392e-01,5.112792491912842019e-01,5.192010402679443359e-01,1.000000000000000000e+00,1.000000000000000000e+00,1.000000000000000000e+00,1.000000000000000000e+00,1.000000000000000000e+00,1.000000000000000000e+00,1.000000000000000000e+00,1.000000000000000000e+00,1.000000000000000000e+00,1.000000000000000000e+00,1.000000000000000000e+00,1.000000000000000000e+00,1.000000000000000000e+00,1.000000000000000000e+00,1.000000000000000000e+00,1.000000000000000000e+00,1.000000000000000000e+00,1.000000000000000000e+00,1.000000000000000000e+00,1.000000000000000000e+00,1.000000000000000000e+00,1.000000000000000000e+00,1.000000000000000000e+00,1.000000000000000000e+00,1.000000000000000000e+00,1.000000000000000000e+00,1.000000000000000000e+00,1.000000000000000000e+00,1.000000000000000000e+00,1.000000000000000000e+00,1.000000000000000000e+00,1.000000000000000000e+00,1.000000000000000000e+00,1.000000000000000000e+00,1.000000000000000000e+00,1.000000000000000000e+00,1.000000000000000000e+00,1.000000000000000000e+00,1.000000000000000000e+00,1.000000000000000000e+00,1.000000000000000000e+00,1.000000000000000000e+00,1.000000000000000000e+00,1.000000000000000000e+00,1.000000000000000000e+00,1.000000000000000000e+00,1.000000000000000000e+00,9.689318656921386275e-01,9.372409820556640847e-01,9.075574874877929688e-01,8.796965599060058150e-01,8.534952163696288840e-01,8.288095474243164507e-01,8.055116653442382368e-01,7.834878921508788840e-01,7.626362800598144309e-01,7.428658008575439453e-01
6.196459293365478294e-01,6.353626251220703125e-01,6.518973827362060103e-01,6.693156242370605913e-01,6.876903057098389116e-01,7.071023464202881303e-01,7.276420593261718750e-01,7.494108200073241743e-01,7.725222587585449663e-01,7.971045494079589400e-01,8.233026504516601785e-01,8.512813568115233931e-01,8.812286376953124556e-01,9.133598327636718306e-01,9.479227066040039062e-01,9.852044105529784712e-01,1.000000000000000000e+00,1.000000000000000000e+00,4.404533863067626731e-01,4.350698471069335826e-01,4.389208316802978294e-01,5.127323627471923606e-01,5.221958160400390625e-01,1.000000000000000000e+00,1.000000000000000000e+00,1.000000000000000000e+00,1.000000000000000000e+00,1.000000000000000000e+00,1.000000000000000000e+00,1.000000000000000000e+00,1.000000000000000000e+00,1.000000000000000000e+00,1.000000000000000000e+00,1.000000000000000000e+00,1.000000000000000000e+00,1.000000000000000000e+00,1.000000000000000000e+00,1.000000000000000000e+00,1.000000000000000000e+00,1.000000000000000000e+00,1.000000000000000000e+00,1.000000000000000000e+00,1.000000000000000000e+00,1.000000000000000000e+00,1.000000000000000000e+00,1.000000000000000000e+00,1.000000000000000000e+00,1.000000000000000000e+00,1.000000000000000000e+00,1.000000000000000000e+00,1.000000000000000000e+00,1.000000000000000000e+00,1.000000000000000000e+00,1.000000000000000000e+00,1.000000000000000000e+00,1.000000000000000000e+00,1.000000000000000000e+00,1.000000000000000000e+00,1.000000000000000000e+00,1.000000000000000000e+00,1.000000000000000000e+00,1.000000000000000000e+00,1.000000000000000000e+00,1.000000000000000000e+00,1.000000000000000000e+00,1.000000000000000000e+00,1.000000000000000000e+00,1.000000000000000000e+00,1.000000000000000000e+00,1.000000000000000000e+00,9.689602851867675781e-01,9.372675895690918413e-01,9.075824737548827681e-01,8.797199249267577681e-01,8.535172462463378462e-01,8.288302421569824219e-01,8.055313110351562944e-01,7.835063457489013228e-01,7.626538753509521928e-01,7.428824424743651900e-01
6.196327209472656250e-01,6.353487014770508035e-01,6.518826961517334428e-01,6.693002223968506081e-01,6.876740455627441406e-01,7.070850372314453347e-01,7.276238441467285378e-01,7.493915081024169478e-01,7.725016593933105025e-01,7.970826148986815962e-01,8.232792854309082253e-01,8.512563705444335938e-01,8.812019348144530806e-01,9.133310317993164062e-01,9.478917121887207031e-01,9.710119247436523882e-01,9.707707405090332253e-01,9.705297470092772993e-01,9.702888488769531028e-01,4.363688945770263783e-01,4.396276473999023438e-01,5.131155490875244363e-01,5.201031208038330300e-01,9.690863609313964400e-01,9.688462257385254128e-01,9.686060905456542747e-01,9.683661460876464844e-01,9.681263923645019309e-01,9.678867340087891069e-01,9.676471710205077903e-01,9.674077033996582031e-01,9.671684265136718528e-01,9.669291496276855025e-01,9.666900634765625000e-01,9.664510726928711160e-01,9.662121772766113503e-01,9.659734725952148215e-01,9.657348632812500222e-01,9.654964447021484597e-01,9.652579307556152788e-01,9.650197029113769531e-01,9.647815704345703569e-01,9.645435333251952681e-01,9.643056869506836382e-01,9.640678405761718972e-01,9.638301849365233931e-01,9.635926246643066184e-01,9.633551597595214622e-01,9.631177902221679243e-01,9.628806114196777344e-01,9.626435279846191628e-01,9.624065399169922097e-01,9.621697425842284934e-01,9.619329452514648882e-01,9.616962432861327903e-01,9.614597320556640403e-01,9.612234115600586382e-01,9.609870910644531250e-01,9.607509613037109597e-01,9.605149269104004128e-01,9.602789878845214844e-01,9.600432395935059038e-01,9.598074913024902122e-01,9.595718383789062500e-01,9.593363761901855247e-01,9.591011047363281472e-01,9.588658332824706587e-01,9.586307525634765181e-01,9.583957672119141069e-01,9.581607818603515847e-01,9.579260826110840288e-01,9.372941017150878684e-01,9.076072692871093306e-01,8.797432899475097212e-01,8.535391807556151900e-01,8.288510322570801225e-01,8.055508613586426225e-01,7.835249423980712447e-01,7.626713752746582253e-01,7.428991317749022993e-01
6.196194648742675559e-01,6.353347778320312944e-01,6.518680572509765181e-01,6.692847251892090066e-01,6.876576900482177512e-01,7.070678234100341575e-01,7.276055335998534712e-01,7.493721008300781028e-01,7.542472362518310991e-01,7.541017532348632812e-01,7.539563655853271928e-01,7.538109302520752397e-01,7.536655902862549050e-01,7.535203456878661887e-01,7.533751487731933372e-01,7.532300472259521040e-01,7.530848979949951172e-01,7.529398918151855025e-01,7.527948856353759988e-01,4.417905330657959095e-01,4.445576667785644531e-01,5.129545211791992632e-01,5.185407161712646262e-01,7.520708084106445535e-01,7.519261837005615234e-01,7.517815589904784934e-01,7.516370773315429465e-01,7.514925479888916460e-01,7.513481140136718528e-01,7.512037754058837891e-01,7.510594367980957253e-01,7.509151935577392800e-01,7.507709503173828347e-01,7.506268501281738725e-01,7.504827499389647993e-01,7.503386497497558372e-01,7.501946926116943581e-01,7.500507354736327681e-01,7.499069213867187722e-01,7.497630596160889116e-01,7.496193408966064231e-01,7.494756221771240456e-01,7.493319034576415572e-01,7.491883754730224165e-01,7.490447998046875222e-01,7.489013671875000000e-01,7.487578868865967241e-01,7.486145496368408203e-01,7.484712123870849165e-01,7.483278751373291238e-01,7.481847286224365678e-01,7.480415344238281472e-01,7.478984832763672097e-01,7.477554321289062722e-01,7.476124763488769531e-01,7.474694728851318803e-01,7.473265647888183150e-01,7.471837997436523438e-01,7.470409870147705078e-01,7.468983173370361550e-01,7.467555999755859375e-01,7.466130256652832031e-01,7.464704513549804688e-01,7.463279247283935991e-01,7.461854934692382368e-01,7.460430622100829856e-01,7.459007740020752175e-01,7.457584381103515847e-01,7.456162929534911887e-01,7.454740524291991743e-01,7.453319549560546431e-01,7.451898574829101118e-01,7.450478076934814453e-01,7.449059009552001509e-01,7.447639465332031028e-01,7.446221351623535378e-01,7.444803237915038618e-01,7.443386077880859153e-01,7.441968917846679688e-01,7.429158210754394087e-01
6.166973114013671875e-01,6.166000843048096147e-01,6.165028095245361772e-01,6.164056301116943581e-01,6.163084506988525391e-01,6.162112712860107200e-01,6.161141395568847656e-01,6.160171031951904297e-01,6.159200191497802290e-01,6.158230304718017578e-01,6.157259941101074219e-01,6.156291007995605691e-01,6.155321121215819868e-01,6.154352664947509988e-01,6.153383731842041460e-01,6.152415275573730469e-01,6.151447296142578125e-01,6.150479316711425781e-01,6.149512290954589622e-01,4.420979022979736328e-01,4.389698028564453236e-01,6.146611690521239790e-01,6.145645141601562278e-01,6.144679546356200950e-01,6.143713474273682085e-01,6.142748355865478294e-01,6.141783237457275613e-01,6.140818595886230469e-01,6.139853954315185325e-01,6.138889789581298828e-01,6.137926101684569868e-01,6.136962413787842019e-01,6.135999679565429243e-01,6.135036468505858931e-01,6.134074211120605913e-01,6.133111476898193137e-01,6.132149219512939009e-01,6.131188392639159712e-01,6.130226612091064231e-01,6.129265785217284934e-01,6.128304958343505637e-01,6.127344608306884988e-01,6.126384258270263228e-01,6.125423908233642578e-01,6.124464988708495650e-01,6.123505115509033647e-01,6.122546672821045366e-01,6.121587753295898438e-01,6.120629787445068803e-01,6.119671344757080522e-01,6.118713378906249778e-01,6.117755889892577681e-01,6.116798400878906694e-01,6.115841865539550781e-01,6.114885330200194868e-01,6.113929271697997603e-01,6.112972736358642800e-01,6.112017631530761719e-01,6.111062049865723100e-01,6.110106468200683372e-01,6.109151840209960938e-01,6.108197212219238503e-01,6.107243537902832253e-01,6.106289386749267356e-01,6.105336189270019753e-01,6.104382514953613503e-01,6.103429317474364790e-01,6.102476596832275835e-01,6.101523876190185769e-01,6.100572109222411887e-01,6.099620342254639116e-01,6.098669052124023882e-01,6.097717761993408647e-01,6.096766471862793413e-01,6.095816135406494363e-01,6.094865798950195312e-01,6.093915939331054910e-01,6.092966079711914507e-01,6.092016696929931641e-01,6.091067314147948775e-01
5.210224151611327903e-01,5.209529876708984819e-01,5.208835601806640625e-01,5.208141803741455078e-01,5.207448005676269531e-01,5.206754684448242632e-01,5.206061363220214622e-01,5.205368041992187722e-01,5.204675197601318359e-01,5.203981876373291460e-01,5.203289508819579634e-01,5.202596664428711382e-01,5.201904773712158203e-01,5.201212406158447488e-01,5.200520992279052956e-01,5.199829101562499778e-01,5.199137210845947710e-01,5.198446273803710715e-01,5.197754859924316184e-01,4.350821495056152455e-01,4.307785511016845592e-01,5.195683002471923606e-01,5.194992065429687722e-01,5.194302082061768022e-01,5.193612098693847212e-01,5.192922115325927512e-01,5.192232608795166460e-01,5.191543102264404297e-01,5.190853595733642134e-01,5.190164566040038618e-01,5.189475536346435103e-01,5.188786983489990234e-01,5.188097953796386719e-01,5.187409877777099387e-01,5.186721324920654519e-01,5.186033725738525835e-01,5.185345649719238503e-01,5.184658050537109819e-01,5.183970451354980025e-01,5.183283329010009988e-01,5.182596206665038840e-01,5.181909084320068803e-01,5.181222438812256303e-01,5.180535793304443803e-01,5.179849624633788840e-01,5.179163455963134988e-01,5.178477287292480025e-01,5.177791595458984819e-01,5.177105426788329856e-01,5.176420211791992188e-01,5.175734996795654519e-01,5.175049781799316850e-01,5.174365043640136719e-01,5.173679828643799050e-01,5.172995567321777566e-01,5.172311305999756081e-01,5.171627044677734597e-01,5.170942783355713113e-01,5.170259475708007812e-01,5.169575691223144975e-01,5.168891906738281028e-01,5.168208599090575728e-01,5.167525291442871538e-01,5.166842937469482422e-01,5.166159629821777122e-01,5.165477275848389116e-01,5.164794921875000000e-01,5.164112567901610884e-01,5.163430690765380415e-01,5.162748813629149947e-01,5.162066936492919478e-01,5.161385536193847656e-01,5.160704135894775835e-01,5.160023212432861550e-01,5.159341812133788618e-01,5.158661365509032981e-01,5.157980442047118697e-01,5.157300472259521706e-01,5.156620025634766069e-01,5.155940055847167969e-01
4.510467052459716797e-01,4.509946346282959206e-01,4.509426593780517800e-01,4.508906364440917747e-01,4.508386611938476340e-01,4.507866382598876842e-01,4.507347106933593528e-01,4.506827354431152122e-01,4.506307601928710715e-01,4.505788326263427956e-01,4.505269050598144642e-01,4.504750251770019420e-01,4.504230499267578014e-01,4.503711700439453347e-01,4.503192901611328125e-01,4.502674579620361550e-01,4.502155780792236328e-01,4.501637458801269753e-01,4.501119136810302623e-01,4.227035999298095481e-01,4.207020282745361217e-01,4.190340995788573997e-01,4.499047279357910045e-01,4.498529434204101562e-01,4.498012065887451172e-01,4.497494697570800781e-01,4.496977329254150391e-01,4.496459960937500000e-01,4.495943069458007701e-01,4.495426177978515403e-01,4.494909286499023660e-01,4.494392395019531361e-01,4.493875503540039062e-01,4.493359088897704856e-01,4.492842674255371205e-01,4.492326259613036998e-01,4.491810321807861439e-01,4.491294384002685325e-01,4.490778446197509766e-01,4.490262508392334206e-01,4.489746570587158092e-01,4.489231586456298717e-01,4.488715648651123158e-01,4.488200664520263783e-01,4.487685203552246316e-01,4.487170696258545033e-01,4.486655235290527566e-01,4.486140251159668191e-01,4.485625743865966908e-01,4.485111236572265625e-01,4.484596729278564342e-01,4.484082221984863059e-01,4.483568191528320424e-01,4.483054161071777233e-01,4.482539653778075950e-01,4.482026100158691406e-01,4.481512069702148215e-01,4.480998516082763672e-01,4.480484962463379128e-01,4.479971885681152122e-01,4.479458332061767578e-01,4.478945255279541127e-01,4.478432178497314675e-01,4.477919101715087669e-01,4.477406024932861217e-01,4.476893424987792858e-01,4.476380825042724498e-01,4.475868225097656139e-01,4.475356101989745872e-01,4.474843978881836160e-01,4.474331378936767800e-01,4.473819732666015625e-01,4.473307609558105358e-01,4.472795963287353738e-01,4.472284317016601562e-01,4.471772670745849387e-01,4.471261024475097767e-01,4.470749855041503684e-01,4.470238685607910156e-01,4.469727516174316628e-01
3.976415634155273660e-01,3.976011514663696511e-01,3.975606679916381947e-01,3.975202798843383567e-01,3.974798679351806419e-01,3.974394798278808594e-01,3.973990440368652122e-01,3.973586559295654297e-01,3.973182916641235241e-01,3.972779273986816184e-01,3.972375392913818359e-01,3.971971988677978627e-01,3.971568584442138894e-01,3.971164703369140514e-01,3.970761537551880105e-01,3.970358371734619141e-01,3.969954967498779408e-01,3.969552040100097767e-01,3.969149112701416127e-01,3.968745708465576394e-01,3.968343019485473522e-01,3.967940568923949973e-01,3.967537403106689564e-01,3.967134952545166016e-01,3.966732501983642467e-01,3.966330289840698242e-01,3.965927600860595925e-01,3.965525388717651145e-01,3.965123414993286244e-01,3.964720964431762695e-01,3.964318990707397239e-01,3.963917255401611106e-01,3.963515520095824973e-01,3.963113307952880748e-01,3.962711811065673939e-01,3.962310314178466575e-01,3.961908340454101674e-01,3.961507081985473633e-01,3.961105823516845592e-01,3.960704565048217551e-01,3.960303068161010742e-01,3.959902048110962025e-01,3.959501266479492076e-01,3.959099769592285267e-01,3.958698987960815319e-01,3.958298444747924694e-01,3.957897901535034069e-01,3.957496881484985352e-01,3.957096338272094727e-01,3.956696033477783425e-01,3.956295251846313477e-01,3.955895185470580944e-01,3.955494880676269642e-01,3.955094814300537109e-01,3.954694509506225808e-01,3.954294681549072044e-01,3.953894853591918834e-01,3.953494548797607533e-01,3.953094959259033092e-01,3.952695369720459206e-01,3.952296018600464089e-01,3.951896190643310325e-01,3.951496839523315208e-01,3.951097488403320090e-01,3.950697898864746205e-01,3.950299024581909180e-01,3.949899911880493386e-01,3.949501037597656361e-01,3.949101686477661244e-01,3.948703050613403542e-01,3.948304414749145286e-01,3.947905302047729492e-01,3.947506666183471791e-01,3.947108268737792858e-01,3.946710109710693248e-01,3.946311235427856223e-01,3.945913076400756614e-01,3.945514917373657005e-01,3.945116519927978627e-01,3.944718599319457786e-01
3.555442094802856445e-01,3.555119037628173828e-01,3.554795503616333119e-01,3.554472208023071178e-01,3.554149389266967884e-01,3.553826332092285267e-01,3.553503036499023326e-01,3.553180217742920033e-01,3.552857398986816184e-01,3.552534341812133567e-01,3.552211523056030273e-01,3.551888942718505748e-01,3.551566362380981223e-01,3.551243543624877930e-01,3.550921201705932728e-01,3.550598621368408203e-01,3.550276041030883678e-01,3.549953699111938477e-01,3.549631595611572044e-01,3.549309253692626842e-01,3.548986911773681641e-01,3.548664569854736439e-01,3.548342466354370006e-01,3.548020601272582897e-01,3.547698736190795787e-01,3.547376632690429910e-01,3.547054767608642800e-01,3.546733140945434459e-01,3.546411037445068581e-01,3.546089410781860241e-01,3.545768022537231223e-01,3.545446634292602761e-01,3.545124769210815652e-01,3.544803380966186634e-01,3.544482231140136941e-01,3.544160842895507924e-01,3.543839454650878906e-01,3.543518304824829213e-01,3.543197154998779519e-01,3.542875766754150502e-01,3.542554855346679576e-01,3.542233943939209206e-01,3.541913270950317605e-01,3.541592121124267356e-01,3.541271448135375755e-01,3.540950775146484153e-01,3.540629863739013783e-01,3.540309190750122181e-01,3.539988756179809348e-01,3.539668321609497070e-01,3.539347648620605469e-01,3.539027452468871959e-01,3.538707017898559681e-01,3.538386583328246848e-01,3.538066387176513894e-01,3.537746429443359153e-01,3.537426471710204967e-01,3.537106037139892689e-01,3.536786079406738503e-01,3.536466360092163086e-01,3.536146163940429576e-01,3.535826444625854714e-01,3.535506725311279297e-01,3.535187244415283203e-01,3.534867286682129017e-01,3.534547805786132924e-01,3.534228324890136830e-01,3.533908605575561412e-01,3.533589363098144642e-01,3.533270120620727317e-01,3.532950878143310547e-01,3.532631397247314453e-01,3.532312393188476451e-01,3.531993389129638450e-01,3.531673908233642356e-01,3.531355142593383678e-01,3.531036138534545676e-01,3.530717611312866322e-01,3.530398368835448997e-01,3.530079841613769642e-01
3.215070486068725697e-01,3.214806079864501731e-01,3.214541435241698997e-01,3.214277267456054910e-01,3.214013099670410267e-01,3.213748693466186301e-01,3.213484764099120983e-01,3.213220596313476340e-01,3.212956666946411022e-01,3.212692499160766380e-01,3.212428569793701061e-01,3.212164640426635742e-01,3.211900472640991100e-01,3.211636781692505105e-01,3.211373090744018555e-01,3.211109399795532005e-01,3.210845470428466686e-01,3.210581779479980691e-01,3.210318326950073464e-01,3.210054636001586914e-01,3.209790945053100364e-01,3.209527492523193137e-01,3.209264039993285911e-01,3.209000587463378684e-01,3.208736896514892689e-01,3.208473682403564231e-01,3.208210468292236328e-01,3.207947254180908425e-01,3.207683801651001199e-01,3.207420825958252064e-01,3.207157850265502930e-01,3.206894397735595703e-01,3.206631422042846569e-01,3.206368684768676758e-01,3.206105709075927623e-01,3.205842494964599720e-01,3.205579757690429910e-01,3.205317020416259544e-01,3.205054044723510964e-01,3.204791545867919922e-01,3.204528808593750111e-01,3.204266309738159069e-01,3.204003572463989258e-01,3.203741073608398215e-01,3.203478574752807728e-01,3.203215837478637917e-01,3.202953577041626199e-01,3.202691316604614480e-01,3.202429056167602761e-01,3.202166557312011719e-01,3.201904296875000000e-01,3.201642036437988281e-01,3.201379776000976562e-01,3.201117753982544167e-01,3.200855731964111217e-01,3.200593709945678822e-01,3.200331449508667103e-01,3.200069665908813477e-01,3.199807643890381081e-01,3.199545860290527455e-01,3.199283838272094505e-01,3.199022293090820201e-01,3.198760509490966575e-01,3.198498725891113503e-01,3.198237180709838645e-01,3.197975635528564342e-01,3.197714090347290039e-01,3.197452306747436412e-01,3.197190999984741433e-01,3.196929454803466575e-01,3.196667909622192272e-01,3.196406602859497292e-01,3.196145534515381081e-01,3.195884227752685547e-01,3.195622920989990012e-01,3.195361614227295033e-01,3.195100545883178822e-01,3.194839239120483287e-01,3.194578409194946400e-01,3.194317340850830189e-01
2.934174299240112083e-01,2.933953762054443137e-01,2.933733701705932839e-01,2.933513641357421986e-01,2.933293581008911133e-01,2.933073282241821511e-01,2.932853460311889426e-01,2.932633399963379128e-01,2.932413339614868275e-01,2.932193517684936745e-01,2.931973695755004661e-01,2.931753873825073131e-01,2.931533813476562278e-01,2.931313991546630748e-01,2.931094408035278542e-01,2.930874586105346458e-01,2.930654764175414928e-01,2.930435180664062722e-01,2.930215597152709961e-01,2.929995775222778431e-01,2.929776191711425670e-01,2.929556846618652233e-01,2.929337501525878795e-01,2.929117679595947266e-01,2.928898334503173828e-01,2.928678989410400391e-01,2.928459405899047630e-01,2.928239822387695424e-01,2.928020715713500755e-01,2.927801370620727317e-01,2.927582263946533203e-01,2.927362918853759766e-01,2.927143812179565652e-01,2.926924705505370983e-01,2.926705360412597545e-01,2.926486492156982200e-01,2.926267385482788086e-01,2.926048517227172741e-01,2.925829410552978627e-01,2.925610542297363281e-01,2.925391674041747936e-01,2.925172567367553822e-01,2.924953699111938477e-01,2.924735069274902455e-01,2.924516201019287109e-01,2.924297332763671764e-01,2.924078702926635742e-01,2.923860073089599720e-01,2.923641204833984375e-01,2.923422813415527122e-01,2.923204183578491100e-01,2.922985792160034402e-01,2.922766923904419056e-01,2.922548532485961803e-01,2.922330141067505105e-01,2.922111511230468528e-01,2.921893358230590598e-01,2.921674966812133900e-01,2.921456813812255970e-01,2.921238183975219949e-01,2.921020030975342019e-01,2.920801877975464089e-01,2.920583486557006836e-01,2.920365571975708230e-01,2.920147418975830300e-01,2.919929265975952370e-01,2.919711112976074441e-01,2.919493198394775280e-01,2.919275283813476674e-01,2.919057130813598744e-01,2.918839216232299583e-01,2.918621301651000977e-01,2.918403625488281139e-01,2.918185472488403209e-01,2.917967796325683372e-01,2.917750120162964089e-01,2.917532205581664928e-01,2.917314529418945090e-01,2.917096853256225808e-01,2.916879415512084739e-01
2.698417186737060436e-01,2.698230743408203125e-01,2.698044538497924583e-01,2.697858572006225364e-01,2.697672128677368053e-01,2.697486162185668834e-01,2.697299957275390847e-01,2.697113990783691628e-01,2.696927785873413086e-01,2.696741819381713867e-01,2.696555852890014648e-01,2.696369886398315430e-01,2.696183919906616211e-01,2.695997953414916992e-01,2.695812225341797097e-01,2.695626258850097878e-01,2.695440292358398660e-01,2.695254564285278209e-01,2.695068836212158314e-01,2.694882869720459095e-01,2.694697380065917969e-01,2.694511651992798074e-01,2.694325685501098855e-01,2.694140195846557728e-01,2.693954706192016602e-01,2.693768978118896706e-01,2.693583250045776256e-01,2.693397760391235130e-01,2.693212270736694558e-01,2.693026781082153431e-01,2.692841291427612305e-01,2.692655563354492410e-01,2.692470073699951283e-01,2.692284822463989480e-01,2.692099332809448353e-01,2.691914081573486550e-01,2.691728591918945424e-01,2.691543102264404297e-01,2.691358089447021262e-01,2.691172838211059459e-01,2.690987586975097656e-01,2.690802335739135853e-01,2.690617084503174050e-01,2.690432071685791016e-01,2.690246820449829213e-01,2.690061569213867410e-01,2.689876556396484375e-01,2.689691543579101340e-01,2.689506530761718861e-01,2.689321517944335826e-01,2.689136505126953347e-01,2.688951492309570312e-01,2.688766479492187278e-01,2.688581705093383567e-01,2.688396930694579856e-01,2.688211917877197377e-01,2.688027143478393666e-01,2.687842369079589955e-01,2.687657356262206920e-01,2.687472820281982533e-01,2.687288045883178822e-01,2.687103509902953880e-01,2.686918497085571400e-01,2.686733961105346458e-01,2.686549425125122070e-01,2.686364650726318359e-01,2.686180114746093972e-01,2.685995578765869030e-01,2.685811042785644642e-01,2.685626506805419700e-01,2.685441970825195312e-01,2.685257673263549694e-01,2.685073137283325306e-01,2.684888839721679688e-01,2.684704542160034069e-01,2.684520244598388450e-01,2.684335708618164062e-01,2.684151411056518444e-01,2.683967113494872825e-01,2.683782815933227761e-01
2.497727870941162109e-01,2.497568368911743109e-01,2.497408866882324108e-01,2.497249364852905384e-01,2.497089862823486384e-01,2.496930360794067383e-01,2.496770858764648382e-01,2.496611356735229381e-01,2.496452093124389704e-01,2.496292591094970703e-01,2.496133327484130748e-01,2.495973825454712025e-01,2.495814561843872070e-01,2.495655298233032116e-01,2.495496034622192438e-01,2.495336532592773438e-01,2.495177507400512806e-01,2.495018243789672852e-01,2.494858980178832897e-01,2.494699716567993220e-01,2.494540691375732311e-01,2.494381427764892634e-01,2.494222164154052679e-01,2.494063138961792048e-01,2.493904113769531139e-01,2.493745088577270508e-01,2.493585824966430553e-01,2.493426799774169922e-01,2.493268013000488337e-01,2.493108749389648382e-01,2.492949962615966797e-01,2.492790937423706166e-01,2.492632150650024303e-01,2.492473125457763672e-01,2.492314100265503041e-01,2.492155075073242132e-01,2.491996288299560547e-01,2.491837501525878962e-01,2.491678714752197377e-01,2.491519927978515514e-01,2.491360902786254883e-01,2.491202354431152344e-01,2.491043567657470759e-01,2.490884780883789174e-01,2.490725994110107311e-01,2.490567445755004772e-01,2.490408897399902233e-01,2.490250110626220648e-01,2.490091562271118109e-01,2.489933013916015569e-01,2.489774227142333984e-01,2.489615917205810491e-01,2.489457368850707952e-01,2.489298820495605413e-01,2.489140272140502874e-01,2.488981723785400335e-01,2.488823413848876842e-01,2.488665103912353627e-01,2.488506555557251088e-01,2.488348245620727595e-01,2.488189935684204102e-01,2.488031387329101562e-01,2.487873077392578069e-01,2.487714767456054576e-01,2.487556695938110407e-01,2.487398147583007868e-01,2.487240076065063421e-01,2.487081766128539928e-01,2.486923456192016713e-01,2.486765384674072266e-01,2.486607313156127819e-01,2.486449241638183649e-01,2.486290931701660156e-01,2.486132860183715709e-01,2.485974788665771540e-01,2.485816478729248047e-01,2.485658645629882924e-01,2.485500574111938477e-01,2.485342741012573353e-01,2.485184669494628906e-01
2.324824094772338923e-01,2.324685811996460016e-01,2.324547767639160156e-01,2.324409484863281250e-01,2.324271202087402344e-01,2.324133157730102484e-01,2.323995113372802623e-01,2.323856830596923717e-01,2.323718786239624134e-01,2.323580503463745228e-01,2.323442459106445368e-01,2.323304414749145508e-01,2.323166370391845648e-01,2.323028326034545787e-01,2.322890281677246205e-01,2.322752237319946345e-01,2.322614431381225530e-01,2.322476387023925670e-01,2.322338342666626088e-01,2.322200298309326227e-01,2.322062492370605413e-01,2.321924448013305553e-01,2.321786642074585016e-01,2.321648836135864202e-01,2.321511030197143666e-01,2.321372985839843806e-01,2.321235179901122991e-01,2.321097373962402455e-01,2.320959806442260687e-01,2.320821762084960826e-01,2.320684194564819336e-01,2.320546388626098522e-01,2.320408582687377985e-01,2.320270776748657171e-01,2.320133209228515681e-01,2.319995641708373912e-01,2.319857835769653376e-01,2.319720268249511608e-01,2.319582462310791071e-01,2.319444656372070257e-01,2.319307088851928766e-01,2.319169521331786998e-01,2.319031953811645508e-01,2.318894386291504017e-01,2.318756818771362249e-01,2.318619489669799805e-01,2.318481683731078991e-01,2.318344354629516546e-01,2.318207025527954102e-01,2.318069458007812611e-01,2.317931890487670843e-01,2.317794561386108398e-01,2.317657232284545954e-01,2.317519664764404186e-01,2.317382335662841741e-01,2.317245006561279297e-01,2.317107677459716852e-01,2.316970348358154408e-01,2.316833019256591686e-01,2.316695928573608287e-01,2.316558361053466797e-01,2.316421270370483398e-01,2.316283941268920954e-01,2.316146850585937556e-01,2.316009521484375111e-01,2.315872430801391713e-01,2.315735340118408314e-01,2.315598011016845592e-01,2.315460920333862194e-01,2.315323829650878795e-01,2.315186738967895397e-01,2.315049648284911998e-01,2.314912557601928600e-01,2.314775466918945201e-01,2.314638376235961803e-01,2.314501285552978405e-01,2.314364433288574330e-01,2.314227342605590931e-01,2.314090251922607533e-01,2.313953399658203181e-01
2.174308776855468639e-01,2.174187898635864258e-01,2.174067020416259877e-01,2.173945903778076172e-01,2.173825025558471791e-01,2.173704385757446178e-01,2.173583507537841797e-01,2.173462629318237416e-01,2.173341751098632757e-01,2.173221111297607422e-01,2.173099994659423717e-01,2.172979354858398382e-01,2.172858715057373047e-01,2.172737836837768666e-01,2.172616958618164007e-01,2.172496318817138672e-01,2.172375679016113337e-01,2.172254800796508678e-01,2.172134160995483343e-01,2.172013521194458008e-01,2.171892881393432673e-01,2.171772241592407338e-01,2.171651601791381725e-01,2.171530961990356390e-01,2.171410560607910101e-01,2.171289682388305720e-01,2.171169281005859431e-01,2.171048641204834095e-01,2.170928001403808483e-01,2.170807600021362194e-01,2.170686960220336859e-01,2.170566558837890569e-01,2.170445919036865234e-01,2.170325517654418945e-01,2.170205116271972656e-01,2.170084714889526367e-01,2.169964075088501032e-01,2.169843673706054743e-01,2.169723272323608454e-01,2.169602870941162165e-01,2.169482469558715876e-01,2.169362068176269587e-01,2.169241428375244252e-01,2.169121265411377009e-01,2.169000864028930720e-01,2.168880462646484431e-01,2.168760061264038141e-01,2.168639898300170898e-01,2.168519735336303655e-01,2.168399333953857366e-01,2.168278932571411077e-01,2.168158769607543834e-01,2.168038606643676869e-01,2.167918205261230580e-01,2.167798042297363337e-01,2.167677879333496094e-01,2.167557716369628851e-01,2.167437553405761608e-01,2.167317390441894642e-01,2.167197465896606445e-01,2.167077064514160156e-01,2.166957139968871959e-01,2.166836977005004994e-01,2.166716814041137751e-01,2.166596651077270508e-01,2.166476726531982311e-01,2.166356801986694391e-01,2.166236639022827148e-01,2.166116714477538951e-01,2.165996551513671986e-01,2.165876626968383789e-01,2.165756702423095592e-01,2.165636539459228627e-01,2.165516853332519476e-01,2.165396690368652233e-01,2.165276765823364313e-01,2.165156841278076116e-01,2.165036916732788197e-01,2.164916992187500000e-01,2.164797306060791127e-01
2.042097806930542048e-01,2.041991233825683483e-01,2.041884422302246149e-01,2.041777849197387584e-01,2.041671276092529297e-01,2.041564702987671009e-01,2.041457891464233398e-01,2.041351318359375111e-01,2.041244745254516546e-01,2.041138410568237305e-01,2.041031599044799694e-01,2.040925264358520452e-01,2.040818691253662165e-01,2.040712118148803600e-01,2.040605545043945312e-01,2.040498971939087025e-01,2.040392637252807506e-01,2.040286064147949219e-01,2.040179729461669977e-01,2.040073156356811412e-01,2.039966821670532171e-01,2.039860248565673884e-01,2.039753913879394642e-01,2.039647579193115123e-01,2.039541006088256836e-01,2.039434671401977595e-01,2.039328336715698353e-01,2.039222002029418834e-01,2.039115428924560547e-01,2.039009094238281306e-01,2.038902759552002064e-01,2.038796424865722545e-01,2.038690090179443304e-01,2.038583993911743109e-01,2.038477659225463867e-01,2.038371324539184626e-01,2.038264989852905384e-01,2.038158893585205189e-01,2.038052558898925670e-01,2.037946224212646429e-01,2.037840127944946234e-01,2.037733793258666992e-01,2.037627696990966797e-01,2.037521362304687556e-01,2.037415266036987360e-01,2.037309169769287165e-01,2.037202835083007924e-01,2.037096738815307728e-01,2.036990642547607533e-01,2.036884307861328014e-01,2.036778211593627819e-01,2.036672115325927623e-01,2.036566019058227428e-01,2.036459922790527233e-01,2.036353826522827037e-01,2.036247968673706166e-01,2.036141633987426647e-01,2.036035776138305775e-01,2.035929679870605580e-01,2.035823583602905384e-01,2.035717725753784235e-01,2.035611629486084040e-01,2.035505771636962891e-01,2.035399675369262695e-01,2.035293817520141546e-01,2.035187721252441351e-01,2.035081863403320201e-01,2.034976005554199330e-01,2.034869909286499134e-01,2.034764051437377985e-01,2.034658193588256836e-01,2.034552335739135687e-01,2.034446477890014537e-01,2.034340620040893666e-01,2.034234762191772516e-01,2.034128904342651367e-01,2.034023046493530218e-01,2.033917188644409069e-01,2.033811330795288197e-01,2.033705711364746094e-01
1.925043702125549261e-01,1.924949049949646052e-01,1.924854278564453181e-01,1.924759507179260309e-01,1.924664735794067438e-01,1.924570083618163951e-01,1.924475073814392034e-01,1.924380421638488825e-01,1.924285769462585338e-01,1.924190998077392467e-01,1.924096345901489258e-01,1.924001693725586049e-01,1.923907041549682562e-01,1.923812270164489691e-01,1.923717617988586481e-01,1.923622965812682994e-01,1.923528313636779785e-01,1.923433780670165960e-01,1.923339128494262751e-01,1.923244595527648926e-01,1.923149824142456055e-01,1.923055171966552845e-01,1.922960638999939020e-01,1.922866106033325195e-01,1.922771573066711370e-01,1.922677040100097545e-01,1.922582507133483998e-01,1.922487735748291127e-01,1.922393321990966686e-01,1.922298789024353138e-01,1.922204256057739313e-01,1.922109842300415150e-01,1.922015309333801325e-01,1.921920895576477162e-01,1.921826481819152721e-01,1.921731829643249512e-01,1.921637415885925348e-01,1.921543002128601185e-01,1.921448588371276744e-01,1.921354174613952581e-01,1.921259760856628418e-01,1.921165347099304255e-01,1.921070814132690430e-01,1.920976400375366266e-01,1.920882105827331487e-01,1.920787692070007324e-01,1.920693397521972545e-01,1.920599102973938044e-01,1.920504689216613881e-01,1.920410275459289440e-01,1.920315861701965277e-01,1.920221447944641113e-01,1.920127153396606334e-01,1.920032858848571833e-01,1.919938564300537054e-01,1.919844388961791937e-01,1.919750094413757435e-01,1.919655919075012318e-01,1.919561386108398493e-01,1.919467210769653376e-01,1.919373035430908259e-01,1.919278860092163141e-01,1.919184565544128362e-01,1.919090390205383245e-01,1.918996214866638128e-01,1.918901920318603627e-01,1.918807744979858509e-01,1.918713569641113392e-01,1.918619394302368275e-01,1.918525338172912542e-01,1.918431162834167425e-01,1.918337106704711970e-01,1.918242812156677191e-01,1.918148756027221735e-01,1.918054580688476618e-01,1.917960524559020885e-01,1.917866468429565430e-01,1.917772412300109974e-01,1.917678475379943903e-01,1.917584419250488170e-01
1.820681333541870062e-01,1.820596575736999623e-01,1.820511817932128906e-01,1.820427060127258190e-01,1.820342302322387751e-01,1.820257425308227650e-01,1.820172667503356934e-01,1.820088028907775879e-01,1.820003271102905162e-01,1.819918513298034723e-01,1.819833874702453669e-01,1.819749236106872614e-01,1.819664359092712513e-01,1.819579720497131459e-01,1.819494962692260742e-01,1.819410324096679688e-01,1.819325685501098633e-01,1.819241046905517578e-01,1.819156408309936523e-01,1.819071888923645131e-01,1.818987011909484752e-01,1.818902492523193359e-01,1.818817853927612305e-01,1.818733215332031250e-01,1.818648695945739857e-01,1.818564057350158802e-01,1.818479537963867132e-01,1.818394780158996693e-01,1.818310260772705023e-01,1.818225741386413630e-01,1.818141222000121959e-01,1.818056702613830566e-01,1.817972183227539174e-01,1.817887663841247503e-01,1.817802906036377064e-01,1.817718505859375056e-01,1.817633986473083385e-01,1.817549467086791992e-01,1.817465066909789984e-01,1.817380547523498591e-01,1.817296147346496582e-01,1.817211508750915527e-01,1.817126989364624134e-01,1.817042589187622126e-01,1.816958189010620117e-01,1.816873788833618109e-01,1.816789388656616100e-01,1.816704988479614369e-01,1.816620588302612360e-01,1.816536068916320690e-01,1.816451668739318959e-01,1.816367268562316950e-01,1.816282987594604603e-01,1.816198348999023549e-01,1.816114068031310924e-01,1.816029667854309193e-01,1.815945386886596569e-01,1.815861105918884222e-01,1.815776586532592829e-01,1.815692305564880482e-01,1.815608024597167858e-01,1.815523624420166127e-01,1.815439343452453502e-01,1.815355062484741155e-01,1.815270900726318470e-01,1.815186381340026800e-01,1.815102100372314453e-01,1.815017938613891491e-01,1.814933657646179144e-01,1.814849495887756459e-01,1.814765214920043834e-01,1.814681053161621149e-01,1.814596652984619141e-01,1.814512491226196178e-01,1.814428210258483831e-01,1.814344048500061146e-01,1.814259886741638184e-01,1.814175724983215221e-01,1.814091563224792536e-01,1.814007282257080189e-01
1.727052569389343206e-01,1.726976394653320368e-01,1.726900100708007868e-01,1.726823806762695368e-01,1.726747632026672252e-01,1.726671218872070368e-01,1.726594924926757868e-01,1.726518750190734752e-01,1.726442456245422252e-01,1.726366281509399414e-01,1.726290106773376576e-01,1.726213932037353460e-01,1.726137518882751576e-01,1.726061344146728460e-01,1.725985169410705622e-01,1.725908994674682506e-01,1.725832819938659668e-01,1.725756645202636830e-01,1.725680470466613714e-01,1.725604176521301214e-01,1.725528001785278376e-01,1.725451946258544922e-01,1.725375771522522084e-01,1.725299715995788630e-01,1.725223541259765514e-01,1.725147485733032338e-01,1.725071191787719838e-01,1.724995136260986384e-01,1.724918961524963268e-01,1.724842905998230091e-01,1.724766850471496638e-01,1.724690794944763184e-01,1.724614739418029730e-01,1.724538683891296276e-01,1.724462509155273438e-01,1.724386453628539984e-01,1.724310398101806530e-01,1.724234342575073353e-01,1.724158287048339899e-01,1.724082350730896107e-01,1.724006295204162653e-01,1.723930120468139537e-01,1.723854184150695745e-01,1.723778247833251953e-01,1.723702192306518499e-01,1.723626255989074707e-01,1.723550319671630915e-01,1.723474264144897461e-01,1.723398208618164007e-01,1.723322272300720215e-01,1.723246335983276423e-01,1.723170399665832631e-01,1.723094463348388561e-01,1.723018527030944769e-01,1.722942590713500977e-01,1.722866535186767523e-01,1.722790598869323730e-01,1.722714543342590277e-01,1.722638726234436146e-01,1.722562789916992076e-01,1.722486972808837946e-01,1.722411036491394154e-01,1.722335219383239746e-01,1.722259402275085338e-01,1.722183346748352162e-01,1.722107529640197754e-01,1.722031712532043346e-01,1.721955895423889216e-01,1.721880078315734808e-01,1.721804261207580677e-01,1.721728444099426270e-01,1.721652507781982477e-01,1.721576690673828069e-01,1.721500873565673939e-01,1.721425175666809193e-01,1.721349358558654785e-01,1.721273541450500377e-01,1.721197843551635631e-01,1.721121907234191839e-01,1.721046209335327093e-01
1.642582654953002874e-01,1.642513632774353083e-01,1.642444610595703014e-01,1.642375707626342884e-01,1.642306566238403431e-01,1.642237544059753362e-01,1.642168641090392955e-01,1.642099738121032826e-01,1.642030715942382757e-01,1.641961812973022350e-01,1.641892910003662220e-01,1.641823887825012152e-01,1.641754865646362360e-01,1.641685962677001953e-01,1.641617059707641546e-01,1.641548156738281139e-01,1.641479253768921009e-01,1.641410350799560602e-01,1.641341447830200195e-01,1.641272425651550404e-01,1.641203522682189997e-01,1.641134619712829590e-01,1.641065835952758845e-01,1.640996932983398438e-01,1.640928030014038030e-01,1.640859246253967285e-01,1.640790224075317494e-01,1.640721440315246471e-01,1.640652537345886341e-01,1.640583753585815319e-01,1.640514969825744573e-01,1.640446066856384166e-01,1.640377283096313421e-01,1.640308380126953014e-01,1.640239477157592884e-01,1.640170693397521862e-01,1.640101909637451116e-01,1.640033125877380371e-01,1.639964461326599010e-01,1.639895677566528265e-01,1.639826655387878473e-01,1.639757990837097112e-01,1.639689207077026367e-01,1.639620423316955622e-01,1.639551758766174261e-01,1.639482975006103516e-01,1.639414310455322155e-01,1.639345526695251409e-01,1.639276623725891002e-01,1.639207959175109919e-01,1.639139294624328558e-01,1.639070510864257812e-01,1.639001846313476451e-01,1.638933181762695368e-01,1.638864517211914007e-01,1.638795614242553600e-01,1.638726949691772516e-01,1.638658285140991155e-01,1.638589620590210072e-01,1.638520956039428711e-01,1.638452172279357966e-01,1.638383507728576605e-01,1.638314962387084905e-01,1.638246178627014160e-01,1.638177514076232799e-01,1.638108849525451716e-01,1.638040304183960016e-01,1.637971639633178655e-01,1.637903094291686956e-01,1.637834429740905873e-01,1.637765884399414174e-01,1.637697100639343151e-01,1.637628555297851451e-01,1.637560009956359752e-01,1.637491464614868053e-01,1.637422800064086970e-01,1.637354254722595270e-01,1.637285709381103571e-01,1.637217044830322210e-01,1.637148499488830511e-01
1.565990209579467829e-01,1.565927505493164007e-01,1.565864801406860463e-01,1.565802216529846302e-01,1.565739274024963434e-01,1.565676689147949274e-01,1.565613985061645452e-01,1.565551280975341908e-01,1.565488576889038086e-01,1.565425992012023926e-01,1.565363287925720104e-01,1.565300464630126898e-01,1.565237879753112737e-01,1.565175175666809193e-01,1.565112590789795033e-01,1.565049886703491211e-01,1.564987301826477051e-01,1.564924716949462891e-01,1.564861893653869684e-01,1.564799308776855524e-01,1.564736723899841364e-01,1.564674019813537542e-01,1.564611434936523382e-01,1.564548850059509222e-01,1.564486265182495062e-01,1.564423680305480902e-01,1.564360976219177357e-01,1.564298391342163197e-01,1.564235806465149037e-01,1.564173221588134877e-01,1.564110755920410101e-01,1.564048171043395941e-01,1.563985586166381780e-01,1.563922882080078236e-01,1.563860416412353460e-01,1.563797831535339300e-01,1.563735246658325140e-01,1.563672780990600641e-01,1.563610315322875866e-01,1.563547730445861705e-01,1.563485026359558161e-01,1.563422560691833385e-01,1.563360095024108887e-01,1.563297629356384388e-01,1.563235044479370228e-01,1.563172578811645452e-01,1.563110113143920954e-01,1.563047528266906794e-01,1.562985062599182018e-01,1.562922596931457520e-01,1.562860131263733021e-01,1.562797665596008245e-01,1.562735199928283747e-01,1.562672734260558971e-01,1.562610149383544811e-01,1.562547802925109974e-01,1.562485337257385198e-01,1.562422871589660700e-01,1.562360525131225586e-01,1.562298059463501088e-01,1.562235593795776312e-01,1.562173247337341198e-01,1.562110662460327037e-01,1.562048316001892201e-01,1.561985731124878041e-01,1.561923384666442927e-01,1.561861038208007812e-01,1.561798691749572698e-01,1.561736226081848200e-01,1.561673879623413086e-01,1.561611413955688588e-01,1.561549067497253473e-01,1.561486721038818359e-01,1.561424374580383245e-01,1.561362028121948131e-01,1.561299681663513295e-01,1.561237335205078181e-01,1.561174869537353405e-01,1.561112523078918568e-01,1.561050176620483454e-01
1.496222496032714733e-01,1.496165275573730358e-01,1.496108055114745983e-01,1.496050715446472223e-01,1.495993375778198187e-01,1.495936155319213812e-01,1.495878934860229437e-01,1.495821714401245062e-01,1.495764613151550348e-01,1.495707392692565973e-01,1.495650172233581598e-01,1.495592832565307562e-01,1.495535612106323187e-01,1.495478391647338812e-01,1.495421290397644098e-01,1.495364069938659723e-01,1.495306849479675348e-01,1.495249748229980358e-01,1.495192408561706598e-01,1.495135307312011608e-01,1.495078086853027233e-01,1.495020985603332520e-01,1.494963765144348145e-01,1.494906663894653431e-01,1.494849562644958441e-01,1.494792222976684681e-01,1.494735121726989691e-01,1.494678020477294977e-01,1.494620800018310602e-01,1.494563698768615612e-01,1.494506597518920898e-01,1.494449496269226185e-01,1.494392275810241810e-01,1.494335174560546819e-01,1.494278073310852106e-01,1.494220972061157116e-01,1.494163870811462402e-01,1.494106769561767689e-01,1.494049668312072698e-01,1.493992686271667369e-01,1.493935465812682994e-01,1.493878364562988281e-01,1.493821263313293568e-01,1.493764281272888239e-01,1.493707180023193248e-01,1.493650197982788197e-01,1.493593096733093206e-01,1.493535876274108831e-01,1.493478894233703502e-01,1.493421792984008789e-01,1.493364810943603460e-01,1.493307828903198131e-01,1.493250727653503418e-01,1.493193745613098089e-01,1.493136644363403376e-01,1.493079662322998047e-01,1.493022561073303334e-01,1.492965579032898005e-01,1.492908596992492676e-01,1.492851614952087347e-01,1.492794632911682018e-01,1.492737531661987305e-01,1.492680549621581976e-01,1.492623567581176647e-01,1.492566585540771595e-01,1.492509603500366266e-01,1.492452740669250599e-01,1.492395758628845270e-01,1.492338657379150280e-01,1.492281556129455566e-01,1.492224693298339899e-01,1.492167711257934570e-01,1.492110729217529241e-01,1.492053866386413574e-01,1.491996884346008245e-01,1.491940021514892578e-01,1.491882920265197865e-01,1.491826057434081920e-01,1.491769075393676869e-01,1.491712212562560924e-01
1.432406187057495006e-01,1.432353734970092662e-01,1.432301282882690319e-01,1.432248711585998591e-01,1.432196259498596247e-01,1.432143807411193903e-01,1.432091355323791559e-01,1.432038903236389216e-01,1.431986451148986872e-01,1.431933999061584528e-01,1.431881427764892523e-01,1.431828975677490179e-01,1.431776642799377497e-01,1.431724190711975153e-01,1.431671738624572809e-01,1.431619405746459850e-01,1.431566953659057506e-01,1.431514382362365778e-01,1.431462049484252819e-01,1.431409597396850475e-01,1.431357264518737793e-01,1.431304812431335449e-01,1.431252479553222767e-01,1.431200146675109808e-01,1.431147694587707464e-01,1.431095242500305120e-01,1.431042909622192438e-01,1.430990457534790095e-01,1.430938124656677135e-01,1.430885791778564453e-01,1.430833458900451771e-01,1.430781126022338812e-01,1.430728673934936468e-01,1.430676341056823786e-01,1.430624008178710826e-01,1.430571675300598145e-01,1.430519342422485463e-01,1.430467009544372503e-01,1.430414676666259821e-01,1.430362224578857477e-01,1.430309891700744518e-01,1.430257558822631836e-01,1.430205345153808538e-01,1.430153012275695856e-01,1.430100679397582897e-01,1.430048346519470215e-01,1.429996013641357533e-01,1.429943680763244573e-01,1.429891467094421276e-01,1.429839134216308594e-01,1.429786920547485296e-01,1.429734587669372614e-01,1.429682374000549316e-01,1.429630041122436634e-01,1.429577708244323675e-01,1.429525375366210993e-01,1.429473161697387695e-01,1.429420948028564398e-01,1.429368734359741100e-01,1.429316401481628418e-01,1.429264187812805120e-01,1.429211854934692438e-01,1.429159641265869141e-01,1.429107427597045843e-01,1.429055213928222545e-01,1.429003000259399525e-01,1.428950786590576227e-01,1.428898572921752930e-01,1.428846240043640248e-01,1.428794026374816950e-01,1.428741812705993652e-01,1.428689479827880970e-01,1.428637266159057673e-01,1.428585052490234375e-01,1.428532958030700739e-01,1.428480744361877441e-01,1.428428411483764759e-01,1.428376317024230846e-01,1.428324103355407826e-01,1.428271889686584528e-01
1.373810887336731068e-01,1.373762607574463002e-01,1.373714208602905273e-01,1.373666048049926869e-01,1.373617768287658802e-01,1.373569488525390736e-01,1.373521327972412054e-01,1.373473048210143987e-01,1.373424768447875921e-01,1.373376607894897516e-01,1.373328208923339788e-01,1.373280048370361384e-01,1.373231768608093317e-01,1.373183608055114635e-01,1.373135328292846569e-01,1.373087167739868164e-01,1.373038887977600098e-01,1.372990608215332031e-01,1.372942447662353627e-01,1.372894167900085560e-01,1.372846007347106878e-01,1.372797846794128473e-01,1.372749686241149791e-01,1.372701406478881725e-01,1.372653126716613659e-01,1.372604966163635254e-01,1.372556805610656849e-01,1.372508645057678167e-01,1.372460484504699763e-01,1.372412323951721080e-01,1.372364163398742676e-01,1.372315883636474609e-01,1.372267723083496205e-01,1.372219562530517523e-01,1.372171401977539118e-01,1.372123241424560436e-01,1.372075200080871693e-01,1.372027039527893011e-01,1.371978878974914606e-01,1.371930599212646540e-01,1.371882557868957520e-01,1.371834397315979115e-01,1.371786236763000433e-01,1.371738195419311412e-01,1.371690034866333008e-01,1.371641874313354603e-01,1.371593713760375921e-01,1.371545553207397516e-01,1.371497511863708496e-01,1.371449351310730091e-01,1.371401309967041071e-01,1.371353268623352051e-01,1.371305108070373646e-01,1.371256947517394964e-01,1.371208906173705944e-01,1.371160745620727539e-01,1.371112704277038519e-01,1.371064662933349498e-01,1.371016621589660756e-01,1.370968461036682073e-01,1.370920300483703669e-01,1.370872259140014648e-01,1.370824217796325628e-01,1.370776176452636608e-01,1.370728135108947865e-01,1.370680093765258845e-01,1.370632052421569824e-01,1.370584011077880804e-01,1.370535850524902399e-01,1.370487809181213379e-01,1.370439767837524359e-01,1.370391845703125000e-01,1.370343804359435980e-01,1.370295763015746959e-01,1.370247721672058216e-01,1.370199561119079534e-01,1.370151519775390514e-01,1.370103478431701771e-01,1.370055556297302135e-01,1.370007514953613392e-01
1.319821119308471624e-01,1.319776535034179743e-01,1.319731950759887584e-01,1.319687366485595703e-01,1.319642901420593206e-01,1.319598317146301325e-01,1.319553852081298828e-01,1.319509267807006947e-01,1.319464802742004450e-01,1.319420218467712291e-01,1.319375634193420410e-01,1.319331169128417913e-01,1.319286584854126032e-01,1.319242119789123535e-01,1.319197654724121038e-01,1.319153189659118541e-01,1.319108486175536998e-01,1.319064021110534779e-01,1.319019556045532282e-01,1.318975090980529785e-01,1.318930625915527288e-01,1.318886160850524791e-01,1.318841576576232910e-01,1.318797111511230413e-01,1.318752527236938532e-01,1.318708062171936035e-01,1.318663597106933538e-01,1.318619132041931041e-01,1.318574786186218206e-01,1.318530321121215709e-01,1.318485856056213490e-01,1.318441271781921331e-01,1.318396806716918834e-01,1.318352341651916615e-01,1.318307876586914118e-01,1.318263530731201283e-01,1.318219065666198786e-01,1.318174600601196289e-01,1.318130135536193792e-01,1.318085670471191295e-01,1.318041205406189076e-01,1.317996859550475963e-01,1.317952394485473744e-01,1.317908048629760631e-01,1.317863583564758412e-01,1.317819118499755915e-01,1.317774653434753418e-01,1.317730307579040583e-01,1.317685842514038086e-01,1.317641496658325251e-01,1.317597031593322754e-01,1.317552685737609919e-01,1.317508339881897084e-01,1.317463755607604925e-01,1.317419409751892090e-01,1.317375063896179255e-01,1.317330718040466420e-01,1.317286252975463923e-01,1.317241907119751088e-01,1.317197561264037975e-01,1.317153096199035756e-01,1.317108750343322643e-01,1.317064404487609808e-01,1.317020058631896973e-01,1.316975712776184138e-01,1.316931366920471302e-01,1.316887021064758190e-01,1.316842555999755970e-01,1.316798210144042858e-01,1.316753864288330023e-01,1.316709518432617188e-01,1.316665172576904352e-01,1.316620826721191517e-01,1.316576480865478405e-01,1.316532135009765569e-01,1.316487789154052734e-01,1.316443443298339899e-01,1.316399216651916448e-01,1.316354870796203613e-01,1.316310405731201116e-01
1.269914388656616100e-01,1.269873142242431696e-01,1.269831776618957631e-01,1.269790530204772949e-01,1.269749402999877930e-01,1.269708156585693248e-01,1.269666910171508845e-01,1.269625663757324163e-01,1.269584417343139759e-01,1.269543170928955078e-01,1.269501924514770397e-01,1.269460678100585993e-01,1.269419550895690973e-01,1.269378304481506292e-01,1.269337177276611273e-01,1.269295930862426869e-01,1.269254684448242188e-01,1.269213438034057506e-01,1.269172191619873102e-01,1.269131064414978083e-01,1.269089937210083063e-01,1.269048690795898382e-01,1.269007563591003362e-01,1.268966197967529297e-01,1.268925070762634277e-01,1.268883943557739258e-01,1.268842697143554576e-01,1.268801569938659557e-01,1.268760442733764537e-01,1.268719196319580134e-01,1.268677949905395452e-01,1.268636822700500433e-01,1.268595695495605413e-01,1.268554568290710394e-01,1.268513441085815374e-01,1.268472194671630970e-01,1.268431067466735951e-01,1.268389940261840931e-01,1.268348693847656250e-01,1.268307566642761230e-01,1.268266439437866211e-01,1.268225312232971191e-01,1.268184185028076172e-01,1.268143057823181152e-01,1.268101930618286133e-01,1.268060803413391113e-01,1.268019676208496094e-01,1.267978549003601074e-01,1.267937421798706055e-01,1.267896294593811035e-01,1.267855167388916016e-01,1.267814159393310658e-01,1.267772912979125977e-01,1.267731785774230957e-01,1.267690777778625599e-01,1.267649650573730580e-01,1.267608523368835560e-01,1.267567515373229925e-01,1.267526388168334905e-01,1.267485141754150502e-01,1.267444133758544866e-01,1.267403006553649847e-01,1.267361998558044489e-01,1.267320871353149470e-01,1.267279863357543834e-01,1.267238736152648815e-01,1.267197728157043457e-01,1.267156481742858776e-01,1.267115473747253418e-01,1.267074465751648060e-01,1.267033338546753041e-01,1.266992330551147405e-01,1.266951322555542048e-01,1.266910195350647028e-01,1.266869068145752009e-01,1.266828060150146373e-01,1.266787052154541016e-01,1.266746044158935658e-01,1.266704916954040638e-01,1.266663908958435003e-01
1.223644495010376004e-01,1.223606109619140569e-01,1.223567843437194796e-01,1.223529458045959500e-01,1.223491191864013727e-01,1.223452925682067816e-01,1.223414659500122043e-01,1.223376393318176270e-01,1.223338007926940973e-01,1.223299741744995062e-01,1.223261475563049289e-01,1.223223209381103516e-01,1.223184943199157743e-01,1.223146796226501493e-01,1.223108530044555720e-01,1.223070263862609808e-01,1.223031878471374512e-01,1.222993612289428739e-01,1.222955346107482966e-01,1.222917199134826716e-01,1.222878932952880804e-01,1.222840666770935031e-01,1.222802400588989258e-01,1.222764134407043485e-01,1.222725868225097712e-01,1.222687721252441462e-01,1.222649455070495550e-01,1.222611188888549777e-01,1.222573041915893527e-01,1.222534775733947754e-01,1.222496509552001981e-01,1.222458243370056208e-01,1.222420096397399958e-01,1.222381830215454046e-01,1.222343683242797796e-01,1.222305417060852023e-01,1.222267270088195773e-01,1.222228884696960477e-01,1.222190737724304227e-01,1.222152590751647977e-01,1.222114324569702204e-01,1.222076177597045954e-01,1.222037911415100042e-01,1.221999764442443792e-01,1.221961617469787542e-01,1.221923351287841769e-01,1.221885204315185519e-01,1.221846938133239746e-01,1.221808791160583496e-01,1.221770644187927246e-01,1.221732497215270996e-01,1.221694350242614746e-01,1.221656084060668973e-01,1.221617937088012723e-01,1.221579670906066950e-01,1.221541523933410700e-01,1.221503376960754450e-01,1.221465229988098200e-01,1.221427083015441950e-01,1.221388816833496038e-01,1.221350789070129450e-01,1.221312642097473200e-01,1.221274495124816950e-01,1.221236348152160700e-01,1.221198201179504450e-01,1.221160054206848200e-01,1.221121788024902288e-01,1.221083641052246038e-01,1.221045613288879450e-01,1.221007466316223200e-01,1.220969319343566950e-01,1.220931172370910700e-01,1.220893144607543973e-01,1.220854878425598200e-01,1.220816731452941950e-01,1.220778703689575223e-01,1.220740556716918973e-01,1.220702409744262723e-01,1.220664381980895996e-01,1.220626235008239746e-01
1.180627703666687067e-01,1.180591940879821833e-01,1.180556297302246122e-01,1.180520653724670410e-01,1.180485010147094699e-01,1.180449366569518987e-01,1.180413722991943415e-01,1.180378079414367704e-01,1.180342435836791992e-01,1.180306792259216281e-01,1.180271148681640569e-01,1.180235505104064997e-01,1.180199980735778809e-01,1.180164337158203097e-01,1.180128693580627386e-01,1.180093050003051813e-01,1.180057406425476102e-01,1.180021762847900391e-01,1.179986238479614202e-01,1.179950594902038630e-01,1.179914951324462918e-01,1.179879426956176730e-01,1.179843664169311496e-01,1.179808139801025446e-01,1.179772496223449735e-01,1.179736971855163546e-01,1.179701447486877497e-01,1.179665803909301786e-01,1.179630279541015597e-01,1.179594635963439886e-01,1.179558992385864313e-01,1.179523348808288602e-01,1.179487824440002414e-01,1.179452300071716364e-01,1.179416656494140653e-01,1.179381132125854464e-01,1.179345607757568415e-01,1.179309964179992704e-01,1.179274320602416992e-01,1.179238796234130804e-01,1.179203271865844754e-01,1.179167628288269043e-01,1.179132103919982855e-01,1.179096579551696805e-01,1.179060935974121094e-01,1.179025411605834905e-01,1.178989887237548856e-01,1.178954362869262668e-01,1.178918719291686956e-01,1.178883194923400907e-01,1.178847670555114718e-01,1.178812026977539007e-01,1.178776502609252957e-01,1.178740978240966769e-01,1.178705453872680720e-01,1.178669929504394531e-01,1.178634405136108343e-01,1.178598880767822293e-01,1.178563356399536105e-01,1.178527832031250056e-01,1.178492307662963867e-01,1.178456783294677679e-01,1.178421258926391629e-01,1.178385734558105441e-01,1.178350210189819391e-01,1.178314805030822726e-01,1.178279161453247015e-01,1.178243637084960965e-01,1.178208112716674777e-01,1.178172707557678250e-01,1.178137183189392062e-01,1.178101658821106013e-01,1.178066253662109347e-01,1.178030610084533636e-01,1.177995204925537109e-01,1.177959680557250921e-01,1.177924156188964872e-01,1.177888751029968206e-01,1.177853226661682157e-01,1.177817702293395968e-01
