6.200056552886963335e-01,6.357408046722412553e-01,6.522954940795898660e-01,6.697353839874267134e-01,6.881315231323241743e-01,7.075666427612304910e-01,7.281315803527832475e-01,7.499276161193847434e-01,7.730688571929931197e-01,7.976838588714599831e-01,8.239177703857422097e-01,8.519359588623046653e-01,8.819268226623535600e-01,9.141062736511230691e-01,9.487230300903319868e-01,9.860647201538086382e-01,1.000000000000000000e+00,1.000000000000000000e+00,1.000000000000000000e+00,1.000000000000000000e+00,1.000000000000000000e+00,1.000000000000000000e+00,1.000000000000000000e+00,1.000000000000000000e+00,2.560475587844848744e-01,2.544441461563110574e-01,2.570941925048828014e-01,2.572762489318847767e-01,2.475773334503173773e-01,2.418917417526245117e-01,2.382489919662475475e-01,2.357266902923584040e-01,2.362441539764404408e-01,2.369735002517700251e-01,2.377309560775756891e-01,2.408105134963989258e-01,2.746014356613158958e-01,2.760780572891235463e-01,2.816746473312378152e-01,1.000000000000000000e+00,1.000000000000000000e+00,1.000000000000000000e+00,1.000000000000000000e+00,2.951785802841186412e-01,2.931600570678710715e-01,2.862075328826904075e-01,1.000000000000000000e+00,1.000000000000000000e+00,1.000000000000000000e+00,1.000000000000000000e+00,1.000000000000000000e+00,1.000000000000000000e+00,1.000000000000000000e+00,1.000000000000000000e+00,1.000000000000000000e+00,1.000000000000000000e+00,1.000000000000000000e+00,1.000000000000000000e+00,1.000000000000000000e+00,1.000000000000000000e+00,1.000000000000000000e+00,1.000000000000000000e+00,1.000000000000000000e+00,1.000000000000000000e+00,1.000000000000000000e+00,1.000000000000000000e+00,1.000000000000000000e+00,1.000000000000000000e+00,1.000000000000000000e+00,1.000000000000000000e+00,9.681741714477538618e-01,9.365320205688476562e-01,9.068926811218261941e-01,8.790719032287597212e-01,8.529071807861328125e-01,8.282549858093262163e-01,8.049878120422363503e-01,7.829922199249267356e-01,7.621666431427002175e-01,7.424201488494872603e-01
6.199922561645507812e-01,6.357267379760742632e-01,6.522806644439697044e-01,6.697197437286377397e-01,6.881169319152832253e-01,7.075513839721679910e-01,7.281153678894043413e-01,7.499104499816894309e-01,7.730505943298340288e-01,7.976643085479736550e-01,8.238969802856445090e-01,8.519137382507324663e-01,8.819030761718750222e-01,9.140807151794433372e-01,9.486954689025879350e-01,9.860349655151366965e-01,1.000000000000000000e+00,1.000000000000000000e+00,1.000000000000000000e+00,1.000000000000000000e+00,1.000000000000000000e+00,1.000000000000000000e+00,1.000000000000000000e+00,1.000000000000000000e+00,2.557919979095458762e-01,2.564213037490844505e-01,2.571858882904052845e-01,2.581754207611083873e-01,2.483687877655029186e-01,2.424277305603027288e-01,2.387689352035522461e-01,2.348099946975708008e-01,2.348556518554687500e-01,2.353693008422851618e-01,2.360578298568725697e-01,2.368094444274902455e-01,2.494801282882690430e-01,2.761054754257202259e-01,2.829656600952148438e-01,1.000000000000000000e+00,1.000000000000000000e+00,1.000000000000000000e+00,1.000000000000000000e+00,1.000000000000000000e+00,1.000000000000000000e+00,2.794635295867919922e-01,2.816757678985595814e-01,2.844019651412963978e-01,1.000000000000000000e+00,1.000000000000000000e+00,1.000000000000000000e+00,1.000000000000000000e+00,1.000000000000000000e+00,1.000000000000000000e+00,1.000000000000000000e+00,1.000000000000000000e+00,1.000000000000000000e+00,1.000000000000000000e+00,1.000000000000000000e+00,1.000000000000000000e+00,1.000000000000000000e+00,1.000000000000000000e+00,1.000000000000000000e+00,1.000000000000000000e+00,1.000000000000000000e+00,1.000000000000000000e+00,1.000000000000000000e+00,1.000000000000000000e+00,1.000000000000000000e+00,1.000000000000000000e+00,9.682026863098144309e-01,9.365587234497070312e-01,9.069177627563476118e-01,8.790953636169434038e-01,8.529293060302733931e-01,8.282757759094238059e-01,8.050074577331542969e-01,7.830108642578125222e-01,7.621843338012694868e-01,7.424368858337402344e-01
6.199788570404052290e-01,6.357126235961914062e-01,6.522658348083496538e-01,6.697041511535644087e-01,6.881004810333252175e-01,7.075359821319580078e-01,7.280991554260254350e-01,7.498932838439941184e-01,7.730323791503905806e-01,7.976449012756348100e-01,8.238762855529785378e-01,8.518916130065917747e-01,8.818792343139648660e-01,9.140552520751953347e-01,9.486679077148437722e-01,9.860052108764648660e-01,1.000000000000000000e+00,1.000000000000000000e+00,1.000000000000000000e+00,1.000000000000000000e+00,1.000000000000000000e+00,1.000000000000000000e+00,1.000000000000000000e+00,1.000000000000000000e+00,2.567666769027709961e-01,2.560250282287597767e-01,2.626559972763061745e-01,1.000000000000000000e+00,2.500625610351562278e-01,2.435167312622070201e-01,2.392911911010742188e-01,2.353617906570434626e-01,2.334833621978759655e-01,2.339910268783569336e-01,2.345009088516235296e-01,2.351492166519165150e-01,2.441586971282959095e-01,2.760414123535156472e-01,2.831886529922485463e-01,1.000000000000000000e+00,1.000000000000000000e+00,1.000000000000000000e+00,1.000000000000000000e+00,1.000000000000000000e+00,1.000000000000000000e+00,2.930498123168945312e-01,2.753590106964111106e-01,2.807600021362304799e-01,1.000000000000000000e+00,1.000000000000000000e+00,1.000000000000000000e+00,1.000000000000000000e+00,1.000000000000000000e+00,1.000000000000000000e+00,1.000000000000000000e+00,1.000000000000000000e+00,1.000000000000000000e+00,1.000000000000000000e+00,1.000000000000000000e+00,1.000000000000000000e+00,1.000000000000000000e+00,1.000000000000000000e+00,1.000000000000000000e+00,1.000000000000000000e+00,1.000000000000000000e+00,1.000000000000000000e+00,1.000000000000000000e+00,1.000000000000000000e+00,1.000000000000000000e+00,1.000000000000000000e+00,9.682312011718750000e-01,9.365853309631347878e-01,9.069427490234375222e-01,8.791189193725585938e-01,8.529514312744140847e-01,8.282966613769531250e-01,8.050272941589355913e-01,7.830295085906981978e-01,7.622027397155761719e-01,7.424555301666260210e-01
6.199654102325439231e-01,6.356986045837402788e-01,6.522510528564453569e-01,6.696885108947754350e-01,6.880839824676513450e-01,7.075185298919677290e-01,7.280828952789306641e-01,7.498760223388671875e-01,7.730141162872314897e-01,7.976254463195801003e-01,8.238554954528808372e-01,8.518693923950195757e-01,8.818554878234863281e-01,9.140295982360839844e-01,9.486403465270996094e-01,9.859755516052246538e-01,1.000000000000000000e+00,1.000000000000000000e+00,1.000000000000000000e+00,1.000000000000000000e+00,1.000000000000000000e+00,1.000000000000000000e+00,1.000000000000000000e+00,1.000000000000000000e+00,2.553800344467163086e-01,2.536845922470092884e-01,2.548651456832885520e-01,1.000000000000000000e+00,2.518555641174316517e-01,2.452224016189575306e-01,2.398156881332397516e-01,2.359161615371704046e-01,2.321270465850830134e-01,2.326288223266601562e-01,2.331327676773071178e-01,2.336388826370239258e-01,2.390595436096191462e-01,2.762333869934082142e-01,2.840459108352660911e-01,1.000000000000000000e+00,1.000000000000000000e+00,1.000000000000000000e+00,1.000000000000000000e+00,1.000000000000000000e+00,1.000000000000000000e+00,1.000000000000000000e+00,2.916820764541626088e-01,2.858531475067138672e-01,2.763363838195800892e-01,1.000000000000000000e+00,1.000000000000000000e+00,1.000000000000000000e+00,1.000000000000000000e+00,1.000000000000000000e+00,1.000000000000000000e+00,1.000000000000000000e+00,1.000000000000000000e+00,1.000000000000000000e+00,1.000000000000000000e+00,1.000000000000000000e+00,1.000000000000000000e+00,1.000000000000000000e+00,1.000000000000000000e+00,1.000000000000000000e+00,1.000000000000000000e+00,1.000000000000000000e+00,1.000000000000000000e+00,1.000000000000000000e+00,1.000000000000000000e+00,1.000000000000000000e+00,9.682597160339355691e-01,9.366120338439941628e-01,9.069677352905273215e-01,8.791423797607421653e-01,8.529735565185546653e-01,8.283179283142090288e-01,8.050485610961913840e-01,7.830509662628173384e-01,7.622234344482421431e-01,7.424751758575439675e-01
6.199521064758301003e-01,6.356845378875732866e-01,6.522362232208251953e-01,6.696728706359863503e-01,6.880674839019775835e-01,7.075010776519775613e-01,7.280643939971923606e-01,7.498589038848877397e-01,7.729957580566406694e-01,7.976060390472412553e-01,8.238347053527832475e-01,8.518472671508788840e-01,8.818316459655761719e-01,9.140041351318359819e-01,9.486128807067870650e-01,9.859457969665527122e-01,1.000000000000000000e+00,1.000000000000000000e+00,1.000000000000000000e+00,1.000000000000000000e+00,1.000000000000000000e+00,1.000000000000000000e+00,1.000000000000000000e+00,1.000000000000000000e+00,2.539722919464111328e-01,2.512161970138550027e-01,2.528675317764282338e-01,2.545598983764648660e-01,1.000000000000000000e+00,2.468879938125610463e-01,2.405660867691040150e-01,2.364731550216674916e-01,2.326267004013061468e-01,2.307332992553710882e-01,2.311858415603637584e-01,2.316401243209838812e-01,2.342800378799438366e-01,2.455258846282958873e-01,2.866036176681518444e-01,1.000000000000000000e+00,1.000000000000000000e+00,1.000000000000000000e+00,1.000000000000000000e+00,1.000000000000000000e+00,1.000000000000000000e+00,1.000000000000000000e+00,1.000000000000000000e+00,2.915740489959716686e-01,2.823920488357544167e-01,1.000000000000000000e+00,1.000000000000000000e+00,1.000000000000000000e+00,1.000000000000000000e+00,1.000000000000000000e+00,1.000000000000000000e+00,1.000000000000000000e+00,1.000000000000000000e+00,1.000000000000000000e+00,1.000000000000000000e+00,1.000000000000000000e+00,1.000000000000000000e+00,1.000000000000000000e+00,1.000000000000000000e+00,1.000000000000000000e+00,1.000000000000000000e+00,1.000000000000000000e+00,1.000000000000000000e+00,1.000000000000000000e+00,1.000000000000000000e+00,1.000000000000000000e+00,9.682882308959961382e-01,9.366387367248535378e-01,9.069927215576172319e-01,8.791672706604003462e-01,8.529984474182128462e-01,8.283423423767090066e-01,8.050717353820801003e-01,7.830728054046630637e-01,7.622442245483398438e-01,7.424948215484619141e-01
6.199387073516845481e-01,6.356704235076904297e-01,6.522213935852050337e-01,6.696572303771972656e-01,6.880509376525878462e-01,7.074837207794189009e-01,7.280459880828857866e-01,7.498393058776855469e-01,7.729775905609130859e-01,7.975864887237549272e-01,8.238140106201171653e-01,8.518250465393066850e-01,8.818078994750976340e-01,9.139784812927246316e-01,9.485853195190430132e-01,9.859160423278808816e-01,1.000000000000000000e+00,1.000000000000000000e+00,1.000000000000000000e+00,1.000000000000000000e+00,1.000000000000000000e+00,1.000000000000000000e+00,1.000000000000000000e+00,1.000000000000000000e+00,2.523670673370361217e-01,2.498347997665405218e-01,2.546697616577148215e-01,2.526342630386352317e-01,1.000000000000000000e+00,2.483543157577514648e-01,2.421125888824463002e-01,2.371062278747558538e-01,2.332907438278198353e-01,2.297149419784546009e-01,2.292260408401489147e-01,2.296726703643798828e-01,2.301210403442382757e-01,2.404950141906738170e-01,2.894809484481811745e-01,1.000000000000000000e+00,1.000000000000000000e+00,1.000000000000000000e+00,1.000000000000000000e+00,1.000000000000000000e+00,1.000000000000000000e+00,1.000000000000000000e+00,1.000000000000000000e+00,2.935422182083129994e-01,2.873718500137328880e-01,2.799919605255126731e-01,1.000000000000000000e+00,1.000000000000000000e+00,1.000000000000000000e+00,1.000000000000000000e+00,1.000000000000000000e+00,1.000000000000000000e+00,1.000000000000000000e+00,1.000000000000000000e+00,1.000000000000000000e+00,1.000000000000000000e+00,1.000000000000000000e+00,1.000000000000000000e+00,1.000000000000000000e+00,1.000000000000000000e+00,1.000000000000000000e+00,1.000000000000000000e+00,1.000000000000000000e+00,1.000000000000000000e+00,1.000000000000000000e+00,1.000000000000000000e+00,9.683176994323730025e-01,9.366680145263671653e-01,9.070219039916992410e-01,8.791948318481445090e-01,8.530243873596191628e-01,8.283668518066406028e-01,8.050948143005370872e-01,7.830946445465087891e-01,7.622649192810058150e-01,7.425145149230957253e-01
6.199253082275391069e-01,6.356563568115234375e-01,6.522065639495849831e-01,6.696416854858397993e-01,6.880345344543457031e-01,7.074662685394287331e-01,7.280275344848632368e-01,7.498197078704833540e-01,7.729567527770996316e-01,7.975670337677002175e-01,8.237932205200195757e-01,8.518028259277343750e-01,8.817841529846190962e-01,9.139530181884765181e-01,9.485578536987304688e-01,9.858862876892089400e-01,1.000000000000000000e+00,1.000000000000000000e+00,1.000000000000000000e+00,1.000000000000000000e+00,1.000000000000000000e+00,1.000000000000000000e+00,1.000000000000000000e+00,1.000000000000000000e+00,2.517285585403442605e-01,2.489482641220092662e-01,1.000000000000000000e+00,2.515839338302612305e-01,1.000000000000000000e+00,1.000000000000000000e+00,2.435225725173950084e-01,2.379366874694824330e-01,2.339585781097412165e-01,2.300305366516113281e-01,2.282146215438842773e-01,2.277383327484130970e-01,2.281791925430297907e-01,2.357422351837158148e-01,2.932823657989501731e-01,1.000000000000000000e+00,1.000000000000000000e+00,1.000000000000000000e+00,1.000000000000000000e+00,1.000000000000000000e+00,1.000000000000000000e+00,1.000000000000000000e+00,1.000000000000000000e+00,1.000000000000000000e+00,1.000000000000000000e+00,1.000000000000000000e+00,1.000000000000000000e+00,1.000000000000000000e+00,1.000000000000000000e+00,1.000000000000000000e+00,1.000000000000000000e+00,1.000000000000000000e+00,1.000000000000000000e+00,1.000000000000000000e+00,1.000000000000000000e+00,1.000000000000000000e+00,1.000000000000000000e+00,1.000000000000000000e+00,1.000000000000000000e+00,1.000000000000000000e+00,1.000000000000000000e+00,1.000000000000000000e+00,1.000000000000000000e+00,1.000000000000000000e+00,1.000000000000000000e+00,1.000000000000000000e+00,9.683510780334472212e-01,9.366993904113769531e-01,9.070511817932128684e-01,8.792223930358886719e-01,8.530503273010253684e-01,8.283912658691405806e-01,8.051178932189941850e-01,7.831164836883545144e-01,7.622856140136718972e-01,7.425341606140136719e-01
6.199119091033935547e-01,6.356422901153564453e-01,6.521917819976806863e-01,6.696260452270508257e-01,6.880179882049560769e-01,7.074488162994384544e-01,7.280090332031250444e-01,7.498001098632812722e-01,7.729359149932861772e-01,7.975450515747070090e-01,8.237725257873534934e-01,8.517806053161620650e-01,8.817604064941406694e-01,9.139274597167968972e-01,9.485302925109863059e-01,9.858566284179687278e-01,1.000000000000000000e+00,1.000000000000000000e+00,1.000000000000000000e+00,1.000000000000000000e+00,1.000000000000000000e+00,1.000000000000000000e+00,1.000000000000000000e+00,1.000000000000000000e+00,2.508675336837768444e-01,2.480863094329834040e-01,1.000000000000000000e+00,2.514928817749023660e-01,1.000000000000000000e+00,1.000000000000000000e+00,2.451638698577880970e-01,2.395092487335205023e-01,2.346302747726440319e-01,2.307945489883422852e-01,2.273802995681762640e-01,2.267337560653686634e-01,2.262698411941528320e-01,2.309669256210327148e-01,1.000000000000000000e+00,1.000000000000000000e+00,1.000000000000000000e+00,1.000000000000000000e+00,1.000000000000000000e+00,1.000000000000000000e+00,1.000000000000000000e+00,1.000000000000000000e+00,1.000000000000000000e+00,1.000000000000000000e+00,1.000000000000000000e+00,1.000000000000000000e+00,1.000000000000000000e+00,1.000000000000000000e+00,1.000000000000000000e+00,1.000000000000000000e+00,1.000000000000000000e+00,1.000000000000000000e+00,1.000000000000000000e+00,1.000000000000000000e+00,1.000000000000000000e+00,1.000000000000000000e+00,1.000000000000000000e+00,1.000000000000000000e+00,1.000000000000000000e+00,1.000000000000000000e+00,1.000000000000000000e+00,1.000000000000000000e+00,1.000000000000000000e+00,1.000000000000000000e+00,1.000000000000000000e+00,1.000000000000000000e+00,9.683844566345214400e-01,9.367305755615233931e-01,9.070805549621582253e-01,8.792499542236328347e-01,8.530761718749999556e-01,8.284157752990722878e-01,8.051410675048827903e-01,7.831383228302002397e-01,7.623063087463378684e-01,7.425538063049316184e-01
6.198985576629638672e-01,6.356282234191894531e-01,6.521769523620605247e-01,6.696104049682617410e-01,6.880014896392822044e-01,7.074313640594482866e-01,7.279906272888183594e-01,7.497805595397949441e-01,7.729151725769043413e-01,7.975228786468505637e-01,8.237490653991699219e-01,8.517584800720214844e-01,8.817365646362305132e-01,9.139019012451171653e-01,9.485028266906738725e-01,9.858268737792968972e-01,1.000000000000000000e+00,1.000000000000000000e+00,1.000000000000000000e+00,1.000000000000000000e+00,1.000000000000000000e+00,1.000000000000000000e+00,1.000000000000000000e+00,1.000000000000000000e+00,2.504872322082519753e-01,1.000000000000000000e+00,1.000000000000000000e+00,1.000000000000000000e+00,1.000000000000000000e+00,1.000000000000000000e+00,1.000000000000000000e+00,2.411027431488036998e-01,2.356317996978759821e-01,2.315476179122924749e-01,2.273705482482910045e-01,2.259102106094360296e-01,2.252719879150390514e-01,2.262927770614623912e-01,2.343565702438354381e-01,1.000000000000000000e+00,1.000000000000000000e+00,1.000000000000000000e+00,1.000000000000000000e+00,1.000000000000000000e+00,1.000000000000000000e+00,1.000000000000000000e+00,1.000000000000000000e+00,1.000000000000000000e+00,1.000000000000000000e+00,1.000000000000000000e+00,1.000000000000000000e+00,1.000000000000000000e+00,1.000000000000000000e+00,1.000000000000000000e+00,1.000000000000000000e+00,1.000000000000000000e+00,1.000000000000000000e+00,1.000000000000000000e+00,1.000000000000000000e+00,1.000000000000000000e+00,1.000000000000000000e+00,1.000000000000000000e+00,1.000000000000000000e+00,1.000000000000000000e+00,1.000000000000000000e+00,1.000000000000000000e+00,1.000000000000000000e+00,1.000000000000000000e+00,1.000000000000000000e+00,1.000000000000000000e+00,9.684179306030273882e-01,9.367618560791015625e-01,9.071098327636718528e-01,8.792774200439452681e-01,8.531022071838378906e-01,8.284401893615722656e-01,8.051641464233398882e-01,7.831601619720458540e-01,7.623270034790039507e-01,7.425734519958495650e-01
6.198851585388183150e-01,6.356141090393065962e-01,6.521621227264404741e-01,6.695947647094726562e-01,6.879850864410400613e-01,7.074139595031738725e-01,7.279721736907959206e-01,7.497609615325927512e-01,7.728943824768066406e-01,7.975007057189941184e-01,8.237253189086913840e-01,8.517333984374999556e-01,8.817128181457519753e-01,9.138763427734375444e-01,9.484752655029297097e-01,9.857971191406249556e-01,1.000000000000000000e+00,1.000000000000000000e+00,1.000000000000000000e+00,1.000000000000000000e+00,1.000000000000000000e+00,1.000000000000000000e+00,1.000000000000000000e+00,1.000000000000000000e+00,2.496083736419677790e-01,1.000000000000000000e+00,1.000000000000000000e+00,1.000000000000000000e+00,1.000000000000000000e+00,1.000000000000000000e+00,1.000000000000000000e+00,2.419368743896484486e-01,2.371193647384643444e-01,2.322054862976074274e-01,2.281169652938842829e-01,2.251381397247314564e-01,2.241947889328002874e-01,2.236087083816528376e-01,2.303872823715210072e-01,1.000000000000000000e+00,1.000000000000000000e+00,1.000000000000000000e+00,1.000000000000000000e+00,1.000000000000000000e+00,1.000000000000000000e+00,1.000000000000000000e+00,1.000000000000000000e+00,1.000000000000000000e+00,1.000000000000000000e+00,1.000000000000000000e+00,1.000000000000000000e+00,1.000000000000000000e+00,1.000000000000000000e+00,1.000000000000000000e+00,1.000000000000000000e+00,1.000000000000000000e+00,1.000000000000000000e+00,1.000000000000000000e+00,1.000000000000000000e+00,1.000000000000000000e+00,1.000000000000000000e+00,1.000000000000000000e+00,1.000000000000000000e+00,1.000000000000000000e+00,1.000000000000000000e+00,1.000000000000000000e+00,1.000000000000000000e+00,1.000000000000000000e+00,1.000000000000000000e+00,1.000000000000000000e+00,9.684514045715332253e-01,9.367931365966797319e-01,9.071392059326172097e-01,8.793050765991210493e-01,8.531280517578124778e-01,8.284646987915038618e-01,8.051872253417968750e-01,7.831820964813231978e-01,7.623476982116699219e-01,7.425930500030517578e-01
6.198717594146728738e-01,6.356000423431396040e-01,6.521473407745361772e-01,6.695792198181151900e-01,6.879685878753661887e-01,7.073965072631835938e-01,7.279536724090576172e-01,7.497413635253906694e-01,7.728735446929931863e-01,7.974785327911376731e-01,8.237017631530761941e-01,8.517081260681151900e-01,8.816860198974609819e-01,9.138507843017578125e-01,9.484477996826171653e-01,9.857673645019531250e-01,1.000000000000000000e+00,1.000000000000000000e+00,1.000000000000000000e+00,1.000000000000000000e+00,1.000000000000000000e+00,1.000000000000000000e+00,1.000000000000000000e+00,1.000000000000000000e+00,1.000000000000000000e+00,1.000000000000000000e+00,1.000000000000000000e+00,1.000000000000000000e+00,1.000000000000000000e+00,1.000000000000000000e+00,1.000000000000000000e+00,2.881583929061889426e-01,2.378990888595580999e-01,2.332394838333129994e-01,2.289246082305908259e-01,2.250454187393188532e-01,2.239757537841796931e-01,2.229479312896728571e-01,2.277159214019775502e-01,1.000000000000000000e+00,1.000000000000000000e+00,1.000000000000000000e+00,1.000000000000000000e+00,1.000000000000000000e+00,1.000000000000000000e+00,1.000000000000000000e+00,1.000000000000000000e+00,1.000000000000000000e+00,1.000000000000000000e+00,1.000000000000000000e+00,1.000000000000000000e+00,1.000000000000000000e+00,1.000000000000000000e+00,1.000000000000000000e+00,1.000000000000000000e+00,1.000000000000000000e+00,1.000000000000000000e+00,1.000000000000000000e+00,1.000000000000000000e+00,1.000000000000000000e+00,1.000000000000000000e+00,1.000000000000000000e+00,1.000000000000000000e+00,1.000000000000000000e+00,1.000000000000000000e+00,1.000000000000000000e+00,1.000000000000000000e+00,1.000000000000000000e+00,1.000000000000000000e+00,1.000000000000000000e+00,9.684847831726074441e-01,9.368244171142577903e-01,9.071684837341308372e-01,8.793325424194335938e-01,8.531539916992187944e-01,8.284891128540039507e-01,8.052103042602538618e-01,7.832039833068847878e-01,7.623684883117676225e-01,7.426126956939697044e-01
6.198584079742431863e-01,6.355860233306884766e-01,6.521325111389160156e-01,6.695635795593262163e-01,6.879520416259765625e-01,7.073791027069091797e-01,7.279352188110351785e-01,7.497217655181884766e-01,7.728528022766113503e-01,7.974564552307128462e-01,8.236781120300292747e-01,8.516828536987304243e-01,8.816589355468750222e-01,9.138220787048340066e-01,9.484202384948730025e-01,9.857377052307129128e-01,1.000000000000000000e+00,1.000000000000000000e+00,1.000000000000000000e+00,1.000000000000000000e+00,1.000000000000000000e+00,1.000000000000000000e+00,1.000000000000000000e+00,1.000000000000000000e+00,1.000000000000000000e+00,1.000000000000000000e+00,1.000000000000000000e+00,1.000000000000000000e+00,1.000000000000000000e+00,1.000000000000000000e+00,1.000000000000000000e+00,2.876367568969726562e-01,2.386839151382446345e-01,2.340729236602783203e-01,2.297873497009277344e-01,2.255221605300903320e-01,2.241110563278198298e-01,2.229352712631225697e-01,2.279657363891601507e-01,1.000000000000000000e+00,1.000000000000000000e+00,1.000000000000000000e+00,1.000000000000000000e+00,1.000000000000000000e+00,1.000000000000000000e+00,1.000000000000000000e+00,1.000000000000000000e+00,1.000000000000000000e+00,1.000000000000000000e+00,1.000000000000000000e+00,1.000000000000000000e+00,1.000000000000000000e+00,1.000000000000000000e+00,1.000000000000000000e+00,1.000000000000000000e+00,1.000000000000000000e+00,1.000000000000000000e+00,1.000000000000000000e+00,1.000000000000000000e+00,1.000000000000000000e+00,1.000000000000000000e+00,1.000000000000000000e+00,1.000000000000000000e+00,1.000000000000000000e+00,1.000000000000000000e+00,1.000000000000000000e+00,1.000000000000000000e+00,1.000000000000000000e+00,1.000000000000000000e+00,1.000000000000000000e+00,9.685182571411132812e-01,9.368556976318359597e-01,9.071978569030761941e-01,8.793601036071777566e-01,8.531800270080566184e-01,8.285135269165039285e-01,8.052333831787109597e-01,7.832258224487305132e-01,7.623891830444335938e-01,7.426323413848876509e-01
6.198373794555663840e-01,6.355683803558349609e-01,6.521176815032958540e-01,6.695479393005371316e-01,6.879355430603026900e-01,7.073616504669189009e-01,7.279168128967284934e-01,7.497022628784180132e-01,7.728319644927978960e-01,7.974342823028564009e-01,8.236544609069824663e-01,8.516575813293456587e-01,8.816318511962890625e-01,9.137929916381836160e-01,9.483894348144531472e-01,9.857079505920409712e-01,1.000000000000000000e+00,1.000000000000000000e+00,1.000000000000000000e+00,1.000000000000000000e+00,1.000000000000000000e+00,1.000000000000000000e+00,1.000000000000000000e+00,1.000000000000000000e+00,1.000000000000000000e+00,1.000000000000000000e+00,1.000000000000000000e+00,1.000000000000000000e+00,1.000000000000000000e+00,1.000000000000000000e+00,1.000000000000000000e+00,2.877915620803833119e-01,2.846137046813964622e-01,2.351166725158691517e-01,2.292780637741088923e-01,2.257402658462524525e-01,2.247959613800048773e-01,2.237475872039794977e-01,2.286091804504394587e-01,1.000000000000000000e+00,1.000000000000000000e+00,1.000000000000000000e+00,1.000000000000000000e+00,1.000000000000000000e+00,1.000000000000000000e+00,1.000000000000000000e+00,1.000000000000000000e+00,1.000000000000000000e+00,1.000000000000000000e+00,1.000000000000000000e+00,1.000000000000000000e+00,1.000000000000000000e+00,1.000000000000000000e+00,1.000000000000000000e+00,1.000000000000000000e+00,1.000000000000000000e+00,1.000000000000000000e+00,1.000000000000000000e+00,1.000000000000000000e+00,1.000000000000000000e+00,1.000000000000000000e+00,1.000000000000000000e+00,1.000000000000000000e+00,1.000000000000000000e+00,1.000000000000000000e+00,1.000000000000000000e+00,1.000000000000000000e+00,1.000000000000000000e+00,1.000000000000000000e+00,1.000000000000000000e+00,9.685516357421875000e-01,9.368869781494140181e-01,9.072271347045898215e-01,8.793876647949219194e-01,8.532058715820312056e-01,8.285380363464355247e-01,8.052565574645995650e-01,7.832476615905761275e-01,7.624098777770995650e-01,7.426520824432373269e-01
6.198143959045410156e-01,6.355442047119140847e-01,6.520931243896483931e-01,6.695269584655761941e-01,6.879186153411864790e-01,7.073442459106444868e-01,7.278983592987060547e-01,7.496826648712158203e-01,7.728111267089843306e-01,7.974121093749999556e-01,8.236308097839355469e-01,8.516323089599608931e-01,8.816047668457031028e-01,9.137639045715332253e-01,9.483580589294433594e-01,9.856746673583984819e-01,1.000000000000000000e+00,1.000000000000000000e+00,1.000000000000000000e+00,1.000000000000000000e+00,1.000000000000000000e+00,1.000000000000000000e+00,1.000000000000000000e+00,1.000000000000000000e+00,1.000000000000000000e+00,1.000000000000000000e+00,1.000000000000000000e+00,1.000000000000000000e+00,1.000000000000000000e+00,1.000000000000000000e+00,1.000000000000000000e+00,2.879464864730835183e-01,2.854484796524047741e-01,2.344140529632568470e-01,2.288583040237426869e-01,2.258920431137085016e-01,2.256449699401855413e-01,2.245887279510498102e-01,2.293323755264282116e-01,1.000000000000000000e+00,1.000000000000000000e+00,1.000000000000000000e+00,1.000000000000000000e+00,1.000000000000000000e+00,1.000000000000000000e+00,1.000000000000000000e+00,1.000000000000000000e+00,1.000000000000000000e+00,1.000000000000000000e+00,1.000000000000000000e+00,1.000000000000000000e+00,1.000000000000000000e+00,1.000000000000000000e+00,1.000000000000000000e+00,1.000000000000000000e+00,1.000000000000000000e+00,1.000000000000000000e+00,1.000000000000000000e+00,1.000000000000000000e+00,1.000000000000000000e+00,1.000000000000000000e+00,1.000000000000000000e+00,1.000000000000000000e+00,1.000000000000000000e+00,1.000000000000000000e+00,1.000000000000000000e+00,1.000000000000000000e+00,1.000000000000000000e+00,1.000000000000000000e+00,1.000000000000000000e+00,9.685850143432617188e-01,9.369182586669921875e-01,9.072565078735351785e-01,8.794152259826659712e-01,8.532318115234375222e-01,8.285625457763672319e-01,8.052796363830566628e-01,7.832695007324218528e-01,7.624305725097656472e-01,7.426717281341552734e-01
6.197936534881591797e-01,6.355199337005614790e-01,6.520676136016845259e-01,6.695001125335693359e-01,6.878902435302733931e-01,7.073192119598388228e-01,7.278776645660400835e-01,7.496630668640136275e-01,7.727903366088867410e-01,7.973900318145752397e-01,8.236072540283203569e-01,8.516070365905761275e-01,8.815776824951171431e-01,9.137349128723144531e-01,9.483267784118651900e-01,9.856409072875976785e-01,1.000000000000000000e+00,1.000000000000000000e+00,1.000000000000000000e+00,1.000000000000000000e+00,1.000000000000000000e+00,1.000000000000000000e+00,1.000000000000000000e+00,1.000000000000000000e+00,1.000000000000000000e+00,1.000000000000000000e+00,1.000000000000000000e+00,1.000000000000000000e+00,1.000000000000000000e+00,1.000000000000000000e+00,1.000000000000000000e+00,2.885939359664916881e-01,2.862882137298584095e-01,2.334904670715332031e-01,2.283889293670654241e-01,2.260628223419189342e-01,2.263837814331054743e-01,2.254361867904663141e-01,2.300601482391357311e-01,1.000000000000000000e+00,1.000000000000000000e+00,1.000000000000000000e+00,1.000000000000000000e+00,1.000000000000000000e+00,1.000000000000000000e+00,1.000000000000000000e+00,1.000000000000000000e+00,1.000000000000000000e+00,1.000000000000000000e+00,1.000000000000000000e+00,1.000000000000000000e+00,1.000000000000000000e+00,1.000000000000000000e+00,1.000000000000000000e+00,1.000000000000000000e+00,1.000000000000000000e+00,1.000000000000000000e+00,1.000000000000000000e+00,1.000000000000000000e+00,1.000000000000000000e+00,1.000000000000000000e+00,1.000000000000000000e+00,1.000000000000000000e+00,1.000000000000000000e+00,1.000000000000000000e+00,1.000000000000000000e+00,1.000000000000000000e+00,1.000000000000000000e+00,1.000000000000000000e+00,1.000000000000000000e+00,9.686184883117675559e-01,9.369495391845703569e-01,9.072858810424804243e-01,8.794427871704101340e-01,8.532578468322753462e-01,8.285869598388672097e-01,8.053027153015136497e-01,7.832913398742675781e-01,7.624512672424316184e-01,7.426913738250732200e-01
6.197803020477294922e-01,6.355038642883300559e-01,6.520460128784180132e-01,6.694732666015624778e-01,6.878618717193603072e-01,7.072892665863037553e-01,7.278459072113037109e-01,7.496331691741943137e-01,7.727651119232177290e-01,7.973678588867187944e-01,8.235836029052734375e-01,8.515818595886230913e-01,8.815506935119629128e-01,9.137057304382324441e-01,9.482954025268555132e-01,9.856070518493652566e-01,1.000000000000000000e+00,1.000000000000000000e+00,1.000000000000000000e+00,1.000000000000000000e+00,1.000000000000000000e+00,1.000000000000000000e+00,1.000000000000000000e+00,1.000000000000000000e+00,1.000000000000000000e+00,1.000000000000000000e+00,1.000000000000000000e+00,1.000000000000000000e+00,1.000000000000000000e+00,1.000000000000000000e+00,3.025326490402221458e-01,2.895491361618042214e-01,2.870333194732666016e-01,2.324810981750488337e-01,2.280992031097412165e-01,2.262338161468505915e-01,2.266446828842162975e-01,2.262900829315185602e-01,2.321856975555419977e-01,1.000000000000000000e+00,1.000000000000000000e+00,1.000000000000000000e+00,1.000000000000000000e+00,1.000000000000000000e+00,1.000000000000000000e+00,1.000000000000000000e+00,1.000000000000000000e+00,1.000000000000000000e+00,1.000000000000000000e+00,1.000000000000000000e+00,1.000000000000000000e+00,1.000000000000000000e+00,1.000000000000000000e+00,1.000000000000000000e+00,1.000000000000000000e+00,1.000000000000000000e+00,1.000000000000000000e+00,1.000000000000000000e+00,1.000000000000000000e+00,1.000000000000000000e+00,1.000000000000000000e+00,1.000000000000000000e+00,1.000000000000000000e+00,1.000000000000000000e+00,1.000000000000000000e+00,1.000000000000000000e+00,1.000000000000000000e+00,1.000000000000000000e+00,1.000000000000000000e+00,1.000000000000000000e+00,9.686519622802733931e-01,9.369808197021484153e-01,9.073151588439941628e-01,8.794703483581542969e-01,8.532837867736816628e-01,8.286113739013671875e-01,8.053258895874023660e-01,7.833132266998290572e-01,7.624720096588134544e-01,7.427110195159911665e-01
6.197670459747314231e-01,6.354898929595946822e-01,6.520312786102294700e-01,6.694568157196044700e-01,6.878393173217773882e-01,7.072597980499267800e-01,7.278141975402832031e-01,7.495995044708252397e-01,7.727293491363524947e-01,7.973320484161376953e-01,8.235527992248534712e-01,8.515565872192383257e-01,8.815236091613769531e-01,9.136767387390136719e-01,9.482641220092773438e-01,9.855731964111328347e-01,1.000000000000000000e+00,1.000000000000000000e+00,1.000000000000000000e+00,1.000000000000000000e+00,1.000000000000000000e+00,1.000000000000000000e+00,1.000000000000000000e+00,1.000000000000000000e+00,1.000000000000000000e+00,1.000000000000000000e+00,1.000000000000000000e+00,1.000000000000000000e+00,1.000000000000000000e+00,1.000000000000000000e+00,2.947977066040038951e-01,2.914718627929687722e-01,2.885332822799682728e-01,2.314803838729858343e-01,2.282733201980590709e-01,2.264623403549194391e-01,2.269061803817749023e-01,2.271504640579223577e-01,2.348211526870727650e-01,1.000000000000000000e+00,1.000000000000000000e+00,1.000000000000000000e+00,1.000000000000000000e+00,1.000000000000000000e+00,1.000000000000000000e+00,1.000000000000000000e+00,1.000000000000000000e+00,1.000000000000000000e+00,1.000000000000000000e+00,1.000000000000000000e+00,1.000000000000000000e+00,1.000000000000000000e+00,1.000000000000000000e+00,1.000000000000000000e+00,1.000000000000000000e+00,1.000000000000000000e+00,1.000000000000000000e+00,1.000000000000000000e+00,1.000000000000000000e+00,1.000000000000000000e+00,1.000000000000000000e+00,1.000000000000000000e+00,1.000000000000000000e+00,1.000000000000000000e+00,1.000000000000000000e+00,1.000000000000000000e+00,1.000000000000000000e+00,1.000000000000000000e+00,1.000000000000000000e+00,1.000000000000000000e+00,9.686853408813476118e-01,9.370121002197265847e-01,9.073445320129394087e-01,8.794979095458984597e-01,8.533097267150878684e-01,8.286358833312987837e-01,8.053489685058593528e-01,7.833351612091064009e-01,7.624927043914795366e-01,7.427306652069092241e-01
6.197537422180176003e-01,6.354759216308594194e-01,6.520165920257567915e-01,6.694412708282471147e-01,6.878229141235351340e-01,7.072424888610839844e-01,7.277904987335205300e-01,7.495681762695312056e-01,7.726935863494872603e-01,7.972939491271973100e-01,8.235121726989745872e-01,8.515134811401366965e-01,8.814858436584472878e-01,9.136452674865722656e-01,9.482327461242675559e-01,9.855394363403320312e-01,1.000000000000000000e+00,1.000000000000000000e+00,1.000000000000000000e+00,1.000000000000000000e+00,1.000000000000000000e+00,1.000000000000000000e+00,1.000000000000000000e+00,1.000000000000000000e+00,1.000000000000000000e+00,1.000000000000000000e+00,1.000000000000000000e+00,1.000000000000000000e+00,1.000000000000000000e+00,3.075657606124878041e-01,2.973139524459839089e-01,2.939314126968383678e-01,2.906170606613159291e-01,2.306218862533569447e-01,2.284476995468139593e-01,2.267233848571777455e-01,2.271567583084106445e-01,2.274449586868286244e-01,2.369359731674194336e-01,1.000000000000000000e+00,1.000000000000000000e+00,1.000000000000000000e+00,1.000000000000000000e+00,1.000000000000000000e+00,1.000000000000000000e+00,1.000000000000000000e+00,1.000000000000000000e+00,1.000000000000000000e+00,1.000000000000000000e+00,1.000000000000000000e+00,1.000000000000000000e+00,1.000000000000000000e+00,1.000000000000000000e+00,1.000000000000000000e+00,1.000000000000000000e+00,1.000000000000000000e+00,1.000000000000000000e+00,1.000000000000000000e+00,1.000000000000000000e+00,1.000000000000000000e+00,1.000000000000000000e+00,1.000000000000000000e+00,1.000000000000000000e+00,1.000000000000000000e+00,1.000000000000000000e+00,1.000000000000000000e+00,1.000000000000000000e+00,1.000000000000000000e+00,1.000000000000000000e+00,1.000000000000000000e+00,9.687188148498535600e-01,9.370433807373046431e-01,9.073738098144531472e-01,8.795254707336426225e-01,8.533355712890624556e-01,8.286603927612304910e-01,8.053721427917480691e-01,7.833570003509521262e-01,7.625129699707031694e-01,7.427487373352050781e-01
6.197404861450195312e-01,6.354619979858397993e-01,6.520018577575683594e-01,6.694257736206055132e-01,6.878065586090087447e-01,7.072251319885254350e-01,7.277721405029297097e-01,7.495487689971923606e-01,7.726687908172606978e-01,7.972604274749756081e-01,8.234715461730957031e-01,8.514699935913085938e-01,8.814393043518066184e-01,9.135952949523925559e-01,9.481863021850586160e-01,9.854998588562011719e-01,1.000000000000000000e+00,1.000000000000000000e+00,1.000000000000000000e+00,1.000000000000000000e+00,1.000000000000000000e+00,1.000000000000000000e+00,1.000000000000000000e+00,1.000000000000000000e+00,1.000000000000000000e+00,1.000000000000000000e+00,1.000000000000000000e+00,1.000000000000000000e+00,1.000000000000000000e+00,3.033950090408324973e-01,2.994734525680541881e-01,2.956954002380370872e-01,2.951034307479858398e-01,2.305247306823730580e-01,2.285743236541747936e-01,2.266712903976440541e-01,2.264837026596069336e-01,2.267701864242553655e-01,2.343101978302001842e-01,1.000000000000000000e+00,1.000000000000000000e+00,1.000000000000000000e+00,1.000000000000000000e+00,1.000000000000000000e+00,1.000000000000000000e+00,1.000000000000000000e+00,1.000000000000000000e+00,1.000000000000000000e+00,1.000000000000000000e+00,1.000000000000000000e+00,1.000000000000000000e+00,1.000000000000000000e+00,1.000000000000000000e+00,1.000000000000000000e+00,1.000000000000000000e+00,1.000000000000000000e+00,1.000000000000000000e+00,1.000000000000000000e+00,1.000000000000000000e+00,1.000000000000000000e+00,1.000000000000000000e+00,1.000000000000000000e+00,1.000000000000000000e+00,1.000000000000000000e+00,1.000000000000000000e+00,1.000000000000000000e+00,1.000000000000000000e+00,1.000000000000000000e+00,1.000000000000000000e+00,1.000000000000000000e+00,9.687522888183593972e-01,9.370746612548828125e-01,9.074031829833983931e-01,8.795530319213866743e-01,8.533616065979003906e-01,8.286848068237304688e-01,8.053939819335937944e-01,7.833764076232909712e-01,7.625305652618408203e-01,7.427654266357421875e-01
6.197272300720214622e-01,6.354480266571045366e-01,6.519871711730956809e-01,6.694102764129639116e-01,6.877902030944824663e-01,7.072078704833983931e-01,7.277537822723388894e-01,7.495292663574218972e-01,7.726481437683105913e-01,7.972384452819823997e-01,8.234454154968261497e-01,8.514339447021483931e-01,8.813927650451660600e-01,9.135453224182128462e-01,9.481324195861816628e-01,9.854415893554687722e-01,1.000000000000000000e+00,1.000000000000000000e+00,1.000000000000000000e+00,1.000000000000000000e+00,1.000000000000000000e+00,1.000000000000000000e+00,1.000000000000000000e+00,1.000000000000000000e+00,1.000000000000000000e+00,1.000000000000000000e+00,1.000000000000000000e+00,1.000000000000000000e+00,3.163420677185058705e-01,3.046060085296630748e-01,3.009544372558593528e-01,3.003412246704101340e-01,2.997305393218994141e-01,2.305922508239746094e-01,2.286406993865966741e-01,2.267454862594604492e-01,2.258146047592163030e-01,2.260994195938110241e-01,2.317419528961181530e-01,1.000000000000000000e+00,1.000000000000000000e+00,1.000000000000000000e+00,1.000000000000000000e+00,1.000000000000000000e+00,1.000000000000000000e+00,1.000000000000000000e+00,1.000000000000000000e+00,1.000000000000000000e+00,1.000000000000000000e+00,1.000000000000000000e+00,1.000000000000000000e+00,1.000000000000000000e+00,1.000000000000000000e+00,1.000000000000000000e+00,1.000000000000000000e+00,1.000000000000000000e+00,1.000000000000000000e+00,1.000000000000000000e+00,1.000000000000000000e+00,1.000000000000000000e+00,1.000000000000000000e+00,1.000000000000000000e+00,1.000000000000000000e+00,1.000000000000000000e+00,1.000000000000000000e+00,1.000000000000000000e+00,1.000000000000000000e+00,1.000000000000000000e+00,1.000000000000000000e+00,1.000000000000000000e+00,9.687856674194336160e-01,9.371059417724609819e-01,9.074325561523437500e-01,8.795799255371093972e-01,8.533852577209473100e-01,8.287057876586914062e-01,8.054135322570801225e-01,7.833949565887451394e-01,7.625482559204102007e-01,7.427821159362792969e-01
6.197138786315917747e-01,6.354340076446532981e-01,6.519724845886230025e-01,6.693947792053223100e-01,6.877738475799560769e-01,7.071905612945557085e-01,7.277355194091796875e-01,7.495098590850830522e-01,7.726274013519287553e-01,7.972164154052734375e-01,8.234219551086425781e-01,8.514089584350585938e-01,8.813652038574218972e-01,9.135064125061035378e-01,9.480806350708007590e-01,9.853834152221679910e-01,1.000000000000000000e+00,1.000000000000000000e+00,1.000000000000000000e+00,1.000000000000000000e+00,1.000000000000000000e+00,1.000000000000000000e+00,1.000000000000000000e+00,1.000000000000000000e+00,1.000000000000000000e+00,1.000000000000000000e+00,1.000000000000000000e+00,1.000000000000000000e+00,3.112510442733764648e-01,3.050138473510742299e-01,3.031859636306762917e-01,3.038513660430908203e-01,3.045050621032714955e-01,2.330868244171142578e-01,2.287071228027343639e-01,2.268197298049926813e-01,2.254326343536376953e-01,2.254326105117797907e-01,2.292294025421142689e-01,1.000000000000000000e+00,1.000000000000000000e+00,1.000000000000000000e+00,1.000000000000000000e+00,1.000000000000000000e+00,1.000000000000000000e+00,1.000000000000000000e+00,1.000000000000000000e+00,1.000000000000000000e+00,1.000000000000000000e+00,1.000000000000000000e+00,1.000000000000000000e+00,1.000000000000000000e+00,1.000000000000000000e+00,1.000000000000000000e+00,1.000000000000000000e+00,1.000000000000000000e+00,1.000000000000000000e+00,1.000000000000000000e+00,1.000000000000000000e+00,1.000000000000000000e+00,1.000000000000000000e+00,1.000000000000000000e+00,1.000000000000000000e+00,1.000000000000000000e+00,1.000000000000000000e+00,1.000000000000000000e+00,1.000000000000000000e+00,1.000000000000000000e+00,1.000000000000000000e+00,1.000000000000000000e+00,9.688191413879394531e-01,9.371354103088378462e-01,9.074584007263183372e-01,8.796032905578613503e-01,8.534072875976562722e-01,8.287265777587891069e-01,8.054332733154296875e-01,7.834135055541991965e-01,7.625658035278319868e-01,7.427989006042480247e-01
6.197005748748779519e-01,6.354200363159179243e-01,6.519577503204345703e-01,6.693792343139648438e-01,6.877574920654296875e-01,7.071732521057129128e-01,7.277172088623047319e-01,7.494904041290283425e-01,7.726067543029785378e-01,7.971944332122802290e-01,8.233984947204590066e-01,8.513837814331054465e-01,8.813384056091309038e-01,9.134776115417480025e-01,9.480495452880859375e-01,9.853412628173827681e-01,1.000000000000000000e+00,1.000000000000000000e+00,1.000000000000000000e+00,1.000000000000000000e+00,1.000000000000000000e+00,1.000000000000000000e+00,1.000000000000000000e+00,1.000000000000000000e+00,1.000000000000000000e+00,1.000000000000000000e+00,1.000000000000000000e+00,1.000000000000000000e+00,3.093162059783935436e-01,3.055952310562133900e-01,3.052441120147705300e-01,3.059639692306518333e-01,3.121390104293823020e-01,2.358577013015747126e-01,2.287735700607299860e-01,2.268940210342407227e-01,2.251118183135986384e-01,2.247697114944458008e-01,2.267707586288452148e-01,1.000000000000000000e+00,1.000000000000000000e+00,1.000000000000000000e+00,1.000000000000000000e+00,1.000000000000000000e+00,1.000000000000000000e+00,1.000000000000000000e+00,1.000000000000000000e+00,1.000000000000000000e+00,1.000000000000000000e+00,1.000000000000000000e+00,1.000000000000000000e+00,1.000000000000000000e+00,1.000000000000000000e+00,1.000000000000000000e+00,1.000000000000000000e+00,1.000000000000000000e+00,1.000000000000000000e+00,1.000000000000000000e+00,1.000000000000000000e+00,1.000000000000000000e+00,1.000000000000000000e+00,1.000000000000000000e+00,1.000000000000000000e+00,1.000000000000000000e+00,1.000000000000000000e+00,1.000000000000000000e+00,1.000000000000000000e+00,1.000000000000000000e+00,1.000000000000000000e+00,1.000000000000000000e+00,9.688475608825684038e-01,9.371620178222656028e-01,9.074833869934082475e-01,8.796267509460449219e-01,8.534294128417968528e-01,8.287473678588866965e-01,8.054529190063476340e-01,7.834321975708007368e-01,7.625833988189697488e-01,7.428155899047851340e-01
6.196873188018798828e-01,6.354060649871826616e-01,6.519430160522461382e-01,6.693637371063232422e-01,6.877410411834716797e-01,7.071559906005859819e-01,7.276988983154296653e-01,7.494709968566894975e-01,7.725861549377441850e-01,7.971724510192871316e-01,8.233750343322754350e-01,8.513587951660156472e-01,8.813115119934081809e-01,9.134487152099609597e-01,9.480184555053711160e-01,9.853076934814453125e-01,1.000000000000000000e+00,1.000000000000000000e+00,1.000000000000000000e+00,1.000000000000000000e+00,1.000000000000000000e+00,1.000000000000000000e+00,1.000000000000000000e+00,1.000000000000000000e+00,1.000000000000000000e+00,1.000000000000000000e+00,1.000000000000000000e+00,1.000000000000000000e+00,3.097848176956176647e-01,3.062891483306884877e-01,3.073304414749145619e-01,3.081061124801635631e-01,1.000000000000000000e+00,2.375150918960571289e-01,2.288400650024414174e-01,2.269683599472046009e-01,2.251789093017578236e-01,2.244338035583496038e-01,2.243912220001220703e-01,2.348110437393188532e-01,1.000000000000000000e+00,1.000000000000000000e+00,1.000000000000000000e+00,1.000000000000000000e+00,1.000000000000000000e+00,1.000000000000000000e+00,1.000000000000000000e+00,1.000000000000000000e+00,1.000000000000000000e+00,1.000000000000000000e+00,1.000000000000000000e+00,1.000000000000000000e+00,1.000000000000000000e+00,1.000000000000000000e+00,1.000000000000000000e+00,1.000000000000000000e+00,1.000000000000000000e+00,1.000000000000000000e+00,1.000000000000000000e+00,1.000000000000000000e+00,1.000000000000000000e+00,1.000000000000000000e+00,1.000000000000000000e+00,1.000000000000000000e+00,1.000000000000000000e+00,1.000000000000000000e+00,1.000000000000000000e+00,1.000000000000000000e+00,1.000000000000000000e+00,1.000000000000000000e+00,9.688760757446288618e-01,9.371886253356933594e-01,9.075082778930664285e-01,8.796502113342284934e-01,8.534515380859375444e-01,8.287681579589843972e-01,8.054725646972655806e-01,7.834507465362549050e-01,7.626010894775390181e-01,7.428322792053222434e-01
6.196740627288818137e-01,6.353921413421630415e-01,6.519283294677734597e-01,6.693482875823975053e-01,6.877246856689452903e-01,7.071386337280273215e-01,7.276804924011230913e-01,7.494515895843505415e-01,7.725655078887939675e-01,7.971504688262939231e-01,8.233515739440917525e-01,8.513337135314941184e-01,8.812846183776855691e-01,9.134198188781738059e-01,9.479872703552245650e-01,9.852741241455078569e-01,1.000000000000000000e+00,1.000000000000000000e+00,1.000000000000000000e+00,1.000000000000000000e+00,1.000000000000000000e+00,1.000000000000000000e+00,1.000000000000000000e+00,1.000000000000000000e+00,1.000000000000000000e+00,1.000000000000000000e+00,1.000000000000000000e+00,3.215940952301025169e-01,3.104898452758789174e-01,3.083898544311523549e-01,3.094455003738403320e-01,3.102784872055053822e-01,1.000000000000000000e+00,1.000000000000000000e+00,2.289066076278686579e-01,2.270427465438842884e-01,2.252521276473999079e-01,2.241158246994018610e-01,2.237598657608032282e-01,2.322485685348510687e-01,1.000000000000000000e+00,1.000000000000000000e+00,1.000000000000000000e+00,1.000000000000000000e+00,1.000000000000000000e+00,1.000000000000000000e+00,1.000000000000000000e+00,1.000000000000000000e+00,1.000000000000000000e+00,1.000000000000000000e+00,1.000000000000000000e+00,1.000000000000000000e+00,1.000000000000000000e+00,1.000000000000000000e+00,1.000000000000000000e+00,1.000000000000000000e+00,1.000000000000000000e+00,1.000000000000000000e+00,1.000000000000000000e+00,1.000000000000000000e+00,1.000000000000000000e+00,1.000000000000000000e+00,1.000000000000000000e+00,1.000000000000000000e+00,1.000000000000000000e+00,1.000000000000000000e+00,1.000000000000000000e+00,1.000000000000000000e+00,1.000000000000000000e+00,1.000000000000000000e+00,9.689044952392578125e-01,9.372152328491211160e-01,9.075332641601562278e-01,8.796736717224120650e-01,8.534735679626465066e-01,8.287890434265137163e-01,8.054922103881836382e-01,7.834692955017089622e-01,7.626186847686767800e-01,7.428490638732909712e-01
6.196607112884521262e-01,6.353781700134277788e-01,6.519136428833007812e-01,6.693327903747559038e-01,6.877083301544189009e-01,7.071213245391845259e-01,7.276621818542480247e-01,7.494320869445800781e-01,7.725447654724121316e-01,7.971285343170165794e-01,8.233281135559081809e-01,8.513086318969727007e-01,8.812577247619628462e-01,9.133910179138183816e-01,9.479562759399413618e-01,9.852404594421386719e-01,1.000000000000000000e+00,1.000000000000000000e+00,1.000000000000000000e+00,1.000000000000000000e+00,1.000000000000000000e+00,1.000000000000000000e+00,1.000000000000000000e+00,1.000000000000000000e+00,1.000000000000000000e+00,1.000000000000000000e+00,1.000000000000000000e+00,3.166177034378051536e-01,3.116016626358032449e-01,3.105672597885131836e-01,3.115898609161377175e-01,1.000000000000000000e+00,1.000000000000000000e+00,1.000000000000000000e+00,2.299690246582031250e-01,2.271172046661376898e-01,2.253286361694336049e-01,2.240559577941894642e-01,2.238147735595703014e-01,2.300867080688476507e-01,1.000000000000000000e+00,1.000000000000000000e+00,1.000000000000000000e+00,1.000000000000000000e+00,1.000000000000000000e+00,1.000000000000000000e+00,1.000000000000000000e+00,1.000000000000000000e+00,1.000000000000000000e+00,1.000000000000000000e+00,1.000000000000000000e+00,1.000000000000000000e+00,1.000000000000000000e+00,1.000000000000000000e+00,1.000000000000000000e+00,1.000000000000000000e+00,1.000000000000000000e+00,1.000000000000000000e+00,1.000000000000000000e+00,1.000000000000000000e+00,1.000000000000000000e+00,1.000000000000000000e+00,1.000000000000000000e+00,1.000000000000000000e+00,1.000000000000000000e+00,1.000000000000000000e+00,1.000000000000000000e+00,1.000000000000000000e+00,1.000000000000000000e+00,1.000000000000000000e+00,9.689329147338867632e-01,9.372418403625488725e-01,9.075581550598144087e-01,8.796971321105957475e-01,8.534955978393554688e-01,8.288098335266113059e-01,8.055118560791015847e-01,7.834879875183105025e-01,7.626362800598144309e-01,7.428657531738280806e-01
6.196474552154540572e-01,6.353641510009765403e-01,6.518989086151123491e-01,6.693172931671143022e-01,6.876920223236083762e-01,7.071040630340575950e-01,7.276438713073730691e-01,7.494126796722412331e-01,7.725241661071777788e-01,7.971064567565917525e-01,8.233046531677246094e-01,8.512835502624511719e-01,8.812308311462402344e-01,9.133621215820312278e-01,9.479250907897949219e-01,9.852068901062012163e-01,1.000000000000000000e+00,1.000000000000000000e+00,1.000000000000000000e+00,1.000000000000000000e+00,1.000000000000000000e+00,1.000000000000000000e+00,1.000000000000000000e+00,1.000000000000000000e+00,1.000000000000000000e+00,1.000000000000000000e+00,1.000000000000000000e+00,3.167876243591308816e-01,3.127324819564819558e-01,3.129020929336547852e-01,3.139116287231445424e-01,1.000000000000000000e+00,1.000000000000000000e+00,1.000000000000000000e+00,2.317087411880493220e-01,2.272565364837646484e-01,2.255225181579589844e-01,2.238521099090576283e-01,2.240807056427001898e-01,2.280063629150390625e-01,1.000000000000000000e+00,1.000000000000000000e+00,1.000000000000000000e+00,1.000000000000000000e+00,1.000000000000000000e+00,1.000000000000000000e+00,1.000000000000000000e+00,1.000000000000000000e+00,1.000000000000000000e+00,1.000000000000000000e+00,1.000000000000000000e+00,1.000000000000000000e+00,1.000000000000000000e+00,1.000000000000000000e+00,1.000000000000000000e+00,1.000000000000000000e+00,1.000000000000000000e+00,1.000000000000000000e+00,1.000000000000000000e+00,1.000000000000000000e+00,1.000000000000000000e+00,1.000000000000000000e+00,1.000000000000000000e+00,1.000000000000000000e+00,1.000000000000000000e+00,1.000000000000000000e+00,1.000000000000000000e+00,1.000000000000000000e+00,1.000000000000000000e+00,1.000000000000000000e+00,9.689613342285156028e-01,9.372684478759765181e-01,9.075831413269043191e-01,8.797204971313477007e-01,8.535177230834960493e-01,8.288306236267090066e-01,8.055315017700195312e-01,7.835065364837646706e-01,7.626539707183838113e-01,7.428824424743651900e-01
6.196341514587402344e-01,6.353501796722411665e-01,6.518842220306396706e-01,6.693017482757568359e-01,6.876756668090819868e-01,7.070867538452147993e-01,7.276255607604980025e-01,7.493932723999023882e-01,7.725035190582275613e-01,7.970844745635986550e-01,8.232811927795410378e-01,8.512584686279296431e-01,8.812040328979492410e-01,9.133332252502441850e-01,9.478940010070801003e-01,9.709938049316406694e-01,9.707515716552734819e-01,9.705094337463379128e-01,9.702674865722655806e-01,9.700256347656249778e-01,9.697838783264159934e-01,9.695423126220703569e-01,9.693007469177246094e-01,9.690594673156738281e-01,9.688181877136230469e-01,9.685770988464355025e-01,9.683361053466796875e-01,3.180076122283935769e-01,3.145569324493407981e-01,3.152722835540771595e-01,9.673731803894043413e-01,9.671328544616699663e-01,9.668925285339355913e-01,9.666523933410644531e-01,2.341400146484375056e-01,2.274537324905395452e-01,2.257167339324951116e-01,2.240532875061035101e-01,2.243472576141357366e-01,2.259633302688598688e-01,9.649744987487792747e-01,9.647353172302246538e-01,9.644962310791015403e-01,9.642572402954101562e-01,9.640183448791503906e-01,9.637796401977538618e-01,9.635409355163574441e-01,9.633025169372558816e-01,9.630640983581543191e-01,9.628258705139159934e-01,9.625876426696777788e-01,9.623496055603026900e-01,9.621116638183593306e-01,9.618739128112793191e-01,9.616361618041991965e-01,9.613986015319824219e-01,9.611612319946288840e-01,9.609238624572753462e-01,9.606866836547851562e-01,9.604496002197265847e-01,9.602126121520996316e-01,9.599757194519042969e-01,9.597389221191405806e-01,9.595023155212402122e-01,9.592658996582030806e-01,9.590294837951660600e-01,9.587931632995605469e-01,9.585570335388183816e-01,9.583209991455078347e-01,9.580850601196289062e-01,9.578492164611815962e-01,9.372950553894042747e-01,9.076081275939941184e-01,8.797439575195312722e-01,8.535397529602051225e-01,8.288514137268065962e-01,8.055511474609374778e-01,7.835251331329345925e-01,7.626715660095214622e-01,7.428991794586181641e-01
6.196208953857421653e-01,6.353362560272216575e-01,6.518695354461669922e-01,6.692862510681152344e-01,6.876592159271239790e-01,7.070693969726562500e-01,7.276072978973389116e-01,7.493738174438476785e-01,7.542412281036376953e-01,7.540950298309325728e-01,7.539489746093750444e-01,7.538029670715331587e-01,7.536569595336913840e-01,7.535110473632812278e-01,7.533651351928710715e-01,7.532193660736083984e-01,7.530735969543457253e-01,7.529278755187988059e-01,7.527822017669677512e-01,7.526366710662841797e-01,7.524911880493163618e-01,7.523456573486327903e-01,7.522002696990967019e-01,7.520548820495605025e-01,7.519095897674560325e-01,7.517642974853515625e-01,7.516191482543945757e-01,3.191548347473144309e-01,3.168207168579101340e-01,3.202398061752319558e-01,7.510388851165771262e-01,7.508940219879149947e-01,7.507491111755371094e-01,7.506043434143065962e-01,7.504595756530761941e-01,2.276512622833251898e-01,2.259112596511840820e-01,2.242548465728759766e-01,2.240971088409423884e-01,2.243720531463622991e-01,7.495923042297363281e-01,7.494479179382323997e-01,7.493036270141602007e-01,7.491594314575195090e-01,7.490151882171630637e-01,7.488710880279541016e-01,7.487269878387451394e-01,7.485829830169677956e-01,7.484389781951904519e-01,7.482951164245605913e-01,7.481512069702148660e-01,7.480074405670166238e-01,7.478637218475341353e-01,7.477200031280517578e-01,7.475764274597167525e-01,7.474327564239502397e-01,7.472892761230468528e-01,7.471457481384277122e-01,7.470023632049560547e-01,7.468589782714843972e-01,7.467157363891601118e-01,7.465724945068359375e-01,7.464292526245117632e-01,7.462861537933349609e-01,7.461430072784424050e-01,7.460000038146972212e-01,7.458570003509521484e-01,7.457141399383544478e-01,7.455712795257568581e-01,7.454284191131591575e-01,7.452857017517089400e-01,7.451429367065429688e-01,7.450003623962402344e-01,7.448576927185058816e-01,7.447152137756347656e-01,7.445726871490478960e-01,7.444302558898925337e-01,7.442879199981689009e-01,7.441455841064452681e-01,7.429159164428711382e-01
6.166970252990722212e-01,6.165992736816405806e-01,6.165016174316406694e-01,6.164040088653564009e-01,6.163064002990722434e-01,6.162087917327880859e-01,6.161112785339355469e-01,6.160137176513671431e-01,6.159162521362304688e-01,6.158187389373779297e-01,6.157213211059570090e-01,6.156239032745360884e-01,6.155265331268310325e-01,6.154291629791259766e-01,6.153318881988525391e-01,6.152346134185791016e-01,6.151373386383056641e-01,6.150401592254638450e-01,6.149429321289062722e-01,6.148458003997803178e-01,6.147486686706542525e-01,6.146515846252441628e-01,6.145545005798339622e-01,6.144574642181396262e-01,6.143604755401611550e-01,6.142634868621825728e-01,3.285482645034790150e-01,3.231332063674926536e-01,3.191173315048217995e-01,6.138759136199951616e-01,6.137791156768799272e-01,6.136823177337646928e-01,6.135855674743652122e-01,6.134888648986815962e-01,6.133921146392822266e-01,2.282704114913940430e-01,2.261061429977417048e-01,2.244567394256591908e-01,2.234323024749755859e-01,2.246392965316772461e-01,6.128126144409179465e-01,6.127161026000976785e-01,6.126196861267090288e-01,6.125232219696045144e-01,6.124268531799316184e-01,6.123304843902588335e-01,6.122341632843018022e-01,6.121378898620605247e-01,6.120415687561034934e-01,6.119453430175780806e-01,6.118491172790527788e-01,6.117529392242431197e-01,6.116567611694335715e-01,6.115606784820556419e-01,6.114645481109619585e-01,6.113685131072997825e-01,6.112725257873534712e-01,6.111764907836914062e-01,6.110805511474609597e-01,6.109845638275146484e-01,6.108886718749999556e-01,6.107927799224853738e-01,6.106969356536865456e-01,6.106010913848877175e-01,6.105053424835205078e-01,6.104095935821532981e-01,6.103138446807860884e-01,6.102181434631347434e-01,6.101224422454833984e-01,6.100268363952636719e-01,6.099311828613280806e-01,6.098356246948242188e-01,6.097401142120361106e-01,6.096445560455322488e-01,6.095490932464600053e-01,6.094536304473876509e-01,6.093582153320312722e-01,6.092628002166747825e-01,6.091674327850341575e-01,6.090720653533935325e-01
5.210222721099853072e-01,5.209525108337402788e-01,5.208827972412108931e-01,5.208131313323974831e-01,5.207434654235839622e-01,5.206737995147705522e-01,5.206041336059570312e-01,5.205345153808593750e-01,5.204648971557617188e-01,5.203952789306640625e-01,5.203257083892822710e-01,5.202561378479003684e-01,5.201866149902343306e-01,5.201170921325684038e-01,5.200475692749023660e-01,5.199780941009521928e-01,5.199086189270019087e-01,5.198391437530517356e-01,5.197697162628174272e-01,5.197003364562988725e-01,5.196309089660644531e-01,5.195615768432617632e-01,5.194921970367432085e-01,5.194228649139404075e-01,5.193535327911377175e-01,5.192842483520507812e-01,3.255792379379272572e-01,3.229970932006835938e-01,3.311608314514160045e-01,5.190072059631347656e-01,5.189380168914794478e-01,5.188688278198242410e-01,5.187996387481689231e-01,5.187304973602294700e-01,5.186613559722900169e-01,2.305715322494506780e-01,2.263013601303100475e-01,2.246590137481689342e-01,2.230491161346435658e-01,2.245929479598998968e-01,5.182469367980957475e-01,5.181779384613036665e-01,5.181089401245116965e-01,5.180399894714355913e-01,5.179710388183593750e-01,5.179020881652831587e-01,5.178331851959228072e-01,5.177642822265624556e-01,5.176954269409179688e-01,5.176265239715576172e-01,5.175577163696288840e-01,5.174889087677001509e-01,5.174201011657715288e-01,5.173513412475585493e-01,5.172825336456299272e-01,5.172138214111328125e-01,5.171450614929199441e-01,5.170763492584228294e-01,5.170076370239258257e-01,5.169389724731445757e-01,5.168703556060790794e-01,5.168016910552978294e-01,5.167330741882324441e-01,5.166644573211669478e-01,5.165958881378174272e-01,5.165273189544677956e-01,5.164587974548340288e-01,5.163902282714843972e-01,5.163217067718506303e-01,5.162532329559326172e-01,5.161847591400146040e-01,5.161163330078124556e-01,5.160478591918945535e-01,5.159794330596924050e-01,5.159110069274902566e-01,5.158426761627197266e-01,5.157742977142334428e-01,5.157059192657470481e-01,5.156376361846923828e-01,5.155693054199218528e-01
4.510466575622558705e-01,4.509943485260009544e-01,4.509421348571777122e-01,4.508898735046386608e-01,4.508376598358154186e-01,4.507854461669921764e-01,4.507332324981689342e-01,4.506810665130615012e-01,4.506289005279541238e-01,4.505767345428466908e-01,4.505245685577392578e-01,4.504724502563476340e-01,4.504202365875243919e-01,4.503681182861328236e-01,4.503160476684570090e-01,4.502639293670654408e-01,4.502118587493896262e-01,4.501597404479980580e-01,4.501077175140381081e-01,4.500556468963622936e-01,4.500035762786865345e-01,4.499515533447265847e-01,4.498995304107665794e-01,4.498475551605224387e-01,4.497955322265624889e-01,4.497435569763183483e-01,3.245211601257323997e-01,3.185449838638305664e-01,3.207713603973388894e-01,4.495357513427734597e-01,4.494838237762451283e-01,4.494319438934326061e-01,4.493800640106201394e-01,4.493281364440918080e-01,4.492763042449950950e-01,2.321985006332397405e-01,2.264978885650634766e-01,2.248616218566894531e-01,2.232488632202148382e-01,2.239251613616943248e-01,4.489652633666992299e-01,4.489135265350341908e-01,4.488616943359374778e-01,4.488099575042724387e-01,4.487581729888915905e-01,4.487064361572265514e-01,4.486546993255615123e-01,4.486030101776122825e-01,4.485513210296631081e-01,4.484995841979980691e-01,4.484479427337646484e-01,4.483962535858154186e-01,4.483446121215820535e-01,4.482929229736328236e-01,4.482413291931152122e-01,4.481896877288818470e-01,4.481380939483642356e-01,4.480865001678466797e-01,4.480349063873291238e-01,4.479833126068115123e-01,4.479317665100097656e-01,4.478802204132080189e-01,4.478286266326904075e-01,4.477771282196044700e-01,4.477256298065185325e-01,4.476741313934325950e-01,4.476226329803466575e-01,4.475711345672607200e-01,4.475196838378906472e-01,4.474681854248047097e-01,4.474167823791503906e-01,4.473653316497802623e-01,4.473139286041259988e-01,4.472625255584716797e-01,4.472111225128173606e-01,4.471597194671630970e-01,4.471083164215087780e-01,4.470569610595703236e-01,4.470056056976318137e-01,4.469542980194091686e-01
3.976416110992431752e-01,3.976009607315063588e-01,3.975603580474853516e-01,3.975197553634643444e-01,3.974791526794433372e-01,3.974385738372802623e-01,3.973979949951171875e-01,3.973574399948119895e-01,3.973168849945068470e-01,3.972763299942016491e-01,3.972357988357543834e-01,3.971952676773071178e-01,3.971546888351440430e-01,3.971141815185547097e-01,3.970736742019653209e-01,3.970331668853759877e-01,3.969926357269287220e-01,3.969521522521972656e-01,3.969116687774658092e-01,3.968712091445922852e-01,3.968307495117187611e-01,3.967902421951293723e-01,3.967498064041137806e-01,3.967093706130981334e-01,3.966689348220825417e-01,3.966284751892089622e-01,3.300307273864745983e-01,3.136211156845092884e-01,3.145670175552368053e-01,3.964668989181518444e-01,3.964264631271362527e-01,3.963860988616943470e-01,3.963457345962524414e-01,3.963053941726684681e-01,3.962650060653686301e-01,3.962246656417846569e-01,2.267038583755493220e-01,2.268564462661743220e-01,2.259368181228637584e-01,2.260090827941894642e-01,3.960230588912964089e-01,3.959827899932861217e-01,3.959424972534179576e-01,3.959022283554077259e-01,3.958619356155395619e-01,3.958216667175292747e-01,3.957814216613769753e-01,3.957411766052246205e-01,3.957009077072143333e-01,3.956606864929199108e-01,3.956204891204834206e-01,3.955802679061889426e-01,3.955400705337524525e-01,3.954998493194580300e-01,3.954596519470214844e-01,3.954194784164428711e-01,3.953793287277221902e-01,3.953391313552856445e-01,3.952989816665649636e-01,3.952588319778442272e-01,3.952187061309814231e-01,3.951785802841186745e-01,3.951384305953979381e-01,3.950983047485351340e-01,3.950582265853881947e-01,3.950181245803833230e-01,3.949779987335205189e-01,3.949379205703735241e-01,3.948978662490844616e-01,3.948577880859375222e-01,3.948177576065063366e-01,3.947776556015014648e-01,3.947376251220703347e-01,3.946975946426391491e-01,3.946575880050658958e-01,3.946175336837768333e-01,3.945775270462036355e-01,3.945375442504882590e-01,3.944975614547729381e-01,3.944575786590576172e-01
3.555442810058593861e-01,3.555117845535278320e-01,3.554793119430542103e-01,3.554468631744384655e-01,3.554144144058227761e-01,3.553819656372070312e-01,3.553495168685912864e-01,3.553170680999755970e-01,3.552846431732177845e-01,3.552522182464599720e-01,3.552198171615600364e-01,3.551873922348022239e-01,3.551549434661865345e-01,3.551225423812865989e-01,3.550901651382446511e-01,3.550577640533447155e-01,3.550253868103027122e-01,3.549930095672607644e-01,3.549606323242187611e-01,3.549282789230346902e-01,3.548958778381347545e-01,3.548635244369506836e-01,3.548311233520508035e-01,3.547987937927246094e-01,3.547664642333984153e-01,3.547341346740722767e-01,3.547018051147460826e-01,3.088744401931762806e-01,3.057038307189941517e-01,3.131571531295776478e-01,3.545725345611572266e-01,3.545402288436889648e-01,3.545078992843627708e-01,3.544756174087524414e-01,3.544433355331421120e-01,3.544110774993896595e-01,3.543787717819213978e-01,2.269526004791259655e-01,2.253234386444091797e-01,2.245572090148925670e-01,2.274331808090210016e-01,3.542175054550170676e-01,3.541852712631225475e-01,3.541530370712280273e-01,3.541208267211913840e-01,3.540885686874389870e-01,3.540563583374023438e-01,3.540241718292236328e-01,3.539919614791869895e-01,3.539597749710082786e-01,3.539275646209716908e-01,3.538953781127929799e-01,3.538632154464721458e-01,3.538310527801513672e-01,3.537988424301147239e-01,3.537667036056518777e-01,3.537345409393310436e-01,3.537024021148681419e-01,3.536702632904052956e-01,3.536381006240844616e-01,3.536059856414794922e-01,3.535738468170165905e-01,3.535417318344116211e-01,3.535095930099487194e-01,3.534775018692016824e-01,3.534454107284545898e-01,3.534133195877074973e-01,3.533812284469604603e-01,3.533491134643554910e-01,3.533170461654663308e-01,3.532849788665771706e-01,3.532529115676880105e-01,3.532208681106567272e-01,3.531887769699096902e-01,3.531567335128784069e-01,3.531246900558471791e-01,3.530926704406738281e-01,3.530606031417846680e-01,3.530285835266113170e-01,3.529965877532958984e-01
3.215071201324463113e-01,3.214805364608764870e-01,3.214540004730224720e-01,3.214274644851684570e-01,3.214009046554565652e-01,3.213743925094604270e-01,3.213478565216064675e-01,3.213213205337524525e-01,3.212948083877563699e-01,3.212682962417602317e-01,3.212417840957641491e-01,3.212152719497680664e-01,3.211887359619140514e-01,3.211622238159179688e-01,3.211357355117797630e-01,3.211092472076416127e-01,3.210827589035034069e-01,3.210562705993652566e-01,3.210298061370849831e-01,3.210033178329467773e-01,3.209768533706665039e-01,3.209503889083862305e-01,3.209239006042480247e-01,3.208974361419677512e-01,3.208709716796874778e-01,3.208445072174072044e-01,3.208180665969848633e-01,3.207916259765625222e-01,3.004580736160278320e-01,3.046002626419067605e-01,3.157337188720703014e-01,3.206858873367309792e-01,3.206594705581665150e-01,3.206330299377441184e-01,3.206066131591797097e-01,3.205802202224731223e-01,3.205538272857665905e-01,2.270946264266967829e-01,2.243721246719360407e-01,2.221313953399658148e-01,2.205392360687255804e-01,2.208717584609985463e-01,3.203954458236694114e-01,3.203690767288208119e-01,3.203427076339721569e-01,3.203163623809814342e-01,3.202899932861328347e-01,3.202636241912841797e-01,3.202372789382934570e-01,3.202109336853027344e-01,3.201845884323120117e-01,3.201582670211792214e-01,3.201318979263305664e-01,3.201055765151977761e-01,3.200792551040649303e-01,3.200529336929321400e-01,3.200265884399414174e-01,3.200002908706665039e-01,3.199739694595337136e-01,3.199476718902588002e-01,3.199213743209838867e-01,3.198950529098510964e-01,3.198687791824340598e-01,3.198424816131592019e-01,3.198162078857421653e-01,3.197899103164673074e-01,3.197636365890502708e-01,3.197373628616332897e-01,3.197111129760742410e-01,3.196848630905151367e-01,3.196585655212402233e-01,3.196323156356811745e-01,3.196060895919800027e-01,3.195798397064208984e-01,3.195535659790039174e-01,3.195273399353027455e-01,3.195011138916015736e-01,3.194748878479004017e-01,3.194486856460571067e-01,3.194224357604980580e-01
2.934175252914428822e-01,2.933953762054443137e-01,2.933732748031616100e-01,2.933511495590209739e-01,2.933290481567382701e-01,2.933069467544555664e-01,2.932848453521728627e-01,2.932627677917480358e-01,2.932406663894653320e-01,2.932185649871826283e-01,2.931964874267578014e-01,2.931744098663330300e-01,2.931523084640502708e-01,2.931302309036254994e-01,2.931081533432006725e-01,2.930860757827759011e-01,2.930640220642090066e-01,2.930419445037841797e-01,2.930198907852172852e-01,2.929978370666503906e-01,2.929757833480834961e-01,2.929537296295166016e-01,2.929316759109497070e-01,2.929096221923828125e-01,2.928875923156738503e-01,2.928655385971069558e-01,2.928435087203979381e-01,2.928214550018310436e-01,2.927994251251220814e-01,2.927774190902709961e-01,2.927553653717041016e-01,2.927333593368530162e-01,2.927113294601440541e-01,2.926893234252929688e-01,2.926673173904418834e-01,2.926452875137329213e-01,2.926233053207397683e-01,2.271397113800048828e-01,2.224335432052612360e-01,2.190722942352295033e-01,2.168100595474243275e-01,2.153617620468139537e-01,2.149382829666137695e-01,2.150205135345459040e-01,2.924473762512206920e-01,2.924253940582275391e-01,2.924034357070922630e-01,2.923814773559570424e-01,2.923595190048217662e-01,2.923375368118286133e-01,2.923155784606933372e-01,2.922936439514159934e-01,2.922716856002807728e-01,2.922497272491454967e-01,2.922277688980102761e-01,2.922058343887329324e-01,2.921838998794555886e-01,2.921619892120361217e-01,2.921400308609009011e-01,2.921180963516235574e-01,2.920961856842040905e-01,2.920742750167846791e-01,2.920523405075073353e-01,2.920304298400878684e-01,2.920085191726684570e-01,2.919866085052490456e-01,2.919647216796875111e-01,2.919427871704101674e-01,2.919209003448486328e-01,2.918990135192870983e-01,2.918771266937255637e-01,2.918552160263061523e-01,2.918333292007446178e-01,2.918114423751830833e-01,2.917895793914794811e-01,2.917676925659179465e-01,2.917458057403564675e-01,2.917239427566528098e-01,2.917020797729492076e-01,2.916802406311035378e-01
2.698418378829955944e-01,2.698230981826782449e-01,2.698044061660766491e-01,2.697856903076171764e-01,2.697669982910156361e-01,2.697483062744140403e-01,2.697296142578125000e-01,2.697109222412109597e-01,2.696922302246093639e-01,2.696735620498657005e-01,2.696548700332641602e-01,2.696362018585204967e-01,2.696175098419189564e-01,2.695988178253173606e-01,2.695801496505737527e-01,2.695614814758300892e-01,2.695428133010864258e-01,2.695241689682006947e-01,2.695055007934570312e-01,2.694868326187133678e-01,2.694681882858276367e-01,2.694495439529419056e-01,2.694308757781982422e-01,2.694122314453125111e-01,2.693935871124267800e-01,2.693749427795409934e-01,2.693562984466552623e-01,2.693376541137695312e-01,2.693190336227416770e-01,2.693003892898559459e-01,2.692817687988281472e-01,2.692631244659423606e-01,2.692444801330566295e-01,2.692258358001708984e-01,2.692072391510009766e-01,2.691886186599731223e-01,2.691699981689453236e-01,2.281087398529052790e-01,2.205876111984252930e-01,2.161979913711547796e-01,2.128879547119140736e-01,2.110103368759155273e-01,2.098237514495849554e-01,2.098173379898071178e-01,2.047650337219238392e-01,2.050453186035156306e-01,2.038018465042114313e-01,2.689653396606445090e-01,2.689467668533325195e-01,2.689281940460205300e-01,2.689095735549926758e-01,2.688910007476806863e-01,2.688724279403686412e-01,2.688538551330566517e-01,2.688353061676025391e-01,2.688167095184326172e-01,2.687981367111206277e-01,2.687795877456665150e-01,2.687610387802124023e-01,2.687424421310424805e-01,2.687238931655883678e-01,2.687053442001342551e-01,2.686867952346801980e-01,2.686682462692260853e-01,2.686496973037719727e-01,2.686311483383178600e-01,2.686126232147216797e-01,2.685940742492675670e-01,2.685755491256713867e-01,2.685570001602172741e-01,2.685384750366210938e-01,2.685199499130249134e-01,2.685014247894287331e-01,2.684828758239746205e-01,2.684643745422363170e-01,2.684458494186401367e-01,2.684273481369018333e-01,2.684088230133056530e-01,2.683902978897094727e-01,2.683717966079711692e-01
2.497729063034057617e-01,2.497568845748901478e-01,2.497408628463745062e-01,2.497248411178588923e-01,2.497088193893432506e-01,2.496927976608276367e-01,2.496767759323120228e-01,2.496607780456542858e-01,2.496447563171386719e-01,2.496287584304809626e-01,2.496127367019653209e-01,2.495967388153076116e-01,2.495807170867919977e-01,2.495647192001342884e-01,2.495487213134765514e-01,2.495327234268188421e-01,2.495167255401611328e-01,2.495007276535034235e-01,2.494847297668457142e-01,2.494687557220459095e-01,2.494527578353881725e-01,2.494367837905883678e-01,2.494207859039306585e-01,2.494047880172729492e-01,2.493888139724731445e-01,2.493728399276733398e-01,2.493568658828735352e-01,2.493408918380737305e-01,2.493249177932739258e-01,2.493089437484741211e-01,2.492929935455322210e-01,2.492770195007324163e-01,2.492610454559326116e-01,2.492450714111328069e-01,2.492290973663330023e-01,2.492131471633911022e-01,2.491971969604492299e-01,2.283161878585815430e-01,2.205270290374755915e-01,2.124037265777588002e-01,2.081390380859375056e-01,2.060420274734497126e-01,2.045286893844604492e-01,2.016516208648681530e-01,2.009817123413085993e-01,2.073393344879150280e-01,2.490377187728881891e-01,2.490217924118041937e-01,2.490058422088622936e-01,2.489899158477783259e-01,2.489739894866943304e-01,2.489580631256103627e-01,2.489421367645263672e-01,2.489262104034423717e-01,2.489102840423584040e-01,2.488943815231323131e-01,2.488784551620483454e-01,2.488625288009643499e-01,2.488466262817382868e-01,2.488307237625121959e-01,2.488148212432861328e-01,2.487988948822021373e-01,2.487829923629760742e-01,2.487670898437500111e-01,2.487511873245239202e-01,2.487353086471557617e-01,2.487193822860717662e-01,2.487035036087036077e-01,2.486876010894775446e-01,2.486717224121093861e-01,2.486558198928832952e-01,2.486399412155151367e-01,2.486240625381469782e-01,2.486081838607788197e-01,2.485923051834106334e-01,2.485764026641845703e-01,2.485605478286743164e-01,2.485446691513061579e-01,2.485287904739379994e-01,2.485129117965698131e-01
2.324825286865234431e-01,2.324686288833618109e-01,2.324547529220581110e-01,2.324408769607543834e-01,2.324270009994506836e-01,2.324131250381469838e-01,2.323992490768432562e-01,2.323853731155395563e-01,2.323714971542358287e-01,2.323576211929321289e-01,2.323437690734863337e-01,2.323298931121826061e-01,2.323160171508789062e-01,2.323021411895752064e-01,2.322882890701293834e-01,2.322744131088256836e-01,2.322605609893798884e-01,2.322467088699340931e-01,2.322328567504882701e-01,2.322190046310424749e-01,2.322051525115966797e-01,2.321913003921508845e-01,2.321774244308471569e-01,2.321635723114013616e-01,2.321497440338134710e-01,2.321358919143676758e-01,2.321220397949218806e-01,2.321082115173339899e-01,2.320943593978881947e-01,2.320805311203003041e-01,2.320667028427124134e-01,2.320528507232665905e-01,2.320389986038207952e-01,2.320251703262329046e-01,2.320113420486450140e-01,2.319975137710571234e-01,2.319836854934692327e-01,2.319698572158813421e-01,2.319560289382934515e-01,2.319422006607055609e-01,2.081652641296386774e-01,2.042995214462280384e-01,2.010402202606201283e-01,2.318869113922119030e-01,2.318731069564819447e-01,2.318592786788940541e-01,2.318454742431640681e-01,2.318316698074340820e-01,2.318178653717040960e-01,2.318040370941162054e-01,2.317902326583862194e-01,2.317764282226562611e-01,2.317626237869262751e-01,2.317488431930541937e-01,2.317350149154663030e-01,2.317212343215942494e-01,2.317074298858642634e-01,2.316936492919921819e-01,2.316798210144042913e-01,2.316660404205322377e-01,2.316522598266601562e-01,2.316384792327880748e-01,2.316246986389160212e-01,2.316108942031860352e-01,2.315971136093139537e-01,2.315833330154419001e-01,2.315695524215698187e-01,2.315557718276977650e-01,2.315419912338256836e-01,2.315282344818115345e-01,2.315144538879394531e-01,2.315006971359253041e-01,2.314869165420532227e-01,2.314731359481811412e-01,2.314593791961669922e-01,2.314456224441528431e-01,2.314318656921386663e-01,2.314180850982666127e-01,2.314043283462524359e-01,2.313905715942382868e-01
2.174309968948364147e-01,2.174188375473022350e-01,2.174067020416259877e-01,2.173945426940918080e-01,2.173824071884155329e-01,2.173702716827392578e-01,2.173581361770629827e-01,2.173460006713867076e-01,2.173338651657104603e-01,2.173217296600341852e-01,2.173095941543579102e-01,2.172974586486816351e-01,2.172853231430053600e-01,2.172731876373291127e-01,2.172610759735107422e-01,2.172489404678344671e-01,2.172368288040161244e-01,2.172246932983398493e-01,2.172125816345214788e-01,2.172004699707031361e-01,2.171883344650268610e-01,2.171762228012084905e-01,2.171640872955322155e-01,2.171519756317138727e-01,2.171398639678955023e-01,2.171277523040771595e-01,2.171156406402587891e-01,2.171035289764404186e-01,2.170914173126220759e-01,2.170793294906616100e-01,2.170672178268432673e-01,2.170551061630248968e-01,2.170429944992065541e-01,2.170309066772460882e-01,2.170187950134277455e-01,2.170067071914672796e-01,2.169945955276489369e-01,2.169825077056884710e-01,2.169704198837280329e-01,2.169583082199096624e-01,2.169462203979492243e-01,2.169341325759887584e-01,2.169220209121704157e-01,2.169099330902099498e-01,2.168978452682495117e-01,2.168857574462890736e-01,2.168736696243286077e-01,2.168615818023681696e-01,2.168494939804077037e-01,2.168374300003051702e-01,2.168253421783447321e-01,2.168132543563842662e-01,2.168011665344238281e-01,2.167891025543212946e-01,2.167770385742187611e-01,2.167649507522582952e-01,2.167528629302978571e-01,2.167407989501953236e-01,2.167287349700927623e-01,2.167166709899902288e-01,2.167045831680297907e-01,2.166925191879272572e-01,2.166804552078246959e-01,2.166684150695800670e-01,2.166563510894775335e-01,2.166442632675170954e-01,2.166322231292724665e-01,2.166201591491699330e-01,2.166081190109253041e-01,2.165960311889648382e-01,2.165839910507202093e-01,2.165719509124755804e-01,2.165598869323730469e-01,2.165478467941284180e-01,2.165357828140258845e-01,2.165237426757812556e-01,2.165117025375366266e-01,2.164996623992919977e-01,2.164875984191894642e-01,2.164755582809448353e-01
2.042098999023437556e-01,2.041991710662841852e-01,2.041884660720825195e-01,2.041777610778808538e-01,2.041670560836791881e-01,2.041563510894775502e-01,2.041456460952758845e-01,2.041349411010742188e-01,2.041242361068725530e-01,2.041135311126708873e-01,2.041028261184692494e-01,2.040921211242675837e-01,2.040814161300659180e-01,2.040707111358642523e-01,2.040600061416625866e-01,2.040493011474609486e-01,2.040386199951171875e-01,2.040279150009155218e-01,2.040172338485717884e-01,2.040065288543701227e-01,2.039958477020263616e-01,2.039851665496826283e-01,2.039744615554809626e-01,2.039637565612792969e-01,2.039530754089355358e-01,2.039423942565918024e-01,2.039317131042480413e-01,2.039210319519043080e-01,2.039103507995605469e-01,2.038996696472167858e-01,2.038889884948730524e-01,2.038783073425292913e-01,2.038676261901855580e-01,2.038569450378417969e-01,2.038462638854980358e-01,2.038355827331543024e-01,2.038249254226684459e-01,2.038142442703247126e-01,2.038035631179809515e-01,2.037929058074951227e-01,2.037822246551513616e-01,2.037715673446655329e-01,2.037609100341796764e-01,2.037502288818359431e-01,2.037395715713500866e-01,2.037288904190063532e-01,2.037182331085204967e-01,2.037075519561767634e-01,2.036968946456909069e-01,2.036862373352050781e-01,2.036755800247192494e-01,2.036649227142333929e-01,2.036542654037475641e-01,2.036435842514038030e-01,2.036329507827758789e-01,2.036222934722900502e-01,2.036116361618041937e-01,2.036009788513183649e-01,2.035903215408325084e-01,2.035796880722045843e-01,2.035690307617187556e-01,2.035583972930908314e-01,2.035477399826049749e-01,2.035370826721191462e-01,2.035264492034912220e-01,2.035158157348632701e-01,2.035051584243774414e-01,2.034945249557495173e-01,2.034838676452636608e-01,2.034732341766357366e-01,2.034626007080078125e-01,2.034519672393798884e-01,2.034413337707519642e-01,2.034307003021240123e-01,2.034200668334960882e-01,2.034094333648681641e-01,2.033987998962402399e-01,2.033881664276123158e-01,2.033775329589843639e-01,2.033669233322143444e-01
1.925045013427734431e-01,1.924949645996093806e-01,1.924854516983032227e-01,1.924759268760681263e-01,1.924664139747619684e-01,1.924568891525268444e-01,1.924473762512207142e-01,1.924378633499145563e-01,1.924283504486083984e-01,1.924188375473022405e-01,1.924093246459960826e-01,1.923998236656188909e-01,1.923903107643127330e-01,1.923807978630066029e-01,1.923712968826293834e-01,1.923617839813232533e-01,1.923522830009460338e-01,1.923427820205688421e-01,1.923332810401916504e-01,1.923237681388854925e-01,1.923142671585083008e-01,1.923047661781311091e-01,1.922952532768249512e-01,1.922857522964477595e-01,1.922762513160705677e-01,1.922667503356933483e-01,1.922572612762451227e-01,1.922477602958679310e-01,1.922382712364196777e-01,1.922287821769714244e-01,1.922192811965942327e-01,1.922097921371460072e-01,1.922003030776977539e-01,1.921908140182495006e-01,1.921813249588012751e-01,1.921718358993530218e-01,1.921623468399047963e-01,1.921528697013855091e-01,1.921433806419372559e-01,1.921338915824890026e-01,1.921244144439697155e-01,1.921149373054504284e-01,1.921054482460022028e-01,1.920959472656250111e-01,1.920864701271057240e-01,1.920769929885864369e-01,1.920675158500671498e-01,1.920580387115478627e-01,1.920485615730285756e-01,1.920390844345092884e-01,1.920295953750610352e-01,1.920201182365417480e-01,1.920106530189514271e-01,1.920011758804321400e-01,1.919917106628417913e-01,1.919822335243225042e-01,1.919727683067321833e-01,1.919633030891418346e-01,1.919538378715515137e-01,1.919443488121032604e-01,1.919348835945129395e-01,1.919254183769226185e-01,1.919159650802612360e-01,1.919064998626708873e-01,1.918970346450805664e-01,1.918875813484191839e-01,1.918781161308288630e-01,1.918686628341674805e-01,1.918591856956481934e-01,1.918497204780578724e-01,1.918402671813964899e-01,1.918308138847351074e-01,1.918213605880737249e-01,1.918119072914123424e-01,1.918024539947509877e-01,1.917930126190185436e-01,1.917835593223571888e-01,1.917740941047668402e-01,1.917646408081054576e-01,1.917551994323730413e-01
1.820682525634765569e-01,1.820597290992736761e-01,1.820512175559997614e-01,1.820427060127258190e-01,1.820341944694519043e-01,1.820256829261779896e-01,1.820171713829040472e-01,1.820086598396301325e-01,1.820001482963561901e-01,1.819916367530822754e-01,1.819831371307372991e-01,1.819746255874633845e-01,1.819661021232605036e-01,1.819575905799865612e-01,1.819490909576416127e-01,1.819405794143676702e-01,1.819320797920226940e-01,1.819235801696777455e-01,1.819150686264038030e-01,1.819065690040588268e-01,1.818980693817138783e-01,1.818895697593689020e-01,1.818810701370239258e-01,1.818725824356079157e-01,1.818640828132629395e-01,1.818555831909179632e-01,1.818470835685729869e-01,1.818385958671569769e-01,1.818300962448120006e-01,1.818216085433959905e-01,1.818131089210510143e-01,1.818046212196350042e-01,1.817961096763610895e-01,1.817876219749450795e-01,1.817791342735290416e-01,1.817706465721130316e-01,1.817621588706970215e-01,1.817536711692810114e-01,1.817451834678650013e-01,1.817366957664489635e-01,1.817282199859619196e-01,1.817197322845459095e-01,1.817112445831298717e-01,1.817027688026428278e-01,1.816942811012268177e-01,1.816858053207397461e-01,1.816773295402526744e-01,1.816688418388366644e-01,1.816603660583496205e-01,1.816518902778625488e-01,1.816434144973754772e-01,1.816349387168884333e-01,1.816264629364013616e-01,1.816179752349853516e-01,1.816094994544982799e-01,1.816010236740112360e-01,1.815925359725952259e-01,1.815840601921081543e-01,1.815755963325500488e-01,1.815671205520629772e-01,1.815586566925048717e-01,1.815501809120178278e-01,1.815417170524597223e-01,1.815332531929016169e-01,1.815247893333435114e-01,1.815163016319275013e-01,1.815078377723693959e-01,1.814993739128112904e-01,1.814909100532531849e-01,1.814824581146240179e-01,1.814739942550659124e-01,1.814655303955078069e-01,1.814570784568786677e-01,1.814486145973205622e-01,1.814401388168334905e-01,1.814316868782043513e-01,1.814232230186462458e-01,1.814147710800170787e-01,1.814063191413879395e-01,1.813978672027588002e-01
1.727053880691528376e-01,1.726977109909057506e-01,1.726900458335876576e-01,1.726823806762695368e-01,1.726747274398803822e-01,1.726670622825622614e-01,1.726594090461731068e-01,1.726517438888549860e-01,1.726440906524658314e-01,1.726364374160766491e-01,1.726287722587585560e-01,1.726211190223693737e-01,1.726134657859802191e-01,1.726058125495910645e-01,1.725981593132019098e-01,1.725905060768127552e-01,1.725828528404235729e-01,1.725751996040344183e-01,1.725675582885742299e-01,1.725599050521850475e-01,1.725522518157958929e-01,1.725446105003357045e-01,1.725369453430175837e-01,1.725292921066284291e-01,1.725216507911682129e-01,1.725139975547790583e-01,1.725063562393188421e-01,1.724987149238586537e-01,1.724910616874694713e-01,1.724834203720092829e-01,1.724757790565490667e-01,1.724681377410888783e-01,1.724604964256286621e-01,1.724528551101684459e-01,1.724452137947082575e-01,1.724375724792480413e-01,1.724299430847167913e-01,1.724223017692566029e-01,1.724146604537963867e-01,1.724070310592651367e-01,1.723993897438049205e-01,1.723917603492736705e-01,1.723841190338134821e-01,1.723764777183532659e-01,1.723688364028930775e-01,1.723612070083618275e-01,1.723535776138305775e-01,1.723459482192993275e-01,1.723383188247680775e-01,1.723306894302368275e-01,1.723230600357055775e-01,1.723154306411743275e-01,1.723078012466430775e-01,1.723001718521118275e-01,1.722925424575805775e-01,1.722849249839782659e-01,1.722772955894470159e-01,1.722696542739868275e-01,1.722620248794555775e-01,1.722544074058532659e-01,1.722467899322509821e-01,1.722391605377197321e-01,1.722315311431884821e-01,1.722239017486572321e-01,1.722162842750549205e-01,1.722086668014526367e-01,1.722010493278503529e-01,1.721934318542480413e-01,1.721858143806457575e-01,1.721781969070434459e-01,1.721705794334411621e-01,1.721629500389099121e-01,1.721553325653076283e-01,1.721477270126342829e-01,1.721401095390319713e-01,1.721325039863586537e-01,1.721248865127563421e-01,1.721172809600829967e-01,1.721096634864807129e-01,1.721020579338073675e-01
1.642583727836608998e-01,1.642514467239379883e-01,1.642445206642150768e-01,1.642375826835632269e-01,1.642306566238403431e-01,1.642237305641174316e-01,1.642168045043945201e-01,1.642098665237426702e-01,1.642029404640197865e-01,1.641960144042968750e-01,1.641890883445739635e-01,1.641821742057800182e-01,1.641752243041992299e-01,1.641683101654052845e-01,1.641613841056823730e-01,1.641544580459594616e-01,1.641475319862365778e-01,1.641406178474426325e-01,1.641336917877197210e-01,1.641267776489257757e-01,1.641198515892028920e-01,1.641129374504089466e-01,1.641060113906860352e-01,1.640990972518920898e-01,1.640921831130981445e-01,1.640852689743041992e-01,1.640783548355102539e-01,1.640714287757873424e-01,1.640645146369933971e-01,1.640576004981994518e-01,1.640506863594055065e-01,1.640437722206115612e-01,1.640368461608886774e-01,1.640299320220947321e-01,1.640230178833007868e-01,1.640161156654357799e-01,1.640092015266418346e-01,1.640022873878478893e-01,1.639953851699829102e-01,1.639884710311889648e-01,1.639815688133239857e-01,1.639746546745300404e-01,1.639677524566650335e-01,1.639608502388000544e-01,1.639539361000061091e-01,1.639470338821411022e-01,1.639401316642761230e-01,1.639332294464111439e-01,1.639263153076171986e-01,1.639194130897521917e-01,1.639125108718872126e-01,1.639056086540222057e-01,1.638987064361572266e-01,1.638917922973632812e-01,1.638848900794983021e-01,1.638779997825622614e-01,1.638710975646972545e-01,1.638641953468322754e-01,1.638573050498962347e-01,1.638504028320312556e-01,1.638434886932373102e-01,1.638365983963012695e-01,1.638296961784362904e-01,1.638228058815002497e-01,1.638159155845642090e-01,1.638090133666992299e-01,1.638021230697631891e-01,1.637952327728271484e-01,1.637883424758911077e-01,1.637814283370971624e-01,1.637745380401611217e-01,1.637676477432251088e-01,1.637607574462890681e-01,1.637538671493530273e-01,1.637469887733459528e-01,1.637400984764099121e-01,1.637332081794738714e-01,1.637263178825378307e-01,1.637194156646728516e-01,1.637125372886657770e-01
1.565991401672363337e-01,1.565928339958190807e-01,1.565865278244018555e-01,1.565802335739135687e-01,1.565739274024963434e-01,1.565676331520080566e-01,1.565613389015197698e-01,1.565550446510314830e-01,1.565487504005432240e-01,1.565424442291259710e-01,1.565361499786376842e-01,1.565298557281494252e-01,1.565235614776611384e-01,1.565172672271728516e-01,1.565109729766845648e-01,1.565046906471252441e-01,1.564983963966369573e-01,1.564921021461486705e-01,1.564858078956604115e-01,1.564795255661010631e-01,1.564732313156128041e-01,1.564669370651245173e-01,1.564606308937072643e-01,1.564543485641479437e-01,1.564480543136596569e-01,1.564417719841003362e-01,1.564354896545410156e-01,1.564291954040527288e-01,1.564229130744934082e-01,1.564166307449340876e-01,1.564103364944458008e-01,1.564040541648864802e-01,1.563977718353271595e-01,1.563914895057678112e-01,1.563852071762084905e-01,1.563789248466491699e-01,1.563726425170898493e-01,1.563663601875305287e-01,1.563600778579711803e-01,1.563537955284118597e-01,1.563475131988525391e-01,1.563412427902221569e-01,1.563349604606628362e-01,1.563286662101745494e-01,1.563223838806152288e-01,1.563161134719848744e-01,1.563098311424255260e-01,1.563035607337951716e-01,1.562972784042358509e-01,1.562910079956054688e-01,1.562847256660461481e-01,1.562784552574157659e-01,1.562721848487854115e-01,1.562659144401550293e-01,1.562596321105957087e-01,1.562533617019653265e-01,1.562470912933349720e-01,1.562408208847045898e-01,1.562345504760742076e-01,1.562282800674438532e-01,1.562220096588134710e-01,1.562157392501831166e-01,1.562094688415527344e-01,1.562031984329223522e-01,1.561969161033630316e-01,1.561906576156616155e-01,1.561843752861022949e-01,1.561781048774719127e-01,1.561718344688415583e-01,1.561655759811401423e-01,1.561593055725097601e-01,1.561530470848083441e-01,1.561467766761779896e-01,1.561405181884765736e-01,1.561342477798461914e-01,1.561279773712158092e-01,1.561217188835143932e-01,1.561154484748840388e-01,1.561091899871826227e-01,1.561029314994812067e-01
1.496223568916320856e-01,1.496166110038757435e-01,1.496108531951904352e-01,1.496051073074340931e-01,1.495993614196777233e-01,1.495936036109924427e-01,1.495878577232360729e-01,1.495821118354797308e-01,1.495763659477233887e-01,1.495706200599670466e-01,1.495648622512817383e-01,1.495591163635253962e-01,1.495533585548400879e-01,1.495476126670837458e-01,1.495418667793274037e-01,1.495361328125000000e-01,1.495303869247436579e-01,1.495246410369873158e-01,1.495188951492309459e-01,1.495131492614746038e-01,1.495074152946472279e-01,1.495016694068908580e-01,1.494959235191345159e-01,1.494901895523071400e-01,1.494844436645507701e-01,1.494787096977233942e-01,1.494729638099670521e-01,1.494672298431396484e-01,1.494614839553833063e-01,1.494557499885559027e-01,1.494500041007995605e-01,1.494442701339721569e-01,1.494385242462158148e-01,1.494327902793884388e-01,1.494270443916320690e-01,1.494213104248046931e-01,1.494155764579772894e-01,1.494098424911499134e-01,1.494041085243225098e-01,1.493983745574951061e-01,1.493926405906677302e-01,1.493869066238403265e-01,1.493811726570129506e-01,1.493754386901855469e-01,1.493697047233581432e-01,1.493639826774597057e-01,1.493582487106323298e-01,1.493525147438049261e-01,1.493467807769775502e-01,1.493410587310791127e-01,1.493353247642517090e-01,1.493296027183532715e-01,1.493238687515258678e-01,1.493181228637695257e-01,1.493124008178710882e-01,1.493066668510437123e-01,1.493009448051452748e-01,1.492952227592468373e-01,1.492894887924194336e-01,1.492837667465209961e-01,1.492780447006225586e-01,1.492723226547241211e-01,1.492666006088256836e-01,1.492608666419982799e-01,1.492551445960998424e-01,1.492494225502014049e-01,1.492437005043029674e-01,1.492379784584045299e-01,1.492322444915771540e-01,1.492265224456787165e-01,1.492208003997802790e-01,1.492150902748107799e-01,1.492093563079834040e-01,1.492036342620849665e-01,1.491979122161865290e-01,1.491921901702880915e-01,1.491864800453185924e-01,1.491807579994201549e-01,1.491750478744506836e-01,1.491693258285522461e-01
1.432407259941101130e-01,1.432354450225830078e-01,1.432301759719848688e-01,1.432249069213867299e-01,1.432196378707885631e-01,1.432143688201904241e-01,1.432090997695922852e-01,1.432038307189941462e-01,1.431985616683960072e-01,1.431932926177978405e-01,1.431880235671997015e-01,1.431827545166015625e-01,1.431774854660034235e-01,1.431722283363342230e-01,1.431669592857360840e-01,1.431616902351379450e-01,1.431564331054687444e-01,1.431511640548706055e-01,1.431458950042724665e-01,1.431406378746032659e-01,1.431353688240051270e-01,1.431301116943359264e-01,1.431248307228088490e-01,1.431195735931396484e-01,1.431143045425415095e-01,1.431090474128723089e-01,1.431037902832031361e-01,1.430985212326049694e-01,1.430932641029357966e-01,1.430880069732665960e-01,1.430827498435974232e-01,1.430774927139282227e-01,1.430722236633300837e-01,1.430669665336608831e-01,1.430617094039917103e-01,1.430564522743225098e-01,1.430511951446533092e-01,1.430459380149841364e-01,1.430406808853149359e-01,1.430354237556457631e-01,1.430301785469055287e-01,1.430249214172363281e-01,1.430196642875671276e-01,1.430143952369689886e-01,1.430091381072998158e-01,1.430038928985595814e-01,1.429986357688903809e-01,1.429933786392211803e-01,1.429881334304809459e-01,1.429828763008117731e-01,1.429776310920715388e-01,1.429723739624023382e-01,1.429671287536621038e-01,1.429618716239929310e-01,1.429566264152526966e-01,1.429513692855834961e-01,1.429461240768432617e-01,1.429408788681030273e-01,1.429356217384338268e-01,1.429303765296935924e-01,1.429251313209533580e-01,1.429198861122131237e-01,1.429146409034728893e-01,1.429093837738037165e-01,1.429041266441345159e-01,1.428988814353942816e-01,1.428936362266540472e-01,1.428883910179138128e-01,1.428831458091735784e-01,1.428779006004333441e-01,1.428726553916931097e-01,1.428673982620239369e-01,1.428621649742126409e-01,1.428569197654724066e-01,1.428516745567321722e-01,1.428464293479919378e-01,1.428411960601806696e-01,1.428359508514404352e-01,1.428306937217712347e-01,1.428254604339599665e-01
