6.199919700622558150e-01,6.357263565063476785e-01,6.522802352905273660e-01,6.697191715240478072e-01,6.881162643432616743e-01,7.075507640838623047e-01,7.281147956848144087e-01,7.499098777770996094e-01,7.730500698089599609e-01,7.976637363433838335e-01,8.238964080810546875e-01,8.519131660461425337e-01,8.819024085998534712e-01,9.140800476074218972e-01,9.486948013305663840e-01,9.860342979431152566e-01,1.000000000000000000e+00,1.000000000000000000e+00,1.000000000000000000e+00,1.000000000000000000e+00,1.000000000000000000e+00,1.000000000000000000e+00,1.000000000000000000e+00,1.000000000000000000e+00,1.000000000000000000e+00,1.000000000000000000e+00,1.000000000000000000e+00,1.000000000000000000e+00,1.000000000000000000e+00,1.000000000000000000e+00,1.000000000000000000e+00,1.000000000000000000e+00,1.836380720138549860e-01,1.794357299804687500e-01,1.752012252807617076e-01,1.723525524139404297e-01,1.696710944175720270e-01,1.675414443016052246e-01,1.672179818153381459e-01,1.676553010940551869e-01,1.681372284889221247e-01,1.701706528663635143e-01,1.771696925163269154e-01,1.875594377517700306e-01,1.833403587341308483e-01,1.792424798011779674e-01,1.760101318359375000e-01,1.740486264228820745e-01,1.721303701400756780e-01,1.709983944892883301e-01,1.698930501937866155e-01,1.698484897613525280e-01,1.718189716339111328e-01,1.734317302703857477e-01,1.000000000000000000e+00,1.000000000000000000e+00,1.000000000000000000e+00,1.000000000000000000e+00,1.000000000000000000e+00,1.000000000000000000e+00,1.000000000000000000e+00,1.000000000000000000e+00,1.000000000000000000e+00,1.000000000000000000e+00,1.000000000000000000e+00,1.000000000000000000e+00,1.000000000000000000e+00,1.000000000000000000e+00,1.000000000000000000e+00,1.000000000000000000e+00,9.681991577148437722e-01,9.365553855895996094e-01,9.069144248962401900e-01,8.790923118591308372e-01,8.529263496398925559e-01,8.282730102539062056e-01,8.050047874450683150e-01,7.830082416534424050e-01,7.621818065643310991e-01,7.424345016479492188e-01
6.199786186218261275e-01,6.357123374938964400e-01,6.522654533386230691e-01,6.697036266326904519e-01,6.880998611450195312e-01,7.075352668762207031e-01,7.280985355377197488e-01,7.498926162719726785e-01,7.730317592620850053e-01,7.976442337036132590e-01,8.238756179809569868e-01,8.518909454345703347e-01,8.818785667419433150e-01,9.140544891357421653e-01,9.486672401428222212e-01,9.860044479370116965e-01,1.000000000000000000e+00,1.000000000000000000e+00,1.000000000000000000e+00,1.000000000000000000e+00,1.000000000000000000e+00,1.000000000000000000e+00,1.000000000000000000e+00,1.000000000000000000e+00,1.000000000000000000e+00,1.000000000000000000e+00,1.000000000000000000e+00,1.000000000000000000e+00,1.000000000000000000e+00,1.000000000000000000e+00,1.000000000000000000e+00,1.000000000000000000e+00,1.000000000000000000e+00,1.808608770370483398e-01,1.765596389770507924e-01,1.732739925384521595e-01,1.705698013305664007e-01,1.678688764572143499e-01,1.675441265106201172e-01,1.675332427024841253e-01,1.680144786834716908e-01,1.698539376258850209e-01,1.765358805656433161e-01,1.000000000000000000e+00,1.841327428817748912e-01,1.799997687339782715e-01,1.760482311248779408e-01,1.737636923789978027e-01,1.719125628471374623e-01,1.707954287528991588e-01,1.696927070617675892e-01,1.686041593551635687e-01,1.701835274696349987e-01,1.721618294715881459e-01,1.736631035804748480e-01,1.000000000000000000e+00,1.000000000000000000e+00,1.000000000000000000e+00,1.000000000000000000e+00,1.000000000000000000e+00,1.000000000000000000e+00,1.000000000000000000e+00,1.000000000000000000e+00,1.000000000000000000e+00,1.000000000000000000e+00,1.000000000000000000e+00,1.000000000000000000e+00,1.000000000000000000e+00,1.000000000000000000e+00,1.000000000000000000e+00,9.682275772094726118e-01,9.365819931030273660e-01,9.069395065307617188e-01,8.791157722473144087e-01,8.529483795166015181e-01,8.282938003540039062e-01,8.050245285034179910e-01,7.830268383026123269e-01,7.622002601623535378e-01,7.424531459808350053e-01
6.199652671813964400e-01,6.356983184814453125e-01,6.522506713867187722e-01,6.696880340576172319e-01,6.880834102630615234e-01,7.075178623199462891e-01,7.280820846557617410e-01,7.498754024505615012e-01,7.730134010314941850e-01,7.976246833801269309e-01,8.238547325134277788e-01,8.518686294555664062e-01,8.818547248840331587e-01,9.140288352966308150e-01,9.486395835876464400e-01,9.859746932983398660e-01,1.000000000000000000e+00,1.000000000000000000e+00,1.000000000000000000e+00,1.000000000000000000e+00,1.000000000000000000e+00,1.000000000000000000e+00,1.000000000000000000e+00,1.000000000000000000e+00,1.000000000000000000e+00,1.000000000000000000e+00,1.000000000000000000e+00,1.000000000000000000e+00,1.000000000000000000e+00,1.000000000000000000e+00,1.000000000000000000e+00,1.000000000000000000e+00,1.000000000000000000e+00,1.819493055343627819e-01,1.779392838478088268e-01,1.742053389549255427e-01,1.714781045913696400e-01,1.684485554695129284e-01,1.678715705871582087e-01,1.675467967987060436e-01,1.678919076919555553e-01,1.695384025573730413e-01,1.758078813552856334e-01,1.000000000000000000e+00,1.857766509056091309e-01,1.807634711265563854e-01,1.767786979675292913e-01,1.734797000885009710e-01,1.717074275016784723e-01,1.705929517745971569e-01,1.694928407669067383e-01,1.684068441390991211e-01,1.685789346694946400e-01,1.705198884010314941e-01,1.725060701370239313e-01,1.000000000000000000e+00,1.000000000000000000e+00,1.000000000000000000e+00,1.000000000000000000e+00,1.000000000000000000e+00,1.000000000000000000e+00,1.000000000000000000e+00,1.000000000000000000e+00,1.000000000000000000e+00,1.000000000000000000e+00,1.000000000000000000e+00,1.000000000000000000e+00,1.000000000000000000e+00,1.000000000000000000e+00,1.000000000000000000e+00,9.682560920715331809e-01,9.366086006164551225e-01,9.069644927978515181e-01,8.791392326354980913e-01,8.529705047607422097e-01,8.283150672912598100e-01,8.050458908081055132e-01,7.830483436584472212e-01,7.622210025787353738e-01,7.424727916717529519e-01
6.199519157409667525e-01,6.356842517852783203e-01,6.522358894348144753e-01,6.696724891662597656e-01,6.880669593811035156e-01,7.075005054473877397e-01,7.280636787414550559e-01,7.498579978942870872e-01,7.729950428009033647e-01,7.976052761077880859e-01,8.238339424133300781e-01,8.518463134765624778e-01,8.818307876586913840e-01,9.140031814575195757e-01,9.486119270324706587e-01,9.859448432922363059e-01,1.000000000000000000e+00,1.000000000000000000e+00,1.000000000000000000e+00,1.000000000000000000e+00,1.000000000000000000e+00,1.000000000000000000e+00,1.000000000000000000e+00,1.000000000000000000e+00,1.000000000000000000e+00,1.000000000000000000e+00,1.000000000000000000e+00,1.000000000000000000e+00,1.000000000000000000e+00,1.000000000000000000e+00,1.000000000000000000e+00,1.000000000000000000e+00,1.000000000000000000e+00,1.829302191734313854e-01,1.793384075164795033e-01,1.751467585563659668e-01,1.723961114883422741e-01,1.693343281745910700e-01,1.682002782821655218e-01,1.678742527961731013e-01,1.677695155143737737e-01,1.692240238189697266e-01,1.750858664512634222e-01,1.000000000000000000e+00,1.000000000000000000e+00,1.828469395637512263e-01,1.779329419136047308e-01,1.736708879470825195e-01,1.715027809143066517e-01,1.703909516334533580e-01,1.692934393882751520e-01,1.682099819183349720e-01,1.671616196632385309e-01,1.689349770545959528e-01,1.708575963973998912e-01,1.728516936302185170e-01,1.000000000000000000e+00,1.000000000000000000e+00,1.000000000000000000e+00,1.000000000000000000e+00,1.000000000000000000e+00,1.000000000000000000e+00,1.000000000000000000e+00,1.000000000000000000e+00,1.000000000000000000e+00,1.000000000000000000e+00,1.000000000000000000e+00,1.000000000000000000e+00,1.000000000000000000e+00,1.000000000000000000e+00,9.682846069335937500e-01,9.366352081298827681e-01,9.069893836975098100e-01,8.791641235351562722e-01,8.529953956604003906e-01,8.283394813537597878e-01,8.050689697265625000e-01,7.830701828002929465e-01,7.622416973114013450e-01,7.424925327301025169e-01
6.199385643005370650e-01,6.356702327728271928e-01,6.522211074829101785e-01,6.696568965911865456e-01,6.880505084991455078e-01,7.074831008911133257e-01,7.280453205108642356e-01,7.498384475708007590e-01,7.729767322540282981e-01,7.975857257843017578e-01,8.238131523132323775e-01,8.518240928649902788e-01,8.818069458007812278e-01,9.139775276184082253e-01,9.485843658447266069e-01,9.859149932861328569e-01,1.000000000000000000e+00,1.000000000000000000e+00,1.000000000000000000e+00,1.000000000000000000e+00,1.000000000000000000e+00,1.000000000000000000e+00,1.000000000000000000e+00,1.000000000000000000e+00,1.000000000000000000e+00,1.000000000000000000e+00,1.000000000000000000e+00,1.000000000000000000e+00,1.000000000000000000e+00,1.000000000000000000e+00,1.000000000000000000e+00,1.000000000000000000e+00,1.000000000000000000e+00,1.839217543601989746e-01,1.802913188934326116e-01,1.764675974845886230e-01,1.733240008354187123e-01,1.702294826507568248e-01,1.685302853584289551e-01,1.682029962539672852e-01,1.678769469261169323e-01,1.689108133316040150e-01,1.743697524070739746e-01,1.000000000000000000e+00,1.000000000000000000e+00,1.850390791893005427e-01,1.800081849098205677e-01,1.752436041831970104e-01,1.712997078895568959e-01,1.701910853385925348e-01,1.690967440605163630e-01,1.681422114372253529e-01,1.672886133193969838e-01,1.688621163368225209e-01,1.707301497459411677e-01,1.726283550262451283e-01,1.000000000000000000e+00,1.000000000000000000e+00,1.000000000000000000e+00,1.000000000000000000e+00,1.000000000000000000e+00,1.000000000000000000e+00,1.000000000000000000e+00,1.000000000000000000e+00,1.000000000000000000e+00,1.000000000000000000e+00,1.000000000000000000e+00,1.000000000000000000e+00,1.000000000000000000e+00,1.000000000000000000e+00,9.683139801025391069e-01,9.366645812988281250e-01,9.070185661315918191e-01,8.791916847229004350e-01,8.530214309692383257e-01,8.283639907836913840e-01,8.050921440124512163e-01,7.830921173095702903e-01,7.622623920440674272e-01,7.425121307373047097e-01
6.199252128601073775e-01,6.356562137603759544e-01,6.522063732147216353e-01,6.696413516998290794e-01,6.880341053009033647e-01,7.074657440185546653e-01,7.280269145965576616e-01,7.498189449310302956e-01,7.729558944702148438e-01,7.975662231445312944e-01,8.237922668457031694e-01,8.518018722534179688e-01,8.817831039428710715e-01,9.139519691467284934e-01,9.485567092895508257e-01,9.858851432800292969e-01,1.000000000000000000e+00,1.000000000000000000e+00,1.000000000000000000e+00,1.000000000000000000e+00,1.000000000000000000e+00,1.000000000000000000e+00,1.000000000000000000e+00,1.000000000000000000e+00,1.000000000000000000e+00,1.000000000000000000e+00,1.000000000000000000e+00,1.000000000000000000e+00,1.000000000000000000e+00,1.000000000000000000e+00,1.000000000000000000e+00,1.000000000000000000e+00,1.000000000000000000e+00,1.000000000000000000e+00,1.812543869018554688e-01,1.777274608612060547e-01,1.742619276046752930e-01,1.711341500282287653e-01,1.688615918159484808e-01,1.685330033302307184e-01,1.682057023048400823e-01,1.684911489486694280e-01,1.736594796180725153e-01,1.000000000000000000e+00,1.000000000000000000e+00,1.000000000000000000e+00,1.821324110031127819e-01,1.771727561950683649e-01,1.713690042495727428e-01,1.700069308280944824e-01,1.691343545913696345e-01,1.682706952095031627e-01,1.674157977104187012e-01,1.686108946800231878e-01,1.706610918045043945e-01,1.725638866424560602e-01,1.000000000000000000e+00,1.000000000000000000e+00,1.000000000000000000e+00,1.000000000000000000e+00,1.000000000000000000e+00,1.000000000000000000e+00,1.000000000000000000e+00,1.000000000000000000e+00,1.000000000000000000e+00,1.000000000000000000e+00,1.000000000000000000e+00,1.000000000000000000e+00,1.000000000000000000e+00,1.000000000000000000e+00,9.683473587036133257e-01,9.366958618164062944e-01,9.070479393005370650e-01,8.792192459106444868e-01,8.530472755432129128e-01,8.283885002136230913e-01,8.051152229309082031e-01,7.831139564514160156e-01,7.622831821441650169e-01,7.425317764282226562e-01
6.199119091033935547e-01,6.356421947479248269e-01,6.521915912628173384e-01,6.696257591247558594e-01,6.880176544189453569e-01,7.074483394622802512e-01,7.280085086822509766e-01,7.497994422912597212e-01,7.729351520538330078e-01,7.975440025329589844e-01,8.237714767456054688e-01,8.517795562744140403e-01,8.817592620849609153e-01,9.139263153076171431e-01,9.485291481018066628e-01,9.858553886413574663e-01,1.000000000000000000e+00,1.000000000000000000e+00,1.000000000000000000e+00,1.000000000000000000e+00,1.000000000000000000e+00,1.000000000000000000e+00,1.000000000000000000e+00,1.000000000000000000e+00,1.000000000000000000e+00,1.000000000000000000e+00,1.000000000000000000e+00,1.000000000000000000e+00,1.000000000000000000e+00,1.000000000000000000e+00,1.000000000000000000e+00,1.000000000000000000e+00,1.000000000000000000e+00,1.000000000000000000e+00,1.822278022766113392e-01,1.786632537841796875e-01,1.752097010612487793e-01,1.720654726028442438e-01,1.693915843963623158e-01,1.687337398529052679e-01,1.683967590332031139e-01,1.686584949493408203e-01,1.734790682792663463e-01,1.000000000000000000e+00,1.000000000000000000e+00,1.000000000000000000e+00,1.843073725700378473e-01,1.785158157348632757e-01,1.719537615776061956e-01,1.704895257949829157e-01,1.695138096809387096e-01,1.685492157936096247e-01,1.675955295562744085e-01,1.683604240417480580e-01,1.704044938087463379e-01,1.724988222122192383e-01,1.000000000000000000e+00,1.000000000000000000e+00,1.000000000000000000e+00,1.000000000000000000e+00,1.000000000000000000e+00,1.000000000000000000e+00,1.000000000000000000e+00,1.000000000000000000e+00,1.000000000000000000e+00,1.000000000000000000e+00,1.000000000000000000e+00,1.000000000000000000e+00,1.000000000000000000e+00,1.000000000000000000e+00,9.683808326721191628e-01,9.367271423339843528e-01,9.070772171020508035e-01,8.792468070983886497e-01,8.530733108520507368e-01,8.284129142761230691e-01,8.051383018493651900e-01,7.831357955932617410e-01,7.623038768768310991e-01,7.425514221191406028e-01
6.198985576629638672e-01,6.356281757354735884e-01,6.521768093109130415e-01,6.696102142333983931e-01,6.880012035369873491e-01,7.074309825897217019e-01,7.279901027679442915e-01,7.497798919677733931e-01,7.729144096374511719e-01,7.975219249725341575e-01,8.237479209899902788e-01,8.517573356628418413e-01,8.817354202270507590e-01,9.139006614685059038e-01,9.485015869140625000e-01,9.858255386352539062e-01,1.000000000000000000e+00,1.000000000000000000e+00,1.000000000000000000e+00,1.000000000000000000e+00,1.000000000000000000e+00,1.000000000000000000e+00,1.000000000000000000e+00,1.000000000000000000e+00,1.000000000000000000e+00,1.000000000000000000e+00,1.000000000000000000e+00,1.000000000000000000e+00,1.000000000000000000e+00,1.000000000000000000e+00,1.000000000000000000e+00,1.000000000000000000e+00,1.000000000000000000e+00,1.000000000000000000e+00,1.832513689994811901e-01,1.796724200248718262e-01,1.762305855751037653e-01,1.730865240097045898e-01,1.701394796371459850e-01,1.693668365478515625e-01,1.686011552810668945e-01,1.689689278602600209e-01,1.736058235168456976e-01,1.000000000000000000e+00,1.000000000000000000e+00,1.000000000000000000e+00,1.000000000000000000e+00,1.787314414978027344e-01,1.724655985832214411e-01,1.714410543441772516e-01,1.703550577163696345e-01,1.692827224731445201e-01,1.682238221168518011e-01,1.696184396743774525e-01,1.714442253112792858e-01,1.733232498168945368e-01,1.000000000000000000e+00,1.000000000000000000e+00,1.000000000000000000e+00,1.000000000000000000e+00,1.000000000000000000e+00,1.000000000000000000e+00,1.000000000000000000e+00,1.000000000000000000e+00,1.000000000000000000e+00,1.000000000000000000e+00,1.000000000000000000e+00,1.000000000000000000e+00,1.000000000000000000e+00,1.000000000000000000e+00,9.684142112731933816e-01,9.367584228515625222e-01,9.071065902709960493e-01,8.792743682861328125e-01,8.530992507934570535e-01,8.284374237060546653e-01,8.051614761352539062e-01,7.831577301025390847e-01,7.623245716094970703e-01,7.425711154937744141e-01
6.198852062225341797e-01,6.356141090393065962e-01,6.521620750427246094e-01,6.695946216583251731e-01,6.879848003387450950e-01,7.074136257171630415e-01,7.279716968536377175e-01,7.497603893280029297e-01,7.728936672210693359e-01,7.974998474121093306e-01,8.237243652343749778e-01,8.517322540283203125e-01,8.817115783691406028e-01,9.138750076293945535e-01,9.484739303588867188e-01,9.857956886291503462e-01,1.000000000000000000e+00,1.000000000000000000e+00,1.000000000000000000e+00,1.000000000000000000e+00,1.000000000000000000e+00,1.000000000000000000e+00,1.000000000000000000e+00,1.000000000000000000e+00,1.000000000000000000e+00,1.000000000000000000e+00,1.000000000000000000e+00,1.000000000000000000e+00,1.000000000000000000e+00,1.000000000000000000e+00,1.000000000000000000e+00,1.000000000000000000e+00,1.000000000000000000e+00,1.000000000000000000e+00,1.000000000000000000e+00,1.808584809303283580e-01,1.773238658905029186e-01,1.741319298744201660e-01,1.710204243659973200e-01,1.701368570327758678e-01,1.693726181983947754e-01,1.699280142784118652e-01,1.741124629974365179e-01,1.000000000000000000e+00,1.000000000000000000e+00,1.000000000000000000e+00,1.832735180854797308e-01,1.760464906692504883e-01,1.739149808883667103e-01,1.724213480949401966e-01,1.709684610366821178e-01,1.698884248733520397e-01,1.695230126380920521e-01,1.711357951164245716e-01,1.728494167327880859e-01,1.000000000000000000e+00,1.000000000000000000e+00,1.000000000000000000e+00,1.000000000000000000e+00,1.000000000000000000e+00,1.000000000000000000e+00,1.000000000000000000e+00,1.000000000000000000e+00,1.000000000000000000e+00,1.000000000000000000e+00,1.000000000000000000e+00,1.000000000000000000e+00,1.000000000000000000e+00,1.000000000000000000e+00,1.000000000000000000e+00,9.684476852416992188e-01,9.367897033691405806e-01,9.071359634399414062e-01,8.793019294738769753e-01,8.531251907348632590e-01,8.284618377685546431e-01,8.051845550537108931e-01,7.831795692443848100e-01,7.623452663421630415e-01,7.425907611846923606e-01
6.198718547821044922e-01,6.356000900268554688e-01,6.521472930908203125e-01,6.695790767669678178e-01,6.879683494567870872e-01,7.073962211608886275e-01,7.279532909393310325e-01,7.497408866882324663e-01,7.728729248046875000e-01,7.974777698516846147e-01,8.237008094787597878e-01,8.517070770263671653e-01,8.816846847534179910e-01,9.138494491577148215e-01,9.484462738037109375e-01,9.857658386230468972e-01,1.000000000000000000e+00,1.000000000000000000e+00,1.000000000000000000e+00,1.000000000000000000e+00,1.000000000000000000e+00,1.000000000000000000e+00,1.000000000000000000e+00,1.000000000000000000e+00,1.000000000000000000e+00,1.000000000000000000e+00,1.000000000000000000e+00,1.000000000000000000e+00,1.000000000000000000e+00,1.000000000000000000e+00,1.000000000000000000e+00,1.000000000000000000e+00,1.000000000000000000e+00,1.000000000000000000e+00,1.850342154502868652e-01,1.808698534965515192e-01,1.772975087165832575e-01,1.741563081741333008e-01,1.720953464508056530e-01,1.710923790931701549e-01,1.702047228813171331e-01,1.719595313072204701e-01,1.764324188232421764e-01,1.000000000000000000e+00,1.000000000000000000e+00,1.876323938369751088e-01,1.803895711898803600e-01,1.773115038871765081e-01,1.757592439651489147e-01,1.742339015007018932e-01,1.727348089218139759e-01,1.710572838783264160e-01,1.716583490371704213e-01,1.728760123252868763e-01,1.743542432785034069e-01,1.000000000000000000e+00,1.000000000000000000e+00,1.000000000000000000e+00,1.000000000000000000e+00,1.000000000000000000e+00,1.000000000000000000e+00,1.000000000000000000e+00,1.000000000000000000e+00,1.000000000000000000e+00,1.000000000000000000e+00,1.000000000000000000e+00,1.000000000000000000e+00,1.000000000000000000e+00,1.000000000000000000e+00,1.000000000000000000e+00,9.684811592102050559e-01,9.368209838867187500e-01,9.071653366088867632e-01,8.793294906616211382e-01,8.531511306762695757e-01,8.284863471984863503e-01,8.052076339721679910e-01,7.832014083862304243e-01,7.623660564422607422e-01,7.426104068756103072e-01
6.198585033416748047e-01,6.355860710144043413e-01,6.521325111389160156e-01,6.695634841918944868e-01,6.879519462585449441e-01,7.073788642883300781e-01,7.279348850250244585e-01,7.497213363647461382e-01,7.728521823883056641e-01,7.974556922912597878e-01,8.236772537231444868e-01,8.516818046569823997e-01,8.816576957702636497e-01,9.138206481933593972e-01,9.484188079833983931e-01,9.857360839843749556e-01,1.000000000000000000e+00,1.000000000000000000e+00,1.000000000000000000e+00,1.000000000000000000e+00,1.000000000000000000e+00,1.000000000000000000e+00,1.000000000000000000e+00,1.000000000000000000e+00,1.000000000000000000e+00,1.000000000000000000e+00,1.000000000000000000e+00,1.000000000000000000e+00,1.000000000000000000e+00,1.000000000000000000e+00,1.000000000000000000e+00,1.000000000000000000e+00,1.000000000000000000e+00,1.000000000000000000e+00,1.849105834960937389e-01,1.807216048240661566e-01,1.772401928901672363e-01,1.748294830322265625e-01,1.734303236007690430e-01,1.723925352096557506e-01,1.713670969009399303e-01,1.745160460472106878e-01,1.792059063911438099e-01,1.000000000000000000e+00,1.913390040397643932e-01,1.849523425102233831e-01,1.808433532714843750e-01,1.792289018630981445e-01,1.776430368423461970e-01,1.757884860038757269e-01,1.739907622337341364e-01,1.737167000770568903e-01,1.749314069747924805e-01,1.761961102485656849e-01,1.000000000000000000e+00,1.000000000000000000e+00,1.000000000000000000e+00,1.000000000000000000e+00,1.000000000000000000e+00,1.000000000000000000e+00,1.000000000000000000e+00,1.000000000000000000e+00,1.000000000000000000e+00,1.000000000000000000e+00,1.000000000000000000e+00,1.000000000000000000e+00,1.000000000000000000e+00,1.000000000000000000e+00,1.000000000000000000e+00,1.000000000000000000e+00,9.685146331787108931e-01,9.368522644042969194e-01,9.071946144104003906e-01,8.793570518493651900e-01,8.531770706176757812e-01,8.285107612609863281e-01,8.052308082580565962e-01,7.832232475280761497e-01,7.623867511749267134e-01,7.426300525665283647e-01
6.198377609252929688e-01,6.355686187744140625e-01,6.521177768707275835e-01,6.695479393005371316e-01,6.879354953765869363e-01,7.073615074157715288e-01,7.279164791107177734e-01,7.497018337249755637e-01,7.728314399719238281e-01,7.974336147308349609e-01,8.236536979675292969e-01,8.516566276550292525e-01,8.816307067871094194e-01,9.137916564941406250e-01,9.483878135681151900e-01,9.857063293457031250e-01,1.000000000000000000e+00,1.000000000000000000e+00,1.000000000000000000e+00,1.000000000000000000e+00,1.000000000000000000e+00,1.000000000000000000e+00,1.000000000000000000e+00,1.000000000000000000e+00,1.000000000000000000e+00,1.000000000000000000e+00,1.000000000000000000e+00,1.000000000000000000e+00,1.000000000000000000e+00,1.000000000000000000e+00,1.000000000000000000e+00,1.000000000000000000e+00,1.000000000000000000e+00,1.000000000000000000e+00,1.844808578491211049e-01,1.803111076354980413e-01,1.775009393692016657e-01,1.753912806510925237e-01,1.750231504440307728e-01,1.739662647247314509e-01,1.729414582252502552e-01,1.775459647178649902e-01,1.000000000000000000e+00,1.951949834823608343e-01,1.893666863441467174e-01,1.845187425613403209e-01,1.828383326530456654e-01,1.807888627052307018e-01,1.787261486053466908e-01,1.770652174949645941e-01,1.767813801765441839e-01,1.770362496376037542e-01,1.783316850662231556e-01,1.000000000000000000e+00,1.000000000000000000e+00,1.000000000000000000e+00,1.000000000000000000e+00,1.000000000000000000e+00,1.000000000000000000e+00,1.000000000000000000e+00,1.000000000000000000e+00,1.000000000000000000e+00,1.000000000000000000e+00,1.000000000000000000e+00,1.000000000000000000e+00,1.000000000000000000e+00,1.000000000000000000e+00,1.000000000000000000e+00,1.000000000000000000e+00,1.000000000000000000e+00,9.685481071472168413e-01,9.368836402893065962e-01,9.072239875793457475e-01,8.793846130371093528e-01,8.532030105590819868e-01,8.285352706909179243e-01,8.052538871765136941e-01,7.832451820373534934e-01,7.624074459075927956e-01,7.426497936248779297e-01
6.198148250579833540e-01,6.355445384979248047e-01,6.520934104919433594e-01,6.695271492004394309e-01,6.879187107086182085e-01,7.073441028594971147e-01,7.278981208801269531e-01,7.496823310852051003e-01,7.728106975555419922e-01,7.974115371704101340e-01,8.236301422119141069e-01,8.516314506530762163e-01,8.816037178039550781e-01,9.137626647949218528e-01,9.483565330505371316e-01,9.856729507446289062e-01,1.000000000000000000e+00,1.000000000000000000e+00,1.000000000000000000e+00,1.000000000000000000e+00,1.000000000000000000e+00,1.000000000000000000e+00,1.000000000000000000e+00,1.000000000000000000e+00,1.000000000000000000e+00,1.000000000000000000e+00,1.000000000000000000e+00,1.000000000000000000e+00,1.000000000000000000e+00,1.000000000000000000e+00,1.000000000000000000e+00,1.000000000000000000e+00,1.000000000000000000e+00,1.000000000000000000e+00,1.840531468391418402e-01,1.802552938461303711e-01,1.778245806694030706e-01,1.763346195220947266e-01,1.765025615692138727e-01,1.755689620971679632e-01,1.759164571762084905e-01,1.806829094886779896e-01,1.000000000000000000e+00,1.938063144683837835e-01,1.883191108703613226e-01,1.860820293426513616e-01,1.838974952697753906e-01,1.817636489868164062e-01,1.802502632141113337e-01,1.799561500549316517e-01,1.796629548072815052e-01,1.805196762084960993e-01,1.000000000000000000e+00,1.000000000000000000e+00,1.000000000000000000e+00,1.000000000000000000e+00,1.000000000000000000e+00,1.000000000000000000e+00,1.000000000000000000e+00,1.000000000000000000e+00,1.000000000000000000e+00,1.000000000000000000e+00,1.000000000000000000e+00,1.000000000000000000e+00,1.000000000000000000e+00,1.000000000000000000e+00,1.000000000000000000e+00,1.000000000000000000e+00,1.000000000000000000e+00,1.000000000000000000e+00,9.685814857482910600e-01,9.369148254394531472e-01,9.072532653808593750e-01,8.794121742248535156e-01,8.532289505004883035e-01,8.285597801208496316e-01,8.052769660949706809e-01,7.832670211791992188e-01,7.624282360076903853e-01,7.426694393157958762e-01
6.197942256927490012e-01,6.355204582214355469e-01,6.520680904388427290e-01,6.695004463195800559e-01,6.878904819488524947e-01,7.073193550109863059e-01,7.278776645660400835e-01,7.496628284454345259e-01,7.727899551391601562e-01,7.973894596099853072e-01,8.236065864562988059e-01,8.516062736511230691e-01,8.815767288208007368e-01,9.137336730957030806e-01,9.483253479003905806e-01,9.856391906738281028e-01,1.000000000000000000e+00,1.000000000000000000e+00,1.000000000000000000e+00,1.000000000000000000e+00,1.000000000000000000e+00,1.000000000000000000e+00,1.000000000000000000e+00,1.000000000000000000e+00,1.000000000000000000e+00,1.000000000000000000e+00,1.000000000000000000e+00,1.000000000000000000e+00,1.000000000000000000e+00,1.000000000000000000e+00,1.000000000000000000e+00,1.000000000000000000e+00,1.000000000000000000e+00,1.902724027633667103e-01,1.836273908615112249e-01,1.805249691009521429e-01,1.787943482398986761e-01,1.777117967605590931e-01,1.779554128646850530e-01,1.772014975547790416e-01,1.789955973625182994e-01,1.000000000000000000e+00,2.003606796264648382e-01,1.927888870239257701e-01,1.891594171524047796e-01,1.870516180992126409e-01,1.849061965942382924e-01,1.835520029067993220e-01,1.832470059394836481e-01,1.829430222511291559e-01,1.827620148658752330e-01,1.000000000000000000e+00,1.000000000000000000e+00,1.000000000000000000e+00,1.000000000000000000e+00,1.000000000000000000e+00,1.000000000000000000e+00,1.000000000000000000e+00,1.000000000000000000e+00,1.000000000000000000e+00,1.000000000000000000e+00,1.000000000000000000e+00,1.000000000000000000e+00,1.000000000000000000e+00,1.000000000000000000e+00,1.000000000000000000e+00,1.000000000000000000e+00,1.000000000000000000e+00,1.000000000000000000e+00,1.000000000000000000e+00,9.686149597167968972e-01,9.369462013244629350e-01,9.072826385498047319e-01,8.794398307800292969e-01,8.532549858093261275e-01,8.285842895507812278e-01,8.053001403808593972e-01,7.832889080047606978e-01,7.624489307403564675e-01,7.426890850067138228e-01
6.197808265686035600e-01,6.355043888092041238e-01,6.520465373992919700e-01,6.694737434387206809e-01,6.878623008728027566e-01,7.072895526885986106e-01,7.278460979461669478e-01,7.496332645416259322e-01,7.727649688720703569e-01,7.973673820495605913e-01,8.235830307006836160e-01,8.515810966491699219e-01,8.815497398376465066e-01,9.137046813964844194e-01,9.482940673828125222e-01,9.856054306030272993e-01,1.000000000000000000e+00,1.000000000000000000e+00,1.000000000000000000e+00,1.000000000000000000e+00,1.000000000000000000e+00,1.000000000000000000e+00,1.000000000000000000e+00,1.000000000000000000e+00,1.000000000000000000e+00,1.000000000000000000e+00,1.000000000000000000e+00,1.000000000000000000e+00,1.000000000000000000e+00,1.000000000000000000e+00,1.000000000000000000e+00,1.000000000000000000e+00,1.000000000000000000e+00,1.891082644462585560e-01,1.833747267723083441e-01,1.813236594200134388e-01,1.797747373580932673e-01,1.791846990585327093e-01,1.794323801994323619e-01,1.788646697998046986e-01,1.823211789131164440e-01,1.000000000000000000e+00,1.992628335952758845e-01,1.920606136322021429e-01,1.898880124092102162e-01,1.877640247344970759e-01,1.860071182250976618e-01,1.863515615463256780e-01,1.863450646400451605e-01,1.860307335853576549e-01,1.864767789840698353e-01,1.000000000000000000e+00,1.000000000000000000e+00,1.000000000000000000e+00,1.000000000000000000e+00,1.000000000000000000e+00,1.000000000000000000e+00,1.000000000000000000e+00,1.000000000000000000e+00,1.000000000000000000e+00,1.000000000000000000e+00,1.000000000000000000e+00,1.000000000000000000e+00,1.000000000000000000e+00,1.000000000000000000e+00,1.000000000000000000e+00,1.000000000000000000e+00,1.000000000000000000e+00,1.000000000000000000e+00,1.000000000000000000e+00,9.686484336853027344e-01,9.369774818420409934e-01,9.073120117187499778e-01,8.794673919677734597e-01,8.532809257507324441e-01,8.286087989807129350e-01,8.053233146667480025e-01,7.833108425140380415e-01,7.624696731567383035e-01,7.427087783813476340e-01
6.197674274444580078e-01,6.354903221130371316e-01,6.520317077636719194e-01,6.694572448730469194e-01,6.878397464752197266e-01,7.072602272033691184e-01,7.278144836425781694e-01,7.495997428894043413e-01,7.727294445037842241e-01,7.973318576812744585e-01,8.235525131225586160e-01,8.515559196472167747e-01,8.815227508544921653e-01,9.136756896972656472e-01,9.482628822326659712e-01,9.855717658996582253e-01,1.000000000000000000e+00,1.000000000000000000e+00,1.000000000000000000e+00,1.000000000000000000e+00,1.000000000000000000e+00,1.000000000000000000e+00,1.000000000000000000e+00,1.000000000000000000e+00,1.000000000000000000e+00,1.000000000000000000e+00,1.000000000000000000e+00,1.000000000000000000e+00,1.000000000000000000e+00,1.000000000000000000e+00,1.000000000000000000e+00,1.000000000000000000e+00,1.000000000000000000e+00,1.879582762718200739e-01,1.839255690574645996e-01,1.823320746421814020e-01,1.807659387588501088e-01,1.806822299957275280e-01,1.809340596199035534e-01,1.805593490600586049e-01,1.920321464538574108e-01,1.000000000000000000e+00,1.981792688369750921e-01,1.928117513656616155e-01,1.906222343444824163e-01,1.885357618331909291e-01,1.879323124885559082e-01,1.882819414138793834e-01,1.885899066925048884e-01,1.888988852500915472e-01,1.000000000000000000e+00,1.000000000000000000e+00,1.000000000000000000e+00,1.000000000000000000e+00,1.000000000000000000e+00,1.000000000000000000e+00,1.000000000000000000e+00,1.000000000000000000e+00,1.000000000000000000e+00,1.000000000000000000e+00,1.000000000000000000e+00,1.000000000000000000e+00,1.000000000000000000e+00,1.000000000000000000e+00,1.000000000000000000e+00,1.000000000000000000e+00,1.000000000000000000e+00,1.000000000000000000e+00,1.000000000000000000e+00,1.000000000000000000e+00,9.686819076538085715e-01,9.370087623596191628e-01,9.073413848876953347e-01,8.794949531555176225e-01,8.533068656921386497e-01,8.286332130432129128e-01,8.053463935852051003e-01,7.833326816558837669e-01,7.624903678894042747e-01,7.427284240722655806e-01
6.197541236877441850e-01,6.354763031005858931e-01,6.520169734954833762e-01,6.694416522979735884e-01,6.878232479095458540e-01,7.072428226470947044e-01,7.277908325195312500e-01,7.495685100555420366e-01,7.726938724517822266e-01,7.972940444946289285e-01,8.235121726989745872e-01,8.515130996704101118e-01,8.814853668212890847e-01,9.136445999145508257e-01,9.482316017150879128e-01,9.855379104614258035e-01,1.000000000000000000e+00,1.000000000000000000e+00,1.000000000000000000e+00,1.000000000000000000e+00,1.000000000000000000e+00,1.000000000000000000e+00,1.000000000000000000e+00,1.000000000000000000e+00,1.000000000000000000e+00,1.000000000000000000e+00,1.000000000000000000e+00,1.000000000000000000e+00,1.000000000000000000e+00,1.000000000000000000e+00,1.000000000000000000e+00,1.000000000000000000e+00,1.000000000000000000e+00,1.870394349098205566e-01,1.849623084068298395e-01,1.833517551422119141e-01,1.819496154785156250e-01,1.822049975395202692e-01,1.824611067771911566e-01,1.853651285171508678e-01,1.000000000000000000e+00,2.050662279129028265e-01,1.971155166625976618e-01,1.935688138008117565e-01,1.914001345634460394e-01,1.894161224365234486e-01,1.898977518081665095e-01,1.902527570724487360e-01,1.905672073364257924e-01,1.000000000000000000e+00,1.000000000000000000e+00,1.000000000000000000e+00,1.000000000000000000e+00,1.000000000000000000e+00,1.000000000000000000e+00,1.000000000000000000e+00,1.000000000000000000e+00,1.000000000000000000e+00,1.000000000000000000e+00,1.000000000000000000e+00,1.000000000000000000e+00,1.000000000000000000e+00,1.000000000000000000e+00,1.000000000000000000e+00,1.000000000000000000e+00,1.000000000000000000e+00,1.000000000000000000e+00,1.000000000000000000e+00,1.000000000000000000e+00,1.000000000000000000e+00,9.687152862548827903e-01,9.370401382446289507e-01,9.073707580566405806e-01,8.795225143432616743e-01,8.533328056335449663e-01,8.286577224731445090e-01,8.053695678710937056e-01,7.833545207977294922e-01,7.625105381011962891e-01,7.427464485168456809e-01
6.197407245635986328e-01,6.354622364044189009e-01,6.520021438598633257e-01,6.694260597229003684e-01,6.878067970275878462e-01,7.072254180908202903e-01,7.277724266052245650e-01,7.495490074157714622e-01,7.726690292358397993e-01,7.972606182098388450e-01,8.234717369079589400e-01,8.514699935913085938e-01,8.814390182495117632e-01,9.135948181152343528e-01,9.481855392456054465e-01,9.854987144470215288e-01,1.000000000000000000e+00,1.000000000000000000e+00,1.000000000000000000e+00,1.000000000000000000e+00,1.000000000000000000e+00,1.000000000000000000e+00,1.000000000000000000e+00,1.000000000000000000e+00,1.000000000000000000e+00,1.000000000000000000e+00,1.000000000000000000e+00,1.000000000000000000e+00,1.000000000000000000e+00,1.000000000000000000e+00,1.000000000000000000e+00,1.000000000000000000e+00,1.000000000000000000e+00,1.881612300872802790e-01,1.859181046485900990e-01,1.842935681343078613e-01,1.828236579895019531e-01,1.830426812171936091e-01,1.833375096321105957e-01,1.869969367980957031e-01,1.000000000000000000e+00,2.039163112640380859e-01,1.966079115867614691e-01,1.943528771400451771e-01,1.923075199127197155e-01,1.913205623626708929e-01,1.919047594070434626e-01,1.922652482986450251e-01,1.925863862037658636e-01,1.000000000000000000e+00,1.000000000000000000e+00,1.000000000000000000e+00,1.000000000000000000e+00,1.000000000000000000e+00,1.000000000000000000e+00,1.000000000000000000e+00,1.000000000000000000e+00,1.000000000000000000e+00,1.000000000000000000e+00,1.000000000000000000e+00,1.000000000000000000e+00,1.000000000000000000e+00,1.000000000000000000e+00,1.000000000000000000e+00,1.000000000000000000e+00,1.000000000000000000e+00,1.000000000000000000e+00,1.000000000000000000e+00,1.000000000000000000e+00,1.000000000000000000e+00,9.687487602233886275e-01,9.370714187622070090e-01,9.074000358581543191e-01,8.795500755310058372e-01,8.533587455749511719e-01,8.286821365356444868e-01,8.053913116455078125e-01,7.833739280700683372e-01,7.625282287597656694e-01,7.427631378173827903e-01
6.197273254394530806e-01,6.354481220245361550e-01,6.519873142242431641e-01,6.694104194641112837e-01,6.877903461456298384e-01,7.072080135345458762e-01,7.277539730072021262e-01,7.495294094085693803e-01,7.726482391357422097e-01,7.972385406494140181e-01,8.234455108642577681e-01,8.514341354370117410e-01,8.813927650451660600e-01,9.135450363159179910e-01,9.481319427490234597e-01,9.854408264160156028e-01,1.000000000000000000e+00,1.000000000000000000e+00,1.000000000000000000e+00,1.000000000000000000e+00,1.000000000000000000e+00,1.000000000000000000e+00,1.000000000000000000e+00,1.000000000000000000e+00,1.000000000000000000e+00,1.000000000000000000e+00,1.000000000000000000e+00,1.000000000000000000e+00,1.000000000000000000e+00,1.000000000000000000e+00,1.000000000000000000e+00,1.000000000000000000e+00,1.000000000000000000e+00,1.892965555191040150e-01,1.868838429450988825e-01,1.852424621582031139e-01,1.837290883064270075e-01,1.837969183921814020e-01,1.840941667556762751e-01,1.886577606201171875e-01,1.000000000000000000e+00,2.027791976928710882e-01,1.973981499671935980e-01,1.952885150909423884e-01,1.932235121726989802e-01,1.933579206466674860e-01,1.939546346664428600e-01,1.943207740783691462e-01,1.000000000000000000e+00,1.000000000000000000e+00,1.000000000000000000e+00,1.000000000000000000e+00,1.000000000000000000e+00,1.000000000000000000e+00,1.000000000000000000e+00,1.000000000000000000e+00,1.000000000000000000e+00,1.000000000000000000e+00,1.000000000000000000e+00,1.000000000000000000e+00,1.000000000000000000e+00,1.000000000000000000e+00,1.000000000000000000e+00,1.000000000000000000e+00,1.000000000000000000e+00,1.000000000000000000e+00,1.000000000000000000e+00,1.000000000000000000e+00,1.000000000000000000e+00,1.000000000000000000e+00,9.687823295593261941e-01,9.371026992797851785e-01,9.074295043945312944e-01,8.795768737792968306e-01,8.533823966979980913e-01,8.287030220031738059e-01,8.054109573364257590e-01,7.833924770355225053e-01,7.625458717346191850e-01,7.427798748016357644e-01
6.197139739990233931e-01,6.354341030120849165e-01,6.519725322723388672e-01,6.693947792053223100e-01,6.877738475799560769e-01,7.071905612945557085e-01,7.277355194091796875e-01,7.495098590850830522e-01,7.726274013519287553e-01,7.972164154052734375e-01,8.234219551086425781e-01,8.514088630676269753e-01,8.813651084899902788e-01,9.135063171386719194e-01,9.480804443359375222e-01,9.853829383850097878e-01,1.000000000000000000e+00,1.000000000000000000e+00,1.000000000000000000e+00,1.000000000000000000e+00,1.000000000000000000e+00,1.000000000000000000e+00,1.000000000000000000e+00,1.000000000000000000e+00,1.000000000000000000e+00,1.000000000000000000e+00,1.000000000000000000e+00,1.000000000000000000e+00,1.000000000000000000e+00,1.000000000000000000e+00,1.000000000000000000e+00,1.000000000000000000e+00,1.000000000000000000e+00,1.904456853866577093e-01,1.878596663475036732e-01,1.862111449241638239e-01,1.846594214439392090e-01,1.845573902130127064e-01,1.848571181297302135e-01,1.903483271598815918e-01,2.101643085479736328e-01,2.017038345336913951e-01,1.983634233474731445e-01,1.962332248687744252e-01,1.948332548141479548e-01,1.954391241073608343e-01,1.960487604141235296e-01,1.964207291603088379e-01,1.000000000000000000e+00,1.000000000000000000e+00,1.000000000000000000e+00,1.000000000000000000e+00,1.000000000000000000e+00,1.000000000000000000e+00,1.000000000000000000e+00,1.000000000000000000e+00,1.000000000000000000e+00,1.000000000000000000e+00,1.000000000000000000e+00,1.000000000000000000e+00,1.000000000000000000e+00,1.000000000000000000e+00,1.000000000000000000e+00,1.000000000000000000e+00,1.000000000000000000e+00,1.000000000000000000e+00,1.000000000000000000e+00,1.000000000000000000e+00,1.000000000000000000e+00,1.000000000000000000e+00,9.688156127929687944e-01,9.371320724487304243e-01,9.074552536010742632e-01,8.796003341674805132e-01,8.534045219421386719e-01,8.287239074707031250e-01,8.054306983947754350e-01,7.834111213684081809e-01,7.625634670257568359e-01,7.427966594696044922e-01
6.197005748748779519e-01,6.354200363159179243e-01,6.519577503204345703e-01,6.693792343139648438e-01,6.877573966979980691e-01,7.071732044219970481e-01,7.277171134948730025e-01,7.494903564453124778e-01,7.726066112518310547e-01,7.971942424774169922e-01,8.233983039855956587e-01,8.513835906982422097e-01,8.813381195068359375e-01,9.134773254394531472e-01,9.480491638183593528e-01,9.853408813476562944e-01,1.000000000000000000e+00,1.000000000000000000e+00,1.000000000000000000e+00,1.000000000000000000e+00,1.000000000000000000e+00,1.000000000000000000e+00,1.000000000000000000e+00,1.000000000000000000e+00,1.000000000000000000e+00,1.000000000000000000e+00,1.000000000000000000e+00,1.000000000000000000e+00,1.000000000000000000e+00,1.000000000000000000e+00,1.000000000000000000e+00,1.000000000000000000e+00,1.000000000000000000e+00,1.916088342666625866e-01,1.888457298278808649e-01,1.872074484825134166e-01,1.856391310691833385e-01,1.853241801261901744e-01,1.856263875961303711e-01,1.919108629226684570e-01,2.090663194656371959e-01,2.019130706787109486e-01,1.995144248008728083e-01,1.971871018409729059e-01,1.969465255737304632e-01,1.975656032562255748e-01,1.981886267662048284e-01,1.000000000000000000e+00,1.000000000000000000e+00,1.000000000000000000e+00,1.000000000000000000e+00,1.000000000000000000e+00,1.000000000000000000e+00,1.000000000000000000e+00,1.000000000000000000e+00,1.000000000000000000e+00,1.000000000000000000e+00,1.000000000000000000e+00,1.000000000000000000e+00,1.000000000000000000e+00,1.000000000000000000e+00,1.000000000000000000e+00,1.000000000000000000e+00,1.000000000000000000e+00,1.000000000000000000e+00,1.000000000000000000e+00,1.000000000000000000e+00,1.000000000000000000e+00,1.000000000000000000e+00,1.000000000000000000e+00,9.688441276550292525e-01,9.371587753295897993e-01,9.074802398681640625e-01,8.796237945556640847e-01,8.534266471862792525e-01,8.287447929382324441e-01,8.054504394531250000e-01,7.834298133850097212e-01,7.625811576843262163e-01,7.428133487701416016e-01
6.196872234344482644e-01,6.354059696197509322e-01,6.519429206848144087e-01,6.693635940551757590e-01,6.877408981323241965e-01,7.071557521820068803e-01,7.276986598968505637e-01,7.494707584381103960e-01,7.725858688354492188e-01,7.971721649169921653e-01,8.233747482299804688e-01,8.513584136962890625e-01,8.813110351562499778e-01,9.134482383728027566e-01,9.480177879333495650e-01,9.853070259094238725e-01,1.000000000000000000e+00,1.000000000000000000e+00,1.000000000000000000e+00,1.000000000000000000e+00,1.000000000000000000e+00,1.000000000000000000e+00,1.000000000000000000e+00,1.000000000000000000e+00,1.000000000000000000e+00,1.000000000000000000e+00,1.000000000000000000e+00,1.000000000000000000e+00,1.000000000000000000e+00,1.000000000000000000e+00,1.000000000000000000e+00,1.000000000000000000e+00,1.000000000000000000e+00,1.927862763404846191e-01,1.898422002792358454e-01,1.882144331932067982e-01,1.866292834281921276e-01,1.862085700035095159e-01,1.864021182060241755e-01,1.933024287223815973e-01,2.079809904098510742e-01,2.031947374343872070e-01,2.007656812667846791e-01,1.986154317855834961e-01,1.991613388061523326e-01,1.997393369674682617e-01,2.003756999969482366e-01,1.000000000000000000e+00,1.000000000000000000e+00,1.000000000000000000e+00,1.000000000000000000e+00,1.000000000000000000e+00,1.000000000000000000e+00,1.000000000000000000e+00,1.000000000000000000e+00,1.000000000000000000e+00,1.000000000000000000e+00,1.000000000000000000e+00,1.000000000000000000e+00,1.000000000000000000e+00,1.000000000000000000e+00,1.000000000000000000e+00,1.000000000000000000e+00,1.000000000000000000e+00,1.000000000000000000e+00,1.000000000000000000e+00,1.000000000000000000e+00,1.000000000000000000e+00,1.000000000000000000e+00,1.000000000000000000e+00,9.688726425170898215e-01,9.371854782104491743e-01,9.075053215026855913e-01,8.796472549438476562e-01,8.534487724304199441e-01,8.287655830383300337e-01,8.054700851440429465e-01,7.834483623504638894e-01,7.625988483428954856e-01,7.428301334381103294e-01
6.196738719940185769e-01,6.353919506072998047e-01,6.519280910491943581e-01,6.693480014801025391e-01,6.877243995666504350e-01,7.071382999420166016e-01,7.276801586151122603e-01,7.494511604309082031e-01,7.725650787353515181e-01,7.971499919891357200e-01,8.233510971069335493e-01,8.513331413269042969e-01,8.812839508056640181e-01,9.134191513061523660e-01,9.479866027832031250e-01,9.852732658386230691e-01,1.000000000000000000e+00,1.000000000000000000e+00,1.000000000000000000e+00,1.000000000000000000e+00,1.000000000000000000e+00,1.000000000000000000e+00,1.000000000000000000e+00,1.000000000000000000e+00,1.000000000000000000e+00,1.000000000000000000e+00,1.000000000000000000e+00,1.000000000000000000e+00,1.000000000000000000e+00,1.000000000000000000e+00,1.000000000000000000e+00,1.000000000000000000e+00,1.000000000000000000e+00,1.939782977104186901e-01,1.908622264862060436e-01,1.892323493957519531e-01,1.876300692558288685e-01,1.871479153633117676e-01,1.871843576431274359e-01,1.947142839431762751e-01,2.070133447647094782e-01,2.044927358627319225e-01,2.020126104354858509e-01,2.009102106094360352e-01,2.014984130859374944e-01,2.020900964736938588e-01,1.000000000000000000e+00,1.000000000000000000e+00,1.000000000000000000e+00,1.000000000000000000e+00,1.000000000000000000e+00,1.000000000000000000e+00,1.000000000000000000e+00,1.000000000000000000e+00,1.000000000000000000e+00,1.000000000000000000e+00,1.000000000000000000e+00,1.000000000000000000e+00,1.000000000000000000e+00,1.000000000000000000e+00,1.000000000000000000e+00,1.000000000000000000e+00,1.000000000000000000e+00,1.000000000000000000e+00,1.000000000000000000e+00,1.000000000000000000e+00,1.000000000000000000e+00,1.000000000000000000e+00,1.000000000000000000e+00,1.000000000000000000e+00,9.689010620117187722e-01,9.372120857238769309e-01,9.075303077697753906e-01,8.796708106994628462e-01,8.534708023071289062e-01,8.287863731384277344e-01,8.054897308349608931e-01,7.834670066833495650e-01,7.626164436340332475e-01,7.428469181060790572e-01
6.196604728698730247e-01,6.353778839111328125e-01,6.519133090972900613e-01,6.693324565887450728e-01,6.877079963684081809e-01,7.071209430694580522e-01,7.276618003845214400e-01,7.494315624237060103e-01,7.725442409515380637e-01,7.971278667449951394e-01,8.233274459838867410e-01,8.513078689575195312e-01,8.812569618225097878e-01,9.133901596069335938e-01,9.479553222656249556e-01,9.852394104003906472e-01,1.000000000000000000e+00,1.000000000000000000e+00,1.000000000000000000e+00,1.000000000000000000e+00,1.000000000000000000e+00,1.000000000000000000e+00,1.000000000000000000e+00,1.000000000000000000e+00,1.000000000000000000e+00,1.000000000000000000e+00,1.000000000000000000e+00,1.000000000000000000e+00,1.000000000000000000e+00,1.000000000000000000e+00,1.000000000000000000e+00,1.000000000000000000e+00,1.000000000000000000e+00,1.949561357498169056e-01,1.919090509414672907e-01,1.902613282203674261e-01,1.886416316032409612e-01,1.880968093872070201e-01,1.879731655120849554e-01,1.961469292640685980e-01,2.083607673645019587e-01,2.057940721511840876e-01,2.032433032989501842e-01,2.032887697219848688e-01,2.038910150527954157e-01,1.000000000000000000e+00,1.000000000000000000e+00,1.000000000000000000e+00,1.000000000000000000e+00,1.000000000000000000e+00,1.000000000000000000e+00,1.000000000000000000e+00,1.000000000000000000e+00,1.000000000000000000e+00,1.000000000000000000e+00,1.000000000000000000e+00,1.000000000000000000e+00,1.000000000000000000e+00,1.000000000000000000e+00,1.000000000000000000e+00,1.000000000000000000e+00,1.000000000000000000e+00,1.000000000000000000e+00,1.000000000000000000e+00,1.000000000000000000e+00,1.000000000000000000e+00,1.000000000000000000e+00,1.000000000000000000e+00,1.000000000000000000e+00,1.000000000000000000e+00,9.689295768737793413e-01,9.372386932373046875e-01,9.075552940368651900e-01,8.796942710876465288e-01,8.534929275512694868e-01,8.288072586059570535e-01,8.055093765258789507e-01,7.834856033325194868e-01,7.626340866088867632e-01,7.428636074066161665e-01
6.196470737457275835e-01,6.353637695312499556e-01,6.518985271453857644e-01,6.693168163299560991e-01,6.876914978027344194e-01,7.071035385131836382e-01,7.276433467864990012e-01,7.494120597839355469e-01,7.725235462188720925e-01,7.971057891845703125e-01,8.233038902282714400e-01,8.512826919555663840e-01,8.812298774719238281e-01,9.133610725402832031e-01,9.479239463806152788e-01,9.852056503295898438e-01,1.000000000000000000e+00,1.000000000000000000e+00,1.000000000000000000e+00,1.000000000000000000e+00,1.000000000000000000e+00,1.000000000000000000e+00,1.000000000000000000e+00,1.000000000000000000e+00,1.000000000000000000e+00,1.000000000000000000e+00,1.000000000000000000e+00,1.000000000000000000e+00,1.000000000000000000e+00,1.000000000000000000e+00,1.000000000000000000e+00,1.000000000000000000e+00,1.000000000000000000e+00,1.958218097686767467e-01,1.929673910140991266e-01,1.913015127182006725e-01,1.896641612052917536e-01,1.890553951263427845e-01,1.887686729431152233e-01,1.979325294494628795e-01,2.097198247909545787e-01,2.070714235305786133e-01,2.054005146026611217e-01,2.057243108749389759e-01,2.063410997390747181e-01,1.000000000000000000e+00,1.000000000000000000e+00,1.000000000000000000e+00,1.000000000000000000e+00,1.000000000000000000e+00,1.000000000000000000e+00,1.000000000000000000e+00,1.000000000000000000e+00,1.000000000000000000e+00,1.000000000000000000e+00,1.000000000000000000e+00,1.000000000000000000e+00,1.000000000000000000e+00,1.000000000000000000e+00,1.000000000000000000e+00,1.000000000000000000e+00,1.000000000000000000e+00,1.000000000000000000e+00,1.000000000000000000e+00,1.000000000000000000e+00,1.000000000000000000e+00,1.000000000000000000e+00,1.000000000000000000e+00,1.000000000000000000e+00,1.000000000000000000e+00,9.689580917358397993e-01,9.372653961181640625e-01,9.075801849365234819e-01,8.797177314758301003e-01,8.535150527954101785e-01,8.288281440734863725e-01,8.055291175842285156e-01,7.835042476654052734e-01,7.626516819000244141e-01,7.428803920745850053e-01
6.196337699890136497e-01,6.353497028350829634e-01,6.518836975097656028e-01,6.693012237548827681e-01,6.876749992370605469e-01,7.070860862731933594e-01,7.276248931884765625e-01,7.493925094604492188e-01,7.725027084350586382e-01,7.970836162567138672e-01,8.232802391052246316e-01,8.512574195861816184e-01,8.812028884887694868e-01,9.133319854736328125e-01,9.478926658630371094e-01,9.709774017333984153e-01,9.707350730895996094e-01,9.704927444458008035e-01,9.702506065368652344e-01,9.700086593627930132e-01,9.697667121887206809e-01,9.695249557495116965e-01,9.692832946777343306e-01,9.690418243408203125e-01,9.688003540039062944e-01,9.685590744018555132e-01,9.683178901672363503e-01,9.680768966674804243e-01,9.678359031677246094e-01,9.675951004028320312e-01,9.673544883728026900e-01,9.671137809753418413e-01,9.668733596801757368e-01,1.974099397659301869e-01,1.941612958908081055e-01,1.924776196479797419e-01,1.908348202705383301e-01,1.905747175216674916e-01,1.902193427085876465e-01,2.005621671676635631e-01,2.110465288162231556e-01,2.083647251129150391e-01,2.076752662658691295e-01,2.082189321517944336e-01,9.639972686767578347e-01,9.637583732604980691e-01,9.635195732116699219e-01,9.632808685302733931e-01,9.630423545837402122e-01,9.628039360046386497e-01,9.625656127929687056e-01,9.623273849487304910e-01,9.620893478393555132e-01,9.618513107299804243e-01,9.616135597229004128e-01,9.613757133483886719e-01,9.611381530761718972e-01,9.609006881713867410e-01,9.606633186340332031e-01,9.604260444641112837e-01,9.601889610290527122e-01,9.599518775939941406e-01,9.597149848937988059e-01,9.594782829284668191e-01,9.592414855957031028e-01,9.590049743652343528e-01,9.587685585021972212e-01,9.585322380065918191e-01,9.582960128784179243e-01,9.580598831176757590e-01,9.578239440917968306e-01,9.372920989990234375e-01,9.076052665710448997e-01,8.797411918640136719e-01,8.535371780395507590e-01,8.288489341735839622e-01,8.055488586425780806e-01,7.835229396820068137e-01,7.626693725585937944e-01,7.428970813751221147e-01
6.196203708648682085e-01,6.353356838226318359e-01,6.518689632415771706e-01,6.692856311798095481e-01,6.876585960388184038e-01,7.070687294006348100e-01,7.276063919067382590e-01,7.493729114532470259e-01,7.542299747467040572e-01,7.540837764739990456e-01,7.539375305175781694e-01,7.537913799285889116e-01,7.536453723907470259e-01,7.534993171691894975e-01,7.533533096313476118e-01,7.532074451446533203e-01,7.530615806579590288e-01,7.529157161712646262e-01,7.527699470520019531e-01,7.526243209838867632e-01,7.524786949157714622e-01,7.523330688476562722e-01,7.521876335144043191e-01,7.520421504974365012e-01,7.518967151641845481e-01,7.517514228820800781e-01,7.516060829162597434e-01,7.514608383178711382e-01,7.513156890869140403e-01,7.511705398559570535e-01,7.510254383087158203e-01,7.508804798126220703e-01,7.507355213165283203e-01,1.990240335464477650e-01,1.953785657882690374e-01,1.936738014221191517e-01,1.920398950576782116e-01,1.921680450439453014e-01,1.918914794921874889e-01,2.173083066940307562e-01,2.123901128768920787e-01,2.102808475494384877e-01,2.101312637329101618e-01,7.491446495056152122e-01,7.490004062652587669e-01,7.488561630249023215e-01,7.487119197845458762e-01,7.485678672790527788e-01,7.484237670898437056e-01,7.482797622680663618e-01,7.481358528137207475e-01,7.479919433593750222e-01,7.478480815887451616e-01,7.477043628692626731e-01,7.475605964660644309e-01,7.474168777465820535e-01,7.472733020782470481e-01,7.471297264099121538e-01,7.469861507415771484e-01,7.468427658081054910e-01,7.466993331909179688e-01,7.465559482574463113e-01,7.464126586914062722e-01,7.462694644927978516e-01,7.461262702941894309e-01,7.459831237792968750e-01,7.458400726318359375e-01,7.456970691680908647e-01,7.455540657043456809e-01,7.454112052917480913e-01,7.452683448791503906e-01,7.451254844665526900e-01,7.449828147888183372e-01,7.448400974273681197e-01,7.446974277496337669e-01,7.445549011230468972e-01,7.444123744964599165e-01,7.442698478698730469e-01,7.441274166107177956e-01,7.429138183593749778e-01
6.166887283325195312e-01,6.165909290313720259e-01,6.164931774139403853e-01,6.163954734802246094e-01,6.162978172302245872e-01,6.162000656127929465e-01,6.161024570465087891e-01,6.160048961639403853e-01,6.159072875976562278e-01,6.158097267150879350e-01,6.157123088836670144e-01,6.156147956848144753e-01,6.155173301696776900e-01,6.154199600219726340e-01,6.153225898742675781e-01,6.152252197265625222e-01,6.151279449462890847e-01,6.150306224822997825e-01,6.149333477020263450e-01,6.148361682891845259e-01,6.147389411926269531e-01,6.146417617797851340e-01,6.145446300506591797e-01,6.144475936889648438e-01,6.143504619598388894e-01,6.142534255981445535e-01,6.141564369201659712e-01,6.140594482421875000e-01,6.139625072479247825e-01,6.138656139373779297e-01,6.137687206268310769e-01,6.136718273162842241e-01,6.135750770568847434e-01,2.006647348403930720e-01,1.966111898422241155e-01,1.948849201202392523e-01,1.932602643966674916e-01,1.937882542610168402e-01,1.936812758445739802e-01,2.176332950592040905e-01,2.162662982940673773e-01,2.154460191726684515e-01,6.126084804534912553e-01,6.125119686126708762e-01,6.124155044555663618e-01,6.123191356658935769e-01,6.122227191925049272e-01,6.121263027191161665e-01,6.120300292968750000e-01,6.119337081909179688e-01,6.118373870849609375e-01,6.117412090301513894e-01,6.116449356079101118e-01,6.115487575531005637e-01,6.114526271820068803e-01,6.113564968109130859e-01,6.112603664398192915e-01,6.111643314361572266e-01,6.110682964324951616e-01,6.109722614288329856e-01,6.108763217926025391e-01,6.107803821563720925e-01,6.106844425201416460e-01,6.105885982513428178e-01,6.104927062988281250e-01,6.103968620300292969e-01,6.103010654449463335e-01,6.102053165435791238e-01,6.101095676422119141e-01,6.100138664245605691e-01,6.099182128906249778e-01,6.098225593566894975e-01,6.097269535064697710e-01,6.096313953399657981e-01,6.095358371734619363e-01,6.094402790069579634e-01,6.093448162078857200e-01,6.092493534088134766e-01,6.091538906097412331e-01,6.090585231781006081e-01
5.210154056549072266e-01,5.209455966949463335e-01,5.208758354187011941e-01,5.208060741424560547e-01,5.207363128662109153e-01,5.206665992736816406e-01,5.205968856811523660e-01,5.205272197723388450e-01,5.204575538635254350e-01,5.203878402709960493e-01,5.203182220458983931e-01,5.202486515045166016e-01,5.201790332794189453e-01,5.201094627380371538e-01,5.200399398803711160e-01,5.199703693389892134e-01,5.199008464813232866e-01,5.198313713073730025e-01,5.197618961334228294e-01,5.196924209594726562e-01,5.196229934692382368e-01,5.195535659790039285e-01,5.194841384887695090e-01,5.194148063659668191e-01,5.193454265594482644e-01,5.192760467529297097e-01,5.192067623138427734e-01,5.191374301910400835e-01,5.190680980682372825e-01,5.189988136291503462e-01,5.189296245574951394e-01,5.188603401184082031e-01,5.187911033630371316e-01,2.023327350616455078e-01,1.978594660758972168e-01,1.961410999298095759e-01,1.944962739944458008e-01,1.951870918273925781e-01,1.955047607421875056e-01,2.175233840942382701e-01,2.163372278213500921e-01,2.186800241470336914e-01,5.180999755859374556e-01,5.180309295654297319e-01,5.179619312286376509e-01,5.178929805755615456e-01,5.178240299224853294e-01,5.177550792694092241e-01,5.176861286163330078e-01,5.176172256469726562e-01,5.175483226776123047e-01,5.174794673919678178e-01,5.174106597900390847e-01,5.173418045043944868e-01,5.172729492187500000e-01,5.172041893005371316e-01,5.171354293823242632e-01,5.170666217803955300e-01,5.169979095458984153e-01,5.169291973114014116e-01,5.168604850769042969e-01,5.167918205261230469e-01,5.167231559753417969e-01,5.166544914245605469e-01,5.165858745574951616e-01,5.165172576904296653e-01,5.164486408233642800e-01,5.163800716400146484e-01,5.163115024566650169e-01,5.162429809570312500e-01,5.161744117736816184e-01,5.161059379577637163e-01,5.160374641418457031e-01,5.159689903259276900e-01,5.159005641937255415e-01,5.158320903778076394e-01,5.157636642456054910e-01,5.156953334808349609e-01,5.156269073486328125e-01,5.155585289001465288e-01
4.510407924652099498e-01,4.509884357452392800e-01,4.509361743927001731e-01,4.508839130401611217e-01,4.508316040039062611e-01,4.507793426513672097e-01,4.507271289825439675e-01,4.506748676300048606e-01,4.506226539611816184e-01,4.505704402923583762e-01,4.505182266235351340e-01,4.504660606384277566e-01,4.504138469696045144e-01,4.503616809844970814e-01,4.503095149993896484e-01,4.502573966979980247e-01,4.502052783966064564e-01,4.501531600952148326e-01,4.501010417938232644e-01,4.500489711761474498e-01,4.499968528747558816e-01,4.499448299407958762e-01,4.498927593231201172e-01,4.498407363891601674e-01,4.497887134552002175e-01,4.497366905212402122e-01,4.496846675872802623e-01,4.496326923370361217e-01,4.495807170867919811e-01,4.495287418365478405e-01,4.494767665863036998e-01,4.494248390197753684e-01,4.493729114532470925e-01,2.036900281906127985e-01,1.991236805915832520e-01,1.974143266677856334e-01,1.957481741905212347e-01,1.963772058486938366e-01,1.973628878593444713e-01,2.173199653625488281e-01,2.153346776962280218e-01,2.158648252487182506e-01,4.488542079925537109e-01,4.488024234771728627e-01,4.487506389617920144e-01,4.486988544464111106e-01,4.486470699310302623e-01,4.485953330993652233e-01,4.485435962677001842e-01,4.484918594360351451e-01,4.484401226043701061e-01,4.483884334564208762e-01,4.483367443084717019e-01,4.482850551605224720e-01,4.482333660125732422e-01,4.481817245483398215e-01,4.481300830841064564e-01,4.480784416198730358e-01,4.480268001556396706e-01,4.479752063751220592e-01,4.479236125946045033e-01,4.478720188140868919e-01,4.478204727172851451e-01,4.477688789367675892e-01,4.477173328399658425e-01,4.476657867431640403e-01,4.476142883300781028e-01,4.475627422332763561e-01,4.475112438201904186e-01,4.474597454071044811e-01,4.474082946777343528e-01,4.473568439483642800e-01,4.473053455352783425e-01,4.472538948059082142e-01,4.472024440765380859e-01,4.471510410308837669e-01,4.470996379852295033e-01,4.470482349395751842e-01,4.469968795776367299e-01,4.469454765319824108e-01
3.976364850997924916e-01,3.975958108901977428e-01,3.975551605224609264e-01,3.975145339965820424e-01,3.974738836288452259e-01,3.974332571029662864e-01,3.973926782608032116e-01,3.973520755767822044e-01,3.973114728927612527e-01,3.972708702087402455e-01,3.972302913665771706e-01,3.971897125244140403e-01,3.971491336822509655e-01,3.971086263656616322e-01,3.970680713653564342e-01,3.970275402069091686e-01,3.969869375228881614e-01,3.969464302062988281e-01,3.969058990478515625e-01,3.968654155731201061e-01,3.968249320983886497e-01,3.967844247817993164e-01,3.967439413070678600e-01,3.967034578323364036e-01,3.966629981994628795e-01,3.966225862503051647e-01,3.965821266174316406e-01,3.965416669845581166e-01,3.965012311935424694e-01,3.964607954025268777e-01,3.964203834533691628e-01,3.963800191879272572e-01,3.963396072387695424e-01,2.050161600112914984e-01,2.004212379455566351e-01,1.987042188644409235e-01,1.970163106918335072e-01,1.975818991661071888e-01,1.992567062377929576e-01,2.169321060180663951e-01,2.139911174774170033e-01,2.139624357223510742e-01,3.959360599517822155e-01,3.958957433700561745e-01,3.958554744720458873e-01,3.958151817321777233e-01,3.957748889923095592e-01,3.957345962524413951e-01,3.956943273544311634e-01,3.956540584564208762e-01,3.956138610839843861e-01,3.955736160278320312e-01,3.955333709716796764e-01,3.954931259155273215e-01,3.954529047012328991e-01,3.954126834869384766e-01,3.953725337982177956e-01,3.953323125839233176e-01,3.952921390533447044e-01,3.952519416809082142e-01,3.952117681503296009e-01,3.951715946197509877e-01,3.951314449310302512e-01,3.950913429260253795e-01,3.950511932373046986e-01,3.950110435485839622e-01,3.949709415435790905e-01,3.949308156967162864e-01,3.948906898498535378e-01,3.948506355285644753e-01,3.948105573654174805e-01,3.947704553604126088e-01,3.947303771972656139e-01,3.946903228759765514e-01,3.946502447128296120e-01,3.946102380752563588e-01,3.945702075958251731e-01,3.945301532745361106e-01,3.944901227951049805e-01,3.944501161575317272e-01
3.555397272109985241e-01,3.555072307586669700e-01,3.554747104644775391e-01,3.554422140121459850e-01,3.554097414016723633e-01,3.553772449493408092e-01,3.553448200225829967e-01,3.553123474121093750e-01,3.552798748016357533e-01,3.552474021911621316e-01,3.552149534225463867e-01,3.551825046539306419e-01,3.551500558853149525e-01,3.551176548004150169e-01,3.550852298736572044e-01,3.550528049468993919e-01,3.550203800201415794e-01,3.549879789352416992e-01,3.549555778503418191e-01,3.549231767654418834e-01,3.548907756805420033e-01,3.548583745956420676e-01,3.548259973526001199e-01,3.547936201095581166e-01,3.547612428665161133e-01,3.547288656234741100e-01,3.546965599060058483e-01,3.546642065048217773e-01,3.546318531036377064e-01,3.545994997024536355e-01,3.545671701431274414e-01,3.545348405838012473e-01,3.545025587081909180e-01,3.544702291488647239e-01,2.017508506774902399e-01,2.000110387802123968e-01,1.983009696006775013e-01,1.988014817237853948e-01,2.015759229660034069e-01,2.190017223358154408e-01,2.128379106521606501e-01,2.119834899902343639e-01,2.146989822387695424e-01,3.541473865509033314e-01,3.541151523590088113e-01,3.540829420089721680e-01,3.540506839752197155e-01,3.540184497833251953e-01,3.539862155914306752e-01,3.539539813995361550e-01,3.539217710494995117e-01,3.538896083831787331e-01,3.538573980331420898e-01,3.538251876831054465e-01,3.537930011749267356e-01,3.537607908248901478e-01,3.537286043167114369e-01,3.536964654922485352e-01,3.536643028259277566e-01,3.536321401596069225e-01,3.535999774932861439e-01,3.535678148269653098e-01,3.535356760025024636e-01,3.535035610198974387e-01,3.534714221954345925e-01,3.534393072128295676e-01,3.534071683883667214e-01,3.533750534057616965e-01,3.533429384231567272e-01,3.533108234405517578e-01,3.532787561416625977e-01,3.532466650009155051e-01,3.532145738601684681e-01,3.531824827194213756e-01,3.531504154205322155e-01,3.531183481216430553e-01,3.530863285064697044e-01,3.530542612075805442e-01,3.530221939086913840e-01,3.529901504516601562e-01
3.215030431747436523e-01,3.214764595031738281e-01,3.214498758316040039e-01,3.214232921600341797e-01,3.213967323303222878e-01,3.213701963424682728e-01,3.213436365127563255e-01,3.213170766830444336e-01,3.212905168533325417e-01,3.212639808654785267e-01,3.212374448776245117e-01,3.212109088897704967e-01,3.211843967437744141e-01,3.211578607559203991e-01,3.211313486099243164e-01,3.211048126220703014e-01,3.210783004760742188e-01,3.210517883300781361e-01,3.210252761840820535e-01,3.209988117218017800e-01,3.209722995758056419e-01,3.209458112716674916e-01,3.209193229675292858e-01,3.208928108215332031e-01,3.208663225173949973e-01,3.208398580551147239e-01,3.208134174346923828e-01,3.207869291305541770e-01,3.207604646682739036e-01,3.207340240478515625e-01,3.207075595855712891e-01,3.206811189651489480e-01,3.206546545028686745e-01,3.206282377243042103e-01,2.059021472930908092e-01,2.031581163406372126e-01,2.024521827697753906e-01,2.028981685638427679e-01,3.204961061477661355e-01,3.204697132110595481e-01,2.111654996871948353e-01,2.098950386047363226e-01,2.116183757781982533e-01,2.184135913848876953e-01,3.203377008438110241e-01,3.203113555908203014e-01,3.202849626541137695e-01,3.202585697174072377e-01,3.202322006225585826e-01,3.202058315277099831e-01,3.201794624328613281e-01,3.201530933380126731e-01,3.201267719268798828e-01,3.201004028320312278e-01,3.200740575790405051e-01,3.200477123260497825e-01,3.200213670730590598e-01,3.199950218200683372e-01,3.199687242507934792e-01,3.199424028396606334e-01,3.199160814285278431e-01,3.198897600173949973e-01,3.198634386062622070e-01,3.198371171951294167e-01,3.198108434677123801e-01,3.197845458984375222e-01,3.197582483291626088e-01,3.197319507598876953e-01,3.197056531906127819e-01,3.196793794631958008e-01,3.196530818939208873e-01,3.196268320083618386e-01,3.196005821228027344e-01,3.195743083953857533e-01,3.195480346679687722e-01,3.195217847824096680e-01,3.194955110549926869e-01,3.194693088531493919e-01,3.194430589675903431e-01,3.194168090820312389e-01
2.934138059616088756e-01,2.933916568756103627e-01,2.933695316314697266e-01,2.933473825454712136e-01,2.933252573013305775e-01,2.933031558990478738e-01,2.932810306549072377e-01,2.932589054107666016e-01,2.932368040084838978e-01,2.932146787643432617e-01,2.931925773620605580e-01,2.931704521179199219e-01,2.931483745574950950e-01,2.931262731552123912e-01,2.931041955947876199e-01,2.930820941925048606e-01,2.930599927902221569e-01,2.930379152297973855e-01,2.930158376693725586e-01,2.929937839508056641e-01,2.929717063903808372e-01,2.929496288299560658e-01,2.929275512695312389e-01,2.929054737091064675e-01,2.928834199905395730e-01,2.928613662719726785e-01,2.928393363952636608e-01,2.928172349929809570e-01,2.927952051162719949e-01,2.927731513977051003e-01,2.927510976791382058e-01,2.927290678024291881e-01,2.927070140838622936e-01,2.926850080490112083e-01,2.065200567245483454e-01,2.036174058914184681e-01,2.032155275344848522e-01,2.031832218170165905e-01,2.059441804885864258e-01,2.925528764724731334e-01,2.104947328567504938e-01,2.082870483398437389e-01,2.089850187301635631e-01,2.131490230560302845e-01,2.924428939819335715e-01,2.924208879470825417e-01,2.923989295959472656e-01,2.923769474029541127e-01,2.923549652099609597e-01,2.923329830169677512e-01,2.923110008239745983e-01,2.922890186309814453e-01,2.922670841217041016e-01,2.922451019287109486e-01,2.922231435775756725e-01,2.922011852264404519e-01,2.921792268753051758e-01,2.921572685241698997e-01,2.921353340148925559e-01,2.921133995056152122e-01,2.920914649963378684e-01,2.920695066452026478e-01,2.920475721359253041e-01,2.920256376266479603e-01,2.920037031173706166e-01,2.919818162918090820e-01,2.919598817825317383e-01,2.919379711151123269e-01,2.919160366058349831e-01,2.918941259384155162e-01,2.918722152709961049e-01,2.918503284454345703e-01,2.918284177780151589e-01,2.918065309524536244e-01,2.917846202850341575e-01,2.917627334594726785e-01,2.917408466339111439e-01,2.917189598083496094e-01,2.916970968246460072e-01,2.916752099990844727e-01
2.698384284973144309e-01,2.698196887969970814e-01,2.698009729385376088e-01,2.697822570800781361e-01,2.697635650634765403e-01,2.697448492050170676e-01,2.697261333465575950e-01,2.697074174880981223e-01,2.696887016296386497e-01,2.696700096130371094e-01,2.696512937545776367e-01,2.696326255798339733e-01,2.696139335632324330e-01,2.695952415466308372e-01,2.695765495300292969e-01,2.695578575134277566e-01,2.695391654968261608e-01,2.695204734802246205e-01,2.695018291473388894e-01,2.694831371307372936e-01,2.694644689559936301e-01,2.694458007812500222e-01,2.694271326065063588e-01,2.694084644317626953e-01,2.693897962570190319e-01,2.693711280822753684e-01,2.693524837493896373e-01,2.693338394165039062e-01,2.693151712417602428e-01,2.692965269088745117e-01,2.692778825759887806e-01,2.692592144012451172e-01,2.692405700683593861e-01,2.692219257354736550e-01,2.072281837463378906e-01,2.034660577774047852e-01,2.014231204986572377e-01,2.001006841659545843e-01,2.005280733108520397e-01,2.691101312637328991e-01,2.103317499160766713e-01,2.071610927581787054e-01,2.053638458251953181e-01,2.082552194595336803e-01,2.101168632507324219e-01,2.689984560012817494e-01,2.689798355102538951e-01,2.689612627029419056e-01,2.689426422119140514e-01,2.689240455627441295e-01,2.689054489135742076e-01,2.688868522644042858e-01,2.688682556152343639e-01,2.688496828079223744e-01,2.688310861587524525e-01,2.688125133514404075e-01,2.687939167022704856e-01,2.687753438949584961e-01,2.687567710876465066e-01,2.687382221221923939e-01,2.687196493148803489e-01,2.687010765075683594e-01,2.686825037002563699e-01,2.686639308929443248e-01,2.686453580856323353e-01,2.686268091201782227e-01,2.686082601547241100e-01,2.685897111892699973e-01,2.685711622238159402e-01,2.685526132583618275e-01,2.685340642929077148e-01,2.685155153274536022e-01,2.684969902038574219e-01,2.684784650802612416e-01,2.684599161148071289e-01,2.684413909912109486e-01,2.684228420257568359e-01,2.684043169021606556e-01,2.683857917785644753e-01,2.683672904968261719e-01
2.497697830200195368e-01,2.497537374496459905e-01,2.497376918792724720e-01,2.497216463088989258e-01,2.497056484222412165e-01,2.496896028518676702e-01,2.496735572814941517e-01,2.496575355529785101e-01,2.496415138244628962e-01,2.496254682540893499e-01,2.496094465255737360e-01,2.495934486389160267e-01,2.495774269104003851e-01,2.495614051818847712e-01,2.495453834533691295e-01,2.495293855667114202e-01,2.495133638381958063e-01,2.494973421096801647e-01,2.494813680648803600e-01,2.494653463363647461e-01,2.494493484497070368e-01,2.494333505630493275e-01,2.494173526763915905e-01,2.494013547897338812e-01,2.493853569030761719e-01,2.493693828582763672e-01,2.493533849716186579e-01,2.493373870849609486e-01,2.493213891983032116e-01,2.493054151535034069e-01,2.492894411087036022e-01,2.492734432220458929e-01,2.492574930191039928e-01,2.492414951324462835e-01,2.079756975173950306e-01,2.023580312728881780e-01,1.998935937881469727e-01,1.983798265457153431e-01,1.977920174598693792e-01,1.983261704444885254e-01,2.491297006607055553e-01,2.491137504577636830e-01,2.033934116363525502e-01,2.022749423980712835e-01,2.060293674468994252e-01,2.490499258041381780e-01,2.490339756011962780e-01,2.490180253982544056e-01,2.490020990371704102e-01,2.489861488342285101e-01,2.489701986312866100e-01,2.489542722702026423e-01,2.489383220672607422e-01,2.489223957061767467e-01,2.489064693450927790e-01,2.488905429840087835e-01,2.488746166229248158e-01,2.488586902618408203e-01,2.488427400588989202e-01,2.488268375396728571e-01,2.488109111785888616e-01,2.487950086593627985e-01,2.487790822982788030e-01,2.487631559371948353e-01,2.487472534179687444e-01,2.487313270568847767e-01,2.487154245376586859e-01,2.486995458602905273e-01,2.486836194992065319e-01,2.486677169799804688e-01,2.486518144607544056e-01,2.486359119415283148e-01,2.486200332641601562e-01,2.486041545867919977e-01,2.485882520675659069e-01,2.485723495483398438e-01,2.485564708709716852e-01,2.485405921936035267e-01,2.485246896743774359e-01,2.485088348388671819e-01
2.324796199798583873e-01,2.324657201766967829e-01,2.324518203735351507e-01,2.324379444122314509e-01,2.324240446090698187e-01,2.324101686477661188e-01,2.323962688446044866e-01,2.323823690414428822e-01,2.323684930801391546e-01,2.323545932769775502e-01,2.323407411575317272e-01,2.323268413543701227e-01,2.323129653930663951e-01,2.322990894317626953e-01,2.322852134704589955e-01,2.322713375091552679e-01,2.322574615478515681e-01,2.322435855865478405e-01,2.322297334671020452e-01,2.322158575057983454e-01,2.322019815444946178e-01,2.321881294250488226e-01,2.321742534637451227e-01,2.321604013442993275e-01,2.321465253829955999e-01,2.321326971054077093e-01,2.321188449859619141e-01,2.321049690246582142e-01,2.320911169052123912e-01,2.320772647857665960e-01,2.320634126663208008e-01,2.320495605468750056e-01,2.320357322692871149e-01,2.320218801498413197e-01,2.086469411849975475e-01,2.011893033981323187e-01,1.981549978256225697e-01,1.964390873908996582e-01,1.956328988075256292e-01,1.952305436134338379e-01,1.958391427993774470e-01,1.965245485305786022e-01,2.318973302841186579e-01,2.011150598526000866e-01,2.318696737289428766e-01,2.318558454513549860e-01,2.318420171737670954e-01,2.318282127380371094e-01,2.318143844604492188e-01,2.318005800247192327e-01,2.317867517471313421e-01,2.317729473114013561e-01,2.317591190338134655e-01,2.317453145980835072e-01,2.317314863204956166e-01,2.317177057266235352e-01,2.317039012908935491e-01,2.316900968551635631e-01,2.316762685775756725e-01,2.316624879837036188e-01,2.316486835479736328e-01,2.316349029541015514e-01,2.316210985183715931e-01,2.316072940826416071e-01,2.315935134887695257e-01,2.315797090530395397e-01,2.315659284591674860e-01,2.315521478652954046e-01,2.315383672714233509e-01,2.315245628356933649e-01,2.315107822418212835e-01,2.314970016479492299e-01,2.314832210540771484e-01,2.314694404602050670e-01,2.314556837081909180e-01,2.314419031143188366e-01,2.314281225204467829e-01,2.314143419265747015e-01,2.314005851745605524e-01,2.313868045806884710e-01
2.174282789230346791e-01,2.174161195755004994e-01,2.174039602279663197e-01,2.173918247222900446e-01,2.173796653747558649e-01,2.173675060272216852e-01,2.173553705215454102e-01,2.173432111740112305e-01,2.173310756683349554e-01,2.173189163208007757e-01,2.173067808151245006e-01,2.172946453094482533e-01,2.172825098037719782e-01,2.172703504562377985e-01,2.172582149505615234e-01,2.172460794448852484e-01,2.172339439392089733e-01,2.172218084335327259e-01,2.172096729278564509e-01,2.171975374221801758e-01,2.171854257583618053e-01,2.171732902526855580e-01,2.171611547470092829e-01,2.171490192413330078e-01,2.171369075775146373e-01,2.171247959136962946e-01,2.171126604080200195e-01,2.171005487442016491e-01,2.170884132385254017e-01,2.170763015747070312e-01,2.170641899108886608e-01,2.170520782470703181e-01,2.170399665832519476e-01,2.170278549194336049e-01,2.170157432556152344e-01,2.170036315917968639e-01,1.958383798599243053e-01,1.936831712722778265e-01,1.929712772369384655e-01,1.924585103988647461e-01,1.922842502593994085e-01,1.933710932731628473e-01,1.924302697181701771e-01,2.169067621231079157e-01,2.168946743011474498e-01,2.168825864791870117e-01,2.168704748153686412e-01,2.168583869934082031e-01,2.168462991714477650e-01,2.168342113494872991e-01,2.168221235275268610e-01,2.168100357055663951e-01,2.167979478836059570e-01,2.167858600616455189e-01,2.167737722396850530e-01,2.167616844177246149e-01,2.167496204376220814e-01,2.167375326156616155e-01,2.167254447937011774e-01,2.167133569717407116e-01,2.167012929916381780e-01,2.166892051696777399e-01,2.166771411895752064e-01,2.166650772094726451e-01,2.166530132293701116e-01,2.166409254074096735e-01,2.166288614273071400e-01,2.166167974472045787e-01,2.166047334671020452e-01,2.165926694869995117e-01,2.165806055068969782e-01,2.165685415267944447e-01,2.165564775466918834e-01,2.165444135665893499e-01,2.165323495864868164e-01,2.165203094482421875e-01,2.165082693099975586e-01,2.164962053298950251e-01,2.164841413497924916e-01,2.164721012115478627e-01
2.042073488235473522e-01,2.041966438293457142e-01,2.041859149932861439e-01,2.041752099990844782e-01,2.041644811630249079e-01,2.041537523269653376e-01,2.041430473327636719e-01,2.041323184967041016e-01,2.041216135025024359e-01,2.041108846664428655e-01,2.041001796722411998e-01,2.040894746780395619e-01,2.040787696838378962e-01,2.040680408477783259e-01,2.040573358535766602e-01,2.040466308593749944e-01,2.040359258651733287e-01,2.040252208709716908e-01,2.040145158767700251e-01,2.040038108825683594e-01,2.039931058883666937e-01,2.039824247360229603e-01,2.039717197418212946e-01,2.039610147476196289e-01,2.039503335952758678e-01,2.039396286010742299e-01,2.039289236068725641e-01,2.039182424545288030e-01,2.039075374603271373e-01,2.038968563079834040e-01,2.038861513137817383e-01,2.038754940032959095e-01,2.038647890090942438e-01,2.038541078567504827e-01,2.038434267044067494e-01,2.038327217102050837e-01,1.943911194801330455e-01,1.908421754837036077e-01,1.887819647789001354e-01,1.886099696159362904e-01,1.885912775993347223e-01,1.894317388534546009e-01,1.885242700576782171e-01,1.897073149681091364e-01,2.037366151809692494e-01,2.037259578704833929e-01,2.037152528762817272e-01,2.037045717239379938e-01,2.036939144134521373e-01,2.036832332611084040e-01,2.036725759506225475e-01,2.036619186401367188e-01,2.036512374877929576e-01,2.036405801773071289e-01,2.036299228668213002e-01,2.036192417144775391e-01,2.036086082458496149e-01,2.035979270935058538e-01,2.035872697830200251e-01,2.035766124725341686e-01,2.035659551620483398e-01,2.035552978515625111e-01,2.035446405410766546e-01,2.035340070724487305e-01,2.035233497619629017e-01,2.035126924514770452e-01,2.035020351409912165e-01,2.034914016723632924e-01,2.034807443618774359e-01,2.034701108932495117e-01,2.034594535827636830e-01,2.034488201141357311e-01,2.034381628036499023e-01,2.034275293350219782e-01,2.034168958663940541e-01,2.034062623977661022e-01,2.033956050872802734e-01,2.033849716186523493e-01,2.033743381500244252e-01,2.033637046813964733e-01
1.925021052360534612e-01,1.924925804138183649e-01,1.924830675125122070e-01,1.924735188484191784e-01,1.924640059471130482e-01,1.924544692039489857e-01,1.924449443817138616e-01,1.924354195594787653e-01,1.924259066581726074e-01,1.924163937568664495e-01,1.924068570137023870e-01,1.923973441123962291e-01,1.923878192901611328e-01,1.923783063888549749e-01,1.923687815666198786e-01,1.923592686653137207e-01,1.923497676849365290e-01,1.923402428627014049e-01,1.923307418823242132e-01,1.923212170600891169e-01,1.923117160797119252e-01,1.923021912574768011e-01,1.922926902770996094e-01,1.922831892967224177e-01,1.922736763954162598e-01,1.922641754150390681e-01,1.922546625137329102e-01,1.922451615333557184e-01,1.922356486320495605e-01,1.922261595726013073e-01,1.922166585922241155e-01,1.922071576118469238e-01,1.921976566314697321e-01,1.921881437301635742e-01,1.921786665916442871e-01,1.921691536903381292e-01,1.921596646308899037e-01,1.921501636505126842e-01,1.882757186889648382e-01,1.860651373863220215e-01,1.858565211296081543e-01,1.856083273887634277e-01,1.863098740577697754e-01,1.873755097389221136e-01,1.880431175231933594e-01,1.920742392539978027e-01,1.920647621154785156e-01,1.920552730560302623e-01,1.920457959175109752e-01,1.920362710952758789e-01,1.920268058776855580e-01,1.920173287391662709e-01,1.920078396797180176e-01,1.919983625411987305e-01,1.919888734817504772e-01,1.919794082641601562e-01,1.919699192047119030e-01,1.919604420661926159e-01,1.919509768486022949e-01,1.919414877891540416e-01,1.919320344924926869e-01,1.919225454330444336e-01,1.919130802154541127e-01,1.919036269187927302e-01,1.918941378593444769e-01,1.918846845626830944e-01,1.918751955032348688e-01,1.918657422065734863e-01,1.918562650680541992e-01,1.918468117713928167e-01,1.918373584747314342e-01,1.918278813362121471e-01,1.918184280395507924e-01,1.918089509010315052e-01,1.917994976043701227e-01,1.917900323867797741e-01,1.917805790901184193e-01,1.917711257934570368e-01,1.917616605758666881e-01,1.917522192001342718e-01
1.820659995079040583e-01,1.820574641227722112e-01,1.820489525794982966e-01,1.820404410362243541e-01,1.820319056510925348e-01,1.820233941078185924e-01,1.820148587226867731e-01,1.820063471794128307e-01,1.819978237152099498e-01,1.819893121719360352e-01,1.819808006286621205e-01,1.819722771644592396e-01,1.819637656211852972e-01,1.819552421569824163e-01,1.819467425346374401e-01,1.819382190704345592e-01,1.819297075271606445e-01,1.819212079048156683e-01,1.819126844406127874e-01,1.819041848182678112e-01,1.818956613540649303e-01,1.818871736526489202e-01,1.818786501884460394e-01,1.818701505661010631e-01,1.818616509437561146e-01,1.818531394004821722e-01,1.818446397781371959e-01,1.818361282348632812e-01,1.818276405334472712e-01,1.818191289901733287e-01,1.818106293678283802e-01,1.818021416664123424e-01,1.817936301231384277e-01,1.817851424217224177e-01,1.817766308784484752e-01,1.817681431770324652e-01,1.817596316337585505e-01,1.817511558532714788e-01,1.817426681518554688e-01,1.817341566085815541e-01,1.817256808280944824e-01,1.817171692848205677e-01,1.817086935043334961e-01,1.817001938819885198e-01,1.816917061805725098e-01,1.816832304000854381e-01,1.816747307777404896e-01,1.816662549972534180e-01,1.816577553749084417e-01,1.816492795944213978e-01,1.816407799720764216e-01,1.816323041915893499e-01,1.816238284111023060e-01,1.816153168678283636e-01,1.816068410873413197e-01,1.815983533859252819e-01,1.815898776054382380e-01,1.815813899040222279e-01,1.815729260444641224e-01,1.815644502639770508e-01,1.815559625625610407e-01,1.815474987030029352e-01,1.815390110015869252e-01,1.815305471420288197e-01,1.815220832824707142e-01,1.815135955810546764e-01,1.815051317214965709e-01,1.814966440200805609e-01,1.814881801605224554e-01,1.814797043800354115e-01,1.814712405204773060e-01,1.814627885818481390e-01,1.814543128013610951e-01,1.814458489418029896e-01,1.814373731613159180e-01,1.814289212226867787e-01,1.814204454421997070e-01,1.814119815826416016e-01,1.814035296440124623e-01,1.813950538635253906e-01
1.727032303810119573e-01,1.726955771446228027e-01,1.726879119873046819e-01,1.726802349090576227e-01,1.726725697517395020e-01,1.726648926734924427e-01,1.726572394371032604e-01,1.726495623588562012e-01,1.726419091224670466e-01,1.726342439651489258e-01,1.726265788078308050e-01,1.726189136505126842e-01,1.726112484931945912e-01,1.726035952568054088e-01,1.725959181785583496e-01,1.725882649421691950e-01,1.725806236267089788e-01,1.725729465484619196e-01,1.725652933120727650e-01,1.725576281547546442e-01,1.725499868392944280e-01,1.725423216819763073e-01,1.725346684455871527e-01,1.725270271301269642e-01,1.725193619728088434e-01,1.725117087364196888e-01,1.725040435791015681e-01,1.724964022636413519e-01,1.724887490272521973e-01,1.724810957908630427e-01,1.724734544754028265e-01,1.724658012390136719e-01,1.724581599235534557e-01,1.724504947662353627e-01,1.724428653717041127e-01,1.724352002143859919e-01,1.724275708198547419e-01,1.724199295043945257e-01,1.724122762680053711e-01,1.724046349525451549e-01,1.723969817161560003e-01,1.723893523216247503e-01,1.723816990852355957e-01,1.723740696907043457e-01,1.723664283752441295e-01,1.723587870597839411e-01,1.723511457443237249e-01,1.723435044288635365e-01,1.723358750343322865e-01,1.723282217979431041e-01,1.723205924034118541e-01,1.723129630088806041e-01,1.723053216934204157e-01,1.722976922988891657e-01,1.722900509834289495e-01,1.722824215888976995e-01,1.722747802734375111e-01,1.722671389579772949e-01,1.722594976425170787e-01,1.722518801689147949e-01,1.722442626953125111e-01,1.722366213798522949e-01,1.722289919853210449e-01,1.722213625907897949e-01,1.722137451171875111e-01,1.722061276435851995e-01,1.721984863281250111e-01,1.721908688545226995e-01,1.721832394599914495e-01,1.721756219863891657e-01,1.721679806709289495e-01,1.721603751182556041e-01,1.721527576446533203e-01,1.721451282501220703e-01,1.721375107765197865e-01,1.721298813819885365e-01,1.721222758293151911e-01,1.721146464347839411e-01,1.721070408821105957e-01,1.720994234085083119e-01
1.642563462257385365e-01,1.642494201660156250e-01,1.642424702644348089e-01,1.642355442047119252e-01,1.642285943031311091e-01,1.642216682434081976e-01,1.642147302627563477e-01,1.642078042030334362e-01,1.642008781433105524e-01,1.641939282417297363e-01,1.641870021820068248e-01,1.641800642013549749e-01,1.641731381416320912e-01,1.641662001609802135e-01,1.641592741012573298e-01,1.641523599624633845e-01,1.641454219818115345e-01,1.641384959220886230e-01,1.641315579414367731e-01,1.641246438026428278e-01,1.641177058219909779e-01,1.641107797622680664e-01,1.641038656234741211e-01,1.640969276428222712e-01,1.640900135040283259e-01,1.640830874443054144e-01,1.640761613845825306e-01,1.640692353248596191e-01,1.640623211860656738e-01,1.640554070472717285e-01,1.640484809875488170e-01,1.640415668487548717e-01,1.640346288681030218e-01,1.640277266502380427e-01,1.640207886695861927e-01,1.640138864517211859e-01,1.640069723129272405e-01,1.640000462532043568e-01,1.639931440353393499e-01,1.639862179756164662e-01,1.639793038368225209e-01,1.639723777770996094e-01,1.639654755592346302e-01,1.639585733413696234e-01,1.639516472816467396e-01,1.639447450637817327e-01,1.639378190040588490e-01,1.639309167861938421e-01,1.639240026473998968e-01,1.639171004295349177e-01,1.639101743698120062e-01,1.639032721519470270e-01,1.638963699340820201e-01,1.638894557952880748e-01,1.638825535774230957e-01,1.638756394386291504e-01,1.638687491416931097e-01,1.638618350028991644e-01,1.638549327850341852e-01,1.638480305671691784e-01,1.638411045074462946e-01,1.638342142105102539e-01,1.638273000717163086e-01,1.638204097747802679e-01,1.638134956359863226e-01,1.638066053390502819e-01,1.637997031211853027e-01,1.637928009033203236e-01,1.637859106063842829e-01,1.637789964675903376e-01,1.637721061706542969e-01,1.637652039527893177e-01,1.637583136558532770e-01,1.637514233589172363e-01,1.637445211410522572e-01,1.637376308441162165e-01,1.637307286262512096e-01,1.637238502502441351e-01,1.637169480323791559e-01,1.637100577354431152e-01
1.565972089767456166e-01,1.565909028053283636e-01,1.565845966339111384e-01,1.565782904624938854e-01,1.565719842910766602e-01,1.565656781196594349e-01,1.565593838691711481e-01,1.565530776977538951e-01,1.565467715263366699e-01,1.565404772758483831e-01,1.565341711044311579e-01,1.565278768539428711e-01,1.565215587615966797e-01,1.565152645111083929e-01,1.565089821815490723e-01,1.565026760101318470e-01,1.564963817596435602e-01,1.564900755882263073e-01,1.564837813377380482e-01,1.564774751663207952e-01,1.564711809158325084e-01,1.564648866653442494e-01,1.564585924148559626e-01,1.564523100852966420e-01,1.564460039138793890e-01,1.564397096633911022e-01,1.564334154129028431e-01,1.564271211624145563e-01,1.564208269119262695e-01,1.564145445823669489e-01,1.564082503318786621e-01,1.564019560813903753e-01,1.563956737518310547e-01,1.563893795013427679e-01,1.563830971717834473e-01,1.563767910003662220e-01,1.563705086708068737e-01,1.563642263412475530e-01,1.563579320907592662e-01,1.563516616821289118e-01,1.563453555107116588e-01,1.563390851020813044e-01,1.563327908515930176e-01,1.563265085220336970e-01,1.563202381134033148e-01,1.563139438629150280e-01,1.563076615333557073e-01,1.563013672828674205e-01,1.562950968742370661e-01,1.562888026237487793e-01,1.562825322151183971e-01,1.562762618064880427e-01,1.562699675559997559e-01,1.562636971473693737e-01,1.562574148178100530e-01,1.562511324882507324e-01,1.562448501586914118e-01,1.562385797500610296e-01,1.562323093414306752e-01,1.562260270118713268e-01,1.562197566032409723e-01,1.562134742736816517e-01,1.562072038650512695e-01,1.562009215354919489e-01,1.561946392059326283e-01,1.561883568763732799e-01,1.561820864677429255e-01,1.561758160591125433e-01,1.561695456504821888e-01,1.561632752418518066e-01,1.561569929122924860e-01,1.561507344245910700e-01,1.561444520950317494e-01,1.561381936073303334e-01,1.561319231986999512e-01,1.561256527900695690e-01,1.561193943023681530e-01,1.561131119728088323e-01,1.561068534851074163e-01,1.561005949974060003e-01
1.496205210685729869e-01,1.496147632598877064e-01,1.496090054512023981e-01,1.496032476425170898e-01,1.495974898338317816e-01,1.495917439460754395e-01,1.495859742164611927e-01,1.495802283287048229e-01,1.495744824409484808e-01,1.495687246322631725e-01,1.495629787445068304e-01,1.495572209358215221e-01,1.495514750480651800e-01,1.495457053184509333e-01,1.495399713516235296e-01,1.495342254638671875e-01,1.495284676551818792e-01,1.495227217674255371e-01,1.495169639587402288e-01,1.495112180709838867e-01,1.495054602622985784e-01,1.494997262954712025e-01,1.494939804077148326e-01,1.494882225990295521e-01,1.494824886322021484e-01,1.494767308235168402e-01,1.494709968566894642e-01,1.494652390480041559e-01,1.494595050811767523e-01,1.494537591934204102e-01,1.494480133056640681e-01,1.494422793388366644e-01,1.494365215301513561e-01,1.494307875633239802e-01,1.494250416755676381e-01,1.494193077087402344e-01,1.494135618209838923e-01,1.494078159332275502e-01,1.494020819664001465e-01,1.493963360786438044e-01,1.493906021118164007e-01,1.493848562240600586e-01,1.493791222572326549e-01,1.493733882904052790e-01,1.493676424026489369e-01,1.493619203567504994e-01,1.493561744689941295e-01,1.493504405021667536e-01,1.493446946144104115e-01,1.493389725685119740e-01,1.493332386016845703e-01,1.493274927139282282e-01,1.493217706680297907e-01,1.493160247802734486e-01,1.493103027343750111e-01,1.493045568466186412e-01,1.492988348007202037e-01,1.492931127548217662e-01,1.492873668670654241e-01,1.492816448211669866e-01,1.492759108543396107e-01,1.492701768875122070e-01,1.492644429206848034e-01,1.492587208747863659e-01,1.492529988288879284e-01,1.492472648620605524e-01,1.492415428161621149e-01,1.492358088493347112e-01,1.492300748825073353e-01,1.492243409156799316e-01,1.492186188697814941e-01,1.492128849029540905e-01,1.492071628570556530e-01,1.492014288902282770e-01,1.491957068443298395e-01,1.491899967193603405e-01,1.491842627525329645e-01,1.491785407066345270e-01,1.491728186607360895e-01,1.491670966148376520e-01
1.432389616966247559e-01,1.432336807250976507e-01,1.432284116744995117e-01,1.432231307029724066e-01,1.432178616523742676e-01,1.432125806808471624e-01,1.432073116302490234e-01,1.432020425796508845e-01,1.431967616081237793e-01,1.431914925575256403e-01,1.431862115859985352e-01,1.431809425354003962e-01,1.431756734848022572e-01,1.431704044342040905e-01,1.431651353836059515e-01,1.431598663330078125e-01,1.431545972824096735e-01,1.431493163108825684e-01,1.431440591812133678e-01,1.431387782096862904e-01,1.431335210800170898e-01,1.431282520294189509e-01,1.431229829788208119e-01,1.431177139282226451e-01,1.431124448776245062e-01,1.431071758270263672e-01,1.431019067764282282e-01,1.430966496467590277e-01,1.430913925170898549e-01,1.430861115455627497e-01,1.430808544158935491e-01,1.430755853652954102e-01,1.430703282356262096e-01,1.430650591850280706e-01,1.430598020553588978e-01,1.430545449256896973e-01,1.430492758750915583e-01,1.430440187454223577e-01,1.430387496948242188e-01,1.430334925651550182e-01,1.430282235145568792e-01,1.430229663848877064e-01,1.430177092552185059e-01,1.430124521255493053e-01,1.430071949958801325e-01,1.430019259452819935e-01,1.429966688156127930e-01,1.429914116859435924e-01,1.429861545562744196e-01,1.429809093475341852e-01,1.429756402969360463e-01,1.429703950881958119e-01,1.429651260375976451e-01,1.429598808288574108e-01,1.429546117782592718e-01,1.429493665695190374e-01,1.429441094398498646e-01,1.429388523101806641e-01,1.429336071014404297e-01,1.429283499717712291e-01,1.429230928421020563e-01,1.429178357124328558e-01,1.429125905036926214e-01,1.429073452949523870e-01,1.429020881652832142e-01,1.428968429565429799e-01,1.428915858268737793e-01,1.428863406181335449e-01,1.428810834884643444e-01,1.428758382797241100e-01,1.428705811500549372e-01,1.428653240203857366e-01,1.428600668907165638e-01,1.428548216819763295e-01,1.428495645523071289e-01,1.428443312644958607e-01,1.428390860557556263e-01,1.428338289260864258e-01,1.428285956382751576e-01,1.428233385086059570e-01
1.373795032501220759e-01,1.373746514320373646e-01,1.373697996139526256e-01,1.373649477958679144e-01,1.373600840568542369e-01,1.373552441596984919e-01,1.373503923416137806e-01,1.373455405235290416e-01,1.373406887054443304e-01,1.373358368873596191e-01,1.373309850692749079e-01,1.373261332511901966e-01,1.373212933540344238e-01,1.373164415359497126e-01,1.373115897178650013e-01,1.373067498207092285e-01,1.373018980026245173e-01,1.372970461845398060e-01,1.372921943664550670e-01,1.372873544692993220e-01,1.372825145721435491e-01,1.372776627540588379e-01,1.372728228569030651e-01,1.372679710388183538e-01,1.372631311416626088e-01,1.372582793235778698e-01,1.372534394264221247e-01,1.372485995292663519e-01,1.372437477111816406e-01,1.372389078140258678e-01,1.372340559959411566e-01,1.372292160987854115e-01,1.372243762016296387e-01,1.372195363044738659e-01,1.372146844863891546e-01,1.372098445892334095e-01,1.372050166130066029e-01,1.372001647949218639e-01,1.371953248977661188e-01,1.371904850006103460e-01,1.371856451034546009e-01,1.371808052062988281e-01,1.371759653091430553e-01,1.371711373329162487e-01,1.371662855148315374e-01,1.371614575386047308e-01,1.371566176414489857e-01,1.371517777442932129e-01,1.371469378471374401e-01,1.371420979499816950e-01,1.371372699737548884e-01,1.371324300765991155e-01,1.371276021003723089e-01,1.371227622032165638e-01,1.371179223060607910e-01,1.371130824089050182e-01,1.371082544326782116e-01,1.371034264564514049e-01,1.370985865592956598e-01,1.370937585830688532e-01,1.370889186859130804e-01,1.370840907096862737e-01,1.370792508125305287e-01,1.370744228363037220e-01,1.370695948600769154e-01,1.370647668838501088e-01,1.370599389076233021e-01,1.370550990104675293e-01,1.370502710342407227e-01,1.370454430580139160e-01,1.370406150817871094e-01,1.370357871055603027e-01,1.370309591293334961e-01,1.370261311531066895e-01,1.370212912559509166e-01,1.370164632797241100e-01,1.370116233825683649e-01,1.370068073272704967e-01,1.370019674301147516e-01,1.369971513748168834e-01
