6.195584774017334206e-01,6.352729797363281250e-01,6.518058776855468750e-01,6.692223072052001509e-01,6.875950336456299050e-01,7.070050239562988281e-01,7.275427341461181419e-01,7.493093490600586382e-01,7.724184989929199219e-01,7.969984531402587447e-01,8.231942176818847212e-01,8.511703491210937944e-01,8.811150550842284934e-01,9.132434844970702681e-01,9.478036880493163618e-01,9.850824356079102007e-01,1.000000000000000000e+00,1.000000000000000000e+00,1.000000000000000000e+00,1.000000000000000000e+00,1.000000000000000000e+00,1.000000000000000000e+00,1.000000000000000000e+00,1.000000000000000000e+00,1.000000000000000000e+00,1.000000000000000000e+00,1.000000000000000000e+00,1.000000000000000000e+00,1.000000000000000000e+00,1.000000000000000000e+00,1.000000000000000000e+00,1.000000000000000000e+00,1.000000000000000000e+00,1.000000000000000000e+00,1.000000000000000000e+00,1.000000000000000000e+00,1.000000000000000000e+00,1.000000000000000000e+00,1.000000000000000000e+00,1.000000000000000000e+00,1.000000000000000000e+00,1.000000000000000000e+00,1.000000000000000000e+00,1.000000000000000000e+00,1.000000000000000000e+00,1.000000000000000000e+00,1.000000000000000000e+00,1.000000000000000000e+00,1.000000000000000000e+00,1.000000000000000000e+00,1.000000000000000000e+00,1.000000000000000000e+00,1.000000000000000000e+00,1.000000000000000000e+00,4.309714794158935325e-01,4.265085697174072488e-01,4.256849765777587780e-01,4.201774120330810658e-01,4.138746261596679688e-01,4.110762119293213113e-01,4.089853763580322266e-01,4.087102413177490234e-01,4.094081878662109153e-01,4.090612411499023326e-01,4.126214981079101562e-01,4.223463058471679799e-01,4.271344184875488503e-01,4.273707389831543080e-01,1.000000000000000000e+00,1.000000000000000000e+00,9.690805435180663840e-01,9.373991966247559038e-01,9.077237129211426225e-01,8.798577308654784712e-01,8.536475181579590288e-01,8.289538383483886497e-01,8.056485176086425337e-01,7.836178779602051003e-01,7.627599716186523882e-01,7.429836750030517356e-01
6.195452690124512163e-01,6.352569580078124556e-01,6.517885208129883257e-01,6.692040443420410600e-01,6.875757694244384322e-01,7.069846153259277122e-01,7.275211334228515181e-01,7.492864131927490234e-01,7.723941802978515625e-01,7.969725131988525391e-01,8.231664657592773215e-01,8.511408805847168191e-01,8.810833930969238503e-01,9.132095336914062278e-01,9.477670669555664507e-01,9.850429534912109597e-01,1.000000000000000000e+00,1.000000000000000000e+00,1.000000000000000000e+00,1.000000000000000000e+00,1.000000000000000000e+00,1.000000000000000000e+00,1.000000000000000000e+00,1.000000000000000000e+00,1.000000000000000000e+00,1.000000000000000000e+00,1.000000000000000000e+00,1.000000000000000000e+00,1.000000000000000000e+00,1.000000000000000000e+00,1.000000000000000000e+00,1.000000000000000000e+00,1.000000000000000000e+00,1.000000000000000000e+00,1.000000000000000000e+00,1.000000000000000000e+00,1.000000000000000000e+00,1.000000000000000000e+00,1.000000000000000000e+00,1.000000000000000000e+00,1.000000000000000000e+00,1.000000000000000000e+00,1.000000000000000000e+00,1.000000000000000000e+00,1.000000000000000000e+00,1.000000000000000000e+00,1.000000000000000000e+00,1.000000000000000000e+00,1.000000000000000000e+00,1.000000000000000000e+00,1.000000000000000000e+00,1.000000000000000000e+00,1.000000000000000000e+00,1.000000000000000000e+00,4.352927207946777344e-01,4.300326347351074441e-01,4.295293331146240456e-01,4.217910766601562500e-01,4.153624534606933372e-01,4.131037235260009988e-01,4.097410678863525613e-01,4.072527408599853627e-01,4.080036640167236106e-01,4.088823318481445424e-01,4.162640571594238281e-01,4.309613227844238392e-01,4.259249210357666238e-01,4.262138843536377175e-01,1.000000000000000000e+00,1.000000000000000000e+00,9.691309928894042969e-01,9.374464035034180132e-01,9.077531814575194868e-01,8.798810958862304243e-01,8.536695480346679910e-01,8.289745330810547319e-01,8.056680679321288618e-01,7.836363792419434038e-01,7.627775669097900391e-01,7.430002689361572266e-01
6.195320129394531472e-01,6.352430343627929465e-01,6.517716407775878684e-01,6.691858291625976118e-01,6.875565052032470703e-01,7.069643020629883257e-01,7.274995326995850053e-01,7.492634773254394087e-01,7.723698139190673384e-01,7.969465732574463335e-01,8.231388092041015403e-01,8.511113166809082253e-01,8.810517311096190962e-01,9.131754875183105691e-01,9.477303504943848100e-01,9.850032806396484819e-01,1.000000000000000000e+00,1.000000000000000000e+00,1.000000000000000000e+00,1.000000000000000000e+00,1.000000000000000000e+00,1.000000000000000000e+00,1.000000000000000000e+00,1.000000000000000000e+00,1.000000000000000000e+00,1.000000000000000000e+00,1.000000000000000000e+00,1.000000000000000000e+00,1.000000000000000000e+00,1.000000000000000000e+00,1.000000000000000000e+00,1.000000000000000000e+00,1.000000000000000000e+00,1.000000000000000000e+00,1.000000000000000000e+00,1.000000000000000000e+00,1.000000000000000000e+00,1.000000000000000000e+00,1.000000000000000000e+00,1.000000000000000000e+00,1.000000000000000000e+00,1.000000000000000000e+00,1.000000000000000000e+00,1.000000000000000000e+00,1.000000000000000000e+00,1.000000000000000000e+00,1.000000000000000000e+00,1.000000000000000000e+00,1.000000000000000000e+00,1.000000000000000000e+00,1.000000000000000000e+00,1.000000000000000000e+00,1.000000000000000000e+00,1.000000000000000000e+00,4.386508464813232422e-01,4.319478988647461049e-01,4.296816825866699441e-01,4.239316940307616965e-01,4.165822982788086049e-01,4.124151229858398215e-01,4.091145992279052734e-01,4.073004245758056752e-01,4.076774597167968639e-01,4.092957019805908425e-01,4.151610374450683816e-01,4.307906150817871205e-01,4.251211166381835826e-01,4.258750438690185325e-01,1.000000000000000000e+00,1.000000000000000000e+00,9.691814422607422097e-01,9.374753952026366743e-01,9.077780723571777788e-01,8.799044609069823775e-01,8.536915779113769531e-01,8.289952278137207031e-01,8.056877136230469194e-01,7.836549282073974609e-01,7.627950668334960715e-01,7.430170059204102007e-01
6.195188045501709428e-01,6.352291584014893022e-01,6.517569541931151900e-01,6.691678524017333762e-01,6.875371932983398438e-01,7.069438934326172097e-01,7.274780273437500000e-01,7.492406368255615234e-01,7.723455429077148438e-01,7.969207286834716353e-01,8.231112480163573775e-01,8.510817527770996316e-01,8.810200691223144531e-01,9.131414413452147993e-01,9.476937294006347878e-01,9.849637031555176225e-01,1.000000000000000000e+00,1.000000000000000000e+00,1.000000000000000000e+00,1.000000000000000000e+00,1.000000000000000000e+00,1.000000000000000000e+00,1.000000000000000000e+00,1.000000000000000000e+00,1.000000000000000000e+00,1.000000000000000000e+00,1.000000000000000000e+00,1.000000000000000000e+00,1.000000000000000000e+00,1.000000000000000000e+00,1.000000000000000000e+00,1.000000000000000000e+00,1.000000000000000000e+00,1.000000000000000000e+00,1.000000000000000000e+00,1.000000000000000000e+00,1.000000000000000000e+00,1.000000000000000000e+00,1.000000000000000000e+00,1.000000000000000000e+00,1.000000000000000000e+00,1.000000000000000000e+00,1.000000000000000000e+00,1.000000000000000000e+00,1.000000000000000000e+00,1.000000000000000000e+00,1.000000000000000000e+00,1.000000000000000000e+00,1.000000000000000000e+00,1.000000000000000000e+00,1.000000000000000000e+00,1.000000000000000000e+00,1.000000000000000000e+00,1.000000000000000000e+00,4.478960514068603405e-01,4.333505630493164062e-01,4.300730228424072266e-01,4.255789279937743919e-01,4.173015594482422097e-01,4.120756149291991965e-01,4.091490268707275169e-01,4.078198432922363059e-01,4.079783916473388450e-01,4.094285011291504128e-01,4.141897201538086160e-01,4.347070217132568137e-01,4.266928672790527566e-01,4.254225730895996316e-01,4.301003932952880970e-01,1.000000000000000000e+00,9.692099571228027788e-01,9.375019073486328125e-01,9.078029632568359597e-01,8.799278259277343306e-01,8.537135124206542969e-01,8.290160179138184038e-01,8.057072639465332475e-01,7.836734294891357644e-01,7.628126621246338335e-01,7.430335998535155806e-01
6.195055007934570090e-01,6.352151870727539285e-01,6.517423152923583762e-01,6.691524505615233931e-01,6.875182628631592019e-01,7.069234848022460938e-01,7.274563789367676225e-01,7.492177486419677734e-01,7.723211765289306197e-01,7.968947887420654297e-01,8.230835914611815962e-01,8.510521888732910378e-01,8.809884071350098100e-01,9.131074905395507590e-01,9.476571083068847656e-01,9.849241256713867632e-01,1.000000000000000000e+00,1.000000000000000000e+00,1.000000000000000000e+00,1.000000000000000000e+00,1.000000000000000000e+00,1.000000000000000000e+00,1.000000000000000000e+00,1.000000000000000000e+00,1.000000000000000000e+00,1.000000000000000000e+00,1.000000000000000000e+00,1.000000000000000000e+00,1.000000000000000000e+00,1.000000000000000000e+00,1.000000000000000000e+00,1.000000000000000000e+00,1.000000000000000000e+00,1.000000000000000000e+00,1.000000000000000000e+00,1.000000000000000000e+00,1.000000000000000000e+00,1.000000000000000000e+00,1.000000000000000000e+00,1.000000000000000000e+00,1.000000000000000000e+00,1.000000000000000000e+00,1.000000000000000000e+00,1.000000000000000000e+00,1.000000000000000000e+00,1.000000000000000000e+00,1.000000000000000000e+00,1.000000000000000000e+00,1.000000000000000000e+00,1.000000000000000000e+00,1.000000000000000000e+00,1.000000000000000000e+00,1.000000000000000000e+00,1.000000000000000000e+00,1.000000000000000000e+00,4.347623825073242410e-01,4.304651260375976785e-01,4.271461486816406361e-01,4.182520866394042747e-01,4.116559505462646373e-01,4.087735652923584206e-01,4.082333087921142800e-01,4.087504386901855691e-01,4.100932121276855691e-01,4.160224437713623269e-01,4.408828258514404519e-01,4.289434432983398326e-01,4.263205051422119252e-01,4.298708438873291016e-01,1.000000000000000000e+00,9.692382812500000000e-01,9.375285148620605691e-01,9.078278541564941406e-01,8.799511909484862837e-01,8.537355422973632590e-01,8.290367126464843750e-01,8.057269096374511941e-01,7.836920261383056863e-01,7.628302097320556197e-01,7.430502891540526900e-01
6.194922924041748047e-01,6.352012157440185547e-01,6.517276287078856978e-01,6.691370010375976562e-01,6.875019073486328125e-01,7.069033622741699441e-01,7.274347782135009988e-01,7.491948127746581587e-01,7.722968101501465066e-01,7.968688964843749778e-01,8.230559349060058150e-01,8.510226249694824441e-01,8.809567451477050559e-01,9.130734443664551003e-01,9.476204872131347434e-01,9.848845481872559038e-01,1.000000000000000000e+00,1.000000000000000000e+00,1.000000000000000000e+00,1.000000000000000000e+00,1.000000000000000000e+00,1.000000000000000000e+00,1.000000000000000000e+00,1.000000000000000000e+00,1.000000000000000000e+00,1.000000000000000000e+00,1.000000000000000000e+00,1.000000000000000000e+00,1.000000000000000000e+00,1.000000000000000000e+00,1.000000000000000000e+00,1.000000000000000000e+00,1.000000000000000000e+00,1.000000000000000000e+00,1.000000000000000000e+00,1.000000000000000000e+00,1.000000000000000000e+00,1.000000000000000000e+00,1.000000000000000000e+00,1.000000000000000000e+00,1.000000000000000000e+00,1.000000000000000000e+00,1.000000000000000000e+00,1.000000000000000000e+00,1.000000000000000000e+00,1.000000000000000000e+00,1.000000000000000000e+00,1.000000000000000000e+00,1.000000000000000000e+00,1.000000000000000000e+00,1.000000000000000000e+00,1.000000000000000000e+00,1.000000000000000000e+00,1.000000000000000000e+00,1.000000000000000000e+00,4.365632534027099609e-01,4.324698448181152344e-01,4.247539043426513672e-01,4.154409885406494252e-01,4.101153850555420144e-01,4.072502136230468639e-01,4.065417289733886941e-01,4.083358287811279519e-01,4.081331253051757590e-01,4.121124267578125111e-01,1.000000000000000000e+00,4.310207843780517467e-01,4.281291961669921875e-01,4.285508155822753684e-01,1.000000000000000000e+00,9.692666053771972212e-01,9.375550270080565962e-01,9.078526496887207031e-01,8.799745559692382368e-01,8.537575721740722212e-01,8.290575027465820757e-01,8.057464599609375222e-01,7.837104797363281250e-01,7.628472805023193137e-01,7.430656909942626731e-01
6.194790363311767356e-01,6.351873397827147993e-01,6.517130374908447488e-01,6.691215515136719194e-01,6.874856472015380415e-01,7.068861961364746316e-01,7.274135112762450950e-01,7.491718769073486550e-01,7.722724914550781472e-01,7.968429565429687722e-01,8.230282783508300337e-01,8.509930610656738503e-01,8.809250831604004128e-01,9.130393981933593306e-01,9.475837707519531028e-01,9.848449707031250444e-01,1.000000000000000000e+00,1.000000000000000000e+00,1.000000000000000000e+00,1.000000000000000000e+00,1.000000000000000000e+00,1.000000000000000000e+00,1.000000000000000000e+00,1.000000000000000000e+00,1.000000000000000000e+00,1.000000000000000000e+00,1.000000000000000000e+00,1.000000000000000000e+00,1.000000000000000000e+00,1.000000000000000000e+00,1.000000000000000000e+00,1.000000000000000000e+00,1.000000000000000000e+00,1.000000000000000000e+00,1.000000000000000000e+00,1.000000000000000000e+00,1.000000000000000000e+00,1.000000000000000000e+00,1.000000000000000000e+00,1.000000000000000000e+00,1.000000000000000000e+00,1.000000000000000000e+00,1.000000000000000000e+00,1.000000000000000000e+00,1.000000000000000000e+00,1.000000000000000000e+00,1.000000000000000000e+00,1.000000000000000000e+00,1.000000000000000000e+00,1.000000000000000000e+00,1.000000000000000000e+00,1.000000000000000000e+00,1.000000000000000000e+00,1.000000000000000000e+00,1.000000000000000000e+00,4.384994029998779408e-01,4.352312564849853405e-01,4.225351333618164174e-01,4.152634143829345703e-01,4.096687793731689231e-01,4.065760135650634544e-01,4.060951232910156028e-01,4.067723751068115234e-01,4.074434757232666127e-01,4.112414836883545033e-01,1.000000000000000000e+00,4.307609558105468528e-01,4.235918045043945424e-01,4.201004981994628795e-01,1.000000000000000000e+00,9.692950248718261719e-01,9.375815391540527344e-01,9.078775405883788840e-01,8.799979209899901900e-01,8.537795066833495650e-01,8.290780067443848100e-01,8.057649612426758257e-01,7.837272644042968528e-01,7.628628253936767800e-01,7.430805206298828347e-01
6.194657802581786665e-01,6.351734161376952903e-01,6.516983509063720703e-01,6.691061019897460715e-01,6.874693393707275169e-01,7.068689346313477007e-01,7.273952007293701394e-01,7.491492271423340066e-01,7.722481250762939231e-01,7.968170166015624556e-01,8.230006217956542525e-01,8.509634971618652566e-01,8.808934211730956587e-01,9.130054473876952903e-01,9.475472450256348100e-01,9.848053932189941850e-01,1.000000000000000000e+00,1.000000000000000000e+00,1.000000000000000000e+00,1.000000000000000000e+00,1.000000000000000000e+00,1.000000000000000000e+00,1.000000000000000000e+00,1.000000000000000000e+00,1.000000000000000000e+00,1.000000000000000000e+00,1.000000000000000000e+00,1.000000000000000000e+00,1.000000000000000000e+00,1.000000000000000000e+00,1.000000000000000000e+00,1.000000000000000000e+00,1.000000000000000000e+00,1.000000000000000000e+00,1.000000000000000000e+00,1.000000000000000000e+00,1.000000000000000000e+00,1.000000000000000000e+00,1.000000000000000000e+00,1.000000000000000000e+00,1.000000000000000000e+00,1.000000000000000000e+00,1.000000000000000000e+00,1.000000000000000000e+00,1.000000000000000000e+00,1.000000000000000000e+00,1.000000000000000000e+00,1.000000000000000000e+00,1.000000000000000000e+00,1.000000000000000000e+00,1.000000000000000000e+00,1.000000000000000000e+00,1.000000000000000000e+00,1.000000000000000000e+00,1.000000000000000000e+00,4.404528141021728516e-01,4.378707408905029297e-01,4.228940010070800781e-01,4.163135528564453347e-01,4.125889778137207253e-01,4.090710639953613059e-01,4.083538055419921875e-01,4.074770450592041238e-01,4.100681781768799050e-01,4.144968986511230469e-01,1.000000000000000000e+00,4.315948009490966908e-01,4.219188213348388783e-01,4.156698703765869252e-01,4.136633872985839844e-01,9.693233489990233931e-01,9.376080513000488725e-01,9.079024314880370650e-01,8.800203323364257368e-01,8.537997245788574441e-01,8.290963172912597656e-01,8.057823181152343750e-01,7.837436199188232422e-01,7.628784179687500000e-01,7.430953025817871316e-01
6.194525718688964622e-01,6.351594924926757812e-01,6.516837120056152566e-01,6.690907001495360884e-01,6.874530792236328569e-01,7.068517208099365234e-01,7.273769855499268022e-01,7.491299152374267800e-01,7.722240447998046653e-01,7.967912197113037331e-01,8.229729652404784712e-01,8.509339332580566628e-01,8.808617591857910156e-01,9.129714012145996316e-01,9.475105285644531694e-01,9.847658157348633257e-01,1.000000000000000000e+00,1.000000000000000000e+00,1.000000000000000000e+00,1.000000000000000000e+00,1.000000000000000000e+00,1.000000000000000000e+00,1.000000000000000000e+00,1.000000000000000000e+00,1.000000000000000000e+00,1.000000000000000000e+00,1.000000000000000000e+00,1.000000000000000000e+00,1.000000000000000000e+00,1.000000000000000000e+00,1.000000000000000000e+00,1.000000000000000000e+00,1.000000000000000000e+00,1.000000000000000000e+00,1.000000000000000000e+00,1.000000000000000000e+00,1.000000000000000000e+00,1.000000000000000000e+00,1.000000000000000000e+00,1.000000000000000000e+00,1.000000000000000000e+00,1.000000000000000000e+00,1.000000000000000000e+00,1.000000000000000000e+00,1.000000000000000000e+00,1.000000000000000000e+00,1.000000000000000000e+00,1.000000000000000000e+00,1.000000000000000000e+00,1.000000000000000000e+00,1.000000000000000000e+00,1.000000000000000000e+00,1.000000000000000000e+00,1.000000000000000000e+00,1.000000000000000000e+00,4.388227462768554688e-01,4.364576816558837780e-01,4.248416423797607422e-01,4.176208019256592019e-01,4.138164997100829967e-01,4.113153934478759877e-01,4.097589492797851785e-01,4.081134319305420033e-01,4.108688354492187611e-01,4.141013145446777455e-01,1.000000000000000000e+00,1.000000000000000000e+00,4.237394809722900280e-01,4.141935825347900502e-01,4.075715065002441517e-01,4.098340988159179799e-01,9.376328468322754350e-01,9.079245567321777566e-01,8.800411224365234375e-01,8.538191795349121538e-01,8.291148185729980691e-01,8.057996749877929243e-01,7.837601184844971147e-01,7.628940105438232200e-01,7.431101322174071822e-01
6.194393157958983931e-01,6.351455688476562722e-01,6.516690254211425781e-01,6.690752029418944868e-01,6.874367237091064675e-01,7.068344593048095925e-01,7.273587226867676003e-01,7.491105079650879350e-01,7.722034454345703125e-01,7.967653751373291460e-01,8.229454040527344194e-01,8.509044647216796875e-01,8.808300971984863725e-01,9.129374504089355913e-01,9.474739074707031472e-01,9.847263336181640847e-01,1.000000000000000000e+00,1.000000000000000000e+00,1.000000000000000000e+00,1.000000000000000000e+00,1.000000000000000000e+00,1.000000000000000000e+00,1.000000000000000000e+00,1.000000000000000000e+00,1.000000000000000000e+00,1.000000000000000000e+00,1.000000000000000000e+00,1.000000000000000000e+00,1.000000000000000000e+00,1.000000000000000000e+00,1.000000000000000000e+00,1.000000000000000000e+00,1.000000000000000000e+00,1.000000000000000000e+00,1.000000000000000000e+00,1.000000000000000000e+00,1.000000000000000000e+00,1.000000000000000000e+00,1.000000000000000000e+00,1.000000000000000000e+00,1.000000000000000000e+00,1.000000000000000000e+00,1.000000000000000000e+00,1.000000000000000000e+00,1.000000000000000000e+00,1.000000000000000000e+00,1.000000000000000000e+00,1.000000000000000000e+00,1.000000000000000000e+00,1.000000000000000000e+00,1.000000000000000000e+00,1.000000000000000000e+00,1.000000000000000000e+00,1.000000000000000000e+00,1.000000000000000000e+00,4.365735530853271373e-01,4.342999935150146373e-01,4.237565994262695312e-01,4.134944915771484597e-01,4.109852313995361328e-01,4.104301452636718861e-01,4.135167121887207142e-01,4.092096805572509877e-01,4.141602039337158314e-01,4.146260738372802845e-01,1.000000000000000000e+00,1.000000000000000000e+00,1.000000000000000000e+00,4.167390823364257590e-01,4.073449134826659934e-01,4.045612812042236328e-01,9.376564025878906250e-01,9.079466819763183372e-01,8.800618171691894087e-01,8.538388252258301003e-01,8.291332244873046431e-01,8.058171272277832031e-01,7.837765693664551225e-01,7.629096508026123047e-01,7.431248664855957253e-01
6.194261074066161887e-01,6.351316928863525169e-01,6.516544342041015181e-01,6.690598011016846147e-01,6.874204635620116965e-01,7.068172454833984153e-01,7.273405075073242632e-01,7.490911960601807085e-01,7.721828937530517134e-01,7.967435359954834206e-01,8.229178428649902566e-01,8.508749008178710938e-01,8.807984352111816184e-01,9.129034042358398215e-01,9.474372863769531250e-01,9.846867561340332253e-01,1.000000000000000000e+00,1.000000000000000000e+00,1.000000000000000000e+00,1.000000000000000000e+00,1.000000000000000000e+00,1.000000000000000000e+00,1.000000000000000000e+00,1.000000000000000000e+00,1.000000000000000000e+00,1.000000000000000000e+00,1.000000000000000000e+00,1.000000000000000000e+00,1.000000000000000000e+00,1.000000000000000000e+00,1.000000000000000000e+00,1.000000000000000000e+00,1.000000000000000000e+00,1.000000000000000000e+00,1.000000000000000000e+00,1.000000000000000000e+00,1.000000000000000000e+00,1.000000000000000000e+00,1.000000000000000000e+00,1.000000000000000000e+00,1.000000000000000000e+00,1.000000000000000000e+00,1.000000000000000000e+00,1.000000000000000000e+00,1.000000000000000000e+00,1.000000000000000000e+00,1.000000000000000000e+00,1.000000000000000000e+00,1.000000000000000000e+00,1.000000000000000000e+00,1.000000000000000000e+00,1.000000000000000000e+00,1.000000000000000000e+00,1.000000000000000000e+00,1.000000000000000000e+00,4.359787464141845481e-01,4.327657222747802734e-01,4.201471805572509766e-01,4.059814929962158314e-01,4.025203704833984486e-01,3.991677999496460183e-01,4.021340370178222434e-01,4.180902481079101785e-01,4.170205593109130859e-01,4.150026321411132701e-01,4.220393657684325950e-01,1.000000000000000000e+00,1.000000000000000000e+00,1.000000000000000000e+00,4.163088321685791127e-01,3.947891950607299583e-01,3.938167095184326172e-01,9.079687118530272993e-01,8.800826072692871094e-01,8.538582801818848100e-01,8.291516304016113281e-01,8.058344841003417525e-01,7.837930679321288840e-01,7.629251480102539062e-01,7.431396484375000222e-01
6.194128513336181197e-01,6.351177215576171431e-01,6.516397476196289507e-01,6.690443038940430132e-01,6.874041080474853072e-01,7.067999839782714844e-01,7.273221969604491965e-01,7.490717887878417525e-01,7.721622943878173606e-01,7.967216014862060769e-01,8.228944778442383035e-01,8.508454322814941184e-01,8.807667732238769753e-01,9.128693580627441628e-01,9.474006652832031028e-01,9.846471786499023660e-01,1.000000000000000000e+00,1.000000000000000000e+00,1.000000000000000000e+00,1.000000000000000000e+00,1.000000000000000000e+00,1.000000000000000000e+00,1.000000000000000000e+00,1.000000000000000000e+00,1.000000000000000000e+00,1.000000000000000000e+00,1.000000000000000000e+00,1.000000000000000000e+00,1.000000000000000000e+00,1.000000000000000000e+00,1.000000000000000000e+00,1.000000000000000000e+00,1.000000000000000000e+00,1.000000000000000000e+00,1.000000000000000000e+00,1.000000000000000000e+00,1.000000000000000000e+00,1.000000000000000000e+00,1.000000000000000000e+00,1.000000000000000000e+00,1.000000000000000000e+00,1.000000000000000000e+00,1.000000000000000000e+00,1.000000000000000000e+00,1.000000000000000000e+00,1.000000000000000000e+00,1.000000000000000000e+00,1.000000000000000000e+00,1.000000000000000000e+00,1.000000000000000000e+00,1.000000000000000000e+00,1.000000000000000000e+00,1.000000000000000000e+00,1.000000000000000000e+00,1.000000000000000000e+00,4.348482608795166127e-01,4.305468559265136497e-01,4.158369064331054465e-01,4.026680469512939342e-01,3.993558406829834095e-01,3.960976362228393333e-01,3.960485458374023438e-01,4.194428443908691517e-01,4.171415328979491965e-01,4.156869411468505637e-01,4.217966556549072044e-01,1.000000000000000000e+00,1.000000000000000000e+00,1.000000000000000000e+00,1.000000000000000000e+00,3.907636642456054910e-01,3.932676792144775280e-01,3.938297986984252708e-01,8.801033020019530806e-01,8.538778305053711382e-01,8.291700363159180132e-01,8.058519363403320312e-01,7.838094234466552734e-01,7.629407882690429910e-01,7.431544780731200728e-01
6.193996429443359153e-01,6.351038455963134988e-01,6.516251087188720259e-01,6.690289020538330300e-01,6.873878479003906472e-01,7.067827701568603072e-01,7.273039817810058594e-01,7.490524768829345259e-01,7.721417427062988725e-01,7.966997146606444868e-01,8.228711128234863503e-01,8.508203506469727007e-01,8.807351112365722212e-01,9.128354072570801225e-01,9.473640441894530806e-01,9.846076011657715066e-01,1.000000000000000000e+00,1.000000000000000000e+00,1.000000000000000000e+00,1.000000000000000000e+00,1.000000000000000000e+00,1.000000000000000000e+00,1.000000000000000000e+00,1.000000000000000000e+00,1.000000000000000000e+00,1.000000000000000000e+00,1.000000000000000000e+00,1.000000000000000000e+00,1.000000000000000000e+00,1.000000000000000000e+00,1.000000000000000000e+00,1.000000000000000000e+00,1.000000000000000000e+00,1.000000000000000000e+00,1.000000000000000000e+00,1.000000000000000000e+00,1.000000000000000000e+00,1.000000000000000000e+00,1.000000000000000000e+00,1.000000000000000000e+00,1.000000000000000000e+00,1.000000000000000000e+00,1.000000000000000000e+00,1.000000000000000000e+00,1.000000000000000000e+00,1.000000000000000000e+00,1.000000000000000000e+00,1.000000000000000000e+00,1.000000000000000000e+00,1.000000000000000000e+00,1.000000000000000000e+00,1.000000000000000000e+00,1.000000000000000000e+00,1.000000000000000000e+00,1.000000000000000000e+00,4.331676006317138894e-01,4.297118663787841686e-01,4.141874313354492188e-01,4.017052650451660156e-01,3.967936515808105358e-01,3.935606002807617299e-01,3.920646667480468528e-01,3.987763166427612527e-01,4.169470787048339955e-01,4.161572933197021373e-01,4.222511291503906472e-01,1.000000000000000000e+00,1.000000000000000000e+00,1.000000000000000000e+00,1.000000000000000000e+00,9.694518089294433816e-01,4.040815353393554799e-01,3.828637599945068359e-01,8.801240921020507812e-01,8.538973808288574663e-01,8.291884422302245872e-01,8.058693885803223100e-01,7.838259220123291460e-01,7.629563808441162109e-01,7.431693077087402344e-01
6.193863391876220925e-01,6.350899219512939897e-01,6.516104698181152122e-01,6.690134525299071822e-01,6.873715400695801225e-01,7.067655086517333762e-01,7.272857189178466575e-01,7.490330696105956809e-01,7.721211433410644087e-01,7.966777801513671431e-01,8.228477478027343972e-01,8.507953643798827903e-01,8.807082176208496094e-01,9.128013610839843528e-01,9.473274230957031694e-01,9.845680236816406472e-01,1.000000000000000000e+00,1.000000000000000000e+00,1.000000000000000000e+00,1.000000000000000000e+00,1.000000000000000000e+00,1.000000000000000000e+00,1.000000000000000000e+00,1.000000000000000000e+00,1.000000000000000000e+00,1.000000000000000000e+00,1.000000000000000000e+00,1.000000000000000000e+00,1.000000000000000000e+00,1.000000000000000000e+00,1.000000000000000000e+00,1.000000000000000000e+00,1.000000000000000000e+00,1.000000000000000000e+00,1.000000000000000000e+00,1.000000000000000000e+00,1.000000000000000000e+00,1.000000000000000000e+00,1.000000000000000000e+00,1.000000000000000000e+00,1.000000000000000000e+00,1.000000000000000000e+00,1.000000000000000000e+00,1.000000000000000000e+00,1.000000000000000000e+00,1.000000000000000000e+00,1.000000000000000000e+00,1.000000000000000000e+00,1.000000000000000000e+00,1.000000000000000000e+00,1.000000000000000000e+00,1.000000000000000000e+00,1.000000000000000000e+00,1.000000000000000000e+00,1.000000000000000000e+00,4.340919017791747825e-01,1.000000000000000000e+00,4.173737525939941184e-01,4.026603221893310658e-01,3.945929288864135631e-01,3.911373138427734486e-01,3.881602048873901145e-01,3.942083597183227428e-01,4.175574779510498047e-01,4.179039955139159934e-01,4.246957778930663951e-01,1.000000000000000000e+00,1.000000000000000000e+00,1.000000000000000000e+00,1.000000000000000000e+00,9.694769859313965288e-01,9.377506256103516069e-01,3.978775739669799805e-01,3.894065618515014648e-01,8.539169311523437944e-01,8.292068481445312722e-01,8.058867454528808594e-01,7.838424205780029075e-01,7.629720211029052956e-01,7.431840896606445312e-01
6.193731784820556419e-01,6.350760459899902344e-01,6.515958309173583984e-01,6.689980506896973100e-01,6.873552799224853516e-01,7.067482948303223100e-01,7.272675037384033203e-01,7.490137577056884544e-01,7.721006393432616743e-01,7.966559410095215288e-01,8.228243827819824441e-01,8.507703781127929910e-01,8.806815147399902344e-01,9.127724647521973100e-01,9.472908020019531472e-01,9.845284461975097878e-01,1.000000000000000000e+00,1.000000000000000000e+00,1.000000000000000000e+00,1.000000000000000000e+00,1.000000000000000000e+00,1.000000000000000000e+00,1.000000000000000000e+00,1.000000000000000000e+00,1.000000000000000000e+00,1.000000000000000000e+00,1.000000000000000000e+00,1.000000000000000000e+00,1.000000000000000000e+00,1.000000000000000000e+00,1.000000000000000000e+00,1.000000000000000000e+00,1.000000000000000000e+00,1.000000000000000000e+00,1.000000000000000000e+00,1.000000000000000000e+00,1.000000000000000000e+00,1.000000000000000000e+00,1.000000000000000000e+00,1.000000000000000000e+00,1.000000000000000000e+00,1.000000000000000000e+00,1.000000000000000000e+00,1.000000000000000000e+00,1.000000000000000000e+00,1.000000000000000000e+00,1.000000000000000000e+00,1.000000000000000000e+00,1.000000000000000000e+00,1.000000000000000000e+00,1.000000000000000000e+00,1.000000000000000000e+00,1.000000000000000000e+00,1.000000000000000000e+00,1.000000000000000000e+00,4.317283630371093750e-01,4.265773773193359264e-01,4.210951805114745983e-01,4.035643577575683816e-01,3.924154520034789928e-01,3.888279438018799050e-01,3.853054761886596791e-01,3.897438526153564342e-01,4.188891887664795144e-01,4.206667900085448997e-01,1.000000000000000000e+00,1.000000000000000000e+00,1.000000000000000000e+00,1.000000000000000000e+00,1.000000000000000000e+00,9.695021629333495650e-01,9.377741813659667969e-01,9.080571174621582253e-01,8.801655769348144531e-01,8.539364814758301225e-01,8.292252540588378462e-01,8.059041023254394087e-01,7.838588714599609153e-01,7.629876136779785156e-01,7.431988239288329634e-01
6.193704605102539062e-01,6.350671291351318581e-01,6.515811443328857200e-01,6.689825534820557085e-01,6.873389244079589622e-01,7.067310333251952681e-01,7.272492408752441184e-01,7.489943981170654741e-01,7.720800399780273215e-01,7.966340065002441850e-01,8.228010177612304910e-01,8.507454872131348100e-01,8.806547164916992410e-01,9.127436637878417747e-01,9.472595214843749778e-01,9.844889640808105469e-01,1.000000000000000000e+00,1.000000000000000000e+00,1.000000000000000000e+00,1.000000000000000000e+00,1.000000000000000000e+00,1.000000000000000000e+00,1.000000000000000000e+00,1.000000000000000000e+00,1.000000000000000000e+00,1.000000000000000000e+00,1.000000000000000000e+00,1.000000000000000000e+00,1.000000000000000000e+00,1.000000000000000000e+00,1.000000000000000000e+00,1.000000000000000000e+00,1.000000000000000000e+00,1.000000000000000000e+00,1.000000000000000000e+00,1.000000000000000000e+00,1.000000000000000000e+00,1.000000000000000000e+00,1.000000000000000000e+00,1.000000000000000000e+00,1.000000000000000000e+00,1.000000000000000000e+00,1.000000000000000000e+00,1.000000000000000000e+00,1.000000000000000000e+00,1.000000000000000000e+00,1.000000000000000000e+00,1.000000000000000000e+00,1.000000000000000000e+00,1.000000000000000000e+00,1.000000000000000000e+00,1.000000000000000000e+00,1.000000000000000000e+00,1.000000000000000000e+00,1.000000000000000000e+00,4.292102336883544811e-01,4.273177146911620872e-01,1.000000000000000000e+00,4.053040981292724831e-01,3.926127433776855358e-01,3.857987880706786887e-01,3.823307514190673606e-01,3.855586767196655384e-01,4.207015991210937278e-01,4.239189624786376953e-01,1.000000000000000000e+00,1.000000000000000000e+00,1.000000000000000000e+00,1.000000000000000000e+00,1.000000000000000000e+00,9.695273399353027122e-01,9.377977371215819868e-01,9.080792427062988059e-01,8.801863670349121538e-01,8.539559364318847212e-01,8.292437553405761497e-01,8.059214591979980691e-01,7.838753700256347878e-01,7.630031585693359819e-01,7.432136535644531250e-01
6.193704605102539062e-01,6.350671291351318581e-01,6.515800952911376953e-01,6.689746856689453569e-01,6.873234272003173606e-01,7.067138671874999556e-01,7.272310256958007812e-01,7.489750862121582475e-01,7.720593929290771040e-01,7.966120719909668413e-01,8.227776527404785378e-01,8.507205009460448997e-01,8.806280136108398660e-01,9.127149581909179688e-01,9.472286224365233931e-01,9.844550132751465066e-01,1.000000000000000000e+00,1.000000000000000000e+00,1.000000000000000000e+00,1.000000000000000000e+00,1.000000000000000000e+00,1.000000000000000000e+00,1.000000000000000000e+00,1.000000000000000000e+00,1.000000000000000000e+00,1.000000000000000000e+00,1.000000000000000000e+00,1.000000000000000000e+00,1.000000000000000000e+00,1.000000000000000000e+00,1.000000000000000000e+00,1.000000000000000000e+00,1.000000000000000000e+00,1.000000000000000000e+00,1.000000000000000000e+00,1.000000000000000000e+00,1.000000000000000000e+00,1.000000000000000000e+00,1.000000000000000000e+00,1.000000000000000000e+00,1.000000000000000000e+00,1.000000000000000000e+00,1.000000000000000000e+00,1.000000000000000000e+00,1.000000000000000000e+00,1.000000000000000000e+00,1.000000000000000000e+00,1.000000000000000000e+00,1.000000000000000000e+00,1.000000000000000000e+00,1.000000000000000000e+00,1.000000000000000000e+00,1.000000000000000000e+00,1.000000000000000000e+00,1.000000000000000000e+00,4.285123348236083984e-01,1.000000000000000000e+00,1.000000000000000000e+00,4.085703372955322155e-01,3.937971591949462891e-01,3.840784788131713645e-01,3.794015645980834961e-01,3.810961484909057839e-01,4.225297451019286998e-01,4.278319358825683483e-01,1.000000000000000000e+00,1.000000000000000000e+00,1.000000000000000000e+00,1.000000000000000000e+00,1.000000000000000000e+00,9.695525169372558594e-01,9.378212928771972878e-01,9.081013679504394975e-01,8.802070617675781250e-01,8.539754867553710493e-01,8.292621612548828347e-01,8.059389114379882368e-01,7.838917732238769309e-01,7.630187511444092019e-01,7.432284832000732866e-01
6.193672180175781028e-01,6.350671291351318581e-01,6.515800952911376953e-01,6.689746856689453569e-01,6.873235225677489790e-01,7.067071437835693581e-01,7.272159576416015181e-01,7.489556789398192915e-01,7.720388889312743697e-01,7.965902328491211160e-01,8.227542877197265847e-01,8.506955146789551003e-01,8.806012153625488725e-01,9.126862525939941628e-01,9.471976280212401900e-01,9.844216346740722878e-01,1.000000000000000000e+00,1.000000000000000000e+00,1.000000000000000000e+00,1.000000000000000000e+00,1.000000000000000000e+00,1.000000000000000000e+00,1.000000000000000000e+00,1.000000000000000000e+00,1.000000000000000000e+00,1.000000000000000000e+00,1.000000000000000000e+00,1.000000000000000000e+00,1.000000000000000000e+00,1.000000000000000000e+00,1.000000000000000000e+00,1.000000000000000000e+00,1.000000000000000000e+00,1.000000000000000000e+00,1.000000000000000000e+00,1.000000000000000000e+00,1.000000000000000000e+00,1.000000000000000000e+00,1.000000000000000000e+00,1.000000000000000000e+00,1.000000000000000000e+00,1.000000000000000000e+00,1.000000000000000000e+00,1.000000000000000000e+00,1.000000000000000000e+00,1.000000000000000000e+00,1.000000000000000000e+00,1.000000000000000000e+00,1.000000000000000000e+00,1.000000000000000000e+00,1.000000000000000000e+00,1.000000000000000000e+00,1.000000000000000000e+00,1.000000000000000000e+00,1.000000000000000000e+00,4.267369270324706809e-01,1.000000000000000000e+00,1.000000000000000000e+00,1.000000000000000000e+00,3.953602313995361328e-01,3.828219413757324441e-01,3.775916337966919167e-01,3.767592906951904297e-01,4.243067264556884544e-01,4.317303657531738059e-01,1.000000000000000000e+00,1.000000000000000000e+00,1.000000000000000000e+00,1.000000000000000000e+00,1.000000000000000000e+00,9.695776939392090066e-01,9.378448486328124778e-01,9.081233978271484597e-01,8.802278518676758257e-01,8.539950370788573775e-01,8.292805671691894087e-01,8.059562683105468972e-01,7.839082241058349387e-01,7.630343914031982866e-01,7.432432651519775835e-01
6.193539142608642800e-01,6.350558280944824663e-01,6.515746593475342241e-01,6.689746856689453569e-01,6.873235225677489790e-01,7.067072391510009766e-01,7.272159576416015181e-01,7.489506721496581587e-01,7.720245838165282759e-01,7.965682983398437722e-01,8.227309226989746316e-01,8.506705284118651900e-01,8.805745124816894975e-01,9.126574516296386275e-01,9.471667289733887163e-01,9.843881607055664507e-01,1.000000000000000000e+00,1.000000000000000000e+00,1.000000000000000000e+00,1.000000000000000000e+00,1.000000000000000000e+00,1.000000000000000000e+00,1.000000000000000000e+00,1.000000000000000000e+00,1.000000000000000000e+00,1.000000000000000000e+00,1.000000000000000000e+00,1.000000000000000000e+00,1.000000000000000000e+00,1.000000000000000000e+00,1.000000000000000000e+00,1.000000000000000000e+00,1.000000000000000000e+00,1.000000000000000000e+00,1.000000000000000000e+00,1.000000000000000000e+00,1.000000000000000000e+00,1.000000000000000000e+00,1.000000000000000000e+00,1.000000000000000000e+00,1.000000000000000000e+00,1.000000000000000000e+00,1.000000000000000000e+00,1.000000000000000000e+00,1.000000000000000000e+00,1.000000000000000000e+00,1.000000000000000000e+00,1.000000000000000000e+00,1.000000000000000000e+00,1.000000000000000000e+00,1.000000000000000000e+00,1.000000000000000000e+00,1.000000000000000000e+00,1.000000000000000000e+00,1.000000000000000000e+00,4.258085727691650613e-01,1.000000000000000000e+00,1.000000000000000000e+00,1.000000000000000000e+00,3.975269556045532005e-01,3.843279123306274636e-01,3.765584230422973633e-01,3.747409343719482200e-01,3.772564649581909291e-01,1.000000000000000000e+00,1.000000000000000000e+00,1.000000000000000000e+00,1.000000000000000000e+00,1.000000000000000000e+00,1.000000000000000000e+00,9.696028709411621538e-01,9.378684043884277788e-01,9.081455230712890403e-01,8.802486419677734153e-01,8.540145874023437056e-01,8.292989730834960938e-01,8.059737205505370650e-01,7.839247226715088113e-01,7.630499839782715066e-01,7.432579994201660156e-01
6.193405628204345925e-01,6.350418090820312278e-01,6.515599250793456809e-01,6.689602375030517800e-01,6.873154163360595259e-01,7.067062854766845703e-01,7.272160530090332475e-01,7.489506721496581587e-01,7.720245838165282759e-01,7.965654373168945535e-01,8.227176666259765625e-01,8.506456375122070090e-01,8.805477142333983931e-01,9.126287460327148215e-01,9.471357345581055132e-01,9.843547821044922319e-01,1.000000000000000000e+00,1.000000000000000000e+00,1.000000000000000000e+00,1.000000000000000000e+00,1.000000000000000000e+00,1.000000000000000000e+00,1.000000000000000000e+00,1.000000000000000000e+00,1.000000000000000000e+00,1.000000000000000000e+00,1.000000000000000000e+00,1.000000000000000000e+00,1.000000000000000000e+00,1.000000000000000000e+00,1.000000000000000000e+00,1.000000000000000000e+00,1.000000000000000000e+00,1.000000000000000000e+00,1.000000000000000000e+00,1.000000000000000000e+00,1.000000000000000000e+00,1.000000000000000000e+00,1.000000000000000000e+00,1.000000000000000000e+00,1.000000000000000000e+00,1.000000000000000000e+00,1.000000000000000000e+00,1.000000000000000000e+00,1.000000000000000000e+00,1.000000000000000000e+00,1.000000000000000000e+00,1.000000000000000000e+00,1.000000000000000000e+00,1.000000000000000000e+00,1.000000000000000000e+00,1.000000000000000000e+00,1.000000000000000000e+00,1.000000000000000000e+00,1.000000000000000000e+00,1.000000000000000000e+00,1.000000000000000000e+00,1.000000000000000000e+00,1.000000000000000000e+00,3.990662574768066295e-01,3.843392372131347878e-01,3.770617485046386941e-01,3.750838518142700084e-01,3.781430959701538308e-01,1.000000000000000000e+00,1.000000000000000000e+00,1.000000000000000000e+00,1.000000000000000000e+00,1.000000000000000000e+00,1.000000000000000000e+00,9.696280479431151900e-01,9.378919601440429688e-01,9.081675529479980025e-01,8.802693367004394975e-01,8.540341377258300337e-01,8.293173789978027788e-01,8.059910774230957253e-01,7.839412212371825728e-01,7.630655288696288618e-01,7.432728290557861772e-01
6.193272590637206587e-01,6.350278377532958540e-01,6.515451431274413840e-01,6.689446926116943137e-01,6.872990131378173828e-01,7.066889286041260210e-01,7.272047042846679910e-01,7.489472389221191184e-01,7.720245838165282759e-01,7.965654373168945535e-01,8.227176666259765625e-01,8.506454467773437722e-01,8.805358886718750444e-01,9.126034736633300559e-01,9.471048355102539285e-01,9.843213081359862837e-01,1.000000000000000000e+00,1.000000000000000000e+00,1.000000000000000000e+00,1.000000000000000000e+00,1.000000000000000000e+00,1.000000000000000000e+00,1.000000000000000000e+00,1.000000000000000000e+00,1.000000000000000000e+00,1.000000000000000000e+00,1.000000000000000000e+00,1.000000000000000000e+00,1.000000000000000000e+00,1.000000000000000000e+00,1.000000000000000000e+00,1.000000000000000000e+00,1.000000000000000000e+00,1.000000000000000000e+00,1.000000000000000000e+00,1.000000000000000000e+00,1.000000000000000000e+00,1.000000000000000000e+00,1.000000000000000000e+00,1.000000000000000000e+00,1.000000000000000000e+00,1.000000000000000000e+00,1.000000000000000000e+00,1.000000000000000000e+00,1.000000000000000000e+00,1.000000000000000000e+00,1.000000000000000000e+00,1.000000000000000000e+00,1.000000000000000000e+00,1.000000000000000000e+00,1.000000000000000000e+00,1.000000000000000000e+00,1.000000000000000000e+00,1.000000000000000000e+00,1.000000000000000000e+00,1.000000000000000000e+00,1.000000000000000000e+00,1.000000000000000000e+00,1.000000000000000000e+00,1.000000000000000000e+00,3.836184740066528320e-01,3.782269716262817161e-01,3.755071878433227650e-01,4.316539764404296875e-01,1.000000000000000000e+00,1.000000000000000000e+00,1.000000000000000000e+00,1.000000000000000000e+00,1.000000000000000000e+00,1.000000000000000000e+00,9.696532249450683372e-01,9.379155158996581587e-01,9.081896781921386941e-01,8.802901268005370872e-01,8.540536880493163618e-01,8.293357849121093528e-01,8.060085296630858931e-01,7.839575767517089622e-01,7.630815029144286665e-01,7.432887077331542525e-01
6.193139553070068359e-01,6.350138187408447266e-01,6.515304088592529519e-01,6.689291477203369585e-01,6.872826099395752397e-01,7.066715717315673606e-01,7.271863460540771706e-01,7.489277839660644087e-01,7.720094203948975053e-01,7.965589046478271928e-01,8.227177619934081809e-01,8.506454467773437722e-01,8.805359840393066628e-01,9.126034736633300559e-01,9.470951080322265181e-01,9.842962265014648660e-01,1.000000000000000000e+00,1.000000000000000000e+00,1.000000000000000000e+00,1.000000000000000000e+00,1.000000000000000000e+00,1.000000000000000000e+00,1.000000000000000000e+00,1.000000000000000000e+00,1.000000000000000000e+00,1.000000000000000000e+00,1.000000000000000000e+00,1.000000000000000000e+00,1.000000000000000000e+00,1.000000000000000000e+00,1.000000000000000000e+00,1.000000000000000000e+00,1.000000000000000000e+00,1.000000000000000000e+00,1.000000000000000000e+00,1.000000000000000000e+00,1.000000000000000000e+00,1.000000000000000000e+00,1.000000000000000000e+00,1.000000000000000000e+00,1.000000000000000000e+00,1.000000000000000000e+00,1.000000000000000000e+00,1.000000000000000000e+00,1.000000000000000000e+00,1.000000000000000000e+00,1.000000000000000000e+00,1.000000000000000000e+00,1.000000000000000000e+00,1.000000000000000000e+00,1.000000000000000000e+00,1.000000000000000000e+00,1.000000000000000000e+00,1.000000000000000000e+00,1.000000000000000000e+00,1.000000000000000000e+00,1.000000000000000000e+00,1.000000000000000000e+00,1.000000000000000000e+00,1.000000000000000000e+00,3.831874370574951394e-01,3.783514499664306641e-01,3.759314537048339955e-01,1.000000000000000000e+00,1.000000000000000000e+00,1.000000000000000000e+00,1.000000000000000000e+00,1.000000000000000000e+00,1.000000000000000000e+00,1.000000000000000000e+00,9.696784019470214844e-01,9.379391670227050781e-01,9.082117080688476562e-01,8.803109169006347878e-01,8.540731430053710715e-01,8.293542861938476562e-01,8.060267448425293413e-01,7.839757442474365456e-01,7.630991935729980469e-01,7.433055400848388450e-01
6.193005561828612837e-01,6.349998474121093528e-01,6.515156745910644087e-01,6.689136028289794922e-01,6.872662067413329856e-01,7.066542625427245650e-01,7.271679878234863503e-01,7.489082813262939453e-01,7.719886302947998047e-01,7.965368747711181197e-01,8.226975440979004128e-01,8.506349563598633035e-01,8.805359840393066628e-01,9.126035690307616743e-01,9.470951080322265181e-01,9.842962265014648660e-01,1.000000000000000000e+00,1.000000000000000000e+00,1.000000000000000000e+00,1.000000000000000000e+00,1.000000000000000000e+00,1.000000000000000000e+00,1.000000000000000000e+00,1.000000000000000000e+00,1.000000000000000000e+00,1.000000000000000000e+00,1.000000000000000000e+00,1.000000000000000000e+00,1.000000000000000000e+00,1.000000000000000000e+00,1.000000000000000000e+00,1.000000000000000000e+00,1.000000000000000000e+00,1.000000000000000000e+00,1.000000000000000000e+00,1.000000000000000000e+00,1.000000000000000000e+00,1.000000000000000000e+00,1.000000000000000000e+00,1.000000000000000000e+00,1.000000000000000000e+00,1.000000000000000000e+00,1.000000000000000000e+00,1.000000000000000000e+00,1.000000000000000000e+00,1.000000000000000000e+00,1.000000000000000000e+00,1.000000000000000000e+00,1.000000000000000000e+00,1.000000000000000000e+00,1.000000000000000000e+00,1.000000000000000000e+00,1.000000000000000000e+00,1.000000000000000000e+00,1.000000000000000000e+00,1.000000000000000000e+00,1.000000000000000000e+00,1.000000000000000000e+00,1.000000000000000000e+00,4.568981170654297097e-01,3.831639289855957031e-01,3.783762454986572266e-01,3.765590906143188588e-01,1.000000000000000000e+00,1.000000000000000000e+00,1.000000000000000000e+00,1.000000000000000000e+00,1.000000000000000000e+00,1.000000000000000000e+00,1.000000000000000000e+00,9.697035789489746316e-01,9.379626274108886497e-01,9.082338333129882368e-01,8.803321838378905806e-01,8.540943145751953569e-01,8.293750762939453569e-01,8.060464859008789062e-01,7.839944362640380859e-01,7.631167888641356978e-01,7.433222293853759544e-01
6.192872524261474609e-01,6.349858283996582253e-01,6.515009403228759766e-01,6.688980579376220259e-01,6.872498035430908425e-01,7.066369056701660156e-01,7.271496295928955300e-01,7.488888263702392356e-01,7.719679355621338335e-01,7.965148448944091575e-01,8.226739883422851118e-01,8.506097793579101562e-01,8.805094718933105247e-01,9.125878334045409712e-01,9.470918655395508257e-01,9.842962265014648660e-01,1.000000000000000000e+00,1.000000000000000000e+00,1.000000000000000000e+00,1.000000000000000000e+00,1.000000000000000000e+00,1.000000000000000000e+00,1.000000000000000000e+00,1.000000000000000000e+00,1.000000000000000000e+00,1.000000000000000000e+00,1.000000000000000000e+00,1.000000000000000000e+00,1.000000000000000000e+00,1.000000000000000000e+00,1.000000000000000000e+00,1.000000000000000000e+00,1.000000000000000000e+00,1.000000000000000000e+00,1.000000000000000000e+00,1.000000000000000000e+00,1.000000000000000000e+00,1.000000000000000000e+00,1.000000000000000000e+00,1.000000000000000000e+00,1.000000000000000000e+00,1.000000000000000000e+00,1.000000000000000000e+00,1.000000000000000000e+00,1.000000000000000000e+00,1.000000000000000000e+00,1.000000000000000000e+00,1.000000000000000000e+00,1.000000000000000000e+00,1.000000000000000000e+00,1.000000000000000000e+00,1.000000000000000000e+00,1.000000000000000000e+00,1.000000000000000000e+00,1.000000000000000000e+00,1.000000000000000000e+00,1.000000000000000000e+00,1.000000000000000000e+00,1.000000000000000000e+00,4.603308677673340066e-01,3.830114364624023215e-01,3.769124031066894420e-01,3.735557079315185436e-01,3.803162097930908314e-01,1.000000000000000000e+00,1.000000000000000000e+00,1.000000000000000000e+00,1.000000000000000000e+00,1.000000000000000000e+00,1.000000000000000000e+00,9.697287559509277788e-01,9.379875183105468306e-01,9.082582473754883257e-01,8.803557395935058816e-01,8.541163444519043191e-01,8.293959617614745650e-01,8.060661315917968528e-01,7.840130805969238725e-01,7.631345272064209428e-01,7.433390140533446822e-01
6.192739486694336382e-01,6.349717617034912331e-01,6.514862060546875444e-01,6.688825607299804243e-01,6.872334003448485884e-01,7.066195964813232200e-01,7.271312713623047097e-01,7.488693237304687722e-01,7.719472408294677512e-01,7.964927673339843306e-01,8.226505279541015403e-01,8.505846977233886275e-01,8.804825782775879128e-01,9.125589370727539285e-01,9.470606803894042747e-01,9.842738151550293191e-01,1.000000000000000000e+00,1.000000000000000000e+00,1.000000000000000000e+00,1.000000000000000000e+00,1.000000000000000000e+00,1.000000000000000000e+00,1.000000000000000000e+00,1.000000000000000000e+00,1.000000000000000000e+00,1.000000000000000000e+00,1.000000000000000000e+00,1.000000000000000000e+00,1.000000000000000000e+00,1.000000000000000000e+00,1.000000000000000000e+00,1.000000000000000000e+00,1.000000000000000000e+00,1.000000000000000000e+00,1.000000000000000000e+00,1.000000000000000000e+00,1.000000000000000000e+00,1.000000000000000000e+00,1.000000000000000000e+00,1.000000000000000000e+00,1.000000000000000000e+00,1.000000000000000000e+00,1.000000000000000000e+00,1.000000000000000000e+00,1.000000000000000000e+00,1.000000000000000000e+00,1.000000000000000000e+00,1.000000000000000000e+00,1.000000000000000000e+00,1.000000000000000000e+00,1.000000000000000000e+00,1.000000000000000000e+00,1.000000000000000000e+00,1.000000000000000000e+00,1.000000000000000000e+00,1.000000000000000000e+00,1.000000000000000000e+00,1.000000000000000000e+00,1.000000000000000000e+00,4.609944820404052734e-01,3.827824115753173939e-01,3.758660793304443581e-01,3.720625877380371316e-01,3.771456241607665794e-01,1.000000000000000000e+00,1.000000000000000000e+00,1.000000000000000000e+00,1.000000000000000000e+00,1.000000000000000000e+00,1.000000000000000000e+00,9.697573661804199663e-01,9.380142211914062056e-01,9.082833290100097434e-01,8.803791999816894531e-01,8.541384696960448997e-01,8.294167518615722656e-01,8.060859680175781472e-01,7.840316772460937944e-01,7.631521224975585938e-01,7.433558464050292747e-01
6.192605972290039507e-01,6.349577903747558594e-01,6.514714717864990012e-01,6.688670158386230691e-01,6.872169971466064453e-01,7.066022396087646706e-01,7.271129131317138894e-01,7.488498687744140625e-01,7.719265460968017800e-01,7.964707374572753684e-01,8.226270675659179688e-01,8.505595207214355913e-01,8.804556846618651900e-01,9.125299453735351562e-01,9.470295906066894531e-01,9.842402458190917525e-01,1.000000000000000000e+00,1.000000000000000000e+00,1.000000000000000000e+00,1.000000000000000000e+00,1.000000000000000000e+00,1.000000000000000000e+00,1.000000000000000000e+00,1.000000000000000000e+00,1.000000000000000000e+00,1.000000000000000000e+00,1.000000000000000000e+00,1.000000000000000000e+00,1.000000000000000000e+00,1.000000000000000000e+00,1.000000000000000000e+00,1.000000000000000000e+00,1.000000000000000000e+00,1.000000000000000000e+00,1.000000000000000000e+00,1.000000000000000000e+00,1.000000000000000000e+00,1.000000000000000000e+00,1.000000000000000000e+00,1.000000000000000000e+00,1.000000000000000000e+00,1.000000000000000000e+00,1.000000000000000000e+00,1.000000000000000000e+00,1.000000000000000000e+00,1.000000000000000000e+00,1.000000000000000000e+00,1.000000000000000000e+00,1.000000000000000000e+00,1.000000000000000000e+00,1.000000000000000000e+00,1.000000000000000000e+00,1.000000000000000000e+00,1.000000000000000000e+00,1.000000000000000000e+00,1.000000000000000000e+00,1.000000000000000000e+00,1.000000000000000000e+00,1.000000000000000000e+00,4.619791507720947266e-01,3.825537443161010631e-01,3.754922151565551758e-01,3.706180572509765736e-01,3.740274906158447266e-01,1.000000000000000000e+00,1.000000000000000000e+00,1.000000000000000000e+00,1.000000000000000000e+00,1.000000000000000000e+00,1.000000000000000000e+00,9.697858810424804243e-01,9.380408287048339622e-01,9.083084106445312722e-01,8.804027557373046431e-01,8.541605949401855913e-01,8.294377326965332031e-01,8.061056137084960938e-01,7.840503692626953347e-01,7.631698131561279741e-01,7.433725357055663840e-01
6.192472934722900169e-01,6.349437713623047319e-01,6.514566898345947044e-01,6.688514709472656028e-01,6.872005939483643022e-01,7.065848827362060103e-01,7.270945549011230691e-01,7.488304138183593528e-01,7.719058513641356978e-01,7.964487075805664062e-01,8.226035118103027788e-01,8.505344390869140625e-01,8.804287910461425781e-01,9.125010490417480025e-01,9.469984054565430132e-01,9.842065811157226785e-01,1.000000000000000000e+00,1.000000000000000000e+00,1.000000000000000000e+00,1.000000000000000000e+00,1.000000000000000000e+00,1.000000000000000000e+00,1.000000000000000000e+00,1.000000000000000000e+00,1.000000000000000000e+00,1.000000000000000000e+00,1.000000000000000000e+00,1.000000000000000000e+00,1.000000000000000000e+00,1.000000000000000000e+00,1.000000000000000000e+00,1.000000000000000000e+00,1.000000000000000000e+00,1.000000000000000000e+00,1.000000000000000000e+00,1.000000000000000000e+00,1.000000000000000000e+00,1.000000000000000000e+00,1.000000000000000000e+00,1.000000000000000000e+00,1.000000000000000000e+00,1.000000000000000000e+00,1.000000000000000000e+00,1.000000000000000000e+00,1.000000000000000000e+00,1.000000000000000000e+00,1.000000000000000000e+00,1.000000000000000000e+00,1.000000000000000000e+00,1.000000000000000000e+00,1.000000000000000000e+00,1.000000000000000000e+00,1.000000000000000000e+00,1.000000000000000000e+00,1.000000000000000000e+00,1.000000000000000000e+00,1.000000000000000000e+00,1.000000000000000000e+00,4.736244201660156361e-01,4.646568775177001842e-01,3.823252916336059570e-01,3.752831697463989147e-01,3.698999166488647350e-01,3.710860490798950084e-01,1.000000000000000000e+00,1.000000000000000000e+00,1.000000000000000000e+00,1.000000000000000000e+00,1.000000000000000000e+00,1.000000000000000000e+00,9.698143959045409934e-01,9.380675315856933372e-01,9.083333969116210715e-01,8.804262161254883257e-01,8.541827201843261719e-01,8.294585227966309038e-01,8.061253547668456587e-01,7.840689659118652566e-01,7.631875514984131081e-01,7.433893203735351118e-01
6.192339897155761941e-01,6.349297523498534934e-01,6.514419555664062722e-01,6.688359260559082475e-01,6.871841907501220481e-01,7.065675735473633257e-01,7.270761966705322488e-01,7.488109588623046431e-01,7.718852043151855913e-01,7.964266777038574441e-01,8.225799560546874778e-01,8.505093574523925337e-01,8.804018020629882368e-01,9.124721527099609597e-01,9.469672203063964622e-01,9.841729164123534934e-01,1.000000000000000000e+00,1.000000000000000000e+00,1.000000000000000000e+00,1.000000000000000000e+00,1.000000000000000000e+00,1.000000000000000000e+00,1.000000000000000000e+00,1.000000000000000000e+00,1.000000000000000000e+00,1.000000000000000000e+00,1.000000000000000000e+00,1.000000000000000000e+00,1.000000000000000000e+00,1.000000000000000000e+00,1.000000000000000000e+00,1.000000000000000000e+00,1.000000000000000000e+00,1.000000000000000000e+00,1.000000000000000000e+00,1.000000000000000000e+00,1.000000000000000000e+00,1.000000000000000000e+00,1.000000000000000000e+00,1.000000000000000000e+00,1.000000000000000000e+00,1.000000000000000000e+00,1.000000000000000000e+00,1.000000000000000000e+00,1.000000000000000000e+00,1.000000000000000000e+00,1.000000000000000000e+00,1.000000000000000000e+00,1.000000000000000000e+00,1.000000000000000000e+00,1.000000000000000000e+00,1.000000000000000000e+00,1.000000000000000000e+00,1.000000000000000000e+00,1.000000000000000000e+00,1.000000000000000000e+00,1.000000000000000000e+00,1.000000000000000000e+00,4.754589557647704856e-01,4.675915241241455078e-01,3.878049612045287864e-01,3.752400159835815319e-01,3.698907375335693248e-01,3.684546947479248047e-01,1.000000000000000000e+00,1.000000000000000000e+00,1.000000000000000000e+00,1.000000000000000000e+00,1.000000000000000000e+00,1.000000000000000000e+00,9.698429107666015625e-01,9.380943298339843306e-01,9.083583831787109819e-01,8.804496765136718972e-01,8.542049407958984819e-01,8.294794082641601118e-01,8.061450004577637163e-01,7.840876579284667969e-01,7.632051467895507590e-01,7.434060573577880859e-01
6.192206859588622603e-01,6.349157810211181197e-01,6.514272212982177290e-01,6.688203334808349165e-01,6.871678352355956587e-01,7.065502166748046653e-01,7.270578384399414285e-01,7.487914562225341797e-01,7.718645095825195090e-01,7.964046478271484819e-01,8.225564956665039062e-01,8.504841804504394975e-01,8.803749084472656250e-01,9.124432563781738059e-01,9.469361305236816406e-01,9.841392517089844194e-01,1.000000000000000000e+00,1.000000000000000000e+00,1.000000000000000000e+00,1.000000000000000000e+00,1.000000000000000000e+00,1.000000000000000000e+00,1.000000000000000000e+00,1.000000000000000000e+00,1.000000000000000000e+00,1.000000000000000000e+00,1.000000000000000000e+00,1.000000000000000000e+00,1.000000000000000000e+00,1.000000000000000000e+00,1.000000000000000000e+00,1.000000000000000000e+00,1.000000000000000000e+00,1.000000000000000000e+00,1.000000000000000000e+00,1.000000000000000000e+00,1.000000000000000000e+00,1.000000000000000000e+00,1.000000000000000000e+00,1.000000000000000000e+00,1.000000000000000000e+00,1.000000000000000000e+00,1.000000000000000000e+00,1.000000000000000000e+00,1.000000000000000000e+00,1.000000000000000000e+00,1.000000000000000000e+00,1.000000000000000000e+00,1.000000000000000000e+00,1.000000000000000000e+00,1.000000000000000000e+00,1.000000000000000000e+00,1.000000000000000000e+00,1.000000000000000000e+00,1.000000000000000000e+00,1.000000000000000000e+00,1.000000000000000000e+00,1.000000000000000000e+00,4.772641658782958984e-01,4.706654071807861439e-01,1.000000000000000000e+00,3.752443075180053600e-01,3.687260627746581920e-01,3.659968852996826061e-01,1.000000000000000000e+00,1.000000000000000000e+00,1.000000000000000000e+00,1.000000000000000000e+00,1.000000000000000000e+00,1.000000000000000000e+00,9.698715209960937500e-01,9.381210327148437056e-01,9.083834648132323997e-01,8.804732322692870872e-01,8.542270660400390625e-01,8.295002937316894309e-01,8.061647415161132812e-01,7.841063499450683372e-01,7.632228374481201394e-01,7.434228420257568137e-01
6.192073822021484375e-01,6.349017620086669922e-01,6.514124870300292969e-01,6.688048362731933150e-01,6.871514320373535156e-01,7.065329074859618697e-01,7.270394802093506081e-01,7.487720012664794700e-01,7.718438148498535378e-01,7.963826179504394087e-01,8.225330352783203347e-01,8.504590034484863503e-01,8.803480148315430132e-01,9.124143600463867632e-01,9.469049453735352007e-01,9.710168838500976562e-01,9.707753181457519087e-01,9.705338478088378906e-01,9.702924728393554910e-01,9.700512886047363281e-01,9.698101997375487837e-01,9.695692062377929688e-01,9.693283081054687722e-01,9.690875053405761941e-01,9.688468933105468528e-01,9.686063766479492410e-01,9.683659553527832475e-01,9.681257247924804910e-01,9.678854942321777344e-01,9.676454544067383257e-01,9.674056053161621538e-01,9.671658515930176003e-01,9.669260978698730469e-01,9.666865348815918413e-01,9.664470672607421431e-01,9.662077903747559038e-01,9.659685134887695535e-01,9.657294273376464400e-01,9.654905319213866743e-01,9.652516365051269087e-01,9.650129318237304910e-01,9.647743225097655806e-01,9.645359039306640181e-01,9.642974853515624556e-01,9.640591621398926225e-01,9.638210296630859153e-01,9.635829925537109375e-01,9.633451461791991965e-01,9.631072998046874556e-01,9.628696441650390625e-01,9.626320838928222878e-01,9.623947143554687500e-01,9.621573448181152122e-01,9.619201660156250222e-01,9.616830825805664507e-01,9.614460945129394975e-01,9.612092018127441628e-01,9.609724998474120650e-01,4.789948463439941406e-01,4.753396034240722767e-01,9.602629661560058150e-01,3.752485990524291881e-01,3.687427520751953014e-01,3.659905910491943470e-01,9.593185424804687722e-01,9.590827941894530806e-01,9.588470458984375000e-01,9.586114883422851562e-01,9.583760261535644309e-01,9.581406593322754350e-01,9.579054832458495650e-01,9.381476402282714622e-01,9.084084510803223100e-01,8.804967880249023882e-01,8.542491912841796431e-01,8.295211791992187500e-01,8.061844825744628462e-01,7.841249465942382590e-01,7.632404804229736550e-01,7.434396743774414062e-01
6.191940784454346147e-01,6.348877906799316184e-01,6.513977527618408647e-01,6.687892913818359597e-01,6.871349334716796431e-01,7.065155982971191850e-01,7.270211219787597878e-01,7.487525463104247603e-01,7.542523384094238503e-01,7.541065692901611772e-01,7.539608478546142578e-01,7.538151741027832031e-01,7.536695480346680132e-01,7.535240173339843306e-01,7.533784866333007590e-01,7.532330513000488059e-01,7.530877113342284712e-01,7.529423713684082475e-01,7.527970790863036665e-01,7.526518344879150613e-01,7.525066852569579634e-01,7.523615837097168413e-01,7.522166252136230913e-01,7.520716190338134766e-01,7.519267082214355913e-01,7.517817974090575950e-01,7.516369819641113281e-01,7.514922142028808150e-01,7.513474941253661665e-01,7.512028217315673828e-01,7.510582447052002175e-01,7.509137153625488059e-01,7.507691860198975053e-01,7.506247520446777122e-01,7.504803657531737837e-01,7.503360748291015847e-01,7.501917839050292747e-01,7.500475406646728294e-01,7.499033927917480025e-01,7.497592926025390403e-01,7.496152400970459428e-01,7.494712352752685991e-01,7.493273258209228738e-01,7.491835117340087669e-01,7.490396976470947710e-01,7.488959312438965288e-01,7.487522125244140403e-01,7.486085414886474165e-01,7.484649181365966575e-01,7.483213901519775169e-01,7.481779098510742410e-01,7.480344772338867188e-01,7.478910923004150613e-01,7.477477550506591575e-01,7.476044654846191184e-01,7.474612712860106978e-01,7.473180770874023882e-01,7.471749782562255859e-01,4.827196598052978516e-01,7.468889236450195757e-01,7.467459678649902566e-01,3.752528905868530162e-01,3.687594413757324108e-01,3.646204948425292858e-01,7.461748123168945312e-01,7.460321426391601785e-01,7.458895206451415794e-01,7.457469463348388450e-01,7.456044197082519753e-01,7.454619407653808594e-01,7.453195571899413618e-01,7.451772212982177290e-01,7.450349330902099609e-01,7.448926925659179465e-01,7.447504997253417969e-01,7.446083545684814009e-01,7.444663047790527344e-01,7.443242549896240678e-01,7.441823005676269087e-01,7.434563636779785156e-01
6.167022705078124556e-01,6.166048526763916460e-01,6.165073871612548606e-01,6.164100170135498047e-01,6.163126468658447488e-01,6.162152767181396928e-01,6.161180019378662553e-01,6.160207271575928178e-01,6.159234523773193803e-01,6.158262729644775613e-01,6.157290458679198775e-01,6.156319141387939231e-01,6.155347824096679688e-01,6.154376983642577681e-01,6.153407096862792969e-01,6.152436733245849609e-01,6.151466369628906250e-01,6.150496959686279075e-01,6.149527549743651900e-01,6.148558139801025835e-01,6.147589683532714844e-01,6.146621227264403853e-01,6.145652770996093972e-01,6.144684791564941628e-01,6.143717288970946822e-01,6.142750263214111772e-01,6.141783237457275613e-01,6.140816688537598100e-01,6.139850139617919478e-01,6.138884067535400613e-01,6.137918472290039285e-01,6.136952877044677956e-01,6.135987758636474165e-01,6.135023117065430132e-01,6.134058475494384988e-01,6.133094787597656028e-01,6.132131099700928178e-01,6.131167411804199219e-01,6.130204200744628906e-01,6.129240989685058594e-01,6.128278732299804465e-01,6.127315998077392800e-01,6.126354217529297319e-01,6.125392436981200728e-01,6.124430656433105247e-01,6.123469352722168413e-01,6.122508525848389116e-01,6.121548175811767356e-01,6.120587825775146706e-01,6.119627475738524947e-01,6.118668079376220481e-01,6.117708683013916016e-01,6.116749286651611550e-01,6.115790843963623269e-01,6.114832401275634988e-01,6.113874435424804243e-01,6.112916469573974609e-01,4.957957267761230469e-01,4.748258113861084095e-01,4.799087047576904297e-01,6.109087944030762163e-01,6.108131885528564897e-01,3.701820135116576926e-01,3.650974273681640847e-01,6.105264186859130637e-01,6.104309082031249556e-01,6.103353977203369585e-01,6.102399826049804688e-01,6.101445198059082253e-01,6.100491523742676003e-01,6.099537849426269753e-01,6.098584175109863503e-01,6.097630977630614790e-01,6.096678256988525835e-01,6.095726013183593306e-01,6.094773769378661887e-01,6.093822479248046653e-01,6.092870712280273882e-01,6.091919422149658647e-01,6.090968608856200950e-01
5.210259914398193137e-01,5.209564208984375222e-01,5.208868503570556197e-01,5.208173274993896928e-01,5.207478046417236550e-01,5.206783771514892356e-01,5.206089019775390625e-01,5.205394268035888894e-01,5.204699993133544700e-01,5.204005718231201616e-01,5.203311443328857422e-01,5.202617645263671875e-01,5.201924324035644975e-01,5.201230525970459428e-01,5.200537681579590066e-01,5.199844360351562056e-01,5.199151515960693803e-01,5.198458671569824441e-01,5.197766304016113725e-01,5.197073936462401900e-01,5.196381568908691184e-01,5.195689678192139116e-01,5.194997787475585938e-01,5.194306373596191406e-01,5.193614959716796875e-01,5.192923545837402344e-01,5.192232608795166460e-01,5.191542148590088113e-01,5.190851211547851118e-01,5.190160751342773882e-01,5.189470767974853072e-01,5.188780307769775835e-01,5.188090324401855025e-01,5.187400817871093972e-01,5.186711311340331809e-01,5.186021804809570757e-01,5.185332298278808594e-01,5.184643268585205078e-01,5.183954715728760210e-01,5.183265686035156694e-01,5.182577610015869363e-01,5.181889057159423384e-01,5.181200981140137163e-01,5.180512905120849831e-01,5.179825305938721147e-01,5.179137706756591353e-01,5.178450107574462669e-01,5.177762985229492632e-01,5.177076339721680132e-01,5.176389694213867632e-01,5.175703048706055132e-01,5.175016403198242632e-01,5.174330234527587669e-01,5.173644065856933816e-01,5.172958374023437500e-01,5.172272205352783647e-01,5.171586990356444868e-01,5.170901298522949663e-01,4.660527706146240234e-01,4.625236034393310769e-01,5.168846607208251731e-01,5.168161869049072710e-01,3.699838638305664174e-01,3.579045057296753041e-01,3.503271579742431863e-01,3.462831735610961692e-01,3.331989765167236439e-01,5.164057731628417525e-01,5.163374423980713335e-01,5.162691593170165572e-01,5.162008285522461382e-01,5.161325454711913618e-01,5.160642623901366965e-01,5.159960269927978960e-01,5.159277915954589844e-01,5.158596038818359375e-01,5.157913684844970259e-01,5.157232284545898438e-01,5.156550407409667969e-01,5.155869007110596147e-01
4.510493755340576061e-01,4.509972095489501731e-01,4.509450912475586049e-01,4.508929729461669811e-01,4.508409023284912220e-01,4.507888317108154075e-01,4.507367610931396484e-01,4.506846904754638894e-01,4.506326198577880748e-01,4.505805969238281250e-01,4.505285739898681752e-01,4.504765987396240345e-01,4.504245281219482200e-01,4.503725528717040794e-01,4.503205776214599387e-01,4.502686023712157981e-01,4.502166271209716575e-01,4.501646995544433816e-01,4.501127719879150502e-01,4.500608921051025280e-01,4.500089645385741965e-01,4.499570846557617299e-01,4.499052047729492076e-01,4.498533248901367410e-01,4.498014450073242188e-01,4.497496128082275613e-01,4.496977806091308483e-01,4.496459484100341908e-01,4.495941162109374778e-01,4.495423316955566295e-01,4.494905471801757812e-01,4.494387626647949330e-01,4.493869781494140847e-01,4.493352413177490456e-01,4.492835044860840066e-01,4.492317676544189675e-01,4.491800785064697377e-01,4.491283416748046986e-01,4.490766525268554688e-01,4.490249633789062389e-01,4.489733219146728738e-01,4.489216804504394531e-01,4.488700389862060325e-01,4.488183975219726674e-01,4.487667560577392467e-01,4.487151622772216908e-01,4.486635684967040794e-01,4.486119747161865234e-01,4.485603809356689675e-01,4.485088348388671653e-01,4.484572887420654186e-01,4.484057426452636719e-01,4.483541965484619252e-01,4.483026981353759877e-01,4.482511997222900502e-01,4.481997013092041127e-01,4.481482028961181752e-01,4.480967521667480469e-01,4.480453014373779186e-01,4.479938507080077903e-01,4.479423999786377175e-01,4.478910446166992076e-01,3.705345392227172852e-01,3.460614204406738392e-01,3.391834259033202903e-01,3.400262594223022461e-01,3.375081300735473522e-01,4.475827693939208873e-01,4.475314140319824330e-01,4.474800586700439231e-01,4.474287509918212780e-01,4.473774433135986328e-01,4.473261833190917969e-01,4.472748756408691517e-01,4.472236156463623158e-01,4.471723556518554799e-01,4.471210956573486439e-01,4.470698833465576172e-01,4.470186710357665905e-01,4.469674587249755637e-01
3.976436376571655384e-01,3.976031303405761497e-01,3.975625991821288840e-01,3.975221157073974831e-01,3.974816083908080944e-01,3.974411725997925027e-01,3.974006891250610463e-01,3.973602056503295898e-01,3.973197460174560658e-01,3.972792863845825417e-01,3.972388505935668945e-01,3.971984148025512473e-01,3.971579790115356556e-01,3.971175670623779408e-01,3.970771551132202259e-01,3.970367431640625111e-01,3.969963312149047963e-01,3.969559431076049583e-01,3.969155788421631081e-01,3.968751907348632701e-01,3.968348264694213645e-01,3.967944622039795144e-01,3.967541217803954856e-01,3.967137813568115123e-01,3.966734409332275391e-01,3.966331243515014426e-01,3.965928077697754017e-01,3.965524911880493053e-01,3.965121984481811412e-01,3.964719057083129772e-01,3.964316129684448131e-01,3.963913440704345814e-01,3.963511228561401589e-01,3.963108777999878041e-01,3.962706089019775169e-01,3.962303638458252175e-01,3.961901426315307395e-01,3.961499214172363170e-01,3.961097002029418945e-01,3.960694789886474720e-01,3.960292816162109264e-01,3.959890842437744363e-01,3.959489107131958230e-01,3.959087371826172097e-01,3.958685636520385964e-01,3.958283901214599831e-01,3.957882404327392467e-01,3.957480907440185658e-01,3.957079648971557617e-01,3.956678390502929576e-01,3.956277132034301536e-01,3.955875873565674050e-01,3.955474853515624778e-01,3.955073833465576061e-01,3.954673051834106667e-01,3.954272270202636719e-01,3.953871488571166770e-01,3.953470945358276145e-01,3.953070402145385520e-01,3.952669858932494895e-01,3.952269554138183594e-01,3.951869249343872292e-01,3.951468944549560436e-01,3.693301916122436745e-01,3.950668573379516602e-01,3.950268745422363392e-01,3.949868679046630859e-01,3.949468851089477650e-01,3.949069261550903209e-01,3.948669433593750000e-01,3.948269844055175559e-01,3.947870492935180442e-01,3.947470903396606556e-01,3.947071552276611439e-01,3.946672916412353738e-01,3.946273803710937389e-01,3.945874691009521595e-01,3.945475578308105247e-01,3.945076704025268777e-01,3.944677829742431752e-01
3.555458784103393555e-01,3.555134773254394753e-01,3.554810762405395397e-01,3.554486989974975364e-01,3.554163217544555886e-01,3.553839921951293945e-01,3.553516149520873912e-01,3.553192615509033203e-01,3.552869081497192494e-01,3.552545547485351785e-01,3.552222251892089844e-01,3.551898717880249134e-01,3.551575422286987194e-01,3.551252126693725808e-01,3.550929069519043191e-01,3.550605773925781250e-01,3.550283193588256725e-01,3.549960136413574108e-01,3.549637079238891491e-01,3.549314260482788197e-01,3.548990964889526256e-01,3.548668146133422963e-01,3.548345565795898438e-01,3.548022747039795144e-01,3.547700166702270619e-01,3.547378063201904186e-01,3.547055482864379661e-01,3.546733140945434459e-01,3.546410799026489258e-01,3.546088457107544056e-01,3.545766115188598855e-01,3.545444011688232422e-01,3.545121669769287220e-01,3.544799566268920787e-01,3.544477701187133678e-01,3.544155597686767800e-01,3.543833732604980691e-01,3.543511867523193581e-01,3.543190002441406472e-01,3.542868375778198131e-01,3.542546749114990345e-01,3.542225122451782005e-01,3.541903495788574219e-01,3.541582107543945201e-01,3.541260480880737416e-01,3.540939092636108398e-01,3.540617942810058705e-01,3.540296554565429688e-01,3.539975404739379994e-01,3.539654254913330300e-01,3.539333105087280051e-01,3.539011955261230358e-01,3.538691043853759988e-01,3.538370132446289062e-01,3.538049221038818137e-01,3.537728548049926536e-01,3.537407636642456166e-01,3.537086963653564564e-01,3.536766290664672963e-01,3.536445856094360130e-01,3.536125421524047852e-01,3.535804748535156250e-01,3.535484552383422741e-01,3.535164117813110463e-01,3.534843921661376953e-01,3.534523725509643444e-01,3.534203767776489258e-01,3.533883810043335072e-01,3.533563613891601562e-01,3.533243656158447377e-01,3.532923698425293191e-01,3.532603979110717773e-01,3.532284021377563588e-01,3.531964302062988170e-01,3.531644582748413308e-01,3.531325101852417214e-01,3.531005620956421120e-01,3.530685901641845703e-01,3.530366420745849609e-01,3.530047178268432839e-01
3.215083837509155051e-01,3.214818954467773549e-01,3.214554071426391491e-01,3.214289426803588756e-01,3.214024543762207253e-01,3.213760137557983287e-01,3.213495492935180553e-01,3.213230848312377819e-01,3.212966203689575084e-01,3.212701559066772350e-01,3.212437152862548939e-01,3.212172746658324973e-01,3.211908102035522239e-01,3.211643934249878152e-01,3.211379528045654186e-01,3.211115121841430775e-01,3.210851192474365456e-01,3.210587024688720814e-01,3.210322856903076172e-01,3.210058689117431530e-01,3.209794759750366211e-01,3.209530591964721569e-01,3.209266662597656250e-01,3.209002733230590931e-01,3.208738803863525613e-01,3.208474874496459739e-01,3.208210945129394420e-01,3.207947254180908425e-01,3.207683563232421875e-01,3.207419872283935325e-01,3.207156181335449330e-01,3.206892490386962780e-01,3.206629037857055553e-01,3.206365585327148326e-01,3.206102132797241100e-01,3.205838680267333873e-01,3.205575227737426647e-01,3.205311775207519420e-01,3.205048561096191517e-01,3.204785346984863059e-01,3.204522132873535156e-01,3.204258918762207253e-01,3.203995704650878795e-01,3.203732728958129661e-01,3.203469753265381081e-01,3.203206777572631947e-01,3.202943801879882812e-01,3.202680826187133678e-01,3.202418088912963867e-01,3.202155113220214733e-01,3.201892375946044922e-01,3.201629638671875111e-01,3.201366901397705300e-01,3.201104164123534934e-01,3.200841665267944447e-01,3.200579166412353405e-01,3.200316667556762917e-01,3.200054168701171875e-01,3.199791908264160156e-01,3.199529409408569114e-01,3.199267148971557395e-01,3.199004888534545676e-01,3.198742628097533958e-01,3.198480367660522239e-01,3.198218107223510520e-01,3.197956085205078125e-01,3.197694063186645730e-01,3.197431802749634011e-01,3.197170019149780384e-01,3.196907997131347434e-01,3.196645975112915039e-01,3.196384191513061412e-01,3.196122407913207786e-01,3.195860624313354714e-01,3.195598840713501088e-01,3.195337057113647461e-01,3.195075273513793834e-01,3.194813728332519531e-01,3.194552183151245228e-01,3.194290637969970925e-01
2.934185504913330300e-01,2.933964729309082031e-01,2.933744192123413086e-01,2.933523654937744141e-01,2.933303117752075195e-01,2.933082818984985574e-01,2.932862281799316628e-01,2.932641983032226451e-01,2.932421445846557506e-01,2.932201147079467884e-01,2.931980848312377708e-01,2.931760549545288086e-01,2.931540250778198464e-01,2.931319952011108287e-01,2.931099653244018666e-01,2.930879592895507812e-01,2.930659532546996959e-01,2.930439472198486106e-01,2.930219411849975808e-01,2.929999351501464955e-01,2.929779291152954102e-01,2.929559469223022572e-01,2.929339408874511719e-01,2.929119586944580189e-01,2.928899526596069336e-01,2.928679704666137806e-01,2.928459882736206277e-01,2.928240060806274192e-01,2.928020477294921986e-01,2.927800655364990456e-01,2.927581071853637695e-01,2.927361249923706166e-01,2.927141666412353405e-01,2.926922082901001199e-01,2.926702499389648438e-01,2.926483154296875000e-01,2.926263570785522239e-01,2.926044225692748801e-01,2.925824642181396595e-01,2.925605297088623158e-01,2.925385951995849720e-01,2.925166606903076283e-01,2.924947500228881614e-01,2.924728155136108176e-01,2.924508810043334739e-01,2.924289703369140625e-01,2.924070596694946511e-01,2.923851490020751842e-01,2.923632383346557728e-01,2.923413276672363059e-01,2.923194408416748269e-01,2.922975540161132924e-01,2.922756671905517578e-01,2.922537565231323464e-01,2.922318696975708119e-01,2.922099828720092773e-01,2.921881198883056752e-01,2.921662330627441406e-01,2.921443462371826061e-01,2.921224832534790039e-01,2.921006202697754017e-01,2.920787334442138672e-01,2.920568704605102650e-01,2.920350313186645397e-01,2.920131683349609375e-01,2.919913053512573353e-01,2.919694662094116100e-01,2.919476032257080078e-01,2.919257640838622825e-01,2.919039249420166127e-01,2.918820858001708873e-01,2.918602705001830944e-01,2.918384313583374245e-01,2.918165922164916992e-01,2.917947769165039062e-01,2.917729616165161133e-01,2.917511463165283203e-01,2.917293310165405273e-01,2.917075157165527344e-01,2.916857004165649414e-01
2.698426723480224498e-01,2.698240041732787864e-01,2.698053598403930553e-01,2.697866916656493919e-01,2.697680473327636608e-01,2.697494029998779297e-01,2.697307586669921986e-01,2.697121143341064675e-01,2.696934700012206809e-01,2.696748256683349498e-01,2.696562051773071511e-01,2.696375608444213645e-01,2.696189403533935658e-01,2.696002960205078347e-01,2.695816755294799805e-01,2.695630550384521262e-01,2.695444583892822044e-01,2.695258378982544056e-01,2.695072174072265514e-01,2.694885969161987527e-01,2.694700002670288308e-01,2.694513797760009766e-01,2.694327831268310547e-01,2.694141626358032005e-01,2.693955659866332786e-01,2.693769693374633567e-01,2.693583726882934348e-01,2.693397998809814453e-01,2.693212032318115234e-01,2.693026304244995339e-01,2.692840337753296120e-01,2.692654371261596902e-01,2.692468404769897683e-01,2.692282676696777233e-01,2.692096948623657338e-01,2.691911220550536887e-01,2.691725492477416992e-01,2.691539764404297097e-01,2.691354036331176647e-01,2.691168546676635520e-01,2.690982818603515625e-01,2.690797328948974498e-01,2.690611839294433372e-01,2.690426349639892800e-01,2.690240859985351674e-01,2.690055370330810547e-01,2.689869880676269420e-01,2.689684629440307617e-01,2.689499139785766491e-01,2.689313650131225364e-01,2.689128398895263561e-01,2.688943147659301758e-01,2.688757658004760631e-01,2.688572406768798828e-01,2.688387155532837025e-01,2.688201904296875222e-01,2.688016891479492188e-01,2.687831640243530384e-01,2.687646389007568581e-01,2.687461376190185547e-01,2.687276124954223744e-01,2.687091112136840709e-01,2.686906099319458230e-01,2.686721086502075195e-01,2.686536073684692161e-01,2.686351060867309681e-01,2.686166048049926647e-01,2.685981273651122936e-01,2.685796260833740456e-01,2.685611486434936745e-01,2.685426712036133035e-01,2.685241699218750000e-01,2.685056924819946289e-01,2.684872150421142578e-01,2.684687376022338867e-01,2.684502840042114480e-01,2.684318065643310769e-01,2.684133291244507058e-01,2.683948755264282116e-01,2.683764219284057728e-01
2.497736215591430664e-01,2.497576236724853571e-01,2.497416496276855524e-01,2.497256755828857477e-01,2.497096776962280384e-01,2.496937274932861384e-01,2.496777534484863337e-01,2.496617794036865290e-01,2.496458053588867243e-01,2.496298313140869196e-01,2.496138572692871149e-01,2.495978832244873102e-01,2.495819091796875056e-01,2.495659589767456055e-01,2.495499849319458008e-01,2.495340347290039007e-01,2.495180845260620006e-01,2.495021343231201283e-01,2.494861841201782282e-01,2.494702339172363281e-01,2.494542837142944280e-01,2.494383335113525280e-01,2.494223833084106556e-01,2.494064331054687556e-01,2.493905067443847601e-01,2.493745565414428600e-01,2.493586301803588923e-01,2.493427038192748968e-01,2.493267774581909291e-01,2.493108510971069336e-01,2.492949008941650335e-01,2.492789745330810658e-01,2.492630481719970703e-01,2.492471456527710072e-01,2.492311954498291071e-01,2.492152929306030162e-01,2.491993665695190485e-01,2.491834640502929576e-01,2.491675376892089899e-01,2.491516351699828991e-01,2.491357326507568359e-01,2.491198301315307728e-01,2.491039037704467773e-01,2.490880012512207142e-01,2.490721225738525280e-01,2.490562200546264648e-01,2.490403175354004017e-01,2.490244150161743109e-01,2.490085363388061523e-01,2.489926338195800892e-01,2.489767551422119030e-01,2.489608526229858398e-01,2.489449739456176813e-01,2.489290952682495228e-01,2.489132165908813366e-01,2.488973379135131780e-01,2.488814592361450195e-01,2.488655805587768610e-01,2.488497018814087025e-01,2.488338470458984486e-01,2.488179683685302623e-01,2.488021135330200084e-01,2.487862348556518499e-01,2.487703800201415960e-01,2.487545251846313421e-01,2.487386465072631836e-01,2.487227916717529297e-01,2.487069368362426758e-01,2.486911058425903265e-01,2.486752510070800726e-01,2.486593961715698187e-01,2.486435413360595648e-01,2.486277103424072155e-01,2.486118555068969616e-01,2.485960245132446400e-01,2.485801935195922907e-01,2.485643625259399414e-01,2.485485315322875921e-01,2.485327005386352428e-01,2.485168695449829213e-01
2.324831247329711970e-01,2.324692726135254017e-01,2.324554443359375111e-01,2.324415922164916881e-01,2.324277400970458929e-01,2.324139118194580023e-01,2.324000597000122070e-01,2.323862314224243164e-01,2.323723793029785212e-01,2.323585510253906306e-01,2.323446989059448353e-01,2.323308706283569447e-01,2.323170423507690541e-01,2.323032140731811634e-01,2.322893857955932728e-01,2.322755575180053822e-01,2.322617292404174916e-01,2.322479009628296009e-01,2.322340965270996149e-01,2.322202682495117243e-01,2.322064399719238337e-01,2.321926355361938477e-01,2.321788072586059570e-01,2.321650028228759710e-01,2.321511745452880804e-01,2.321373701095580944e-01,2.321235656738281361e-01,2.321097612380981501e-01,2.320959568023681641e-01,2.320821523666381780e-01,2.320683479309081920e-01,2.320545434951782338e-01,2.320407390594482477e-01,2.320269346237182617e-01,2.320131540298461803e-01,2.319993495941162220e-01,2.319855451583862360e-01,2.319717645645141546e-01,2.319579601287841686e-01,2.319441795349121149e-01,2.319303989410400335e-01,2.319165945053100475e-01,2.319028139114379938e-01,2.318890333175659124e-01,2.318752527236938588e-01,2.318614721298217773e-01,2.318476915359496959e-01,2.318339109420776423e-01,2.318201541900634655e-01,2.318063735961914118e-01,2.317925930023193304e-01,2.317788362503051813e-01,2.317650556564330999e-01,2.317512989044189509e-01,2.317375421524047741e-01,2.317237615585327204e-01,2.317100048065185436e-01,2.316962480545043945e-01,2.316824913024902455e-01,2.316687345504760687e-01,2.316549777984619196e-01,2.316412210464477428e-01,2.316274881362914984e-01,2.316137313842773493e-01,2.315999746322631725e-01,2.315862417221069280e-01,2.315724849700927790e-01,2.315587520599365345e-01,2.315449953079223577e-01,2.315312862396240179e-01,2.315175294876098688e-01,2.315037965774536244e-01,2.314900636672973522e-01,2.314763307571411077e-01,2.314625978469848633e-01,2.314488649368286188e-01,2.314351558685302790e-01,2.314214229583740345e-01,2.314076900482177623e-01,2.313939571380615179e-01
2.174314975738525502e-01,2.174193859100341797e-01,2.174072742462158092e-01,2.173951625823974665e-01,2.173830509185790960e-01,2.173709630966186579e-01,2.173588514328002874e-01,2.173467397689819447e-01,2.173346281051635742e-01,2.173225164413452037e-01,2.173104286193847656e-01,2.172983169555663951e-01,2.172862052917480524e-01,2.172741174697875866e-01,2.172620058059692438e-01,2.172499179840087780e-01,2.172378301620483398e-01,2.172257423400879017e-01,2.172136545181274359e-01,2.172015666961669977e-01,2.171894550323486273e-01,2.171773672103881891e-01,2.171652793884277233e-01,2.171531915664672852e-01,2.171411275863647516e-01,2.171290397644042858e-01,2.171169519424438477e-01,2.171048879623413141e-01,2.170928001403808483e-01,2.170807361602783148e-01,2.170686483383178766e-01,2.170565843582153431e-01,2.170444965362548773e-01,2.170324325561523438e-01,2.170203447341919056e-01,2.170082807540893444e-01,2.169962167739868109e-01,2.169841527938842773e-01,2.169720888137817438e-01,2.169600248336792103e-01,2.169479608535766491e-01,2.169358968734741155e-01,2.169238328933715820e-01,2.169117689132690485e-01,2.168997049331665150e-01,2.168876409530639537e-01,2.168756008148193248e-01,2.168635368347167913e-01,2.168514966964721624e-01,2.168394327163696289e-01,2.168273925781250000e-01,2.168153285980224665e-01,2.168032884597778376e-01,2.167912483215332087e-01,2.167792081832885798e-01,2.167671442031860463e-01,2.167551040649414174e-01,2.167430639266967884e-01,2.167310237884521595e-01,2.167189836502075306e-01,2.167069673538208063e-01,2.166949272155761774e-01,2.166829109191894531e-01,2.166708707809448242e-01,2.166588306427001953e-01,2.166468143463134710e-01,2.166347742080688421e-01,2.166227579116821178e-01,2.166107177734374889e-01,2.165987014770507924e-01,2.165866851806640681e-01,2.165746450424194391e-01,2.165626287460327148e-01,2.165506124496459905e-01,2.165385961532592662e-01,2.165265798568725697e-01,2.165145635604858454e-01,2.165025472640991211e-01,2.164905309677123968e-01,2.164785146713256725e-01
2.042103290557861217e-01,2.041996479034423884e-01,2.041889667510986273e-01,2.041782855987548939e-01,2.041676044464111328e-01,2.041569232940673717e-01,2.041462421417236384e-01,2.041355609893798773e-01,2.041248798370361439e-01,2.041141986846923828e-01,2.041035175323486217e-01,2.040928602218627930e-01,2.040821790695190319e-01,2.040714979171752985e-01,2.040608167648315374e-01,2.040501594543457087e-01,2.040395021438598522e-01,2.040288209915161188e-01,2.040181636810302623e-01,2.040074825286865290e-01,2.039968252182006725e-01,2.039861679077148438e-01,2.039754867553710826e-01,2.039648294448852539e-01,2.039541721343994252e-01,2.039435148239135687e-01,2.039328575134277399e-01,2.039222002029418834e-01,2.039115428924560547e-01,2.039008855819702259e-01,2.038902282714843694e-01,2.038795948028564453e-01,2.038689374923706166e-01,2.038582801818847601e-01,2.038476228713989313e-01,2.038369894027710072e-01,2.038263320922851507e-01,2.038156986236572266e-01,2.038050413131713978e-01,2.037944078445434459e-01,2.037837505340576172e-01,2.037731170654296931e-01,2.037624835968017689e-01,2.037518262863159124e-01,2.037411928176879883e-01,2.037305593490600641e-01,2.037199020385742076e-01,2.037092685699462835e-01,2.036986351013183594e-01,2.036880016326904352e-01,2.036773681640625111e-01,2.036667346954345592e-01,2.036561012268066351e-01,2.036454916000366155e-01,2.036348581314086914e-01,2.036242246627807673e-01,2.036136150360107477e-01,2.036029815673828236e-01,2.035923480987548717e-01,2.035817384719848522e-01,2.035711050033569280e-01,2.035604953765869085e-01,2.035498619079589844e-01,2.035392522811889648e-01,2.035286426544189453e-01,2.035180091857910212e-01,2.035073995590210016e-01,2.034967899322509821e-01,2.034861803054809626e-01,2.034755706787109431e-01,2.034649610519409235e-01,2.034543514251709040e-01,2.034437417984008845e-01,2.034331321716308649e-01,2.034225225448608454e-01,2.034119129180908259e-01,2.034013032913208063e-01,2.033907175064086914e-01,2.033801078796386719e-01,2.033694982528686523e-01
1.925048828125000000e-01,1.924953818321228083e-01,1.924858927726745550e-01,1.924763917922973633e-01,1.924668908119201716e-01,1.924574017524719183e-01,1.924479126930236927e-01,1.924384117126464733e-01,1.924289226531982477e-01,1.924194335937499944e-01,1.924099445343017689e-01,1.924004554748535156e-01,1.923909664154052623e-01,1.923814892768859752e-01,1.923720002174377497e-01,1.923625111579894964e-01,1.923530578613281139e-01,1.923435688018798884e-01,1.923340916633606013e-01,1.923246145248413141e-01,1.923151254653930609e-01,1.923056483268737737e-01,1.922961711883544866e-01,1.922866940498351995e-01,1.922772169113159124e-01,1.922677516937255915e-01,1.922582745552063044e-01,1.922487974166870173e-01,1.922393321990966686e-01,1.922298550605773815e-01,1.922203898429870605e-01,1.922109127044677734e-01,1.922014474868774525e-01,1.921919822692871038e-01,1.921825170516967829e-01,1.921730518341064342e-01,1.921635866165161133e-01,1.921541452407836970e-01,1.921446800231933483e-01,1.921352148056030273e-01,1.921257495880127064e-01,1.921162962913513239e-01,1.921068310737609752e-01,1.920973777770996205e-01,1.920879244804382380e-01,1.920784592628478893e-01,1.920690059661865345e-01,1.920595526695251520e-01,1.920500993728637695e-01,1.920406460762023870e-01,1.920311927795410045e-01,1.920217394828796498e-01,1.920122981071472057e-01,1.920028448104858509e-01,1.919934034347534069e-01,1.919839501380920521e-01,1.919745087623596080e-01,1.919650554656982533e-01,1.919556140899658092e-01,1.919461727142333929e-01,1.919367313385009766e-01,1.919272899627685602e-01,1.919178485870361439e-01,1.919084072113036998e-01,1.918989658355712835e-01,1.918895244598388672e-01,1.918800950050353893e-01,1.918706536293029730e-01,1.918612241744995228e-01,1.918517827987670787e-01,1.918423533439636286e-01,1.918329238891601507e-01,1.918234944343567006e-01,1.918140649795532227e-01,1.918046355247497448e-01,1.917952060699462946e-01,1.917857766151428167e-01,1.917763471603393666e-01,1.917669177055358887e-01,1.917575001716613770e-01
1.820685863494873047e-01,1.820600867271423284e-01,1.820515990257263184e-01,1.820430994033813421e-01,1.820346117019653320e-01,1.820261120796203558e-01,1.820176243782043457e-01,1.820091366767883356e-01,1.820006489753723256e-01,1.819921493530273493e-01,1.819836616516113392e-01,1.819751739501953014e-01,1.819666862487792913e-01,1.819581985473632812e-01,1.819497227668762096e-01,1.819412350654601995e-01,1.819327712059020941e-01,1.819242835044860840e-01,1.819158077239990123e-01,1.819073200225830023e-01,1.818988442420959584e-01,1.818903565406799205e-01,1.818818807601928766e-01,1.818734049797058050e-01,1.818649291992187611e-01,1.818564534187316895e-01,1.818479776382446178e-01,1.818395018577575739e-01,1.818310260772705023e-01,1.818225502967834584e-01,1.818140745162963867e-01,1.818056106567382812e-01,1.817971348762512096e-01,1.817886710166931041e-01,1.817801952362060602e-01,1.817717313766479548e-01,1.817632555961608831e-01,1.817548155784606823e-01,1.817463517189025768e-01,1.817378759384155329e-01,1.817294120788574274e-01,1.817209482192993220e-01,1.817124843597412165e-01,1.817040205001831110e-01,1.816955685615539440e-01,1.816871047019958385e-01,1.816786408424377330e-01,1.816701889038085938e-01,1.816617250442504883e-01,1.816532731056213490e-01,1.816448092460632435e-01,1.816363573074340765e-01,1.816279053688049372e-01,1.816194415092468317e-01,1.816109895706176647e-01,1.816025376319885254e-01,1.815940856933593861e-01,1.815856337547302191e-01,1.815771818161010798e-01,1.815687298774719127e-01,1.815602898597717396e-01,1.815518379211425726e-01,1.815433859825134333e-01,1.815349459648132324e-01,1.815264940261840931e-01,1.815180540084838923e-01,1.815096020698547252e-01,1.815011620521545521e-01,1.814927220344543513e-01,1.814842820167541504e-01,1.814758419990539495e-01,1.814674019813537487e-01,1.814589619636535756e-01,1.814505219459533747e-01,1.814420819282531738e-01,1.814336419105529730e-01,1.814252138137817383e-01,1.814167737960815374e-01,1.814083337783813366e-01,1.813999056816101019e-01
1.727056741714477484e-01,1.726980209350585938e-01,1.726903796195983776e-01,1.726827383041381891e-01,1.726750969886779730e-01,1.726674556732177845e-01,1.726598143577575684e-01,1.726521730422973522e-01,1.726445317268371638e-01,1.726368904113769476e-01,1.726292610168456976e-01,1.726216197013855091e-01,1.726139783859252930e-01,1.726063489913940430e-01,1.725987076759338268e-01,1.725910782814025768e-01,1.725834608078002930e-01,1.725758194923400768e-01,1.725681900978088268e-01,1.725605607032775768e-01,1.725529313087463268e-01,1.725453019142150768e-01,1.725376725196838268e-01,1.725300431251525768e-01,1.725224137306213268e-01,1.725147843360900768e-01,1.725071549415588268e-01,1.724995255470275768e-01,1.724918961524963268e-01,1.724842786788940430e-01,1.724766492843627930e-01,1.724690198898315430e-01,1.724614024162292591e-01,1.724537849426269476e-01,1.724461555480956976e-01,1.724385380744934138e-01,1.724309206008911022e-01,1.724233150482177845e-01,1.724156975746154730e-01,1.724080801010131891e-01,1.724004507064819391e-01,1.723928332328796276e-01,1.723852276802063099e-01,1.723776102066039984e-01,1.723699927330017145e-01,1.723623752593994030e-01,1.723547577857971191e-01,1.723471522331237737e-01,1.723395347595214899e-01,1.723319292068481445e-01,1.723243117332458607e-01,1.723167061805725153e-01,1.723090887069702037e-01,1.723014831542968861e-01,1.722938776016235407e-01,1.722862601280212291e-01,1.722786545753479115e-01,1.722710490226745661e-01,1.722634434700012207e-01,1.722558379173278753e-01,1.722482323646545299e-01,1.722406268119812123e-01,1.722330331802368053e-01,1.722254276275634877e-01,1.722178220748901423e-01,1.722102284431457631e-01,1.722026228904724177e-01,1.721950173377990723e-01,1.721874237060546931e-01,1.721798300743103138e-01,1.721722245216369684e-01,1.721646308898925892e-01,1.721570372581481823e-01,1.721494317054748646e-01,1.721418380737304576e-01,1.721342444419860784e-01,1.721266508102416992e-01,1.721190571784973200e-01,1.721114635467529408e-01,1.721038699150085338e-01
1.642586350440979059e-01,1.642517209053039606e-01,1.642448067665100153e-01,1.642378926277160700e-01,1.642309784889221247e-01,1.642240643501281794e-01,1.642171502113342341e-01,1.642102479934692272e-01,1.642033338546752819e-01,1.641964197158813366e-01,1.641895174980163574e-01,1.641826033592224121e-01,1.641756892204284668e-01,1.641687870025634877e-01,1.641618847846984808e-01,1.641549706459045355e-01,1.641480803489684948e-01,1.641411781311035156e-01,1.641342759132385365e-01,1.641273736953735296e-01,1.641204595565795843e-01,1.641135573387146052e-01,1.641066551208495983e-01,1.640997529029846191e-01,1.640928506851196400e-01,1.640859603881835993e-01,1.640790581703185924e-01,1.640721559524536133e-01,1.640652537345886341e-01,1.640583634376525934e-01,1.640514612197875866e-01,1.640445590019226074e-01,1.640376687049865667e-01,1.640307664871215876e-01,1.640238761901855469e-01,1.640169739723205677e-01,1.640100836753845270e-01,1.640032052993774525e-01,1.639963150024414118e-01,1.639894247055053711e-01,1.639825224876403920e-01,1.639756321907043513e-01,1.639687418937683105e-01,1.639618515968322698e-01,1.639549612998962291e-01,1.639480710029602162e-01,1.639411807060241755e-01,1.639343023300171009e-01,1.639274120330810602e-01,1.639205217361450195e-01,1.639136314392089788e-01,1.639067530632019043e-01,1.638998627662658636e-01,1.638929843902587891e-01,1.638860940933227484e-01,1.638792157173156738e-01,1.638723254203796331e-01,1.638654470443725586e-01,1.638585686683654841e-01,1.638517022132873480e-01,1.638447999954223688e-01,1.638379216194152943e-01,1.638310432434081920e-01,1.638241648674011175e-01,1.638172864913940430e-01,1.638104081153869684e-01,1.638035297393798939e-01,1.637966513633727916e-01,1.637897729873657171e-01,1.637829065322876088e-01,1.637760281562805065e-01,1.637691497802734319e-01,1.637622833251953236e-01,1.637554049491882213e-01,1.637485384941101130e-01,1.637416601181030384e-01,1.637347936630249023e-01,1.637279152870178278e-01,1.637210488319396917e-01,1.637141823768615834e-01
