6.195526599884033647e-01,6.352647304534911887e-01,6.517944812774658647e-01,6.692074298858642356e-01,6.875762939453125000e-01,7.069820404052734597e-01,7.275130271911620650e-01,7.492719173431396928e-01,7.723726272583008035e-01,7.969430923461914285e-01,8.231281280517578347e-01,8.510923385620117188e-01,8.810234069824218750e-01,9.131365776062011497e-01,9.476792335510253462e-01,9.849379539489746538e-01,1.000000000000000000e+00,1.000000000000000000e+00,1.000000000000000000e+00,1.000000000000000000e+00,1.000000000000000000e+00,1.000000000000000000e+00,1.000000000000000000e+00,1.000000000000000000e+00,1.000000000000000000e+00,1.000000000000000000e+00,1.000000000000000000e+00,1.000000000000000000e+00,1.000000000000000000e+00,1.000000000000000000e+00,1.000000000000000000e+00,1.000000000000000000e+00,1.000000000000000000e+00,1.000000000000000000e+00,1.000000000000000000e+00,1.000000000000000000e+00,1.000000000000000000e+00,1.000000000000000000e+00,1.000000000000000000e+00,1.000000000000000000e+00,1.000000000000000000e+00,1.000000000000000000e+00,1.000000000000000000e+00,1.000000000000000000e+00,1.000000000000000000e+00,1.000000000000000000e+00,1.000000000000000000e+00,1.000000000000000000e+00,1.000000000000000000e+00,1.000000000000000000e+00,1.000000000000000000e+00,1.000000000000000000e+00,1.000000000000000000e+00,1.000000000000000000e+00,1.000000000000000000e+00,1.000000000000000000e+00,1.000000000000000000e+00,1.000000000000000000e+00,1.000000000000000000e+00,2.714760541915893777e-01,2.650623559951782449e-01,2.598709821701049583e-01,2.613860368728637695e-01,2.597782611846923828e-01,2.852244138717651145e-01,2.836983680725097545e-01,2.861387729644775391e-01,2.909430980682373158e-01,2.851511955261230580e-01,2.788056373596191628e-01,2.729119062423706055e-01,2.691351890563964955e-01,2.668090343475341686e-01,2.645025253295898438e-01,2.622355222702026367e-01,2.661629199981689342e-01,8.057455062866211160e-01,7.837095737457275835e-01,7.628462314605712891e-01,7.430646896362305132e-01
6.195393562316894309e-01,6.352508068084716797e-01,6.517797946929931863e-01,6.691919803619384988e-01,6.875599861145019753e-01,7.069647312164306641e-01,7.274967193603515403e-01,7.492547988891601340e-01,7.723544120788574663e-01,7.969235897064208540e-01,8.231073379516601340e-01,8.510701179504394087e-01,8.809996604919433372e-01,9.131109237670897993e-01,9.476516723632812944e-01,9.849082946777343306e-01,1.000000000000000000e+00,1.000000000000000000e+00,1.000000000000000000e+00,1.000000000000000000e+00,1.000000000000000000e+00,1.000000000000000000e+00,1.000000000000000000e+00,1.000000000000000000e+00,1.000000000000000000e+00,1.000000000000000000e+00,1.000000000000000000e+00,1.000000000000000000e+00,1.000000000000000000e+00,1.000000000000000000e+00,1.000000000000000000e+00,1.000000000000000000e+00,1.000000000000000000e+00,1.000000000000000000e+00,1.000000000000000000e+00,1.000000000000000000e+00,1.000000000000000000e+00,1.000000000000000000e+00,1.000000000000000000e+00,1.000000000000000000e+00,1.000000000000000000e+00,1.000000000000000000e+00,1.000000000000000000e+00,1.000000000000000000e+00,1.000000000000000000e+00,1.000000000000000000e+00,1.000000000000000000e+00,1.000000000000000000e+00,1.000000000000000000e+00,1.000000000000000000e+00,1.000000000000000000e+00,1.000000000000000000e+00,1.000000000000000000e+00,1.000000000000000000e+00,1.000000000000000000e+00,1.000000000000000000e+00,1.000000000000000000e+00,1.000000000000000000e+00,1.000000000000000000e+00,2.692620992660522683e-01,2.615947484970092551e-01,2.577710628509521373e-01,2.632959127426147683e-01,2.562886476516723633e-01,2.856741189956665261e-01,2.840008735656738281e-01,2.856934785842895619e-01,2.903537750244140625e-01,2.848044157028198353e-01,2.788167715072631947e-01,2.727870225906371959e-01,2.671515941619873047e-01,2.650537252426147239e-01,2.629884958267211803e-01,2.608090400695800559e-01,2.607915163040160911e-01,2.679970264434814453e-01,7.837262630462646928e-01,7.628618717193603738e-01,7.430795192718505637e-01
6.195261478424072266e-01,6.352368831634521706e-01,6.517652034759521262e-01,6.691765308380126509e-01,6.875436782836914507e-01,7.069475650787353516e-01,7.274784564971923384e-01,7.492375373840332031e-01,7.723361015319823997e-01,7.969041824340820090e-01,8.230865478515625444e-01,8.510478973388672097e-01,8.809758186340331809e-01,9.130853652954101785e-01,9.476241111755371316e-01,9.848784446716308816e-01,1.000000000000000000e+00,1.000000000000000000e+00,1.000000000000000000e+00,1.000000000000000000e+00,1.000000000000000000e+00,1.000000000000000000e+00,1.000000000000000000e+00,1.000000000000000000e+00,1.000000000000000000e+00,1.000000000000000000e+00,1.000000000000000000e+00,1.000000000000000000e+00,1.000000000000000000e+00,1.000000000000000000e+00,1.000000000000000000e+00,1.000000000000000000e+00,1.000000000000000000e+00,1.000000000000000000e+00,1.000000000000000000e+00,1.000000000000000000e+00,1.000000000000000000e+00,1.000000000000000000e+00,1.000000000000000000e+00,1.000000000000000000e+00,1.000000000000000000e+00,1.000000000000000000e+00,1.000000000000000000e+00,1.000000000000000000e+00,1.000000000000000000e+00,1.000000000000000000e+00,1.000000000000000000e+00,1.000000000000000000e+00,1.000000000000000000e+00,1.000000000000000000e+00,1.000000000000000000e+00,1.000000000000000000e+00,1.000000000000000000e+00,1.000000000000000000e+00,1.000000000000000000e+00,1.000000000000000000e+00,1.000000000000000000e+00,1.000000000000000000e+00,1.000000000000000000e+00,2.669180393218993919e-01,2.598699331283569336e-01,2.954566717147827370e-01,2.508243083953857200e-01,2.882074117660522461e-01,2.864584207534789928e-01,2.847465991973877064e-01,2.863153696060180553e-01,2.908140182495116965e-01,2.870909452438354381e-01,2.786975622177124134e-01,2.726622581481933372e-01,2.668079376220703347e-01,2.631296157836914285e-01,2.610941886901855247e-01,2.590899944305419811e-01,2.571373701095581166e-01,2.626996278762817605e-01,7.837427139282227007e-01,7.628773689270019753e-01,7.430942535400391069e-01
6.195128917694091575e-01,6.352229595184326616e-01,6.517505168914794478e-01,6.691610813140869141e-01,6.875273704528808150e-01,7.069302558898925559e-01,7.274601936340332475e-01,7.492181301116943581e-01,7.723177909851074441e-01,7.968846797943115456e-01,8.230657577514648438e-01,8.510256767272948997e-01,8.809520721435546431e-01,9.130598068237304465e-01,9.475965499877929688e-01,9.848486900329589400e-01,1.000000000000000000e+00,1.000000000000000000e+00,1.000000000000000000e+00,1.000000000000000000e+00,1.000000000000000000e+00,1.000000000000000000e+00,1.000000000000000000e+00,1.000000000000000000e+00,1.000000000000000000e+00,1.000000000000000000e+00,1.000000000000000000e+00,1.000000000000000000e+00,1.000000000000000000e+00,1.000000000000000000e+00,1.000000000000000000e+00,1.000000000000000000e+00,1.000000000000000000e+00,1.000000000000000000e+00,1.000000000000000000e+00,1.000000000000000000e+00,1.000000000000000000e+00,1.000000000000000000e+00,1.000000000000000000e+00,1.000000000000000000e+00,1.000000000000000000e+00,1.000000000000000000e+00,1.000000000000000000e+00,1.000000000000000000e+00,1.000000000000000000e+00,1.000000000000000000e+00,1.000000000000000000e+00,1.000000000000000000e+00,1.000000000000000000e+00,1.000000000000000000e+00,1.000000000000000000e+00,1.000000000000000000e+00,1.000000000000000000e+00,1.000000000000000000e+00,1.000000000000000000e+00,1.000000000000000000e+00,1.000000000000000000e+00,1.000000000000000000e+00,1.000000000000000000e+00,2.687713861465453880e-01,2.620093584060668723e-01,2.547453165054321400e-01,2.486078977584838812e-01,2.892051935195922852e-01,2.874185085296631081e-01,2.856537342071533425e-01,2.874362945556640514e-01,2.920811891555786244e-01,2.888689041137695312e-01,2.785673379898071511e-01,2.725361585617065430e-01,2.666826963424682728e-01,2.612332344055176003e-01,2.592834711074828991e-01,2.573747158050537220e-01,2.554938316345214955e-01,2.554201364517211803e-01,7.837591171264648438e-01,7.628929615020751953e-01,7.431090354919434038e-01
6.194996356964110884e-01,6.352089881896972878e-01,6.517358303070068803e-01,6.691455841064453125e-01,6.875110149383545366e-01,7.069129943847656250e-01,7.274418830871581809e-01,7.491988182067871316e-01,7.722972869873047097e-01,7.968652725219727007e-01,8.230449676513671431e-01,8.510035514831543191e-01,8.809282302856444868e-01,9.130342483520508257e-01,9.475689888000488059e-01,9.848190307617187278e-01,1.000000000000000000e+00,1.000000000000000000e+00,1.000000000000000000e+00,1.000000000000000000e+00,1.000000000000000000e+00,1.000000000000000000e+00,1.000000000000000000e+00,1.000000000000000000e+00,1.000000000000000000e+00,1.000000000000000000e+00,1.000000000000000000e+00,1.000000000000000000e+00,1.000000000000000000e+00,1.000000000000000000e+00,1.000000000000000000e+00,1.000000000000000000e+00,1.000000000000000000e+00,1.000000000000000000e+00,1.000000000000000000e+00,1.000000000000000000e+00,1.000000000000000000e+00,1.000000000000000000e+00,1.000000000000000000e+00,1.000000000000000000e+00,1.000000000000000000e+00,1.000000000000000000e+00,1.000000000000000000e+00,1.000000000000000000e+00,1.000000000000000000e+00,1.000000000000000000e+00,1.000000000000000000e+00,1.000000000000000000e+00,1.000000000000000000e+00,1.000000000000000000e+00,1.000000000000000000e+00,1.000000000000000000e+00,1.000000000000000000e+00,1.000000000000000000e+00,1.000000000000000000e+00,1.000000000000000000e+00,1.000000000000000000e+00,1.000000000000000000e+00,1.000000000000000000e+00,2.669446945190429576e-01,2.582852363586425892e-01,2.511786222457885742e-01,2.922865629196166881e-01,2.903414964675903320e-01,2.885407447814941628e-01,2.867622137069701926e-01,2.891697168350219616e-01,1.000000000000000000e+00,2.904890537261962669e-01,2.797731399536133035e-01,2.724054574966430775e-01,2.665575742721557617e-01,2.607068300247192272e-01,2.573318958282470592e-01,2.557281494140625222e-01,2.538711547851562611e-01,2.520409584045409934e-01,2.560422420501708984e-01,7.629085063934326616e-01,7.431237697601318359e-01
6.194864273071288840e-01,6.351951122283935325e-01,6.517211914062499556e-01,6.691301822662353294e-01,6.874947547912597656e-01,7.068957805633544478e-01,7.274236679077148438e-01,7.491794109344482866e-01,7.722766399383544922e-01,7.968433380126953569e-01,8.230242729187011719e-01,8.509812355041503906e-01,8.809044837951660600e-01,9.130085945129394753e-01,9.475414276123046431e-01,9.847892761230468972e-01,1.000000000000000000e+00,1.000000000000000000e+00,1.000000000000000000e+00,1.000000000000000000e+00,1.000000000000000000e+00,1.000000000000000000e+00,1.000000000000000000e+00,1.000000000000000000e+00,1.000000000000000000e+00,1.000000000000000000e+00,1.000000000000000000e+00,1.000000000000000000e+00,1.000000000000000000e+00,1.000000000000000000e+00,1.000000000000000000e+00,1.000000000000000000e+00,1.000000000000000000e+00,1.000000000000000000e+00,1.000000000000000000e+00,1.000000000000000000e+00,1.000000000000000000e+00,1.000000000000000000e+00,1.000000000000000000e+00,1.000000000000000000e+00,1.000000000000000000e+00,1.000000000000000000e+00,1.000000000000000000e+00,1.000000000000000000e+00,1.000000000000000000e+00,1.000000000000000000e+00,1.000000000000000000e+00,1.000000000000000000e+00,1.000000000000000000e+00,1.000000000000000000e+00,1.000000000000000000e+00,1.000000000000000000e+00,1.000000000000000000e+00,1.000000000000000000e+00,1.000000000000000000e+00,1.000000000000000000e+00,1.000000000000000000e+00,1.000000000000000000e+00,1.000000000000000000e+00,1.000000000000000000e+00,2.579138994216919056e-01,3.005233526229858509e-01,2.935890197753906472e-01,2.915315151214599720e-01,2.896718025207519753e-01,2.878793478012084961e-01,2.909241437911987416e-01,1.000000000000000000e+00,1.000000000000000000e+00,2.815913677215576283e-01,2.722748994827270397e-01,2.661039352416992299e-01,2.603121280670165905e-01,2.558026075363158958e-01,2.535004615783691406e-01,2.520636081695556419e-01,2.504616975784301758e-01,2.486801624298095592e-01,7.629240989685058816e-01,7.431385993957519975e-01
6.194731712341308150e-01,6.351811408996581587e-01,6.517065048217773882e-01,6.691146850585937278e-01,6.874783992767333762e-01,7.068785190582275169e-01,7.274054050445556419e-01,7.491600036621093306e-01,7.722560405731201394e-01,7.968214035034180132e-01,8.230009078979492188e-01,8.509590148925780806e-01,8.808806419372559038e-01,9.129831314086913618e-01,9.475139617919922097e-01,9.847594261169433372e-01,1.000000000000000000e+00,1.000000000000000000e+00,1.000000000000000000e+00,1.000000000000000000e+00,1.000000000000000000e+00,1.000000000000000000e+00,1.000000000000000000e+00,1.000000000000000000e+00,1.000000000000000000e+00,1.000000000000000000e+00,1.000000000000000000e+00,1.000000000000000000e+00,1.000000000000000000e+00,1.000000000000000000e+00,1.000000000000000000e+00,1.000000000000000000e+00,1.000000000000000000e+00,1.000000000000000000e+00,1.000000000000000000e+00,1.000000000000000000e+00,1.000000000000000000e+00,1.000000000000000000e+00,1.000000000000000000e+00,1.000000000000000000e+00,1.000000000000000000e+00,1.000000000000000000e+00,1.000000000000000000e+00,1.000000000000000000e+00,1.000000000000000000e+00,1.000000000000000000e+00,1.000000000000000000e+00,1.000000000000000000e+00,1.000000000000000000e+00,1.000000000000000000e+00,1.000000000000000000e+00,1.000000000000000000e+00,1.000000000000000000e+00,1.000000000000000000e+00,1.000000000000000000e+00,1.000000000000000000e+00,1.000000000000000000e+00,1.000000000000000000e+00,1.000000000000000000e+00,1.000000000000000000e+00,3.154863357543945535e-01,3.027223587036133035e-01,2.949031352996825950e-01,2.928272485733032227e-01,2.908117771148681641e-01,2.890052080154418834e-01,2.924749851226806641e-01,1.000000000000000000e+00,1.000000000000000000e+00,2.843686342239379883e-01,2.731477975845336692e-01,2.656332492828369363e-01,2.599186420440673939e-01,2.554226160049438699e-01,2.511923551559448464e-01,2.497814416885376088e-01,2.483863592147827204e-01,2.470067262649536244e-01,7.629396438598632368e-01,7.431533336639404297e-01
6.194598674774169922e-01,6.351672172546386497e-01,6.516918659210204634e-01,6.690992832183837447e-01,6.874621391296387163e-01,7.068613052368164507e-01,7.273871898651123047e-01,7.491406917572021040e-01,7.722354888916015403e-01,7.967995166778564231e-01,8.229775428771972656e-01,8.509342193603515181e-01,8.808568000793457475e-01,9.129575729370117410e-01,9.474864006042480469e-01,9.847297668457031250e-01,1.000000000000000000e+00,1.000000000000000000e+00,1.000000000000000000e+00,1.000000000000000000e+00,1.000000000000000000e+00,1.000000000000000000e+00,1.000000000000000000e+00,1.000000000000000000e+00,1.000000000000000000e+00,1.000000000000000000e+00,1.000000000000000000e+00,1.000000000000000000e+00,1.000000000000000000e+00,1.000000000000000000e+00,1.000000000000000000e+00,1.000000000000000000e+00,1.000000000000000000e+00,1.000000000000000000e+00,1.000000000000000000e+00,1.000000000000000000e+00,1.000000000000000000e+00,1.000000000000000000e+00,1.000000000000000000e+00,1.000000000000000000e+00,1.000000000000000000e+00,1.000000000000000000e+00,1.000000000000000000e+00,1.000000000000000000e+00,1.000000000000000000e+00,1.000000000000000000e+00,1.000000000000000000e+00,1.000000000000000000e+00,1.000000000000000000e+00,1.000000000000000000e+00,1.000000000000000000e+00,1.000000000000000000e+00,1.000000000000000000e+00,1.000000000000000000e+00,1.000000000000000000e+00,1.000000000000000000e+00,1.000000000000000000e+00,1.000000000000000000e+00,1.000000000000000000e+00,1.000000000000000000e+00,1.000000000000000000e+00,3.048611879348754883e-01,2.962290763854980580e-01,2.941345453262328991e-01,2.920694112777709739e-01,2.901399135589599609e-01,2.938282489776611328e-01,1.000000000000000000e+00,1.000000000000000000e+00,1.000000000000000000e+00,2.755839109420776256e-01,2.651642322540282981e-01,2.595263004302978405e-01,2.550437450408935547e-01,2.507133722305298074e-01,2.476840019226074219e-01,2.465267896652221791e-01,2.453803300857543834e-01,2.442445039749145397e-01,7.431681156158447266e-01
6.194466590881347878e-01,6.351533412933350053e-01,6.516772270202636497e-01,6.690837860107421431e-01,6.874457836151123269e-01,7.068440437316894087e-01,7.273688793182373491e-01,7.491212844848632590e-01,7.722148895263671875e-01,7.967775821685790794e-01,8.229541778564453125e-01,8.509092330932617188e-01,8.808302879333496094e-01,9.129319190979003906e-01,9.474588394165038840e-01,9.847000122070312944e-01,1.000000000000000000e+00,1.000000000000000000e+00,1.000000000000000000e+00,1.000000000000000000e+00,1.000000000000000000e+00,1.000000000000000000e+00,1.000000000000000000e+00,1.000000000000000000e+00,1.000000000000000000e+00,1.000000000000000000e+00,1.000000000000000000e+00,1.000000000000000000e+00,1.000000000000000000e+00,1.000000000000000000e+00,1.000000000000000000e+00,1.000000000000000000e+00,1.000000000000000000e+00,1.000000000000000000e+00,1.000000000000000000e+00,1.000000000000000000e+00,1.000000000000000000e+00,1.000000000000000000e+00,1.000000000000000000e+00,1.000000000000000000e+00,1.000000000000000000e+00,1.000000000000000000e+00,1.000000000000000000e+00,1.000000000000000000e+00,1.000000000000000000e+00,1.000000000000000000e+00,1.000000000000000000e+00,1.000000000000000000e+00,1.000000000000000000e+00,1.000000000000000000e+00,1.000000000000000000e+00,1.000000000000000000e+00,1.000000000000000000e+00,1.000000000000000000e+00,1.000000000000000000e+00,1.000000000000000000e+00,1.000000000000000000e+00,1.000000000000000000e+00,1.000000000000000000e+00,1.000000000000000000e+00,1.000000000000000000e+00,3.071281194686889537e-01,2.981231451034546120e-01,2.952461481094360574e-01,2.931977748870849831e-01,2.915732145309448131e-01,2.952119827270507924e-01,1.000000000000000000e+00,1.000000000000000000e+00,1.000000000000000000e+00,9.694761276245117410e-01,2.668237686157226562e-01,2.591351747512817272e-01,2.546189546585083119e-01,2.503297090530395286e-01,2.463526964187622015e-01,2.450231790542602428e-01,2.439652204513549916e-01,2.431716680526733454e-01,7.431828498840331587e-01
6.194334030151367188e-01,6.351393699645996316e-01,6.516625404357909712e-01,6.690683364868164062e-01,6.874294757843018022e-01,7.068267822265624778e-01,7.273505687713622825e-01,7.491018772125244141e-01,7.721942901611328347e-01,7.967557430267333540e-01,8.229308128356933594e-01,8.508842468261719194e-01,8.808034896850586160e-01,9.129034996032714400e-01,9.474312782287597212e-01,9.846702575683593528e-01,1.000000000000000000e+00,1.000000000000000000e+00,1.000000000000000000e+00,1.000000000000000000e+00,1.000000000000000000e+00,1.000000000000000000e+00,1.000000000000000000e+00,1.000000000000000000e+00,1.000000000000000000e+00,1.000000000000000000e+00,1.000000000000000000e+00,1.000000000000000000e+00,1.000000000000000000e+00,1.000000000000000000e+00,1.000000000000000000e+00,1.000000000000000000e+00,1.000000000000000000e+00,1.000000000000000000e+00,1.000000000000000000e+00,1.000000000000000000e+00,1.000000000000000000e+00,1.000000000000000000e+00,1.000000000000000000e+00,1.000000000000000000e+00,1.000000000000000000e+00,1.000000000000000000e+00,1.000000000000000000e+00,1.000000000000000000e+00,1.000000000000000000e+00,1.000000000000000000e+00,1.000000000000000000e+00,1.000000000000000000e+00,1.000000000000000000e+00,1.000000000000000000e+00,1.000000000000000000e+00,1.000000000000000000e+00,1.000000000000000000e+00,1.000000000000000000e+00,1.000000000000000000e+00,1.000000000000000000e+00,1.000000000000000000e+00,1.000000000000000000e+00,1.000000000000000000e+00,1.000000000000000000e+00,1.000000000000000000e+00,3.100200653076171653e-01,3.003895282745361328e-01,2.960768938064575195e-01,2.940170288085937611e-01,2.930010318756103294e-01,2.966757297515869030e-01,1.000000000000000000e+00,1.000000000000000000e+00,1.000000000000000000e+00,9.695012092590331587e-01,2.725273370742797852e-01,2.587367773056030162e-01,2.541602373123169056e-01,2.503100395202636497e-01,2.464793920516967773e-01,2.449501276016235463e-01,2.440527200698852650e-01,2.432480096817016546e-01,7.431976795196533203e-01
6.194122791290282981e-01,6.351217269897461160e-01,6.516479015350341575e-01,6.690529346466064231e-01,6.874132156372070312e-01,7.068095684051514116e-01,7.273324012756348100e-01,7.490825653076171875e-01,7.721737384796142356e-01,7.967338085174560103e-01,8.229074478149414062e-01,8.508592605590820090e-01,8.807767868041992410e-01,9.128747940063476340e-01,9.474007606506347212e-01,9.846405029296875222e-01,1.000000000000000000e+00,1.000000000000000000e+00,1.000000000000000000e+00,1.000000000000000000e+00,1.000000000000000000e+00,1.000000000000000000e+00,1.000000000000000000e+00,1.000000000000000000e+00,1.000000000000000000e+00,1.000000000000000000e+00,1.000000000000000000e+00,1.000000000000000000e+00,1.000000000000000000e+00,1.000000000000000000e+00,1.000000000000000000e+00,1.000000000000000000e+00,1.000000000000000000e+00,1.000000000000000000e+00,1.000000000000000000e+00,1.000000000000000000e+00,1.000000000000000000e+00,1.000000000000000000e+00,1.000000000000000000e+00,1.000000000000000000e+00,1.000000000000000000e+00,1.000000000000000000e+00,1.000000000000000000e+00,1.000000000000000000e+00,1.000000000000000000e+00,1.000000000000000000e+00,1.000000000000000000e+00,1.000000000000000000e+00,1.000000000000000000e+00,1.000000000000000000e+00,1.000000000000000000e+00,1.000000000000000000e+00,1.000000000000000000e+00,1.000000000000000000e+00,1.000000000000000000e+00,1.000000000000000000e+00,1.000000000000000000e+00,1.000000000000000000e+00,1.000000000000000000e+00,1.000000000000000000e+00,1.000000000000000000e+00,3.135610818862915039e-01,3.026905775070190541e-01,2.971678733825683372e-01,2.948408842086792103e-01,2.944429159164428933e-01,2.977003574371338002e-01,1.000000000000000000e+00,1.000000000000000000e+00,1.000000000000000000e+00,9.695263862609863059e-01,9.377967834472655806e-01,2.642469644546509011e-01,2.547484397888183372e-01,2.507138729095458873e-01,2.469788789749145508e-01,2.455309391021728571e-01,2.446798324584960882e-01,2.438345670700073353e-01,7.432124137878417525e-01
6.193890571594238281e-01,6.350973129272461382e-01,6.516230583190918413e-01,6.690317630767822488e-01,6.873962402343749556e-01,7.067923069000243697e-01,7.273140907287597434e-01,7.490632057189940962e-01,7.721531391143798828e-01,7.967118263244629128e-01,8.228840827941894531e-01,8.508342742919922097e-01,8.807498931884765181e-01,9.128459930419922097e-01,9.473696708679198997e-01,9.846074104309081587e-01,1.000000000000000000e+00,1.000000000000000000e+00,1.000000000000000000e+00,1.000000000000000000e+00,1.000000000000000000e+00,1.000000000000000000e+00,1.000000000000000000e+00,1.000000000000000000e+00,1.000000000000000000e+00,1.000000000000000000e+00,1.000000000000000000e+00,1.000000000000000000e+00,1.000000000000000000e+00,1.000000000000000000e+00,1.000000000000000000e+00,1.000000000000000000e+00,1.000000000000000000e+00,1.000000000000000000e+00,1.000000000000000000e+00,1.000000000000000000e+00,1.000000000000000000e+00,1.000000000000000000e+00,1.000000000000000000e+00,1.000000000000000000e+00,1.000000000000000000e+00,1.000000000000000000e+00,1.000000000000000000e+00,1.000000000000000000e+00,1.000000000000000000e+00,1.000000000000000000e+00,1.000000000000000000e+00,1.000000000000000000e+00,1.000000000000000000e+00,1.000000000000000000e+00,1.000000000000000000e+00,1.000000000000000000e+00,1.000000000000000000e+00,1.000000000000000000e+00,1.000000000000000000e+00,1.000000000000000000e+00,1.000000000000000000e+00,1.000000000000000000e+00,1.000000000000000000e+00,1.000000000000000000e+00,1.000000000000000000e+00,3.163378000259399192e-01,3.050271749496459850e-01,2.986450672149658092e-01,2.956693887710571400e-01,2.958990335464477539e-01,2.985979080200195090e-01,1.000000000000000000e+00,1.000000000000000000e+00,1.000000000000000000e+00,9.695515632629394531e-01,9.378203392028808816e-01,9.081002235412597434e-01,2.556504964828490989e-01,2.518333196640014648e-01,2.480364561080932728e-01,2.464784145355224665e-01,2.456207275390625000e-01,2.449872493743896484e-01,7.432272434234619141e-01
6.193683147430419922e-01,6.350729465484619141e-01,6.515974044799804910e-01,6.690047740936279075e-01,6.873677253723144975e-01,7.067671298980713335e-01,7.272933483123779075e-01,7.490438938140868697e-01,7.721326351165771484e-01,7.966899871826171875e-01,8.228607177734375000e-01,8.508092880249022993e-01,8.807231903076171431e-01,9.128171920776366743e-01,9.473387718200683150e-01,9.845740318298339400e-01,1.000000000000000000e+00,1.000000000000000000e+00,1.000000000000000000e+00,1.000000000000000000e+00,1.000000000000000000e+00,1.000000000000000000e+00,1.000000000000000000e+00,1.000000000000000000e+00,1.000000000000000000e+00,1.000000000000000000e+00,1.000000000000000000e+00,1.000000000000000000e+00,1.000000000000000000e+00,1.000000000000000000e+00,1.000000000000000000e+00,1.000000000000000000e+00,1.000000000000000000e+00,1.000000000000000000e+00,1.000000000000000000e+00,1.000000000000000000e+00,1.000000000000000000e+00,1.000000000000000000e+00,1.000000000000000000e+00,1.000000000000000000e+00,1.000000000000000000e+00,1.000000000000000000e+00,1.000000000000000000e+00,1.000000000000000000e+00,1.000000000000000000e+00,1.000000000000000000e+00,1.000000000000000000e+00,1.000000000000000000e+00,1.000000000000000000e+00,1.000000000000000000e+00,1.000000000000000000e+00,1.000000000000000000e+00,1.000000000000000000e+00,1.000000000000000000e+00,1.000000000000000000e+00,1.000000000000000000e+00,1.000000000000000000e+00,1.000000000000000000e+00,1.000000000000000000e+00,1.000000000000000000e+00,1.000000000000000000e+00,3.186983346939086803e-01,3.074001073837280273e-01,3.001370429992675781e-01,2.966870307922363503e-01,2.970034122467041238e-01,2.995008468627929910e-01,1.000000000000000000e+00,1.000000000000000000e+00,1.000000000000000000e+00,9.695766448974609819e-01,9.378437995910644531e-01,9.081222534179687056e-01,2.568823814392089955e-01,2.529731512069702259e-01,2.493915557861328125e-01,2.474867820739746205e-01,2.465688943862915095e-01,2.507536888122558483e-01,7.432419776916503462e-01
6.193549633026123047e-01,6.350569725036621094e-01,6.515758037567138672e-01,6.689776897430419478e-01,6.873391151428223100e-01,7.067369461059570535e-01,7.272614479064941628e-01,7.490137100219727007e-01,7.721073150634765181e-01,7.966680526733398438e-01,8.228373527526855469e-01,8.507843017578125000e-01,8.806963920593261497e-01,9.127884864807128684e-01,9.473077774047851118e-01,9.845405578613281028e-01,1.000000000000000000e+00,1.000000000000000000e+00,1.000000000000000000e+00,1.000000000000000000e+00,1.000000000000000000e+00,1.000000000000000000e+00,1.000000000000000000e+00,1.000000000000000000e+00,1.000000000000000000e+00,1.000000000000000000e+00,1.000000000000000000e+00,1.000000000000000000e+00,1.000000000000000000e+00,1.000000000000000000e+00,1.000000000000000000e+00,1.000000000000000000e+00,1.000000000000000000e+00,1.000000000000000000e+00,1.000000000000000000e+00,1.000000000000000000e+00,1.000000000000000000e+00,1.000000000000000000e+00,1.000000000000000000e+00,1.000000000000000000e+00,1.000000000000000000e+00,1.000000000000000000e+00,1.000000000000000000e+00,1.000000000000000000e+00,1.000000000000000000e+00,1.000000000000000000e+00,1.000000000000000000e+00,1.000000000000000000e+00,1.000000000000000000e+00,1.000000000000000000e+00,1.000000000000000000e+00,1.000000000000000000e+00,1.000000000000000000e+00,1.000000000000000000e+00,1.000000000000000000e+00,1.000000000000000000e+00,1.000000000000000000e+00,1.000000000000000000e+00,1.000000000000000000e+00,1.000000000000000000e+00,1.000000000000000000e+00,3.214730262756347878e-01,3.098871231079101674e-01,3.016282081604003684e-01,2.979782342910766713e-01,2.983398914337158092e-01,3.006783962249756081e-01,1.000000000000000000e+00,1.000000000000000000e+00,1.000000000000000000e+00,9.696018218994140181e-01,9.378673553466796431e-01,2.697058200836181530e-01,2.581262111663818470e-01,2.536609888076782338e-01,2.507615566253661998e-01,2.488358736038208119e-01,2.475244045257568304e-01,2.520047664642334206e-01,7.432567596435546431e-01
6.193416595458984819e-01,6.350429534912109819e-01,6.515610218048095703e-01,6.689613342285156694e-01,6.873165607452392800e-01,7.067074775695800781e-01,7.272294998168945535e-01,7.489797592163085493e-01,7.720712184906005637e-01,7.966318130493164062e-01,8.228063583374023438e-01,8.507594108581543191e-01,8.806696891784667747e-01,9.127596855163574441e-01,9.472767829895019087e-01,9.845070838928222656e-01,1.000000000000000000e+00,1.000000000000000000e+00,1.000000000000000000e+00,1.000000000000000000e+00,1.000000000000000000e+00,1.000000000000000000e+00,1.000000000000000000e+00,1.000000000000000000e+00,1.000000000000000000e+00,1.000000000000000000e+00,1.000000000000000000e+00,1.000000000000000000e+00,1.000000000000000000e+00,1.000000000000000000e+00,1.000000000000000000e+00,1.000000000000000000e+00,1.000000000000000000e+00,1.000000000000000000e+00,1.000000000000000000e+00,1.000000000000000000e+00,1.000000000000000000e+00,1.000000000000000000e+00,1.000000000000000000e+00,1.000000000000000000e+00,1.000000000000000000e+00,1.000000000000000000e+00,1.000000000000000000e+00,1.000000000000000000e+00,1.000000000000000000e+00,1.000000000000000000e+00,1.000000000000000000e+00,1.000000000000000000e+00,1.000000000000000000e+00,1.000000000000000000e+00,1.000000000000000000e+00,1.000000000000000000e+00,1.000000000000000000e+00,1.000000000000000000e+00,1.000000000000000000e+00,1.000000000000000000e+00,1.000000000000000000e+00,1.000000000000000000e+00,1.000000000000000000e+00,1.000000000000000000e+00,1.000000000000000000e+00,3.222972393035888894e-01,3.114838361740112083e-01,3.038676023483276589e-01,2.994369745254516491e-01,3.006509780883789285e-01,1.000000000000000000e+00,1.000000000000000000e+00,1.000000000000000000e+00,1.000000000000000000e+00,9.696269989013671653e-01,9.378909111022949441e-01,2.682086229324340820e-01,2.592292308807372936e-01,2.543525457382201926e-01,2.521466493606567272e-01,2.501997470855713002e-01,2.484873533248901367e-01,2.532684087753295787e-01,7.432714939117431863e-01
6.193283557891845481e-01,6.350289821624756081e-01,6.515462875366211382e-01,6.689458370208740678e-01,6.873001575469970259e-01,7.066901206970215288e-01,7.272058963775634988e-01,7.489483833312988725e-01,7.720352649688720925e-01,7.965935230255126731e-01,8.227655410766601118e-01,8.507157325744628684e-01,8.806316375732421431e-01,9.127283096313476562e-01,9.472458839416504350e-01,9.844737052917480469e-01,1.000000000000000000e+00,1.000000000000000000e+00,1.000000000000000000e+00,1.000000000000000000e+00,1.000000000000000000e+00,1.000000000000000000e+00,1.000000000000000000e+00,1.000000000000000000e+00,1.000000000000000000e+00,1.000000000000000000e+00,1.000000000000000000e+00,1.000000000000000000e+00,1.000000000000000000e+00,1.000000000000000000e+00,1.000000000000000000e+00,1.000000000000000000e+00,1.000000000000000000e+00,1.000000000000000000e+00,1.000000000000000000e+00,1.000000000000000000e+00,1.000000000000000000e+00,1.000000000000000000e+00,1.000000000000000000e+00,1.000000000000000000e+00,1.000000000000000000e+00,1.000000000000000000e+00,1.000000000000000000e+00,1.000000000000000000e+00,1.000000000000000000e+00,1.000000000000000000e+00,1.000000000000000000e+00,1.000000000000000000e+00,1.000000000000000000e+00,1.000000000000000000e+00,1.000000000000000000e+00,1.000000000000000000e+00,1.000000000000000000e+00,1.000000000000000000e+00,1.000000000000000000e+00,1.000000000000000000e+00,1.000000000000000000e+00,1.000000000000000000e+00,1.000000000000000000e+00,1.000000000000000000e+00,1.000000000000000000e+00,3.216712951660156139e-01,3.124452829360961914e-01,3.070725917816162220e-01,3.025419950485229714e-01,3.056877613067626731e-01,1.000000000000000000e+00,1.000000000000000000e+00,1.000000000000000000e+00,1.000000000000000000e+00,9.696520805358886941e-01,9.379144668579101340e-01,2.667278766632080189e-01,2.599515438079834095e-01,2.552588462829589733e-01,2.532637357711792214e-01,2.512995958328246848e-01,2.493656873703002930e-01,7.630801677703857866e-01,7.432874679565429910e-01
6.193150043487548606e-01,6.350149631500243697e-01,6.515315532684325950e-01,6.689302921295166016e-01,6.872837543487548828e-01,7.066727638244628684e-01,7.271875381469726785e-01,7.489289283752441628e-01,7.720105648040771484e-01,7.965600490570068359e-01,8.227246284484863725e-01,8.506719589233397993e-01,8.805848121643066184e-01,9.126779556274413618e-01,9.471989631652831809e-01,9.844339370727539507e-01,1.000000000000000000e+00,1.000000000000000000e+00,1.000000000000000000e+00,1.000000000000000000e+00,1.000000000000000000e+00,1.000000000000000000e+00,1.000000000000000000e+00,1.000000000000000000e+00,1.000000000000000000e+00,1.000000000000000000e+00,1.000000000000000000e+00,1.000000000000000000e+00,1.000000000000000000e+00,1.000000000000000000e+00,1.000000000000000000e+00,1.000000000000000000e+00,1.000000000000000000e+00,1.000000000000000000e+00,1.000000000000000000e+00,1.000000000000000000e+00,1.000000000000000000e+00,1.000000000000000000e+00,1.000000000000000000e+00,1.000000000000000000e+00,1.000000000000000000e+00,1.000000000000000000e+00,1.000000000000000000e+00,1.000000000000000000e+00,1.000000000000000000e+00,1.000000000000000000e+00,1.000000000000000000e+00,1.000000000000000000e+00,1.000000000000000000e+00,1.000000000000000000e+00,1.000000000000000000e+00,1.000000000000000000e+00,1.000000000000000000e+00,1.000000000000000000e+00,1.000000000000000000e+00,1.000000000000000000e+00,1.000000000000000000e+00,1.000000000000000000e+00,1.000000000000000000e+00,1.000000000000000000e+00,1.000000000000000000e+00,3.213929176330566628e-01,3.143662452697754128e-01,3.108457326889038086e-01,3.077717781066894309e-01,3.133100509643554910e-01,1.000000000000000000e+00,1.000000000000000000e+00,1.000000000000000000e+00,1.000000000000000000e+00,9.696772575378418413e-01,9.379379272460937056e-01,2.674510717391967995e-01,2.601256132125854270e-01,2.550983667373657449e-01,2.531590223312377708e-01,2.511965036392211914e-01,2.492641687393188366e-01,2.534011840820312722e-01,7.433043003082275835e-01
6.193017005920410378e-01,6.350009918212891069e-01,6.515168190002441628e-01,6.689147472381591353e-01,6.872673511505127397e-01,7.066554546356200728e-01,7.271691799163818581e-01,7.489094734191894531e-01,7.719898700714111772e-01,7.965380191802978738e-01,8.226986885070800559e-01,8.506361007690429465e-01,8.805378913879394753e-01,9.126276016235351785e-01,9.471446990966796431e-01,9.843753814697265847e-01,1.000000000000000000e+00,1.000000000000000000e+00,1.000000000000000000e+00,1.000000000000000000e+00,1.000000000000000000e+00,1.000000000000000000e+00,1.000000000000000000e+00,1.000000000000000000e+00,1.000000000000000000e+00,1.000000000000000000e+00,1.000000000000000000e+00,1.000000000000000000e+00,1.000000000000000000e+00,1.000000000000000000e+00,1.000000000000000000e+00,1.000000000000000000e+00,1.000000000000000000e+00,1.000000000000000000e+00,1.000000000000000000e+00,1.000000000000000000e+00,1.000000000000000000e+00,1.000000000000000000e+00,1.000000000000000000e+00,1.000000000000000000e+00,1.000000000000000000e+00,1.000000000000000000e+00,1.000000000000000000e+00,1.000000000000000000e+00,1.000000000000000000e+00,1.000000000000000000e+00,1.000000000000000000e+00,1.000000000000000000e+00,1.000000000000000000e+00,1.000000000000000000e+00,1.000000000000000000e+00,1.000000000000000000e+00,1.000000000000000000e+00,1.000000000000000000e+00,1.000000000000000000e+00,1.000000000000000000e+00,1.000000000000000000e+00,1.000000000000000000e+00,1.000000000000000000e+00,1.000000000000000000e+00,1.000000000000000000e+00,3.230145931243896262e-01,3.171302795410156361e-01,3.143448114395141491e-01,3.131855487823486106e-01,1.000000000000000000e+00,1.000000000000000000e+00,1.000000000000000000e+00,1.000000000000000000e+00,1.000000000000000000e+00,9.697024345397948775e-01,9.379614830017090066e-01,2.705355405807495228e-01,2.602148056030273438e-01,2.552391290664672852e-01,2.529919624328613170e-01,2.510935068130493164e-01,2.491627454757690541e-01,2.522466659545898326e-01,7.433210849761963113e-01
6.192883968353271040e-01,6.349869728088378684e-01,6.515020847320556197e-01,6.688992023468017800e-01,6.872509956359863503e-01,7.066380977630615234e-01,7.271508216857910378e-01,7.488899707794189897e-01,7.719691753387450950e-01,7.965159893035889116e-01,8.226751327514648660e-01,8.506109237670897993e-01,8.805106163024902788e-01,9.125889778137207253e-01,9.470929145812988503e-01,9.843168258666992188e-01,1.000000000000000000e+00,1.000000000000000000e+00,1.000000000000000000e+00,1.000000000000000000e+00,1.000000000000000000e+00,1.000000000000000000e+00,1.000000000000000000e+00,1.000000000000000000e+00,1.000000000000000000e+00,1.000000000000000000e+00,1.000000000000000000e+00,1.000000000000000000e+00,1.000000000000000000e+00,1.000000000000000000e+00,1.000000000000000000e+00,1.000000000000000000e+00,1.000000000000000000e+00,1.000000000000000000e+00,1.000000000000000000e+00,1.000000000000000000e+00,1.000000000000000000e+00,1.000000000000000000e+00,1.000000000000000000e+00,1.000000000000000000e+00,1.000000000000000000e+00,1.000000000000000000e+00,1.000000000000000000e+00,1.000000000000000000e+00,1.000000000000000000e+00,1.000000000000000000e+00,1.000000000000000000e+00,1.000000000000000000e+00,1.000000000000000000e+00,1.000000000000000000e+00,1.000000000000000000e+00,1.000000000000000000e+00,1.000000000000000000e+00,1.000000000000000000e+00,1.000000000000000000e+00,1.000000000000000000e+00,1.000000000000000000e+00,1.000000000000000000e+00,1.000000000000000000e+00,1.000000000000000000e+00,1.000000000000000000e+00,3.254390239715576061e-01,3.202892065048217884e-01,3.175601720809936301e-01,3.206125259399413840e-01,1.000000000000000000e+00,1.000000000000000000e+00,1.000000000000000000e+00,1.000000000000000000e+00,1.000000000000000000e+00,9.697275161743164062e-01,9.379862785339355691e-01,9.082571029663085715e-01,2.603040933609008789e-01,2.553800821304321178e-01,2.527621746063232200e-01,2.509905099868774414e-01,2.490613937377929576e-01,2.511026144027709850e-01,7.433379650115966575e-01
6.192750930786132812e-01,6.349729537963867410e-01,6.514873504638671875e-01,6.688836574554443137e-01,6.872345924377440962e-01,7.066207885742187278e-01,7.271324634552002175e-01,7.488705158233642800e-01,7.719484806060791238e-01,7.964939594268798384e-01,8.226516723632812944e-01,8.505858421325683816e-01,8.804837226867675559e-01,9.125600814819335715e-01,9.470618247985840288e-01,9.842749595642089622e-01,1.000000000000000000e+00,1.000000000000000000e+00,1.000000000000000000e+00,1.000000000000000000e+00,1.000000000000000000e+00,1.000000000000000000e+00,1.000000000000000000e+00,1.000000000000000000e+00,1.000000000000000000e+00,1.000000000000000000e+00,1.000000000000000000e+00,1.000000000000000000e+00,1.000000000000000000e+00,1.000000000000000000e+00,1.000000000000000000e+00,1.000000000000000000e+00,1.000000000000000000e+00,1.000000000000000000e+00,1.000000000000000000e+00,1.000000000000000000e+00,1.000000000000000000e+00,1.000000000000000000e+00,1.000000000000000000e+00,1.000000000000000000e+00,1.000000000000000000e+00,1.000000000000000000e+00,1.000000000000000000e+00,1.000000000000000000e+00,1.000000000000000000e+00,1.000000000000000000e+00,1.000000000000000000e+00,1.000000000000000000e+00,1.000000000000000000e+00,1.000000000000000000e+00,1.000000000000000000e+00,1.000000000000000000e+00,1.000000000000000000e+00,1.000000000000000000e+00,1.000000000000000000e+00,1.000000000000000000e+00,1.000000000000000000e+00,1.000000000000000000e+00,1.000000000000000000e+00,1.000000000000000000e+00,1.000000000000000000e+00,3.277424573898315430e-01,3.221473455429076926e-01,3.193866729736328236e-01,3.233780145645141491e-01,1.000000000000000000e+00,1.000000000000000000e+00,1.000000000000000000e+00,1.000000000000000000e+00,1.000000000000000000e+00,9.697562217712402122e-01,9.380130767822265625e-01,9.082821846008301003e-01,2.603934288024902233e-01,2.555211544036865012e-01,2.525328159332275169e-01,2.507643461227416770e-01,2.489601135253906306e-01,2.499688863754272461e-01,7.433547496795653853e-01
6.192617416381835938e-01,6.349589824676513672e-01,6.514726161956787553e-01,6.688681602478027122e-01,6.872181892395019531e-01,7.066034317016601785e-01,7.271141052246093972e-01,7.488510608673095703e-01,7.719277858734130415e-01,7.964719295501708762e-01,8.226282119750976118e-01,8.505607604980468528e-01,8.804568290710449441e-01,9.125311851501465288e-01,9.470306396484374778e-01,9.842412948608398882e-01,1.000000000000000000e+00,1.000000000000000000e+00,1.000000000000000000e+00,1.000000000000000000e+00,1.000000000000000000e+00,1.000000000000000000e+00,1.000000000000000000e+00,1.000000000000000000e+00,1.000000000000000000e+00,1.000000000000000000e+00,1.000000000000000000e+00,1.000000000000000000e+00,1.000000000000000000e+00,1.000000000000000000e+00,1.000000000000000000e+00,1.000000000000000000e+00,1.000000000000000000e+00,1.000000000000000000e+00,1.000000000000000000e+00,1.000000000000000000e+00,1.000000000000000000e+00,1.000000000000000000e+00,1.000000000000000000e+00,1.000000000000000000e+00,1.000000000000000000e+00,1.000000000000000000e+00,1.000000000000000000e+00,1.000000000000000000e+00,1.000000000000000000e+00,1.000000000000000000e+00,1.000000000000000000e+00,1.000000000000000000e+00,1.000000000000000000e+00,1.000000000000000000e+00,1.000000000000000000e+00,1.000000000000000000e+00,1.000000000000000000e+00,1.000000000000000000e+00,1.000000000000000000e+00,1.000000000000000000e+00,1.000000000000000000e+00,1.000000000000000000e+00,1.000000000000000000e+00,1.000000000000000000e+00,1.000000000000000000e+00,3.300925970077514537e-01,3.242868900299072377e-01,3.212343215942382590e-01,3.258860826492309681e-01,1.000000000000000000e+00,1.000000000000000000e+00,1.000000000000000000e+00,1.000000000000000000e+00,1.000000000000000000e+00,9.697848320007323997e-01,9.380398750305175559e-01,9.083073616027832475e-01,2.604828357696533092e-01,2.556624174118041770e-01,2.523038148880004661e-01,2.505385875701904297e-01,2.487978458404541127e-01,2.488453865051269420e-01,7.433715343475342241e-01
6.192484378814697710e-01,6.349449634552002397e-01,6.514578819274902122e-01,6.688526153564453569e-01,6.872017860412598100e-01,7.065860748291015181e-01,7.270957469940185769e-01,7.488315582275391069e-01,7.719071388244629350e-01,7.964499473571777788e-01,8.226046562194824219e-01,8.505355834960937056e-01,8.804299354553222212e-01,9.125022888183593750e-01,9.469995498657226562e-01,9.842076301574707031e-01,1.000000000000000000e+00,1.000000000000000000e+00,1.000000000000000000e+00,1.000000000000000000e+00,1.000000000000000000e+00,1.000000000000000000e+00,1.000000000000000000e+00,1.000000000000000000e+00,1.000000000000000000e+00,1.000000000000000000e+00,1.000000000000000000e+00,1.000000000000000000e+00,1.000000000000000000e+00,1.000000000000000000e+00,1.000000000000000000e+00,1.000000000000000000e+00,1.000000000000000000e+00,1.000000000000000000e+00,1.000000000000000000e+00,1.000000000000000000e+00,1.000000000000000000e+00,1.000000000000000000e+00,1.000000000000000000e+00,1.000000000000000000e+00,1.000000000000000000e+00,1.000000000000000000e+00,1.000000000000000000e+00,1.000000000000000000e+00,1.000000000000000000e+00,1.000000000000000000e+00,1.000000000000000000e+00,1.000000000000000000e+00,1.000000000000000000e+00,1.000000000000000000e+00,1.000000000000000000e+00,1.000000000000000000e+00,1.000000000000000000e+00,1.000000000000000000e+00,1.000000000000000000e+00,1.000000000000000000e+00,1.000000000000000000e+00,1.000000000000000000e+00,1.000000000000000000e+00,1.000000000000000000e+00,3.473328590393066628e-01,3.325188636779785045e-01,3.264863252639770286e-01,3.231035232543945090e-01,3.284063100814819114e-01,1.000000000000000000e+00,1.000000000000000000e+00,1.000000000000000000e+00,1.000000000000000000e+00,1.000000000000000000e+00,9.698134422302245872e-01,9.380666732788085493e-01,9.083324432373046653e-01,2.607002496719360574e-01,2.558931112289428711e-01,2.521054029464721569e-01,2.503355503082275169e-01,2.485903501510620117e-01,2.480193138122558649e-01,7.433883666992187056e-01
6.192351818084717019e-01,6.349309921264648660e-01,6.514431476593017800e-01,6.688370704650878906e-01,6.871853828430175559e-01,7.065687656402588335e-01,7.270773887634277566e-01,7.488121032714843972e-01,7.718864440917968528e-01,7.964279174804687056e-01,8.225811958312988503e-01,8.505105018615722878e-01,8.804030418395996094e-01,9.124732971191406028e-01,9.469683647155762163e-01,9.841740608215332475e-01,1.000000000000000000e+00,1.000000000000000000e+00,1.000000000000000000e+00,1.000000000000000000e+00,1.000000000000000000e+00,1.000000000000000000e+00,1.000000000000000000e+00,1.000000000000000000e+00,1.000000000000000000e+00,1.000000000000000000e+00,1.000000000000000000e+00,1.000000000000000000e+00,1.000000000000000000e+00,1.000000000000000000e+00,1.000000000000000000e+00,1.000000000000000000e+00,1.000000000000000000e+00,1.000000000000000000e+00,1.000000000000000000e+00,1.000000000000000000e+00,1.000000000000000000e+00,1.000000000000000000e+00,1.000000000000000000e+00,1.000000000000000000e+00,1.000000000000000000e+00,1.000000000000000000e+00,1.000000000000000000e+00,1.000000000000000000e+00,1.000000000000000000e+00,1.000000000000000000e+00,1.000000000000000000e+00,1.000000000000000000e+00,1.000000000000000000e+00,1.000000000000000000e+00,1.000000000000000000e+00,1.000000000000000000e+00,1.000000000000000000e+00,1.000000000000000000e+00,1.000000000000000000e+00,1.000000000000000000e+00,1.000000000000000000e+00,1.000000000000000000e+00,1.000000000000000000e+00,1.000000000000000000e+00,1.000000000000000000e+00,3.349810361862182728e-01,3.287158489227294811e-01,3.251430273056030162e-01,3.310909748077392467e-01,1.000000000000000000e+00,1.000000000000000000e+00,1.000000000000000000e+00,1.000000000000000000e+00,1.000000000000000000e+00,9.698420524597167747e-01,9.380934715270996538e-01,9.083575248718261941e-01,2.626807451248168723e-01,2.563747167587280273e-01,2.520404815673827903e-01,2.502223730087280162e-01,2.484787464141845759e-01,2.506475925445556530e-01,7.434052467346191628e-01
6.192218780517577681e-01,6.349169731140136275e-01,6.514284133911132368e-01,6.688215732574462891e-01,6.871690273284911665e-01,7.065514087677001731e-01,7.270590305328369363e-01,7.487926483154296875e-01,7.718657493591308816e-01,7.964058876037597434e-01,8.225577354431152788e-01,8.504854202270507590e-01,8.803760528564452681e-01,9.124444007873535600e-01,9.469372749328612837e-01,9.841403961181640625e-01,1.000000000000000000e+00,1.000000000000000000e+00,1.000000000000000000e+00,1.000000000000000000e+00,1.000000000000000000e+00,1.000000000000000000e+00,1.000000000000000000e+00,1.000000000000000000e+00,1.000000000000000000e+00,1.000000000000000000e+00,1.000000000000000000e+00,1.000000000000000000e+00,1.000000000000000000e+00,1.000000000000000000e+00,1.000000000000000000e+00,1.000000000000000000e+00,1.000000000000000000e+00,1.000000000000000000e+00,1.000000000000000000e+00,1.000000000000000000e+00,1.000000000000000000e+00,1.000000000000000000e+00,1.000000000000000000e+00,1.000000000000000000e+00,1.000000000000000000e+00,1.000000000000000000e+00,1.000000000000000000e+00,1.000000000000000000e+00,1.000000000000000000e+00,1.000000000000000000e+00,1.000000000000000000e+00,1.000000000000000000e+00,1.000000000000000000e+00,1.000000000000000000e+00,1.000000000000000000e+00,1.000000000000000000e+00,1.000000000000000000e+00,1.000000000000000000e+00,1.000000000000000000e+00,1.000000000000000000e+00,1.000000000000000000e+00,1.000000000000000000e+00,1.000000000000000000e+00,1.000000000000000000e+00,1.000000000000000000e+00,3.377133846282959206e-01,3.314771413803100364e-01,3.279985666275024303e-01,1.000000000000000000e+00,1.000000000000000000e+00,1.000000000000000000e+00,1.000000000000000000e+00,1.000000000000000000e+00,1.000000000000000000e+00,9.698707580566405806e-01,9.381201744079590288e-01,9.083826065063476118e-01,2.659468173980713002e-01,2.568581342697143777e-01,2.521383762359619141e-01,2.501092910766601340e-01,2.483672380447387584e-01,2.504063367843628041e-01,7.434220314025878906e-01
6.192085742950439453e-01,6.349030017852783647e-01,6.514136791229248047e-01,6.688060283660888228e-01,6.871526241302490234e-01,7.065340995788573775e-01,7.270406723022461160e-01,7.487732410430908425e-01,7.718450546264647993e-01,7.963838577270507812e-01,8.225341796874999778e-01,8.504602432250976118e-01,8.803491592407226562e-01,9.124155044555664062e-01,9.469060897827148438e-01,9.710079193115234153e-01,9.707657814025878462e-01,9.705238342285156250e-01,9.702819824218750222e-01,9.700403213500976562e-01,9.697986602783202903e-01,9.695571899414062722e-01,9.693158149719238725e-01,9.690746307373047097e-01,9.688334465026855469e-01,9.685924530029297319e-01,9.683515548706054243e-01,9.681108474731445757e-01,9.678701400756836160e-01,9.676296234130858931e-01,9.673892021179198997e-01,9.671489715576171431e-01,9.669087409973144975e-01,9.666687011718749778e-01,9.664287567138671875e-01,9.661890983581542525e-01,9.659493446350098100e-01,9.657097816467284934e-01,9.654703140258789062e-01,9.652310371398925559e-01,9.649918556213379350e-01,9.647527694702148215e-01,9.645137786865234375e-01,9.642748832702636719e-01,9.640361785888671431e-01,9.637975692749023438e-01,9.635590553283691628e-01,9.633206367492676003e-01,9.630823135375976562e-01,9.628441810607910600e-01,9.626061439514159712e-01,9.623682975769043413e-01,9.621304512023926003e-01,9.618927955627440962e-01,9.616552352905273215e-01,9.614177703857421653e-01,9.611804008483886275e-01,9.609432220458984375e-01,9.607061386108398660e-01,9.604691505432129128e-01,9.602322578430175781e-01,3.405197858810424805e-01,3.339890480041504128e-01,3.310435295104980358e-01,9.592860221862793413e-01,9.590497016906738281e-01,9.588135719299316628e-01,9.585775375366211160e-01,9.583415985107421875e-01,9.581058502197266069e-01,9.578701019287109153e-01,9.381469726562500222e-01,9.084077835083007590e-01,8.804960250854492188e-01,2.573434114456176758e-01,2.525966882705688588e-01,2.499963283538818304e-01,2.482558488845825195e-01,2.501655578613281028e-01,7.434388160705566184e-01
6.191952705383301225e-01,6.348889827728271262e-01,6.513989448547363725e-01,6.687904834747314675e-01,6.871362209320068803e-01,7.065167427062988281e-01,7.270223140716552956e-01,7.487537860870361328e-01,7.542501449584960715e-01,7.541040420532226785e-01,7.539580345153809038e-01,7.538120269775390181e-01,7.536661624908447266e-01,7.535202980041504350e-01,7.533745288848876509e-01,7.532287597656249778e-01,7.530831336975097878e-01,7.529374599456787331e-01,7.527919292449951616e-01,7.526463508605957253e-01,7.525009632110595259e-01,7.523555278778075728e-01,7.522102355957031028e-01,7.520648956298827681e-01,7.519196987152099165e-01,7.517745018005370650e-01,7.516294002532959428e-01,7.514842987060547097e-01,7.513393402099609597e-01,7.511943340301513450e-01,7.510495185852050781e-01,7.509046077728271928e-01,7.507598876953125444e-01,7.506151199340820312e-01,7.504704952239990012e-01,7.503259181976318359e-01,7.501812934875488059e-01,7.500368118286132590e-01,7.498923301696777122e-01,7.497479915618896484e-01,7.496036052703857200e-01,7.494593620300292747e-01,7.493151187896728294e-01,7.491709709167480025e-01,7.490268230438232866e-01,7.488828182220459428e-01,7.487387657165527344e-01,7.485948562622070090e-01,7.484508991241455300e-01,7.483071327209472878e-01,7.481633186340331809e-01,7.480195999145508035e-01,7.478758811950683150e-01,7.477323532104491743e-01,7.475887298583984153e-01,7.474452495574951394e-01,7.473017692565917525e-01,7.471583843231200950e-01,7.470150470733643022e-01,7.468717575073242632e-01,7.467285156249999778e-01,3.434088706970214733e-01,3.366282939910888450e-01,3.344851493835448997e-01,7.461561203002929910e-01,7.460132122039795366e-01,7.458702564239502175e-01,7.457274436950683816e-01,7.455846309661865456e-01,7.454419136047363281e-01,7.452991962432861106e-01,7.451566219329833762e-01,7.450139999389648882e-01,7.448715209960937722e-01,2.578305006027221680e-01,2.530570983886718528e-01,2.499527454376220814e-01,2.481445550918578991e-01,2.499252319335937556e-01,7.434556484222412109e-01
6.167031288146972434e-01,6.166055202484130859e-01,6.165079116821289285e-01,6.164103031158447710e-01,6.163127422332763672e-01,6.162151813507079634e-01,6.161176681518554243e-01,6.160202026367187500e-01,6.159227371215820757e-01,6.158253669738769087e-01,6.157279491424560991e-01,6.156306266784667969e-01,6.155332565307617410e-01,6.154359817504883035e-01,6.153387069702148660e-01,6.152415275573730469e-01,6.151443004608154741e-01,6.150471687316894087e-01,6.149499893188477007e-01,6.148529052734375000e-01,6.147558212280272993e-01,6.146587848663329634e-01,6.145617485046386275e-01,6.144648075103760210e-01,6.143678188323974387e-01,6.142709255218505859e-01,6.141739845275878684e-01,6.140771389007568803e-01,6.139802932739257812e-01,6.138835430145264116e-01,6.137867450714111772e-01,6.136900424957275613e-01,6.135932922363280806e-01,6.134966373443603294e-01,6.133999824523925781e-01,6.133033752441405806e-01,6.132067680358886941e-01,6.131102561950683150e-01,6.130137443542480469e-01,6.129172325134277788e-01,6.128208160400390181e-01,6.127243518829346147e-01,6.126279830932617188e-01,6.125315666198730691e-01,6.124352455139160378e-01,6.123389244079590066e-01,6.122426509857177290e-01,6.121463775634765625e-01,6.120501518249511497e-01,6.119539737701416016e-01,6.118577957153320535e-01,6.117616653442382590e-01,6.116655826568603294e-01,6.115694999694823997e-01,6.114734649658203347e-01,6.113774299621581587e-01,6.112814903259277122e-01,6.111855030059814009e-01,6.110896110534668191e-01,6.109936714172363725e-01,6.108978748321532981e-01,3.463763952255248801e-01,3.394792318344116433e-01,3.379991054534912109e-01,6.105146884918213335e-01,6.104189872741698775e-01,6.103233337402343972e-01,6.102276325225830522e-01,6.101320743560790794e-01,6.100364208221435991e-01,6.099409103393554910e-01,6.098453521728515181e-01,6.097498893737792747e-01,6.096543788909911665e-01,2.583194494247436634e-01,2.535191535949706809e-01,2.500490665435791127e-01,2.480333566665649525e-01,2.496853590011596791e-01,6.090821743011474165e-01
5.210270881652832031e-01,5.209574222564696822e-01,5.208877563476562722e-01,5.208180427551269975e-01,5.207484245300293413e-01,5.206788063049316850e-01,5.206091880798340288e-01,5.205395698547363725e-01,5.204700469970703347e-01,5.204004287719726785e-01,5.203309059143066406e-01,5.202613353729248491e-01,5.201918601989745650e-01,5.201223373413086382e-01,5.200529098510742188e-01,5.199834346771240456e-01,5.199140071868896262e-01,5.198445796966553178e-01,5.197751998901367632e-01,5.197058200836182085e-01,5.196364879608154075e-01,5.195671081542968528e-01,5.194978237152099165e-01,5.194284915924072266e-01,5.193592548370361550e-01,5.192899703979492188e-01,5.192207336425781472e-01,5.191514968872070757e-01,5.190823078155517578e-01,5.190130710601806863e-01,5.189439296722412331e-01,5.188747406005859153e-01,5.188056468963623269e-01,5.187365055084228738e-01,5.186674118041991743e-01,5.185983657836914507e-01,5.185292720794677512e-01,5.184602737426757812e-01,5.183912277221679465e-01,5.183222293853759766e-01,5.182532310485840066e-01,5.181842803955077903e-01,5.181152820587158203e-01,5.180463790893554688e-01,5.179774284362792525e-01,5.179085731506347656e-01,5.178396701812744141e-01,5.177708148956299272e-01,5.177019596099853294e-01,5.176331520080565962e-01,5.175643444061279741e-01,5.174955844879149947e-01,5.174267768859863725e-01,5.173580646514892578e-01,5.172893047332763894e-01,5.172206401824951394e-01,5.171519279479980247e-01,5.170832633972167747e-01,5.170145988464355247e-01,5.169459819793701394e-01,5.168773174285888894e-01,3.516041278839111550e-01,3.452977418899536022e-01,3.441560029983520286e-01,5.166029930114746094e-01,5.165345191955565962e-01,5.164659500122070757e-01,5.163974761962890625e-01,5.163290023803710493e-01,5.162605762481689009e-01,5.161921024322509988e-01,5.161236763000488503e-01,5.160552501678467019e-01,5.159869194030761719e-01,2.588102102279662975e-01,2.539829015731811523e-01,2.501454591751098855e-01,2.479222774505615290e-01,2.494459629058837780e-01,5.155769824981689675e-01
4.510506153106689231e-01,4.509983539581298717e-01,4.509461402893066295e-01,4.508939266204833873e-01,4.508417129516601451e-01,4.507895469665527122e-01,4.507373332977294700e-01,4.506852149963379017e-01,4.506330490112304688e-01,4.505808830261230358e-01,4.505287647247314675e-01,4.504766464233398438e-01,4.504245281219482200e-01,4.503724098205566517e-01,4.503203392028808372e-01,4.502682685852050781e-01,4.502161979675293191e-01,4.501641750335693137e-01,4.501121044158935547e-01,4.500600814819336049e-01,4.500080585479736550e-01,4.499560832977295144e-01,4.499040603637695090e-01,4.498521327972412331e-01,4.498001098632812278e-01,4.497481822967529519e-01,4.496962547302246205e-01,4.496443271636962891e-01,4.495923995971679576e-01,4.495404720306396262e-01,4.494885921478271595e-01,4.494367122650146373e-01,4.493848323822021706e-01,4.493330001831054576e-01,4.492811203002929910e-01,4.492293357849120872e-01,4.491774559020996205e-01,4.491256713867187722e-01,4.490738868713378684e-01,4.490221023559570201e-01,4.489703178405761719e-01,4.489185333251953236e-01,4.488667964935302845e-01,4.488150596618652455e-01,4.487633705139160156e-01,4.487116336822509766e-01,4.486599445343017467e-01,4.486082077026367076e-01,4.485565662384033425e-01,4.485048770904541127e-01,4.484532356262206920e-01,4.484015941619873269e-01,4.483499526977539062e-01,4.482983112335204856e-01,4.482467174530029297e-01,4.481951236724853738e-01,4.481435298919677623e-01,4.480919837951660156e-01,4.480404376983642689e-01,4.479888439178466575e-01,4.479373455047607200e-01,3.516795873641967995e-01,3.425721883773803489e-01,3.386949062347411887e-01,4.477313041687011608e-01,4.476798057556152233e-01,4.476283550262450950e-01,4.475769042968750222e-01,4.475254535675048939e-01,4.474740028381347656e-01,4.474225997924804465e-01,4.473711967468261830e-01,4.473198413848876731e-01,4.472684383392334095e-01,4.472170829772948997e-01,2.560868740081786998e-01,2.524316072463989036e-01,2.503657102584838645e-01,4.470117092132568359e-01,4.469603538513183816e-01
3.976449251174926647e-01,3.976043462753295898e-01,3.975637435913085826e-01,3.975231409072875755e-01,3.974825859069824330e-01,3.974420070648193581e-01,3.974014520645141602e-01,3.973609209060668945e-01,3.973203659057616965e-01,3.972798109054565541e-01,3.972393274307250977e-01,3.971987962722778320e-01,3.971583127975463756e-01,3.971177816390991100e-01,3.970772743225097767e-01,3.970368385314941295e-01,3.969962835311889870e-01,3.969558000564575306e-01,3.969153881072998158e-01,3.968749046325683594e-01,3.968344449996948353e-01,3.967940092086791881e-01,3.967535972595214733e-01,3.967131614685058816e-01,3.966727495193481667e-01,3.966323375701904519e-01,3.965919733047485463e-01,3.965515613555908314e-01,3.965111732482909934e-01,3.964707851409912109e-01,3.964304447174072377e-01,3.963900804519653320e-01,3.963497161865234264e-01,3.963093757629394531e-01,3.962690830230712891e-01,3.962287425994873158e-01,3.961884021759033425e-01,3.961481332778930553e-01,3.961078166961670144e-01,3.960675239562988503e-01,3.960272312164306863e-01,3.959869861602783314e-01,3.959467172622680442e-01,3.959064483642578125e-01,3.958661794662475808e-01,3.958259582519531028e-01,3.957857131958008035e-01,3.957454919815063255e-01,3.957052469253540261e-01,3.956650733947754128e-01,3.956248521804809348e-01,3.955846548080444447e-01,3.955444574356078991e-01,3.955043077468872181e-01,3.954641342163086049e-01,3.954239606857299916e-01,3.953837871551513783e-01,3.953436851501465066e-01,3.953035354614257701e-01,3.952634096145629661e-01,3.952232599258422852e-01,3.523881435394287109e-01,3.389568805694579967e-01,3.343888521194458008e-01,3.322328329086303711e-01,3.950228214263916127e-01,3.949827432632446178e-01,3.949426651000976785e-01,3.949025869369506836e-01,3.948625802993774303e-01,3.948225259780883678e-01,3.947824954986572377e-01,3.947424650192260520e-01,3.947024822235107311e-01,3.946624517440796009e-01,2.551407098770141491e-01,2.511633634567260742e-01,2.484911918640136663e-01,3.945025205612182617e-01,3.944625377655029408e-01
3.555471420288086049e-01,3.555146694183349831e-01,3.554822444915771706e-01,3.554497957229614258e-01,3.554173469543456809e-01,3.553849220275878684e-01,3.553524971008300559e-01,3.553200483322143666e-01,3.552876472473144309e-01,3.552552223205566184e-01,3.552228212356567383e-01,3.551904439926147350e-01,3.551580429077148549e-01,3.551256418228149192e-01,3.550932645797729714e-01,3.550608873367309681e-01,3.550285100936889648e-01,3.549961566925048939e-01,3.549637794494628906e-01,3.549314737319946289e-01,3.548990726470947488e-01,3.548667192459106223e-01,3.548343658447265514e-01,3.548020601272582897e-01,3.547697305679321511e-01,3.547374010086059570e-01,3.547050714492797630e-01,3.546727895736694336e-01,3.546404600143432395e-01,3.546081542968749778e-01,3.545758724212646484e-01,3.545436143875121959e-01,3.545113086700439342e-01,3.544790267944336049e-01,3.544467449188232200e-01,3.544145107269286998e-01,3.543822526931762473e-01,3.543499946594238503e-01,3.543177843093872070e-01,3.542855262756347545e-01,3.542532920837402344e-01,3.542210578918457142e-01,3.541888475418090709e-01,3.541566371917724831e-01,3.541244029998779075e-01,3.540921926498413197e-01,3.540600299835204856e-01,3.540278196334838978e-01,3.539956331253051869e-01,3.539634466171264759e-01,3.539312839508056419e-01,3.538991212844848633e-01,3.538669347763061523e-01,3.538347721099853738e-01,3.538026571273803489e-01,3.537704944610595703e-01,3.537383556365966686e-01,3.537062168121337669e-01,3.536741018295287975e-01,3.536419630050658958e-01,3.536098480224609264e-01,3.535777330398559570e-01,3.329475641250610463e-01,3.287226676940918080e-01,3.270293474197387695e-01,3.235274553298950195e-01,3.534173011779785378e-01,3.533852100372314453e-01,3.533531427383422852e-01,3.533210515975951926e-01,3.532890319824218972e-01,3.532569646835327370e-01,3.532249212265014537e-01,3.531928539276122936e-01,2.636534929275512473e-01,2.546594619750976451e-01,2.495311021804809681e-01,2.446827650070190485e-01,2.415335655212402233e-01,2.418619394302368164e-01
3.215096235275268777e-01,3.214831113815307395e-01,3.214565515518188477e-01,3.214300155639648326e-01,3.214035034179687500e-01,3.213769674301147350e-01,3.213504314422607200e-01,3.213239431381225697e-01,3.212974309921264870e-01,3.212708950042724720e-01,3.212444305419921986e-01,3.212179183959961160e-01,3.211914300918579102e-01,3.211649417877197044e-01,3.211384296417236217e-01,3.211119890213012806e-01,3.210855007171630748e-01,3.210590124130249245e-01,3.210325717926025280e-01,3.210060834884643777e-01,3.209796190261841042e-01,3.209531784057617076e-01,3.209267139434814342e-01,3.209002256393432839e-01,3.208738088607788197e-01,3.208473682403564231e-01,3.208209276199340820e-01,3.207944869995117410e-01,3.207680702209472767e-01,3.207416534423828125e-01,3.207152128219604714e-01,3.206887960433960072e-01,3.206624031066894753e-01,3.206360101699828880e-01,3.206095933914184792e-01,3.205832242965698242e-01,3.205568075180053600e-01,3.205304145812988281e-01,3.205040216445922963e-01,3.204776763916015736e-01,3.204512834548950417e-01,3.204249143600463867e-01,3.203985452651977317e-01,3.203722000122070090e-01,3.203458309173584095e-01,3.203194856643676869e-01,3.202931165695190319e-01,3.202667951583862416e-01,3.202404499053955189e-01,3.202141046524047963e-01,3.201877593994140736e-01,3.201614618301391602e-01,3.201351404190063699e-01,3.201088190078735241e-01,3.200824975967407338e-01,3.200562000274658203e-01,3.200298786163330300e-01,3.200035810470581166e-01,3.199772596359252708e-01,3.199509859085082897e-01,3.199247121810913086e-01,3.198984146118163951e-01,3.198721170425414817e-01,3.198458671569824330e-01,3.198195934295654519e-01,3.197933197021484153e-01,3.197670459747314342e-01,3.197408199310302623e-01,3.197145462036132812e-01,3.196882963180541770e-01,3.196620464324951283e-01,3.196358203887939564e-01,3.196095943450927845e-01,3.195833444595336803e-01,2.626121520996093639e-01,2.555932521820068470e-01,2.493242263793945257e-01,2.429835081100463756e-01,2.377445697784423828e-01,2.335447549819946178e-01
2.934197425842285378e-01,2.933976411819457786e-01,2.933755397796630748e-01,2.933534383773803711e-01,2.933313369750976674e-01,2.933092594146728405e-01,2.932871580123901367e-01,2.932650566101074330e-01,2.932430028915405384e-01,2.932209014892578347e-01,2.931988239288330078e-01,2.931767702102661133e-01,2.931546926498412864e-01,2.931326150894165150e-01,2.931105613708496205e-01,2.930884838104247936e-01,2.930664300918578991e-01,2.930443763732910045e-01,2.930223226547241100e-01,2.930002927780151478e-01,2.929782390594482533e-01,2.929561853408813588e-01,2.929341793060302734e-01,2.929121255874633789e-01,2.928900957107544167e-01,2.928680896759033314e-01,2.928460359573364369e-01,2.928239822387695424e-01,2.928019762039184570e-01,2.927799701690673717e-01,2.927579402923584095e-01,2.927359342575073242e-01,2.927139282226562389e-01,2.926919460296630859e-01,2.926699399948120006e-01,2.926479339599609153e-01,2.926259279251098855e-01,2.926039457321166770e-01,2.925819635391235241e-01,2.925599813461303711e-01,2.925380229949950950e-01,2.925160408020019420e-01,2.924940586090087891e-01,2.924720764160156361e-01,2.924501180648803600e-01,2.924281597137451394e-01,2.924062013626098633e-01,2.923842191696167103e-01,2.923622846603393666e-01,2.923403501510620228e-01,2.923183917999267467e-01,2.922964334487915261e-01,2.922745227813720592e-01,2.922525644302368386e-01,2.922306299209594949e-01,2.922086954116821511e-01,2.921867847442626842e-01,2.921648502349853405e-01,2.921429395675659291e-01,2.921210050582885853e-01,2.920991182327270508e-01,2.920771837234497070e-01,2.920552730560302956e-01,2.920333623886108287e-01,2.920114755630492942e-01,2.919895887374878152e-01,2.919676780700683483e-01,2.919457912445068137e-01,2.919239044189453347e-01,2.919020175933838002e-01,2.918801307678222656e-01,2.918582439422607311e-01,2.918364048004150613e-01,2.918145179748535267e-01,2.630619049072265847e-01,2.562954425811767578e-01,2.509826183319091575e-01,2.455211877822875977e-01,2.357799053192138616e-01,2.309227228164672796e-01
2.698438167572021484e-01,2.698251485824584850e-01,2.698064327239990123e-01,2.697877407073974720e-01,2.697690725326538086e-01,2.697503566741943359e-01,2.697316646575927956e-01,2.697130203247070090e-01,2.696943283081054688e-01,2.696756362915039285e-01,2.696569681167602650e-01,2.696382999420166016e-01,2.696196556091308705e-01,2.696009635925292747e-01,2.695822954177856667e-01,2.695636510848998801e-01,2.695449829101562722e-01,2.695263147354126088e-01,2.695076942443847545e-01,2.694890260696410911e-01,2.694703817367553600e-01,2.694517374038696289e-01,2.694330930709838978e-01,2.694144487380981667e-01,2.693958282470703125e-01,2.693771839141845814e-01,2.693585634231567272e-01,2.693399190902709961e-01,2.693212985992431419e-01,2.693026781082153431e-01,2.692840576171874889e-01,2.692654132843017578e-01,2.692467927932739036e-01,2.692281484603881725e-01,2.692095518112182506e-01,2.691909551620483287e-01,2.691723346710205300e-01,2.691537380218506081e-01,2.691351413726806863e-01,2.691165208816528320e-01,2.690979242324829102e-01,2.690793514251709206e-01,2.690607309341430664e-01,2.690421342849731445e-01,2.690235614776611550e-01,2.690049886703491100e-01,2.689863920211791881e-01,2.689677953720092662e-01,2.689492225646972767e-01,2.689306735992431641e-01,2.689120769500732422e-01,2.688935041427612527e-01,2.688749313354492076e-01,2.688563823699950950e-01,2.688378095626831055e-01,2.688192605972289928e-01,2.688006877899170033e-01,2.687821388244628906e-01,2.687635898590087780e-01,2.687450408935546653e-01,2.687264919281006081e-01,2.687079429626464955e-01,2.686893939971923828e-01,2.686708688735962025e-01,2.686523199081420898e-01,2.686337947845459095e-01,2.686152696609497292e-01,2.685967206954956166e-01,2.685781955718994363e-01,2.685596942901611328e-01,2.685411453247070201e-01,2.685226202011108398e-01,2.685041189193725364e-01,2.684856176376342884e-01,2.684670925140381081e-01,2.684485673904418723e-01,2.684300661087036244e-01,2.684115886688232533e-01,2.683930635452270730e-01,2.306774854660034180e-01
2.497747421264648326e-01,2.497587203979492188e-01,2.497427225112915095e-01,2.497267007827758678e-01,2.497106790542602539e-01,2.496946811676025446e-01,2.496786594390869030e-01,2.496626377105712891e-01,2.496466398239135798e-01,2.496306419372558705e-01,2.496146440505981334e-01,2.495986461639404241e-01,2.495826482772827148e-01,2.495666503906250056e-01,2.495506525039672963e-01,2.495346546173095592e-01,2.495186567306518499e-01,2.495026826858520452e-01,2.494867086410522405e-01,2.494707345962524359e-01,2.494547367095947266e-01,2.494387626647949219e-01,2.494227886199951172e-01,2.494068145751953125e-01,2.493908405303955078e-01,2.493748664855957031e-01,2.493588924407958984e-01,2.493429183959960938e-01,2.493269681930541937e-01,2.493110179901122936e-01,2.492950439453124889e-01,2.492790937423706166e-01,2.492631435394287165e-01,2.492471933364868164e-01,2.492311954498291071e-01,2.492152452468872070e-01,2.491992950439453069e-01,2.491833448410034069e-01,2.491674184799194391e-01,2.491514682769775391e-01,2.491355180740356390e-01,2.491195917129516713e-01,2.491036653518676758e-01,2.490877151489257757e-01,2.490717887878418080e-01,2.490558385848999079e-01,2.490399360656738170e-01,2.490239858627319447e-01,2.490080595016479492e-01,2.489921331405639537e-01,2.489762306213378906e-01,2.489603042602538951e-01,2.489443778991699274e-01,2.489284753799438366e-01,2.489125728607177734e-01,2.488966464996337780e-01,2.488807439804077148e-01,2.488648176193237194e-01,2.488489389419555609e-01,2.488330364227294977e-01,2.488171100616455023e-01,2.488012075424194391e-01,2.487853288650512806e-01,2.487694263458251898e-01,2.487535476684570312e-01,2.487376451492309681e-01,2.487217664718627819e-01,2.487058877944946234e-01,2.486899852752685602e-01,2.486741065979004017e-01,2.486582279205322155e-01,2.486423492431640569e-01,2.486264705657958984e-01,2.486105918884277399e-01,2.485947370529174860e-01,2.485788583755493275e-01,2.485629796981811412e-01,2.485471248626708873e-01,2.485312700271606334e-01,2.485153913497924749e-01
2.324841976165771540e-01,2.324703216552734264e-01,2.324564456939697266e-01,2.324425697326660267e-01,2.324286937713622991e-01,2.324148178100585993e-01,2.324009418487548717e-01,2.323870897293090765e-01,2.323732137680053766e-01,2.323593378067016491e-01,2.323454856872558538e-01,2.323316335678100586e-01,2.323177814483642634e-01,2.323039054870605358e-01,2.322900533676147405e-01,2.322762012481689453e-01,2.322623491287231501e-01,2.322484970092773549e-01,2.322346448898315319e-01,2.322207927703857366e-01,2.322069406509399414e-01,2.321931123733520508e-01,2.321792602539062556e-01,2.321654081344604603e-01,2.321515798568725697e-01,2.321377277374267467e-01,2.321238994598388561e-01,2.321100711822509655e-01,2.320962190628051702e-01,2.320824146270751842e-01,2.320685625076293890e-01,2.320547342300414984e-01,2.320409059524536077e-01,2.320270776748657171e-01,2.320132493972778265e-01,2.319994449615478405e-01,2.319856166839599498e-01,2.319717884063720592e-01,2.319579601287841686e-01,2.319441556930542103e-01,2.319303274154663197e-01,2.319164991378784291e-01,2.319026947021484431e-01,2.318888902664184570e-01,2.318750858306884710e-01,2.318612575531005804e-01,2.318474531173705944e-01,2.318336725234985407e-01,2.318198680877685547e-01,2.318060636520385687e-01,2.317922592163085826e-01,2.317784547805786244e-01,2.317646741867065430e-01,2.317508697509765569e-01,2.317370653152465709e-01,2.317232847213745173e-01,2.317095041275024359e-01,2.316956996917724498e-01,2.316819190979003962e-01,2.316681385040283148e-01,2.316543579101562611e-01,2.316405773162841797e-01,2.316267967224120983e-01,2.316130161285400446e-01,2.315992355346679632e-01,2.315854549407959095e-01,2.315716981887817327e-01,2.315579414367675837e-01,2.315441608428955023e-01,2.315303802490234486e-01,2.315166234970092718e-01,2.315028667449951227e-01,2.314890861511230413e-01,2.314753293991088923e-01,2.314615726470947155e-01,2.314478158950805664e-01,2.314340591430664174e-01,2.314203023910522405e-01,2.314065456390380915e-01,2.313928127288818470e-01
2.174325227737426702e-01,2.174203872680663951e-01,2.174082517623901478e-01,2.173961162567138727e-01,2.173839807510375977e-01,2.173718452453613226e-01,2.173597097396850475e-01,2.173475742340088002e-01,2.173354625701904297e-01,2.173233270645141546e-01,2.173111915588378795e-01,2.172990798950195368e-01,2.172869443893432617e-01,2.172748088836669866e-01,2.172626972198486439e-01,2.172505855560302734e-01,2.172384500503539984e-01,2.172263383865356556e-01,2.172142267227172852e-01,2.172021150588989147e-01,2.171900033950805720e-01,2.171778917312622015e-01,2.171657800674438588e-01,2.171536684036254883e-01,2.171415567398071178e-01,2.171294450759887751e-01,2.171173334121704046e-01,2.171052455902099665e-01,2.170931339263915960e-01,2.170810461044311579e-01,2.170689344406127874e-01,2.170568466186523493e-01,2.170447349548339788e-01,2.170326471328735407e-01,2.170205593109130748e-01,2.170084476470947321e-01,2.169963598251342662e-01,2.169842720031738281e-01,2.169721841812133900e-01,2.169600963592529241e-01,2.169480085372924860e-01,2.169359207153320201e-01,2.169238090515136774e-01,2.169117212295532116e-01,2.168996572494506780e-01,2.168875694274902399e-01,2.168754816055297741e-01,2.168633937835693359e-01,2.168513298034668024e-01,2.168392658233642689e-01,2.168271780014038030e-01,2.168150901794433649e-01,2.168030500411987360e-01,2.167909622192382701e-01,2.167788982391357366e-01,2.167668104171752985e-01,2.167547702789306696e-01,2.167426824569702037e-01,2.167306184768676702e-01,2.167185544967651367e-01,2.167065143585205078e-01,2.166944503784179743e-01,2.166823863983154408e-01,2.166703224182128795e-01,2.166582822799682506e-01,2.166462182998657171e-01,2.166341543197631836e-01,2.166221141815185547e-01,2.166100740432739258e-01,2.165980100631713923e-01,2.165859699249267634e-01,2.165739059448242299e-01,2.165618658065796009e-01,2.165498256683349720e-01,2.165377855300903431e-01,2.165257453918457142e-01,2.165137052536010853e-01,2.165016651153564564e-01,2.164896249771118275e-01,2.164775848388671986e-01
2.042113304138183649e-01,2.042006254196166992e-01,2.041899204254150335e-01,2.041791915893554632e-01,2.041685104370117299e-01,2.041578054428100641e-01,2.041470766067504938e-01,2.041363954544067327e-01,2.041256904602050670e-01,2.041149854660034291e-01,2.041043043136596680e-01,2.040935993194580023e-01,2.040829181671142689e-01,2.040722131729126032e-01,2.040615081787109375e-01,2.040508270263671764e-01,2.040401220321655384e-01,2.040294408798217773e-01,2.040187597274780162e-01,2.040080547332763783e-01,2.039973735809326172e-01,2.039866924285888561e-01,2.039760112762451227e-01,2.039653062820434570e-01,2.039546489715576283e-01,2.039439678192138672e-01,2.039332866668701061e-01,2.039226055145263727e-01,2.039119243621826116e-01,2.039012432098388783e-01,2.038905620574951172e-01,2.038798809051513561e-01,2.038692235946655273e-01,2.038585424423217662e-01,2.038478851318359375e-01,2.038372039794921764e-01,2.038265466690063477e-01,2.038158655166625866e-01,2.038052082061767578e-01,2.037945270538329967e-01,2.037838697433471680e-01,2.037732124328613392e-01,2.037625551223754827e-01,2.037518978118896540e-01,2.037412405014037975e-01,2.037305593490600641e-01,2.037199020385742076e-01,2.037092208862304743e-01,2.036985635757446178e-01,2.036879301071166937e-01,2.036772727966308649e-01,2.036666154861450084e-01,2.036559581756591797e-01,2.036453247070312556e-01,2.036346673965453991e-01,2.036240100860595703e-01,2.036133527755737416e-01,2.036027193069457897e-01,2.035920619964599609e-01,2.035814285278320368e-01,2.035707712173461803e-01,2.035601377487182562e-01,2.035495042800903320e-01,2.035388469696045033e-01,2.035282135009765514e-01,2.035175800323486273e-01,2.035069465637207031e-01,2.034963130950927790e-01,2.034856796264648549e-01,2.034750461578369030e-01,2.034644126892089788e-01,2.034537792205810547e-01,2.034431457519531306e-01,2.034325122833252064e-01,2.034219026565551869e-01,2.034112691879272350e-01,2.034006357192993109e-01,2.033900260925292913e-01,2.033793926239013672e-01,2.033687591552734431e-01
1.925058364868164062e-01,1.924963116645813099e-01,1.924867987632751520e-01,1.924772739410400280e-01,1.924677610397338978e-01,1.924582600593566784e-01,1.924487471580505482e-01,1.924392342567443903e-01,1.924297213554382324e-01,1.924202084541320745e-01,1.924106955528259166e-01,1.924012064933776911e-01,1.923916935920715332e-01,1.923821926116943415e-01,1.923726797103881836e-01,1.923631787300109919e-01,1.923536777496338002e-01,1.923441886901855469e-01,1.923346877098083552e-01,1.923251867294311634e-01,1.923156857490539440e-01,1.923061847686767523e-01,1.922967076301574652e-01,1.922872066497802734e-01,1.922777056694030817e-01,1.922682046890258900e-01,1.922587156295776367e-01,1.922492146492004450e-01,1.922397494316100963e-01,1.922302484512329046e-01,1.922207593917846791e-01,1.922112703323364258e-01,1.922017812728881725e-01,1.921923160552978516e-01,1.921828269958495983e-01,1.921733379364013727e-01,1.921638488769531194e-01,1.921543598175048939e-01,1.921448826789856068e-01,1.921354174613952581e-01,1.921259284019470326e-01,1.921164512634277455e-01,1.921069741249084584e-01,1.920974850654602051e-01,1.920880079269409180e-01,1.920785546302795355e-01,1.920690774917602484e-01,1.920596003532409612e-01,1.920501232147216741e-01,1.920406222343444824e-01,1.920311689376830999e-01,1.920217037200927790e-01,1.920122265815734919e-01,1.920027613639831432e-01,1.919932842254638561e-01,1.919838190078735352e-01,1.919743537902832142e-01,1.919648885726928655e-01,1.919554352760314830e-01,1.919459700584411621e-01,1.919365048408508412e-01,1.919270515441894587e-01,1.919175863265991100e-01,1.919081211090087891e-01,1.918986558914184681e-01,1.918892025947570856e-01,1.918797612190246693e-01,1.918703079223632868e-01,1.918608427047729381e-01,1.918513894081115834e-01,1.918419361114502009e-01,1.918324828147888184e-01,1.918230295181274359e-01,1.918135762214660534e-01,1.918041467666626032e-01,1.917946934700012207e-01,1.917852520942688044e-01,1.917757987976074219e-01,1.917663455009460394e-01,1.917569041252136230e-01
1.820694923400879017e-01,1.820609807968139593e-01,1.820524692535400446e-01,1.820439457893371638e-01,1.820354580879211537e-01,1.820269465446472112e-01,1.820184350013732966e-01,1.820099234580993541e-01,1.820014119148254395e-01,1.819929003715515248e-01,1.819844126701354869e-01,1.819759011268615723e-01,1.819674015045165960e-01,1.819588899612426813e-01,1.819503903388977051e-01,1.819419026374816950e-01,1.819334030151367188e-01,1.819249033927917425e-01,1.819163918495178278e-01,1.819078922271728516e-01,1.818993926048278753e-01,1.818909168243408314e-01,1.818824172019958552e-01,1.818739175796508789e-01,1.818654179573059027e-01,1.818569183349609264e-01,1.818484425544738825e-01,1.818399548530578724e-01,1.818314552307128962e-01,1.818229675292968861e-01,1.818144679069519098e-01,1.818059802055358998e-01,1.817975163459777943e-01,1.817890167236328181e-01,1.817805290222168080e-01,1.817720413208007701e-01,1.817635536193847601e-01,1.817550659179687500e-01,1.817466020584106445e-01,1.817381143569946345e-01,1.817296266555786244e-01,1.817211508750915527e-01,1.817126631736755427e-01,1.817041993141174372e-01,1.816957235336303655e-01,1.816872358322143555e-01,1.816787600517272838e-01,1.816702842712402399e-01,1.816618084907531683e-01,1.816533446311950628e-01,1.816448688507080189e-01,1.816363930702209473e-01,1.816279172897338756e-01,1.816194295883178655e-01,1.816109538078308216e-01,1.816025018692016546e-01,1.815940260887146107e-01,1.815855622291565052e-01,1.815770864486694336e-01,1.815686225891113281e-01,1.815601468086242565e-01,1.815516829490661510e-01,1.815432071685791071e-01,1.815347671508789062e-01,1.815263032913208008e-01,1.815178394317626953e-01,1.815093755722045898e-01,1.815009117126464844e-01,1.814924478530883789e-01,1.814839839935302734e-01,1.814755201339721680e-01,1.814670801162719671e-01,1.814586281776428278e-01,1.814501643180847223e-01,1.814417123794555553e-01,1.814332485198974498e-01,1.814247965812683105e-01,1.814163446426391713e-01,1.814078807830810658e-01,1.813994526863098034e-01
1.727065443992614746e-01,1.726988792419433538e-01,1.726912379264831654e-01,1.726835727691650446e-01,1.726759195327758900e-01,1.726682543754577692e-01,1.726606011390686146e-01,1.726529359817504938e-01,1.726452946662902777e-01,1.726376414299011230e-01,1.726299881935119684e-01,1.726223349571228138e-01,1.726146697998046931e-01,1.726070165634155384e-01,1.725993871688842884e-01,1.725917339324951061e-01,1.725840806961059515e-01,1.725764274597167969e-01,1.725687742233276423e-01,1.725611448287963923e-01,1.725534915924072377e-01,1.725458502769470215e-01,1.725381970405578669e-01,1.725305557250976507e-01,1.725229024887084961e-01,1.725152730941772461e-01,1.725076317787170299e-01,1.724999904632568415e-01,1.724923491477966253e-01,1.724846959114074707e-01,1.724770545959472545e-01,1.724694371223449707e-01,1.724617958068847545e-01,1.724541544914245661e-01,1.724465131759643499e-01,1.724388718605041615e-01,1.724312543869018499e-01,1.724236130714416615e-01,1.724159717559814453e-01,1.724083423614501953e-01,1.724007010459899791e-01,1.723930716514587291e-01,1.723854541778564453e-01,1.723778247833251953e-01,1.723701834678649791e-01,1.723625540733337291e-01,1.723549246788024791e-01,1.723472952842712291e-01,1.723396778106689453e-01,1.723320484161376953e-01,1.723244190216064453e-01,1.723167896270751953e-01,1.723091602325439453e-01,1.723015546798705999e-01,1.722939252853393499e-01,1.722862958908080999e-01,1.722786784172058161e-01,1.722710371017455999e-01,1.722634077072143499e-01,1.722557902336120661e-01,1.722481846809387207e-01,1.722405672073364369e-01,1.722329378128051869e-01,1.722253203392028753e-01,1.722177028656005915e-01,1.722100853919982799e-01,1.722024679183959961e-01,1.721948504447937123e-01,1.721872448921203669e-01,1.721796274185180553e-01,1.721720099449157715e-01,1.721644043922424261e-01,1.721567869186401423e-01,1.721491694450378307e-01,1.721415638923645131e-01,1.721339464187622015e-01,1.721263527870178223e-01,1.721187472343444769e-01,1.721111297607421931e-01,1.721035242080688477e-01
1.642594695091247614e-01,1.642525553703308161e-01,1.642456293106079046e-01,1.642386913299560547e-01,1.642317652702331432e-01,1.642248392105102595e-01,1.642179131507873480e-01,1.642109990119934027e-01,1.642040729522705189e-01,1.641971468925476074e-01,1.641902208328246959e-01,1.641832947731018122e-01,1.641763806343078669e-01,1.641694664955139216e-01,1.641625404357910101e-01,1.641556143760681263e-01,1.641486883163452148e-01,1.641417741775512695e-01,1.641348719596862904e-01,1.641279458999633789e-01,1.641210317611694336e-01,1.641141057014465221e-01,1.641071915626525768e-01,1.641002774238586315e-01,1.640933752059936523e-01,1.640864491462707409e-01,1.640795350074767955e-01,1.640726208686828502e-01,1.640657067298889049e-01,1.640588045120239258e-01,1.640518903732299805e-01,1.640449762344360352e-01,1.640380620956420898e-01,1.640311598777771107e-01,1.640242457389831654e-01,1.640173435211181585e-01,1.640104413032531794e-01,1.640035271644592341e-01,1.639966130256652888e-01,1.639897108078002819e-01,1.639827966690063366e-01,1.639759063720703236e-01,1.639690041542053167e-01,1.639620900154113714e-01,1.639551877975463923e-01,1.639482855796813854e-01,1.639413952827453724e-01,1.639344930648803655e-01,1.639275908470153864e-01,1.639206886291503795e-01,1.639137744903564342e-01,1.639068722724914551e-01,1.638999938964843806e-01,1.638930916786193737e-01,1.638861894607543945e-01,1.638792872428894154e-01,1.638723969459533747e-01,1.638655066490173340e-01,1.638586163520812933e-01,1.638517141342163141e-01,1.638447999954223688e-01,1.638379096984863281e-01,1.638310074806213490e-01,1.638241171836853083e-01,1.638172268867492676e-01,1.638103485107421931e-01,1.638034462928771862e-01,1.637965559959411732e-01,1.637896656990051325e-01,1.637827754020690918e-01,1.637758851051330511e-01,1.637689948081970104e-01,1.637621045112609974e-01,1.637552261352538951e-01,1.637483358383178822e-01,1.637414574623107799e-01,1.637345671653747670e-01,1.637276768684387263e-01,1.637207984924316517e-01,1.637139081954956110e-01
1.566001772880554199e-01,1.565938830375671331e-01,1.565875768661499079e-01,1.565812826156616211e-01,1.565749883651733343e-01,1.565687060356140137e-01,1.565623998641967884e-01,1.565561056137085016e-01,1.565498113632202148e-01,1.565435171127319280e-01,1.565372228622436412e-01,1.565309405326843206e-01,1.565246462821960338e-01,1.565183520317077748e-01,1.565120577812194880e-01,1.565057635307312012e-01,1.564994692802429144e-01,1.564931988716125599e-01,1.564869046211242731e-01,1.564806103706359863e-01,1.564743280410766657e-01,1.564680337905883789e-01,1.564617633819579967e-01,1.564554691314697377e-01,1.564491868019103893e-01,1.564428925514221302e-01,1.564366102218627819e-01,1.564303159713745228e-01,1.564240455627441406e-01,1.564177632331848200e-01,1.564114809036254994e-01,1.564051985740661510e-01,1.563989043235778920e-01,1.563926458358764759e-01,1.563863635063171276e-01,1.563800692558288685e-01,1.563737869262695201e-01,1.563675165176391657e-01,1.563612341880798451e-01,1.563549637794494629e-01,1.563486814498901423e-01,1.563423991203308216e-01,1.563361287117004395e-01,1.563298463821411188e-01,1.563235640525817982e-01,1.563173055648803822e-01,1.563110232353210338e-01,1.563047528266906794e-01,1.562984704971313588e-01,1.562922000885009766e-01,1.562859416007995605e-01,1.562796592712402399e-01,1.562733888626098577e-01,1.562671184539795033e-01,1.562608480453491211e-01,1.562545657157898005e-01,1.562483191490173229e-01,1.562420368194580023e-01,1.562357664108276478e-01,1.562294960021972656e-01,1.562232255935668834e-01,1.562169551849365290e-01,1.562107086181640514e-01,1.562044382095336970e-01,1.561981558799743763e-01,1.561918854713439941e-01,1.561856269836425781e-01,1.561793565750121959e-01,1.561730861663818415e-01,1.561668276786804255e-01,1.561605691909790095e-01,1.561543107032775934e-01,1.561480402946472112e-01,1.561417818069457952e-01,1.561355233192443792e-01,1.561292529106140248e-01,1.561229944229126088e-01,1.561167359352111927e-01,1.561104893684387152e-01,1.561042189598083607e-01
1.496233463287353627e-01,1.496175885200500544e-01,1.496118426322937123e-01,1.496060967445373424e-01,1.496003508567810003e-01,1.495946049690246582e-01,1.495888590812683161e-01,1.495831131935119740e-01,1.495773673057556041e-01,1.495716094970703236e-01,1.495658874511718861e-01,1.495601296424865778e-01,1.495543837547302357e-01,1.495486378669738659e-01,1.495429039001464899e-01,1.495371699333190862e-01,1.495314240455627441e-01,1.495256781578064020e-01,1.495199322700500599e-01,1.495141863822936901e-01,1.495084524154663141e-01,1.495027184486389105e-01,1.494969725608825684e-01,1.494912385940551647e-01,1.494854927062988226e-01,1.494797587394714466e-01,1.494740247726440430e-01,1.494682908058166393e-01,1.494625568389892634e-01,1.494568109512329213e-01,1.494510769844055176e-01,1.494453310966491755e-01,1.494396090507507380e-01,1.494338750839233343e-01,1.494281411170959584e-01,1.494224071502685547e-01,1.494166731834411510e-01,1.494109272956848089e-01,1.494052052497863714e-01,1.493994712829589955e-01,1.493937373161315918e-01,1.493880152702331543e-01,1.493822813034057506e-01,1.493765592575073131e-01,1.493708252906799372e-01,1.493650913238525335e-01,1.493593573570251576e-01,1.493536353111267201e-01,1.493479013442993164e-01,1.493421792984008789e-01,1.493364572525024414e-01,1.493307232856750377e-01,1.493250012397766002e-01,1.493192672729492243e-01,1.493135452270507868e-01,1.493078231811523493e-01,1.493021011352539118e-01,1.492963790893554743e-01,1.492906451225280706e-01,1.492849230766296331e-01,1.492792129516601618e-01,1.492734909057617243e-01,1.492677688598632868e-01,1.492620348930358831e-01,1.492563128471374456e-01,1.492505908012390081e-01,1.492448806762695368e-01,1.492391586303710993e-01,1.492334246635436956e-01,1.492277026176452581e-01,1.492219805717468206e-01,1.492162704467773493e-01,1.492105484008789118e-01,1.492048263549804743e-01,1.491991043090820368e-01,1.491934061050415039e-01,1.491876840591430664e-01,1.491819620132446289e-01,1.491762518882751576e-01,1.491705298423767201e-01
1.432416558265686146e-01,1.432363867759704479e-01,1.432311296463012751e-01,1.432258605957031361e-01,1.432205915451049694e-01,1.432153224945068304e-01,1.432100534439086914e-01,1.432047843933105524e-01,1.431995272636413519e-01,1.431942582130432129e-01,1.431889891624450739e-01,1.431837201118469349e-01,1.431784510612487682e-01,1.431731939315795954e-01,1.431679368019103948e-01,1.431626677513122559e-01,1.431574106216430553e-01,1.431521415710449163e-01,1.431468725204467773e-01,1.431416273117065430e-01,1.431363582611084040e-01,1.431311011314392034e-01,1.431258320808410645e-01,1.431205749511718639e-01,1.431153059005737249e-01,1.431100606918334905e-01,1.431048035621643177e-01,1.430995345115661510e-01,1.430942773818969782e-01,1.430890202522277777e-01,1.430837631225586049e-01,1.430785179138183705e-01,1.430732488632202037e-01,1.430679917335510309e-01,1.430627346038818304e-01,1.430574774742126576e-01,1.430522322654724232e-01,1.430469751358032227e-01,1.430417180061340221e-01,1.430364608764648493e-01,1.430312037467956487e-01,1.430259585380554144e-01,1.430207133293151800e-01,1.430154561996460072e-01,1.430101990699768066e-01,1.430049538612365723e-01,1.429996967315673717e-01,1.429944396018981989e-01,1.429892063140869030e-01,1.429839491844177302e-01,1.429787039756774958e-01,1.429734468460082952e-01,1.429682016372680609e-01,1.429629564285278265e-01,1.429577112197875921e-01,1.429524540901184193e-01,1.429472088813781849e-01,1.429419636726379506e-01,1.429367065429687500e-01,1.429314732551574818e-01,1.429262280464172474e-01,1.429209828376770131e-01,1.429157257080078125e-01,1.429104804992675781e-01,1.429052472114563099e-01,1.429000020027160756e-01,1.428947567939758412e-01,1.428895115852356068e-01,1.428842663764953724e-01,1.428790211677551381e-01,1.428737878799438421e-01,1.428685188293457031e-01,1.428632974624633734e-01,1.428580522537231390e-01,1.428528070449829046e-01,1.428475618362426702e-01,1.428423166275024359e-01,1.428370833396911677e-01,1.428318381309509333e-01,1.428265929222106989e-01
1.373820781707763561e-01,1.373772382736206110e-01,1.373723983764648382e-01,1.373675465583801270e-01,1.373626947402954157e-01,1.373578548431396429e-01,1.373530030250549316e-01,1.373481750488281250e-01,1.373433232307434138e-01,1.373384833335876409e-01,1.373336315155029297e-01,1.373287916183471569e-01,1.373239517211914118e-01,1.373191118240356390e-01,1.373142600059509277e-01,1.373094201087951549e-01,1.373045802116394098e-01,1.372997403144836370e-01,1.372949004173278920e-01,1.372900605201721191e-01,1.372852206230163463e-01,1.372803807258606013e-01,1.372755408287048284e-01,1.372707009315490834e-01,1.372658610343933105e-01,1.372610211372375377e-01,1.372561812400817927e-01,1.372513413429260198e-01,1.372465133666992132e-01,1.372416853904724066e-01,1.372368454933166615e-01,1.372320055961608887e-01,1.372271656990051159e-01,1.372223258018493708e-01,1.372174859046935980e-01,1.372126698493957575e-01,1.372078299522399847e-01,1.372029900550842396e-01,1.371981620788574330e-01,1.371933221817016602e-01,1.371884822845458873e-01,1.371836662292480469e-01,1.371788263320922741e-01,1.371739983558654674e-01,1.371691584587097223e-01,1.371643304824829157e-01,1.371595025062561091e-01,1.371546745300293024e-01,1.371498346328735296e-01,1.371450066566467230e-01,1.371401786804199163e-01,1.371353387832641713e-01,1.371305227279663030e-01,1.371256947517394964e-01,1.371208667755126898e-01,1.371160387992858831e-01,1.371111989021301381e-01,1.371063828468322698e-01,1.371015548706054632e-01,1.370967268943786566e-01,1.370918989181518499e-01,1.370870709419250433e-01,1.370822429656982366e-01,1.370774269104003962e-01,1.370725989341735895e-01,1.370677709579467829e-01,1.370629429817199763e-01,1.370581269264221080e-01,1.370532989501953014e-01,1.370484828948974609e-01,1.370436549186706543e-01,1.370388269424438477e-01,1.370340108871460072e-01,1.370291829109192006e-01,1.370243668556213323e-01,1.370195269584655873e-01,1.370146989822387806e-01,1.370098948478698786e-01,1.370050668716430720e-01,1.370002508163452037e-01
1.319830656051635687e-01,1.319785952568054144e-01,1.319741129875183216e-01,1.319696426391601674e-01,1.319651722908020131e-01,1.319607019424438588e-01,1.319562315940857045e-01,1.319517612457275502e-01,1.319472908973693959e-01,1.319428205490112416e-01,1.319383382797241211e-01,1.319338798522949330e-01,1.319294095039367787e-01,1.319249391555786244e-01,1.319204688072204701e-01,1.319159984588623158e-01,1.319115281105041615e-01,1.319070696830749456e-01,1.319025993347167913e-01,1.318981289863586370e-01,1.318936586380004827e-01,1.318891882896423284e-01,1.318847298622131403e-01,1.318802595138549860e-01,1.318758010864257701e-01,1.318713307380676159e-01,1.318668603897094616e-01,1.318623900413513073e-01,1.318579435348510853e-01,1.318534731864929310e-01,1.318490028381347767e-01,1.318445444107055609e-01,1.318400740623474066e-01,1.318356156349182184e-01,1.318311572074890026e-01,1.318266868591308483e-01,1.318222284317016602e-01,1.318177580833435059e-01,1.318132996559143177e-01,1.318088412284851019e-01,1.318043828010559138e-01,1.317999243736266979e-01,1.317954540252685436e-01,1.317909955978393555e-01,1.317865371704101674e-01,1.317820787429809515e-01,1.317776203155517634e-01,1.317731618881225475e-01,1.317687034606933594e-01,1.317642450332641713e-01,1.317597866058349554e-01,1.317553281784057673e-01,1.317508697509765514e-01,1.317464113235473633e-01,1.317419528961181752e-01,1.317374944686889593e-01,1.317330479621887096e-01,1.317285895347595215e-01,1.317241311073303334e-01,1.317196726799011175e-01,1.317152142524719294e-01,1.317107558250427135e-01,1.317063093185424916e-01,1.317018628120422419e-01,1.316974043846130260e-01,1.316929459571838379e-01,1.316884875297546498e-01,1.316840410232544001e-01,1.316795945167541504e-01,1.316751360893249623e-01,1.316706776618957464e-01,1.316662311553954967e-01,1.316617727279663086e-01,1.316573381423950251e-01,1.316528797149658092e-01,1.316484332084655873e-01,1.316439747810363714e-01,1.316395282745361217e-01,1.316350698471069336e-01,1.316306114196777455e-01
