6.195452213287353516e-01,6.352569580078124556e-01,6.517884731292724609e-01,6.692039012908935769e-01,6.875756263732910600e-01,7.069844245910644753e-01,7.275208473205566628e-01,7.492859840393066850e-01,7.723937034606933594e-01,7.969719409942627175e-01,8.231657981872558816e-01,8.511400222778320312e-01,8.810825347900390625e-01,9.132083892822265847e-01,9.477658271789550781e-01,9.850414276123047319e-01,1.000000000000000000e+00,1.000000000000000000e+00,1.000000000000000000e+00,1.000000000000000000e+00,1.000000000000000000e+00,1.000000000000000000e+00,1.000000000000000000e+00,1.000000000000000000e+00,1.000000000000000000e+00,1.000000000000000000e+00,1.000000000000000000e+00,1.000000000000000000e+00,1.000000000000000000e+00,1.000000000000000000e+00,1.000000000000000000e+00,1.000000000000000000e+00,1.000000000000000000e+00,1.000000000000000000e+00,1.000000000000000000e+00,1.000000000000000000e+00,1.000000000000000000e+00,1.000000000000000000e+00,1.000000000000000000e+00,1.000000000000000000e+00,1.000000000000000000e+00,1.000000000000000000e+00,1.000000000000000000e+00,1.000000000000000000e+00,1.000000000000000000e+00,1.000000000000000000e+00,1.000000000000000000e+00,1.000000000000000000e+00,1.000000000000000000e+00,1.000000000000000000e+00,1.000000000000000000e+00,1.000000000000000000e+00,1.000000000000000000e+00,4.642094612121582253e-01,4.514350891113281250e-01,4.511289119720459095e-01,4.452750205993652455e-01,4.403679847717285045e-01,4.357135295867919922e-01,4.338332653045654519e-01,4.327882289886474387e-01,4.334718704223632924e-01,4.340353012084960938e-01,4.375095367431640625e-01,4.496816635131836160e-01,4.533793449401855580e-01,4.576585769653320201e-01,1.000000000000000000e+00,1.000000000000000000e+00,1.000000000000000000e+00,9.691308975219726785e-01,9.374466896057128684e-01,9.077536582946776900e-01,8.798815727233886275e-01,8.536700248718261941e-01,8.289750099182129350e-01,8.056686401367187944e-01,7.836369037628173606e-01,7.627780914306641069e-01,7.430008411407470481e-01
6.195319652557372825e-01,6.352430343627929465e-01,6.517716884613037331e-01,6.691857337951659934e-01,6.875563621520995872e-01,7.069641590118408425e-01,7.274993896484375222e-01,7.492632389068603072e-01,7.723694324493408647e-01,7.969461917877197488e-01,8.231383323669433372e-01,8.511106491088866743e-01,8.810509681701660378e-01,9.131746292114257812e-01,9.477293014526366743e-01,9.850020408630371094e-01,1.000000000000000000e+00,1.000000000000000000e+00,1.000000000000000000e+00,1.000000000000000000e+00,1.000000000000000000e+00,1.000000000000000000e+00,1.000000000000000000e+00,1.000000000000000000e+00,1.000000000000000000e+00,1.000000000000000000e+00,1.000000000000000000e+00,1.000000000000000000e+00,1.000000000000000000e+00,1.000000000000000000e+00,1.000000000000000000e+00,1.000000000000000000e+00,1.000000000000000000e+00,1.000000000000000000e+00,1.000000000000000000e+00,1.000000000000000000e+00,1.000000000000000000e+00,1.000000000000000000e+00,1.000000000000000000e+00,1.000000000000000000e+00,1.000000000000000000e+00,1.000000000000000000e+00,1.000000000000000000e+00,1.000000000000000000e+00,1.000000000000000000e+00,1.000000000000000000e+00,1.000000000000000000e+00,1.000000000000000000e+00,1.000000000000000000e+00,1.000000000000000000e+00,1.000000000000000000e+00,1.000000000000000000e+00,1.000000000000000000e+00,1.000000000000000000e+00,4.555672168731689231e-01,4.529340744018554576e-01,4.497830867767333984e-01,4.412412643432617188e-01,4.385210990905761830e-01,4.343584537506103294e-01,4.317131996154784934e-01,4.325105667114257924e-01,4.328022480010986217e-01,4.411770343780517800e-01,4.559073448181152344e-01,4.529265880584716908e-01,4.558634757995605469e-01,1.000000000000000000e+00,1.000000000000000000e+00,1.000000000000000000e+00,9.691816329956054465e-01,9.374757766723632590e-01,9.077784538269042525e-01,8.799048423767089622e-01,8.536920547485351562e-01,8.289958000183105247e-01,8.056881904602051225e-01,7.836555004119872825e-01,7.627956867218017578e-01,7.430175781250000222e-01
6.195187568664550781e-01,6.352291584014893022e-01,6.517570972442626731e-01,6.691679954528808594e-01,6.875371932983398438e-01,7.069438457489013450e-01,7.274778366088867632e-01,7.492404937744140403e-01,7.723452568054198775e-01,7.969203472137451616e-01,8.231108665466309038e-01,8.510812759399414285e-01,8.810194969177246316e-01,9.131407737731933594e-01,9.476928710937500000e-01,9.849626541137694868e-01,1.000000000000000000e+00,1.000000000000000000e+00,1.000000000000000000e+00,1.000000000000000000e+00,1.000000000000000000e+00,1.000000000000000000e+00,1.000000000000000000e+00,1.000000000000000000e+00,1.000000000000000000e+00,1.000000000000000000e+00,1.000000000000000000e+00,1.000000000000000000e+00,1.000000000000000000e+00,1.000000000000000000e+00,1.000000000000000000e+00,1.000000000000000000e+00,1.000000000000000000e+00,1.000000000000000000e+00,1.000000000000000000e+00,1.000000000000000000e+00,1.000000000000000000e+00,1.000000000000000000e+00,1.000000000000000000e+00,1.000000000000000000e+00,1.000000000000000000e+00,1.000000000000000000e+00,1.000000000000000000e+00,1.000000000000000000e+00,1.000000000000000000e+00,1.000000000000000000e+00,1.000000000000000000e+00,1.000000000000000000e+00,1.000000000000000000e+00,1.000000000000000000e+00,1.000000000000000000e+00,1.000000000000000000e+00,1.000000000000000000e+00,1.000000000000000000e+00,4.585855960845947044e-01,4.544619083404540794e-01,4.521801471710205078e-01,4.421400070190429910e-01,4.376156330108642578e-01,4.338643550872802734e-01,4.321781635284424050e-01,4.320026397705077903e-01,4.332281589508056863e-01,4.397346019744873269e-01,4.554697513580322488e-01,4.506455898284912331e-01,4.540890693664551003e-01,1.000000000000000000e+00,1.000000000000000000e+00,1.000000000000000000e+00,9.692102432250976340e-01,9.375022888183593972e-01,9.078033447265625444e-01,8.799282073974609153e-01,8.537139892578125000e-01,8.290164947509766069e-01,8.057077407836914507e-01,7.836740016937255859e-01,7.628131866455077903e-01,7.430341720581055132e-01
6.195054531097412553e-01,6.352151870727539285e-01,6.517424106597899947e-01,6.691525936126708762e-01,6.875185012817383035e-01,7.069235801696777122e-01,7.274563789367676225e-01,7.492176532745361550e-01,7.723210811614990012e-01,7.968945980072021928e-01,8.230833053588867410e-01,8.510519027709960715e-01,8.809880256652832253e-01,9.131069183349609375e-01,9.476564407348633257e-01,9.849232673645019753e-01,1.000000000000000000e+00,1.000000000000000000e+00,1.000000000000000000e+00,1.000000000000000000e+00,1.000000000000000000e+00,1.000000000000000000e+00,1.000000000000000000e+00,1.000000000000000000e+00,1.000000000000000000e+00,1.000000000000000000e+00,1.000000000000000000e+00,1.000000000000000000e+00,1.000000000000000000e+00,1.000000000000000000e+00,1.000000000000000000e+00,1.000000000000000000e+00,1.000000000000000000e+00,1.000000000000000000e+00,1.000000000000000000e+00,1.000000000000000000e+00,1.000000000000000000e+00,1.000000000000000000e+00,1.000000000000000000e+00,1.000000000000000000e+00,1.000000000000000000e+00,1.000000000000000000e+00,1.000000000000000000e+00,1.000000000000000000e+00,1.000000000000000000e+00,1.000000000000000000e+00,1.000000000000000000e+00,1.000000000000000000e+00,1.000000000000000000e+00,1.000000000000000000e+00,1.000000000000000000e+00,1.000000000000000000e+00,1.000000000000000000e+00,1.000000000000000000e+00,4.600121974945068359e-01,4.557823181152343972e-01,4.545746326446533092e-01,4.438999652862548606e-01,4.372043609619140625e-01,4.339494228363037220e-01,4.322668552398681863e-01,4.322121143341064453e-01,4.336401939392089955e-01,4.388436317443847878e-01,4.562480449676513672e-01,4.514829158782959206e-01,4.530899524688720703e-01,1.000000000000000000e+00,1.000000000000000000e+00,1.000000000000000000e+00,9.692384719848632368e-01,9.375287055969238059e-01,9.078281402587891069e-01,8.799514770507812500e-01,8.537359237670898438e-01,8.290371894836425781e-01,8.057272911071777788e-01,7.836924552917480247e-01,7.628307342529296875e-01,7.430508136749267578e-01
6.194922447204589400e-01,6.352013111114501731e-01,6.517277240753174272e-01,6.691370964050292747e-01,6.875021457672119141e-01,7.069036960601806641e-01,7.274349689483642356e-01,7.491949081420898882e-01,7.722968101501465066e-01,7.968688964843749778e-01,8.230558395385741965e-01,8.510224342346190962e-01,8.809564590454102007e-01,9.130730628967285156e-01,9.476200103759765403e-01,9.848839759826659712e-01,1.000000000000000000e+00,1.000000000000000000e+00,1.000000000000000000e+00,1.000000000000000000e+00,1.000000000000000000e+00,1.000000000000000000e+00,1.000000000000000000e+00,1.000000000000000000e+00,1.000000000000000000e+00,1.000000000000000000e+00,1.000000000000000000e+00,1.000000000000000000e+00,1.000000000000000000e+00,1.000000000000000000e+00,1.000000000000000000e+00,1.000000000000000000e+00,1.000000000000000000e+00,1.000000000000000000e+00,1.000000000000000000e+00,1.000000000000000000e+00,1.000000000000000000e+00,1.000000000000000000e+00,1.000000000000000000e+00,1.000000000000000000e+00,1.000000000000000000e+00,1.000000000000000000e+00,1.000000000000000000e+00,1.000000000000000000e+00,1.000000000000000000e+00,1.000000000000000000e+00,1.000000000000000000e+00,1.000000000000000000e+00,1.000000000000000000e+00,1.000000000000000000e+00,1.000000000000000000e+00,1.000000000000000000e+00,1.000000000000000000e+00,1.000000000000000000e+00,4.614630699157714622e-01,4.562145709991455300e-01,4.549626827239990345e-01,4.450289726257324330e-01,4.363448619842529297e-01,4.327973365783691628e-01,4.316455364227295144e-01,4.334725856781005970e-01,4.334139347076416127e-01,4.389567852020263561e-01,4.593234062194824219e-01,4.535055160522460938e-01,4.530306339263915905e-01,1.000000000000000000e+00,1.000000000000000000e+00,1.000000000000000000e+00,9.692667961120605691e-01,9.375552177429199441e-01,9.078529357910156694e-01,8.799748420715332031e-01,8.537578582763671875e-01,8.290578842163085493e-01,8.057469367980957253e-01,7.837109565734863281e-01,7.628477096557617632e-01,7.430662631988524947e-01
6.194789886474609819e-01,6.351873397827147993e-01,6.517130851745605025e-01,6.691216945648192915e-01,6.874858856201171431e-01,7.068864345550537331e-01,7.274137973785400613e-01,7.491721630096435103e-01,7.722726345062256303e-01,7.968430519104003906e-01,8.230283737182617632e-01,8.509930610656738503e-01,8.809249877929687944e-01,9.130393028259277122e-01,9.475834846496582475e-01,9.848445892333984597e-01,1.000000000000000000e+00,1.000000000000000000e+00,1.000000000000000000e+00,1.000000000000000000e+00,1.000000000000000000e+00,1.000000000000000000e+00,1.000000000000000000e+00,1.000000000000000000e+00,1.000000000000000000e+00,1.000000000000000000e+00,1.000000000000000000e+00,1.000000000000000000e+00,1.000000000000000000e+00,1.000000000000000000e+00,1.000000000000000000e+00,1.000000000000000000e+00,1.000000000000000000e+00,1.000000000000000000e+00,1.000000000000000000e+00,1.000000000000000000e+00,1.000000000000000000e+00,1.000000000000000000e+00,1.000000000000000000e+00,1.000000000000000000e+00,1.000000000000000000e+00,1.000000000000000000e+00,1.000000000000000000e+00,1.000000000000000000e+00,1.000000000000000000e+00,1.000000000000000000e+00,1.000000000000000000e+00,1.000000000000000000e+00,1.000000000000000000e+00,1.000000000000000000e+00,1.000000000000000000e+00,1.000000000000000000e+00,1.000000000000000000e+00,1.000000000000000000e+00,4.633170127868652122e-01,4.578197479248046764e-01,4.553181648254394642e-01,4.420641422271728294e-01,4.350639820098877175e-01,4.313357830047607200e-01,4.303386211395263672e-01,4.316912651062011497e-01,4.317882061004638672e-01,4.346612453460693137e-01,4.632009029388427512e-01,4.555053234100341908e-01,4.542465209960937500e-01,1.000000000000000000e+00,1.000000000000000000e+00,1.000000000000000000e+00,9.692951202392577903e-01,9.375817298889159712e-01,9.078778266906738503e-01,8.799982070922851562e-01,8.537798881530761497e-01,8.290782928466796653e-01,8.057654380798340288e-01,7.837277889251709206e-01,7.628634929656982200e-01,7.430812358856201394e-01
6.194657802581786665e-01,6.351734638214111550e-01,6.516983985900879350e-01,6.691062450408935547e-01,6.874695301055908647e-01,7.068692207336425559e-01,7.273955821990967241e-01,7.491496562957763450e-01,7.722484588623046431e-01,7.968173027038574219e-01,8.230008125305176003e-01,8.509636878967284934e-01,8.808935165405273882e-01,9.130054473876952903e-01,9.475471496582030806e-01,9.848052024841308372e-01,1.000000000000000000e+00,1.000000000000000000e+00,1.000000000000000000e+00,1.000000000000000000e+00,1.000000000000000000e+00,1.000000000000000000e+00,1.000000000000000000e+00,1.000000000000000000e+00,1.000000000000000000e+00,1.000000000000000000e+00,1.000000000000000000e+00,1.000000000000000000e+00,1.000000000000000000e+00,1.000000000000000000e+00,1.000000000000000000e+00,1.000000000000000000e+00,1.000000000000000000e+00,1.000000000000000000e+00,1.000000000000000000e+00,1.000000000000000000e+00,1.000000000000000000e+00,1.000000000000000000e+00,1.000000000000000000e+00,1.000000000000000000e+00,1.000000000000000000e+00,1.000000000000000000e+00,1.000000000000000000e+00,1.000000000000000000e+00,1.000000000000000000e+00,1.000000000000000000e+00,1.000000000000000000e+00,1.000000000000000000e+00,1.000000000000000000e+00,1.000000000000000000e+00,1.000000000000000000e+00,1.000000000000000000e+00,1.000000000000000000e+00,1.000000000000000000e+00,4.654102325439453125e-01,4.597333908081054910e-01,4.514143943786620983e-01,4.420305252075195090e-01,4.345305919647216575e-01,4.347608089447021484e-01,4.325653076171874778e-01,4.313812732696533092e-01,4.337392807006835715e-01,4.396973609924316184e-01,4.641823291778564564e-01,4.543761253356933816e-01,4.495947360992431641e-01,4.499507904052734153e-01,1.000000000000000000e+00,1.000000000000000000e+00,9.693234443664551225e-01,9.376081466674804910e-01,9.079026222229004128e-01,8.800206184387207031e-01,8.538001060485840288e-01,8.290968894958495872e-01,8.057828903198241965e-01,7.837443828582764116e-01,7.628791809082031694e-01,7.430961132049560547e-01
6.194525241851807085e-01,6.351594924926757812e-01,6.516838073730468750e-01,6.690907955169678178e-01,6.874532222747802290e-01,7.068519592285156250e-01,7.273773193359375222e-01,7.491303443908691184e-01,7.722245693206787331e-01,7.967916011810303178e-01,8.229734420776366743e-01,8.509343147277832475e-01,8.808620452880859819e-01,9.129715919494628684e-01,9.475107192993164062e-01,9.847659111022949441e-01,1.000000000000000000e+00,1.000000000000000000e+00,1.000000000000000000e+00,1.000000000000000000e+00,1.000000000000000000e+00,1.000000000000000000e+00,1.000000000000000000e+00,1.000000000000000000e+00,1.000000000000000000e+00,1.000000000000000000e+00,1.000000000000000000e+00,1.000000000000000000e+00,1.000000000000000000e+00,1.000000000000000000e+00,1.000000000000000000e+00,1.000000000000000000e+00,1.000000000000000000e+00,1.000000000000000000e+00,1.000000000000000000e+00,1.000000000000000000e+00,1.000000000000000000e+00,1.000000000000000000e+00,1.000000000000000000e+00,1.000000000000000000e+00,1.000000000000000000e+00,1.000000000000000000e+00,1.000000000000000000e+00,1.000000000000000000e+00,1.000000000000000000e+00,1.000000000000000000e+00,1.000000000000000000e+00,1.000000000000000000e+00,1.000000000000000000e+00,1.000000000000000000e+00,1.000000000000000000e+00,1.000000000000000000e+00,1.000000000000000000e+00,1.000000000000000000e+00,4.670527458190917858e-01,4.607989311218261830e-01,4.516394138336181641e-01,4.424870967864990012e-01,4.378738403320312500e-01,4.339018821716308372e-01,4.331360340118408092e-01,4.314249038696288951e-01,4.337346076965332142e-01,4.370330333709716575e-01,1.000000000000000000e+00,4.526646137237548828e-01,4.470924854278564564e-01,4.450063705444335938e-01,1.000000000000000000e+00,1.000000000000000000e+00,9.693511009216309038e-01,9.376330375671386719e-01,9.079249382019043413e-01,8.800415992736816406e-01,8.538198471069335938e-01,8.291154861450195090e-01,8.058005332946777122e-01,7.837609291076660378e-01,7.628948688507080078e-01,7.431110382080078347e-01
6.194393157958983931e-01,6.351456165313720259e-01,6.516691207885741965e-01,6.690753459930419700e-01,6.874369144439697044e-01,7.068347454071044478e-01,7.273590087890624556e-01,7.491109371185302734e-01,7.722039699554443803e-01,7.967660427093505859e-01,8.229458808898926225e-01,8.509049415588378906e-01,8.808304786682128462e-01,9.129377365112304465e-01,9.474741935729980025e-01,9.847265243530273215e-01,1.000000000000000000e+00,1.000000000000000000e+00,1.000000000000000000e+00,1.000000000000000000e+00,1.000000000000000000e+00,1.000000000000000000e+00,1.000000000000000000e+00,1.000000000000000000e+00,1.000000000000000000e+00,1.000000000000000000e+00,1.000000000000000000e+00,1.000000000000000000e+00,1.000000000000000000e+00,1.000000000000000000e+00,1.000000000000000000e+00,1.000000000000000000e+00,1.000000000000000000e+00,1.000000000000000000e+00,1.000000000000000000e+00,1.000000000000000000e+00,1.000000000000000000e+00,1.000000000000000000e+00,1.000000000000000000e+00,1.000000000000000000e+00,1.000000000000000000e+00,1.000000000000000000e+00,1.000000000000000000e+00,1.000000000000000000e+00,1.000000000000000000e+00,1.000000000000000000e+00,1.000000000000000000e+00,1.000000000000000000e+00,1.000000000000000000e+00,1.000000000000000000e+00,1.000000000000000000e+00,1.000000000000000000e+00,1.000000000000000000e+00,1.000000000000000000e+00,4.645490646362304688e-01,4.572235584259033425e-01,4.536274433135986106e-01,4.411657333374023326e-01,4.371225357055664174e-01,4.352338314056396484e-01,4.351694107055664174e-01,4.332455635070801003e-01,4.357100963592529519e-01,4.372121334075927956e-01,4.452909469604492410e-01,4.568710327148437500e-01,4.464971542358398549e-01,4.402466773986816184e-01,1.000000000000000000e+00,1.000000000000000000e+00,9.693765640258789062e-01,9.376567840576172097e-01,9.079471588134765403e-01,8.800624847412109597e-01,8.538394927978515403e-01,8.291339874267578125e-01,8.058179855346679910e-01,7.837774753570556641e-01,7.629106044769287109e-01,7.431259155273437500e-01
6.194260597229004350e-01,6.351316928863525169e-01,6.516544818878173828e-01,6.690599441528319868e-01,6.874206066131591797e-01,7.068174839019775169e-01,7.273407936096191184e-01,7.490916252136230469e-01,7.721834182739257812e-01,7.967441082000732422e-01,8.229186058044433150e-01,8.508755683898925337e-01,8.807990074157714400e-01,9.129039764404296431e-01,9.474378585815429465e-01,9.846871376037598100e-01,1.000000000000000000e+00,1.000000000000000000e+00,1.000000000000000000e+00,1.000000000000000000e+00,1.000000000000000000e+00,1.000000000000000000e+00,1.000000000000000000e+00,1.000000000000000000e+00,1.000000000000000000e+00,1.000000000000000000e+00,1.000000000000000000e+00,1.000000000000000000e+00,1.000000000000000000e+00,1.000000000000000000e+00,1.000000000000000000e+00,1.000000000000000000e+00,1.000000000000000000e+00,1.000000000000000000e+00,1.000000000000000000e+00,1.000000000000000000e+00,1.000000000000000000e+00,1.000000000000000000e+00,1.000000000000000000e+00,1.000000000000000000e+00,1.000000000000000000e+00,1.000000000000000000e+00,1.000000000000000000e+00,1.000000000000000000e+00,1.000000000000000000e+00,1.000000000000000000e+00,1.000000000000000000e+00,1.000000000000000000e+00,1.000000000000000000e+00,1.000000000000000000e+00,1.000000000000000000e+00,1.000000000000000000e+00,1.000000000000000000e+00,1.000000000000000000e+00,1.000000000000000000e+00,4.550947666168213002e-01,4.521348953247070201e-01,4.310830593109130637e-01,4.263250350952148549e-01,4.216777324676513894e-01,4.296579837799072155e-01,4.372323989868164285e-01,4.402955055236816295e-01,4.374741077423095481e-01,4.436458110809325950e-01,1.000000000000000000e+00,4.482953071594238392e-01,4.394664287567138783e-01,4.355664253234863281e-01,1.000000000000000000e+00,9.694018363952636719e-01,9.376805305480957475e-01,9.079694747924804688e-01,8.800833702087402788e-01,8.538592338562012163e-01,8.291525840759277344e-01,8.058355331420898882e-01,7.837941646575927734e-01,7.629263877868652788e-01,7.431408882141112837e-01
6.194128513336181197e-01,6.351178169250488725e-01,6.516397953033447044e-01,6.690444469451903853e-01,6.874043464660644087e-01,7.068002700805664507e-01,7.273225307464599165e-01,7.490722179412842019e-01,7.721628189086914285e-01,7.967222690582275169e-01,8.228952407836913618e-01,8.508460998535156694e-01,8.807675361633300337e-01,9.128701210021972212e-01,9.474014282226562722e-01,9.846478462219238059e-01,1.000000000000000000e+00,1.000000000000000000e+00,1.000000000000000000e+00,1.000000000000000000e+00,1.000000000000000000e+00,1.000000000000000000e+00,1.000000000000000000e+00,1.000000000000000000e+00,1.000000000000000000e+00,1.000000000000000000e+00,1.000000000000000000e+00,1.000000000000000000e+00,1.000000000000000000e+00,1.000000000000000000e+00,1.000000000000000000e+00,1.000000000000000000e+00,1.000000000000000000e+00,1.000000000000000000e+00,1.000000000000000000e+00,1.000000000000000000e+00,1.000000000000000000e+00,1.000000000000000000e+00,1.000000000000000000e+00,1.000000000000000000e+00,1.000000000000000000e+00,1.000000000000000000e+00,1.000000000000000000e+00,1.000000000000000000e+00,1.000000000000000000e+00,1.000000000000000000e+00,1.000000000000000000e+00,1.000000000000000000e+00,1.000000000000000000e+00,1.000000000000000000e+00,1.000000000000000000e+00,1.000000000000000000e+00,1.000000000000000000e+00,1.000000000000000000e+00,1.000000000000000000e+00,4.526982784271240123e-01,4.507708072662353627e-01,4.268777370452880859e-01,4.222181797027587669e-01,4.177840232849120983e-01,4.176354408264160156e-01,4.430292606353759544e-01,4.387342453002929799e-01,4.360370635986328125e-01,4.408989906311034934e-01,1.000000000000000000e+00,1.000000000000000000e+00,4.428298950195312389e-01,4.341720581054687722e-01,1.000000000000000000e+00,9.694272994995116743e-01,9.377042770385741743e-01,9.079916954040527788e-01,8.801042556762694868e-01,8.538788795471191628e-01,8.291711807250976562e-01,8.058530807495116743e-01,7.838107109069823997e-01,7.629420757293701172e-01,7.431558132171630637e-01
6.193995475769042969e-01,6.351038455963134988e-01,6.516252040863037553e-01,6.690290451049805132e-01,6.873879909515381303e-01,7.067830085754394087e-01,7.273043155670165794e-01,7.490529060363769753e-01,7.721422195434570757e-01,7.967002868652344194e-01,8.228718757629394087e-01,8.508213043212891069e-01,8.807360649108886275e-01,9.128363609313965288e-01,9.473649024963378684e-01,9.846084594726562944e-01,1.000000000000000000e+00,1.000000000000000000e+00,1.000000000000000000e+00,1.000000000000000000e+00,1.000000000000000000e+00,1.000000000000000000e+00,1.000000000000000000e+00,1.000000000000000000e+00,1.000000000000000000e+00,1.000000000000000000e+00,1.000000000000000000e+00,1.000000000000000000e+00,1.000000000000000000e+00,1.000000000000000000e+00,1.000000000000000000e+00,1.000000000000000000e+00,1.000000000000000000e+00,1.000000000000000000e+00,1.000000000000000000e+00,1.000000000000000000e+00,1.000000000000000000e+00,1.000000000000000000e+00,1.000000000000000000e+00,1.000000000000000000e+00,1.000000000000000000e+00,1.000000000000000000e+00,1.000000000000000000e+00,1.000000000000000000e+00,1.000000000000000000e+00,1.000000000000000000e+00,1.000000000000000000e+00,1.000000000000000000e+00,1.000000000000000000e+00,1.000000000000000000e+00,1.000000000000000000e+00,1.000000000000000000e+00,1.000000000000000000e+00,1.000000000000000000e+00,1.000000000000000000e+00,4.498947143554687389e-01,4.518882751464843861e-01,4.261200904846191295e-01,4.189828395843505637e-01,4.146037101745605469e-01,4.128720283508300892e-01,4.181620597839355580e-01,4.368947505950927512e-01,4.342000961303710826e-01,4.391394138336181530e-01,1.000000000000000000e+00,1.000000000000000000e+00,4.357502460479736328e-01,4.273131847381591575e-01,4.264457702636718639e-01,9.694526672363281694e-01,9.377280235290527122e-01,9.080140113830565962e-01,8.801252365112304243e-01,8.538986206054687278e-01,8.291897773742675781e-01,8.058706283569335715e-01,7.838273048400878906e-01,7.629577636718749556e-01,7.431706905364989790e-01
6.193863391876220925e-01,6.350899219512939897e-01,6.516105175018310769e-01,6.690135955810546653e-01,6.873717308044433594e-01,7.067657947540283425e-01,7.272860527038573775e-01,7.490334987640381303e-01,7.721216678619384766e-01,7.966784477233886941e-01,8.228485107421874556e-01,8.507963180541991965e-01,8.807093620300292525e-01,9.128025054931641069e-01,9.473285675048828125e-01,9.845690727233886719e-01,1.000000000000000000e+00,1.000000000000000000e+00,1.000000000000000000e+00,1.000000000000000000e+00,1.000000000000000000e+00,1.000000000000000000e+00,1.000000000000000000e+00,1.000000000000000000e+00,1.000000000000000000e+00,1.000000000000000000e+00,1.000000000000000000e+00,1.000000000000000000e+00,1.000000000000000000e+00,1.000000000000000000e+00,1.000000000000000000e+00,1.000000000000000000e+00,1.000000000000000000e+00,1.000000000000000000e+00,1.000000000000000000e+00,1.000000000000000000e+00,1.000000000000000000e+00,1.000000000000000000e+00,1.000000000000000000e+00,1.000000000000000000e+00,1.000000000000000000e+00,1.000000000000000000e+00,1.000000000000000000e+00,1.000000000000000000e+00,1.000000000000000000e+00,1.000000000000000000e+00,1.000000000000000000e+00,1.000000000000000000e+00,1.000000000000000000e+00,1.000000000000000000e+00,1.000000000000000000e+00,1.000000000000000000e+00,1.000000000000000000e+00,1.000000000000000000e+00,1.000000000000000000e+00,4.507103919982909934e-01,1.000000000000000000e+00,4.274350166320800559e-01,4.161910533905029408e-01,4.115997791290283425e-01,4.082159996032714844e-01,4.128417968750000000e-01,4.365073680877685769e-01,4.338868141174316295e-01,4.394841670989990123e-01,1.000000000000000000e+00,1.000000000000000000e+00,1.000000000000000000e+00,4.241216659545898326e-01,4.233710765838623047e-01,9.694780349731445535e-01,9.377517700195312500e-01,9.080362319946289062e-01,8.801461219787597434e-01,8.539182662963866743e-01,8.292082786560058816e-01,8.058881759643554688e-01,7.838438510894775169e-01,7.629734992980956587e-01,7.431855678558350053e-01
6.193730831146240234e-01,6.350760459899902344e-01,6.515958786010742632e-01,6.689981460571289285e-01,6.873553752899169700e-01,7.067485332489014116e-01,7.272678375244140403e-01,7.490141868591309038e-01,7.721010684967041238e-01,7.966565132141113503e-01,8.228251457214355025e-01,8.507713317871093972e-01,8.806825637817382590e-01,9.127737045288085715e-01,9.472921371459961382e-01,9.845297813415527788e-01,1.000000000000000000e+00,1.000000000000000000e+00,1.000000000000000000e+00,1.000000000000000000e+00,1.000000000000000000e+00,1.000000000000000000e+00,1.000000000000000000e+00,1.000000000000000000e+00,1.000000000000000000e+00,1.000000000000000000e+00,1.000000000000000000e+00,1.000000000000000000e+00,1.000000000000000000e+00,1.000000000000000000e+00,1.000000000000000000e+00,1.000000000000000000e+00,1.000000000000000000e+00,1.000000000000000000e+00,1.000000000000000000e+00,1.000000000000000000e+00,1.000000000000000000e+00,1.000000000000000000e+00,1.000000000000000000e+00,1.000000000000000000e+00,1.000000000000000000e+00,1.000000000000000000e+00,1.000000000000000000e+00,1.000000000000000000e+00,1.000000000000000000e+00,1.000000000000000000e+00,1.000000000000000000e+00,1.000000000000000000e+00,1.000000000000000000e+00,1.000000000000000000e+00,1.000000000000000000e+00,1.000000000000000000e+00,1.000000000000000000e+00,1.000000000000000000e+00,1.000000000000000000e+00,4.467339515686035156e-01,4.436593532562255748e-01,4.292943477630615234e-01,4.134397983551025280e-01,4.085185050964355580e-01,4.038338184356689564e-01,4.076926708221435547e-01,4.369849681854248158e-01,4.344520092010498158e-01,4.406894207000732200e-01,1.000000000000000000e+00,1.000000000000000000e+00,1.000000000000000000e+00,1.000000000000000000e+00,1.000000000000000000e+00,4.174890518188476562e-01,9.377755165100097878e-01,9.080585479736328347e-01,8.801671028137206809e-01,8.539380073547363503e-01,8.292268753051758035e-01,8.059057235717773660e-01,7.838605403900146262e-01,7.629892826080322266e-01,7.432005405426025391e-01
6.193704128265380415e-01,6.350670814514159934e-01,6.515812397003173384e-01,6.689826965332030806e-01,6.873391151428223100e-01,7.067313671112060991e-01,7.272495269775390847e-01,7.489947795867919478e-01,7.720805644989013894e-01,7.966346740722656250e-01,8.228017807006835493e-01,8.507463455200194868e-01,8.806558609008788840e-01,9.127449035644531472e-01,9.472610473632812056e-01,9.844903945922851562e-01,1.000000000000000000e+00,1.000000000000000000e+00,1.000000000000000000e+00,1.000000000000000000e+00,1.000000000000000000e+00,1.000000000000000000e+00,1.000000000000000000e+00,1.000000000000000000e+00,1.000000000000000000e+00,1.000000000000000000e+00,1.000000000000000000e+00,1.000000000000000000e+00,1.000000000000000000e+00,1.000000000000000000e+00,1.000000000000000000e+00,1.000000000000000000e+00,1.000000000000000000e+00,1.000000000000000000e+00,1.000000000000000000e+00,1.000000000000000000e+00,1.000000000000000000e+00,1.000000000000000000e+00,1.000000000000000000e+00,1.000000000000000000e+00,1.000000000000000000e+00,1.000000000000000000e+00,1.000000000000000000e+00,1.000000000000000000e+00,1.000000000000000000e+00,1.000000000000000000e+00,1.000000000000000000e+00,1.000000000000000000e+00,1.000000000000000000e+00,1.000000000000000000e+00,1.000000000000000000e+00,1.000000000000000000e+00,1.000000000000000000e+00,1.000000000000000000e+00,1.000000000000000000e+00,4.440989971160888561e-01,1.000000000000000000e+00,4.347997665405273215e-01,4.152056217193603738e-01,4.049183368682861550e-01,4.002823829650878906e-01,4.027812957763671764e-01,4.375801086425781250e-01,4.351167678833007812e-01,4.424885272979736106e-01,1.000000000000000000e+00,1.000000000000000000e+00,1.000000000000000000e+00,1.000000000000000000e+00,1.000000000000000000e+00,9.695288658142089400e-01,9.377993583679199441e-01,9.080807685852050337e-01,8.801879882812500000e-01,8.539576530456542969e-01,8.292453765869141069e-01,8.059232711791992632e-01,7.838770866394042525e-01,7.630049705505370650e-01,7.432154655456543191e-01
6.193704605102539062e-01,6.350671291351318581e-01,6.515801429748535600e-01,6.689747810363769753e-01,6.873235702514648438e-01,7.067140579223633035e-01,7.272313117980957475e-01,7.489754676818847212e-01,7.720599651336670366e-01,7.966127395629882812e-01,8.227784156799315962e-01,8.507213592529296875e-01,8.806290626525878906e-01,9.127161979675293413e-01,9.472300529479980025e-01,9.844567298889159712e-01,1.000000000000000000e+00,1.000000000000000000e+00,1.000000000000000000e+00,1.000000000000000000e+00,1.000000000000000000e+00,1.000000000000000000e+00,1.000000000000000000e+00,1.000000000000000000e+00,1.000000000000000000e+00,1.000000000000000000e+00,1.000000000000000000e+00,1.000000000000000000e+00,1.000000000000000000e+00,1.000000000000000000e+00,1.000000000000000000e+00,1.000000000000000000e+00,1.000000000000000000e+00,1.000000000000000000e+00,1.000000000000000000e+00,1.000000000000000000e+00,1.000000000000000000e+00,1.000000000000000000e+00,1.000000000000000000e+00,1.000000000000000000e+00,1.000000000000000000e+00,1.000000000000000000e+00,1.000000000000000000e+00,1.000000000000000000e+00,1.000000000000000000e+00,1.000000000000000000e+00,1.000000000000000000e+00,1.000000000000000000e+00,1.000000000000000000e+00,1.000000000000000000e+00,1.000000000000000000e+00,1.000000000000000000e+00,1.000000000000000000e+00,1.000000000000000000e+00,1.000000000000000000e+00,4.437012672424316406e-01,1.000000000000000000e+00,1.000000000000000000e+00,4.169403076171874778e-01,4.029002189636230469e-01,3.967929124832153542e-01,3.973762750625610130e-01,4.378801345825195090e-01,4.357836246490478516e-01,4.445416927337646484e-01,1.000000000000000000e+00,1.000000000000000000e+00,1.000000000000000000e+00,1.000000000000000000e+00,1.000000000000000000e+00,9.695542335510254350e-01,9.378231048583984819e-01,9.081030845642089622e-01,8.802089691162109375e-01,8.539773941040038618e-01,8.292639732360840288e-01,8.059408187866210493e-01,7.838936805725097434e-01,7.630206584930420144e-01,7.432303428649902344e-01
6.193672180175781028e-01,6.350672721862793413e-01,6.515801906585693137e-01,6.689748287200927290e-01,6.873236656188964622e-01,7.067073822021484597e-01,7.272162914276123491e-01,7.489561080932617410e-01,7.720394134521484375e-01,7.965909004211425559e-01,8.227550506591796431e-01,8.506964683532715066e-01,8.806022644042968972e-01,9.126874923706054243e-01,9.471991539001465288e-01,9.844232559204101340e-01,1.000000000000000000e+00,1.000000000000000000e+00,1.000000000000000000e+00,1.000000000000000000e+00,1.000000000000000000e+00,1.000000000000000000e+00,1.000000000000000000e+00,1.000000000000000000e+00,1.000000000000000000e+00,1.000000000000000000e+00,1.000000000000000000e+00,1.000000000000000000e+00,1.000000000000000000e+00,1.000000000000000000e+00,1.000000000000000000e+00,1.000000000000000000e+00,1.000000000000000000e+00,1.000000000000000000e+00,1.000000000000000000e+00,1.000000000000000000e+00,1.000000000000000000e+00,1.000000000000000000e+00,1.000000000000000000e+00,1.000000000000000000e+00,1.000000000000000000e+00,1.000000000000000000e+00,1.000000000000000000e+00,1.000000000000000000e+00,1.000000000000000000e+00,1.000000000000000000e+00,1.000000000000000000e+00,1.000000000000000000e+00,1.000000000000000000e+00,1.000000000000000000e+00,1.000000000000000000e+00,1.000000000000000000e+00,1.000000000000000000e+00,1.000000000000000000e+00,1.000000000000000000e+00,4.410913944244384544e-01,1.000000000000000000e+00,1.000000000000000000e+00,4.212753295898437611e-01,4.033061981201171986e-01,3.949016332626342773e-01,3.934047937393188588e-01,3.975011587142944225e-01,4.363577365875244141e-01,1.000000000000000000e+00,1.000000000000000000e+00,1.000000000000000000e+00,1.000000000000000000e+00,1.000000000000000000e+00,1.000000000000000000e+00,9.695796012878418191e-01,9.378468513488769087e-01,9.081254005432128906e-01,8.802298545837402566e-01,8.539970397949219194e-01,8.292825698852539507e-01,8.059583663940429465e-01,7.839102745056152344e-01,7.630363941192627175e-01,7.432452678680420144e-01
6.193540096282958984e-01,6.350559711456298384e-01,6.515748500823974609e-01,6.689748764038085938e-01,6.873237133026123269e-01,7.067075252532959428e-01,7.272163391113281028e-01,7.489511013031006081e-01,7.720250606536864790e-01,7.965689659118652122e-01,8.227316856384276900e-01,8.506714820861815962e-01,8.805755615234375222e-01,9.126586914062500000e-01,9.471681594848633257e-01,9.843898773193359153e-01,1.000000000000000000e+00,1.000000000000000000e+00,1.000000000000000000e+00,1.000000000000000000e+00,1.000000000000000000e+00,1.000000000000000000e+00,1.000000000000000000e+00,1.000000000000000000e+00,1.000000000000000000e+00,1.000000000000000000e+00,1.000000000000000000e+00,1.000000000000000000e+00,1.000000000000000000e+00,1.000000000000000000e+00,1.000000000000000000e+00,1.000000000000000000e+00,1.000000000000000000e+00,1.000000000000000000e+00,1.000000000000000000e+00,1.000000000000000000e+00,1.000000000000000000e+00,1.000000000000000000e+00,1.000000000000000000e+00,1.000000000000000000e+00,1.000000000000000000e+00,1.000000000000000000e+00,1.000000000000000000e+00,1.000000000000000000e+00,1.000000000000000000e+00,1.000000000000000000e+00,1.000000000000000000e+00,1.000000000000000000e+00,1.000000000000000000e+00,1.000000000000000000e+00,1.000000000000000000e+00,1.000000000000000000e+00,1.000000000000000000e+00,1.000000000000000000e+00,1.000000000000000000e+00,1.000000000000000000e+00,1.000000000000000000e+00,1.000000000000000000e+00,1.000000000000000000e+00,4.057136535644531028e-01,3.943554162979125977e-01,3.919973134994506614e-01,3.937360286712646706e-01,4.368896484375000000e-01,1.000000000000000000e+00,1.000000000000000000e+00,1.000000000000000000e+00,1.000000000000000000e+00,1.000000000000000000e+00,1.000000000000000000e+00,9.696049690246582031e-01,9.378705978393554465e-01,9.081476211547852007e-01,8.802508354187011941e-01,8.540167808532714844e-01,8.293011665344238725e-01,8.059759140014648438e-01,7.839269161224364790e-01,7.630521774291991743e-01,7.432602405548095481e-01
6.193407535552978294e-01,6.350420475006103294e-01,6.515601634979247825e-01,6.689604759216308816e-01,6.873157501220703569e-01,7.067066192626952903e-01,7.272164344787597212e-01,7.489511489868163618e-01,7.720251083374023438e-01,7.965661048889159934e-01,8.227184295654297319e-01,8.506464958190917969e-01,8.805487632751465288e-01,9.126299858093261941e-01,9.471372604370117410e-01,9.843564033508300781e-01,1.000000000000000000e+00,1.000000000000000000e+00,1.000000000000000000e+00,1.000000000000000000e+00,1.000000000000000000e+00,1.000000000000000000e+00,1.000000000000000000e+00,1.000000000000000000e+00,1.000000000000000000e+00,1.000000000000000000e+00,1.000000000000000000e+00,1.000000000000000000e+00,1.000000000000000000e+00,1.000000000000000000e+00,1.000000000000000000e+00,1.000000000000000000e+00,1.000000000000000000e+00,1.000000000000000000e+00,1.000000000000000000e+00,1.000000000000000000e+00,1.000000000000000000e+00,1.000000000000000000e+00,1.000000000000000000e+00,1.000000000000000000e+00,1.000000000000000000e+00,1.000000000000000000e+00,1.000000000000000000e+00,1.000000000000000000e+00,1.000000000000000000e+00,1.000000000000000000e+00,1.000000000000000000e+00,1.000000000000000000e+00,1.000000000000000000e+00,1.000000000000000000e+00,1.000000000000000000e+00,1.000000000000000000e+00,1.000000000000000000e+00,1.000000000000000000e+00,1.000000000000000000e+00,1.000000000000000000e+00,1.000000000000000000e+00,1.000000000000000000e+00,1.000000000000000000e+00,4.052260398864745983e-01,3.957162857055663840e-01,3.935577154159545787e-01,3.960645437240600808e-01,4.374228954315185769e-01,1.000000000000000000e+00,1.000000000000000000e+00,1.000000000000000000e+00,1.000000000000000000e+00,1.000000000000000000e+00,1.000000000000000000e+00,9.696304321289062056e-01,9.378943443298339844e-01,9.081699371337890181e-01,8.802717208862305132e-01,8.540364265441894309e-01,8.293197631835937944e-01,8.059934616088867410e-01,7.839435100555419700e-01,7.630678653717041238e-01,7.432751178741454634e-01
6.193275451660156250e-01,6.350281238555908203e-01,6.515455245971679688e-01,6.689450740814208984e-01,6.872994422912597212e-01,7.066893577575683594e-01,7.272052288055419478e-01,7.489478111267089400e-01,7.720252990722655806e-01,7.965662002563476118e-01,8.227185249328613503e-01,8.506464004516601785e-01,8.805369377136230691e-01,9.126047134399414285e-01,9.471062660217285378e-01,9.843230247497558594e-01,1.000000000000000000e+00,1.000000000000000000e+00,1.000000000000000000e+00,1.000000000000000000e+00,1.000000000000000000e+00,1.000000000000000000e+00,1.000000000000000000e+00,1.000000000000000000e+00,1.000000000000000000e+00,1.000000000000000000e+00,1.000000000000000000e+00,1.000000000000000000e+00,1.000000000000000000e+00,1.000000000000000000e+00,1.000000000000000000e+00,1.000000000000000000e+00,1.000000000000000000e+00,1.000000000000000000e+00,1.000000000000000000e+00,1.000000000000000000e+00,1.000000000000000000e+00,1.000000000000000000e+00,1.000000000000000000e+00,1.000000000000000000e+00,1.000000000000000000e+00,1.000000000000000000e+00,1.000000000000000000e+00,1.000000000000000000e+00,1.000000000000000000e+00,1.000000000000000000e+00,1.000000000000000000e+00,1.000000000000000000e+00,1.000000000000000000e+00,1.000000000000000000e+00,1.000000000000000000e+00,1.000000000000000000e+00,1.000000000000000000e+00,1.000000000000000000e+00,1.000000000000000000e+00,1.000000000000000000e+00,1.000000000000000000e+00,1.000000000000000000e+00,1.000000000000000000e+00,4.049978256225585938e-01,3.987486839294433483e-01,3.966641187667846458e-01,4.391106128692626731e-01,4.380655288696289062e-01,1.000000000000000000e+00,1.000000000000000000e+00,1.000000000000000000e+00,1.000000000000000000e+00,1.000000000000000000e+00,1.000000000000000000e+00,9.696557998657227007e-01,9.379180908203125222e-01,9.081922531127929465e-01,8.802926063537597212e-01,8.540561676025391069e-01,8.293383598327637163e-01,8.060110092163086382e-01,7.839600563049315962e-01,7.630838394165039285e-01,7.432910442352295144e-01
6.193142890930175559e-01,6.350142478942870650e-01,6.515308856964111550e-01,6.689296245574951616e-01,6.872831821441650613e-01,7.066721916198730469e-01,7.271869659423828569e-01,7.489284992218017134e-01,7.720101356506348100e-01,7.965596675872802512e-01,8.227186203002929688e-01,8.506464958190917969e-01,8.805371284484863059e-01,9.126048088073730469e-01,9.470965385437011275e-01,9.842978477478027122e-01,1.000000000000000000e+00,1.000000000000000000e+00,1.000000000000000000e+00,1.000000000000000000e+00,1.000000000000000000e+00,1.000000000000000000e+00,1.000000000000000000e+00,1.000000000000000000e+00,1.000000000000000000e+00,1.000000000000000000e+00,1.000000000000000000e+00,1.000000000000000000e+00,1.000000000000000000e+00,1.000000000000000000e+00,1.000000000000000000e+00,1.000000000000000000e+00,1.000000000000000000e+00,1.000000000000000000e+00,1.000000000000000000e+00,1.000000000000000000e+00,1.000000000000000000e+00,1.000000000000000000e+00,1.000000000000000000e+00,1.000000000000000000e+00,1.000000000000000000e+00,1.000000000000000000e+00,1.000000000000000000e+00,1.000000000000000000e+00,1.000000000000000000e+00,1.000000000000000000e+00,1.000000000000000000e+00,1.000000000000000000e+00,1.000000000000000000e+00,1.000000000000000000e+00,1.000000000000000000e+00,1.000000000000000000e+00,1.000000000000000000e+00,1.000000000000000000e+00,1.000000000000000000e+00,1.000000000000000000e+00,1.000000000000000000e+00,1.000000000000000000e+00,1.000000000000000000e+00,4.066226959228515514e-01,4.013146877288818470e-01,4.003616333007812278e-01,4.409980297088623158e-01,1.000000000000000000e+00,1.000000000000000000e+00,1.000000000000000000e+00,1.000000000000000000e+00,1.000000000000000000e+00,1.000000000000000000e+00,1.000000000000000000e+00,9.696811676025390847e-01,9.379418373107910600e-01,9.082144737243652566e-01,8.803135871887206587e-01,8.540758132934570535e-01,8.293568611145019087e-01,8.060292243957519753e-01,7.839781284332275613e-01,7.631013393402099609e-01,7.433076381683350053e-01
6.193010807037353516e-01,6.350003242492675559e-01,6.515162467956543413e-01,6.689142227172851785e-01,6.872668266296386719e-01,7.066549301147461160e-01,7.271687507629394087e-01,7.489091396331787331e-01,7.719895362854003462e-01,7.965378284454345259e-01,8.226985931396484375e-01,8.506361007690429465e-01,8.805372238159179243e-01,9.126049995422362837e-01,9.470966339111328569e-01,9.842979431152343306e-01,1.000000000000000000e+00,1.000000000000000000e+00,1.000000000000000000e+00,1.000000000000000000e+00,1.000000000000000000e+00,1.000000000000000000e+00,1.000000000000000000e+00,1.000000000000000000e+00,1.000000000000000000e+00,1.000000000000000000e+00,1.000000000000000000e+00,1.000000000000000000e+00,1.000000000000000000e+00,1.000000000000000000e+00,1.000000000000000000e+00,1.000000000000000000e+00,1.000000000000000000e+00,1.000000000000000000e+00,1.000000000000000000e+00,1.000000000000000000e+00,1.000000000000000000e+00,1.000000000000000000e+00,1.000000000000000000e+00,1.000000000000000000e+00,1.000000000000000000e+00,1.000000000000000000e+00,1.000000000000000000e+00,1.000000000000000000e+00,1.000000000000000000e+00,1.000000000000000000e+00,1.000000000000000000e+00,1.000000000000000000e+00,1.000000000000000000e+00,1.000000000000000000e+00,1.000000000000000000e+00,1.000000000000000000e+00,1.000000000000000000e+00,1.000000000000000000e+00,1.000000000000000000e+00,1.000000000000000000e+00,1.000000000000000000e+00,1.000000000000000000e+00,1.000000000000000000e+00,4.082502365112304910e-01,4.033786296844482644e-01,4.046038627624511941e-01,4.460084438323974609e-01,1.000000000000000000e+00,1.000000000000000000e+00,1.000000000000000000e+00,1.000000000000000000e+00,1.000000000000000000e+00,1.000000000000000000e+00,1.000000000000000000e+00,9.697065353393554688e-01,9.379655838012694868e-01,9.082367897033691850e-01,8.803349494934081809e-01,8.540968894958496094e-01,8.293775558471679910e-01,8.060487747192383035e-01,7.839966297149658647e-01,7.631188869476318581e-01,7.433242797851562500e-01
6.192878246307372825e-01,6.349864482879639116e-01,6.515015602111816628e-01,6.688987255096435769e-01,6.872505664825439009e-01,7.066377162933349387e-01,7.271504878997803178e-01,7.488898277282715066e-01,7.719689846038818581e-01,7.965158939361571822e-01,8.226752281188964844e-01,8.506111145019531472e-01,8.805109024047851340e-01,9.125893592834473100e-01,9.470934867858886719e-01,9.842981338500976785e-01,1.000000000000000000e+00,1.000000000000000000e+00,1.000000000000000000e+00,1.000000000000000000e+00,1.000000000000000000e+00,1.000000000000000000e+00,1.000000000000000000e+00,1.000000000000000000e+00,1.000000000000000000e+00,1.000000000000000000e+00,1.000000000000000000e+00,1.000000000000000000e+00,1.000000000000000000e+00,1.000000000000000000e+00,1.000000000000000000e+00,1.000000000000000000e+00,1.000000000000000000e+00,1.000000000000000000e+00,1.000000000000000000e+00,1.000000000000000000e+00,1.000000000000000000e+00,1.000000000000000000e+00,1.000000000000000000e+00,1.000000000000000000e+00,1.000000000000000000e+00,1.000000000000000000e+00,1.000000000000000000e+00,1.000000000000000000e+00,1.000000000000000000e+00,1.000000000000000000e+00,1.000000000000000000e+00,1.000000000000000000e+00,1.000000000000000000e+00,1.000000000000000000e+00,1.000000000000000000e+00,1.000000000000000000e+00,1.000000000000000000e+00,1.000000000000000000e+00,1.000000000000000000e+00,1.000000000000000000e+00,1.000000000000000000e+00,1.000000000000000000e+00,1.000000000000000000e+00,4.097633361816406250e-01,4.040925502777099609e-01,4.055784702301025169e-01,4.586031436920166016e-01,1.000000000000000000e+00,1.000000000000000000e+00,1.000000000000000000e+00,1.000000000000000000e+00,1.000000000000000000e+00,1.000000000000000000e+00,1.000000000000000000e+00,9.697319984436034712e-01,9.379903793334960493e-01,9.082610130310058150e-01,8.803582191467285156e-01,8.541188240051269531e-01,8.293982505798339622e-01,8.060683250427246316e-01,7.840151309967040572e-01,7.631364345550537553e-01,7.433409214019774947e-01
6.192746162414550781e-01,6.349724769592285378e-01,6.514869689941406028e-01,6.688833236694335938e-01,6.872342586517333762e-01,7.066204547882080078e-01,7.271322727203368697e-01,7.488704204559326616e-01,7.719483852386475053e-01,7.964940547943115678e-01,8.226518630981445312e-01,8.505861282348632368e-01,8.804841995239257590e-01,9.125606536865233931e-01,9.470625877380370872e-01,9.842759132385253684e-01,1.000000000000000000e+00,1.000000000000000000e+00,1.000000000000000000e+00,1.000000000000000000e+00,1.000000000000000000e+00,1.000000000000000000e+00,1.000000000000000000e+00,1.000000000000000000e+00,1.000000000000000000e+00,1.000000000000000000e+00,1.000000000000000000e+00,1.000000000000000000e+00,1.000000000000000000e+00,1.000000000000000000e+00,1.000000000000000000e+00,1.000000000000000000e+00,1.000000000000000000e+00,1.000000000000000000e+00,1.000000000000000000e+00,1.000000000000000000e+00,1.000000000000000000e+00,1.000000000000000000e+00,1.000000000000000000e+00,1.000000000000000000e+00,1.000000000000000000e+00,1.000000000000000000e+00,1.000000000000000000e+00,1.000000000000000000e+00,1.000000000000000000e+00,1.000000000000000000e+00,1.000000000000000000e+00,1.000000000000000000e+00,1.000000000000000000e+00,1.000000000000000000e+00,1.000000000000000000e+00,1.000000000000000000e+00,1.000000000000000000e+00,1.000000000000000000e+00,1.000000000000000000e+00,1.000000000000000000e+00,1.000000000000000000e+00,1.000000000000000000e+00,1.000000000000000000e+00,4.113137245178222767e-01,4.048089504241943470e-01,4.064310550689697044e-01,1.000000000000000000e+00,1.000000000000000000e+00,1.000000000000000000e+00,1.000000000000000000e+00,1.000000000000000000e+00,1.000000000000000000e+00,1.000000000000000000e+00,1.000000000000000000e+00,9.697602272033691850e-01,9.380168914794921875e-01,9.082859039306641069e-01,8.803815841674804688e-01,8.541407585144042969e-01,8.294189453125000444e-01,8.060879707336425781e-01,7.840336322784423606e-01,7.631539344787597878e-01,7.433575630187988503e-01
6.192613601684570090e-01,6.349586009979247825e-01,6.514722824096679243e-01,6.688678741455078569e-01,6.872179985046387163e-01,7.066032886505126953e-01,7.271140098571777788e-01,7.488511085510254350e-01,7.719278812408447710e-01,7.964721202850342241e-01,8.226284980773925781e-01,8.505611419677734375e-01,8.804574966430663840e-01,9.125319480895995872e-01,9.470316886901855025e-01,9.842425346374511497e-01,1.000000000000000000e+00,1.000000000000000000e+00,1.000000000000000000e+00,1.000000000000000000e+00,1.000000000000000000e+00,1.000000000000000000e+00,1.000000000000000000e+00,1.000000000000000000e+00,1.000000000000000000e+00,1.000000000000000000e+00,1.000000000000000000e+00,1.000000000000000000e+00,1.000000000000000000e+00,1.000000000000000000e+00,1.000000000000000000e+00,1.000000000000000000e+00,1.000000000000000000e+00,1.000000000000000000e+00,1.000000000000000000e+00,1.000000000000000000e+00,1.000000000000000000e+00,1.000000000000000000e+00,1.000000000000000000e+00,1.000000000000000000e+00,1.000000000000000000e+00,1.000000000000000000e+00,1.000000000000000000e+00,1.000000000000000000e+00,1.000000000000000000e+00,1.000000000000000000e+00,1.000000000000000000e+00,1.000000000000000000e+00,1.000000000000000000e+00,1.000000000000000000e+00,1.000000000000000000e+00,1.000000000000000000e+00,1.000000000000000000e+00,1.000000000000000000e+00,1.000000000000000000e+00,1.000000000000000000e+00,1.000000000000000000e+00,1.000000000000000000e+00,1.000000000000000000e+00,4.128758907318115234e-01,4.056933879852294700e-01,4.071856498718261497e-01,1.000000000000000000e+00,1.000000000000000000e+00,1.000000000000000000e+00,1.000000000000000000e+00,1.000000000000000000e+00,1.000000000000000000e+00,1.000000000000000000e+00,1.000000000000000000e+00,9.697885513305664062e-01,9.380434036254883257e-01,9.083106994628906694e-01,8.804049491882324219e-01,8.541627883911132590e-01,8.294396400451660156e-01,8.061075210571289062e-01,7.840521335601806641e-01,7.631714820861816850e-01,7.433742046356200950e-01
6.192481517791748047e-01,6.349446773529052734e-01,6.514576911926269753e-01,6.688524723052978738e-01,6.872016429901123269e-01,7.065860271453857644e-01,7.270957946777343306e-01,7.488317489624023438e-01,7.719072818756103072e-01,7.964502811431884988e-01,8.226052284240722434e-01,8.505362510681152566e-01,8.804306983947753906e-01,9.125031471252441628e-01,9.470006942749022993e-01,9.842090606689453125e-01,1.000000000000000000e+00,1.000000000000000000e+00,1.000000000000000000e+00,1.000000000000000000e+00,1.000000000000000000e+00,1.000000000000000000e+00,1.000000000000000000e+00,1.000000000000000000e+00,1.000000000000000000e+00,1.000000000000000000e+00,1.000000000000000000e+00,1.000000000000000000e+00,1.000000000000000000e+00,1.000000000000000000e+00,1.000000000000000000e+00,1.000000000000000000e+00,1.000000000000000000e+00,1.000000000000000000e+00,1.000000000000000000e+00,1.000000000000000000e+00,1.000000000000000000e+00,1.000000000000000000e+00,1.000000000000000000e+00,1.000000000000000000e+00,1.000000000000000000e+00,1.000000000000000000e+00,1.000000000000000000e+00,1.000000000000000000e+00,1.000000000000000000e+00,1.000000000000000000e+00,1.000000000000000000e+00,1.000000000000000000e+00,1.000000000000000000e+00,1.000000000000000000e+00,1.000000000000000000e+00,1.000000000000000000e+00,1.000000000000000000e+00,1.000000000000000000e+00,1.000000000000000000e+00,1.000000000000000000e+00,1.000000000000000000e+00,1.000000000000000000e+00,1.000000000000000000e+00,4.145468711853027566e-01,4.072814941406249778e-01,4.081463813781738281e-01,1.000000000000000000e+00,1.000000000000000000e+00,1.000000000000000000e+00,1.000000000000000000e+00,1.000000000000000000e+00,1.000000000000000000e+00,1.000000000000000000e+00,1.000000000000000000e+00,9.698168754577636275e-01,9.380699157714843528e-01,9.083355903625488503e-01,8.804282188415527566e-01,8.541847229003906028e-01,8.294603347778319868e-01,8.061270713806152344e-01,7.840706348419189675e-01,7.631890296936034712e-01,7.433907985687255859e-01
6.192348957061767356e-01,6.349308013916015181e-01,6.514430046081542969e-01,6.688370227813720259e-01,6.871853828430175559e-01,7.065688133239745872e-01,7.270775318145752397e-01,7.488124370574951172e-01,7.718867778778075728e-01,7.964283943176269087e-01,8.225818634033202903e-01,8.505112648010253462e-01,8.804039955139160156e-01,9.124744415283203569e-01,9.469697952270508257e-01,9.841756820678710938e-01,1.000000000000000000e+00,1.000000000000000000e+00,1.000000000000000000e+00,1.000000000000000000e+00,1.000000000000000000e+00,1.000000000000000000e+00,1.000000000000000000e+00,1.000000000000000000e+00,1.000000000000000000e+00,1.000000000000000000e+00,1.000000000000000000e+00,1.000000000000000000e+00,1.000000000000000000e+00,1.000000000000000000e+00,1.000000000000000000e+00,1.000000000000000000e+00,1.000000000000000000e+00,1.000000000000000000e+00,1.000000000000000000e+00,1.000000000000000000e+00,1.000000000000000000e+00,1.000000000000000000e+00,1.000000000000000000e+00,1.000000000000000000e+00,1.000000000000000000e+00,1.000000000000000000e+00,1.000000000000000000e+00,1.000000000000000000e+00,1.000000000000000000e+00,1.000000000000000000e+00,1.000000000000000000e+00,1.000000000000000000e+00,1.000000000000000000e+00,1.000000000000000000e+00,1.000000000000000000e+00,1.000000000000000000e+00,1.000000000000000000e+00,1.000000000000000000e+00,1.000000000000000000e+00,1.000000000000000000e+00,1.000000000000000000e+00,1.000000000000000000e+00,1.000000000000000000e+00,4.164499282836914285e-01,4.096516609191894753e-01,4.092627048492431530e-01,1.000000000000000000e+00,1.000000000000000000e+00,1.000000000000000000e+00,1.000000000000000000e+00,1.000000000000000000e+00,1.000000000000000000e+00,1.000000000000000000e+00,1.000000000000000000e+00,9.698451042175293413e-01,9.380964279174804910e-01,9.083603858947754128e-01,8.804515838623047097e-01,8.542066574096679465e-01,8.294810295104980691e-01,8.061466217041015625e-01,7.840891361236572710e-01,7.632065296173096147e-01,7.434074401855468306e-01
6.192216873168945312e-01,6.349168777465820090e-01,6.514284133911132368e-01,6.688216209411621538e-01,6.871690750122070312e-01,7.065515995025635210e-01,7.270593166351317915e-01,7.487930774688720259e-01,7.718661785125732200e-01,7.964065551757812944e-01,8.225584983825683372e-01,8.504862785339355469e-01,8.803771972656250222e-01,9.124457359313964400e-01,9.469388008117676225e-01,9.841423034667968750e-01,1.000000000000000000e+00,1.000000000000000000e+00,1.000000000000000000e+00,1.000000000000000000e+00,1.000000000000000000e+00,1.000000000000000000e+00,1.000000000000000000e+00,1.000000000000000000e+00,1.000000000000000000e+00,1.000000000000000000e+00,1.000000000000000000e+00,1.000000000000000000e+00,1.000000000000000000e+00,1.000000000000000000e+00,1.000000000000000000e+00,1.000000000000000000e+00,1.000000000000000000e+00,1.000000000000000000e+00,1.000000000000000000e+00,1.000000000000000000e+00,1.000000000000000000e+00,1.000000000000000000e+00,1.000000000000000000e+00,1.000000000000000000e+00,1.000000000000000000e+00,1.000000000000000000e+00,1.000000000000000000e+00,1.000000000000000000e+00,1.000000000000000000e+00,1.000000000000000000e+00,1.000000000000000000e+00,1.000000000000000000e+00,1.000000000000000000e+00,1.000000000000000000e+00,1.000000000000000000e+00,1.000000000000000000e+00,1.000000000000000000e+00,1.000000000000000000e+00,1.000000000000000000e+00,1.000000000000000000e+00,1.000000000000000000e+00,1.000000000000000000e+00,4.838208675384521595e-01,4.183705806732177512e-01,4.108404159545898660e-01,4.103850841522216908e-01,1.000000000000000000e+00,1.000000000000000000e+00,1.000000000000000000e+00,1.000000000000000000e+00,1.000000000000000000e+00,1.000000000000000000e+00,1.000000000000000000e+00,1.000000000000000000e+00,9.698734283447265625e-01,9.381228446960448997e-01,9.083851814270019753e-01,8.804749488830566628e-01,8.542286872863769087e-01,8.295018196105956587e-01,8.061661720275878906e-01,7.841076374053954634e-01,7.632240772247314009e-01,7.434240818023681863e-01
6.192084312438964622e-01,6.349030017852783647e-01,6.514137268066406694e-01,6.688061714172363059e-01,6.871528148651122603e-01,7.065343856811523438e-01,7.270410537719727007e-01,7.487737655639647993e-01,7.718456745147704856e-01,7.963846206665039507e-01,8.225351333618163840e-01,8.504613876342773660e-01,8.803504943847656472e-01,9.124170303344726340e-01,9.469079017639160378e-01,9.710462570190430132e-01,9.708059310913086382e-01,9.705656051635742632e-01,9.703254699707031250e-01,9.700855255126953347e-01,9.698455810546875444e-01,9.696058273315429910e-01,9.693660736083984375e-01,9.691266059875488503e-01,9.688871383666992632e-01,9.686478614807129128e-01,9.684085845947265625e-01,9.681695938110351785e-01,9.679305076599120650e-01,9.676917076110840288e-01,9.674530029296875000e-01,9.672143936157227007e-01,9.669759750366211382e-01,9.667375564575195757e-01,9.664993286132812500e-01,9.662611007690429243e-01,9.660231590270995650e-01,9.657852172851562056e-01,9.655474662780761941e-01,9.653097152709960715e-01,9.650722503662109153e-01,9.648347854614257590e-01,9.645975112915039507e-01,9.643602371215820312e-01,9.641231536865234597e-01,9.638862609863281250e-01,9.636493682861327903e-01,9.634126663208008035e-01,9.631759643554687056e-01,9.629395484924316850e-01,9.627031326293945535e-01,9.624669075012206587e-01,9.622306823730468750e-01,9.619946479797363281e-01,9.617587089538573997e-01,9.615229606628418191e-01,9.612872123718261275e-01,9.610516548156737837e-01,4.853051662445068137e-01,4.203584194183349609e-01,4.120027542114257924e-01,4.120037078857421986e-01,9.598755836486816406e-01,9.596405982971191184e-01,9.594058990478515625e-01,9.591711997985840066e-01,9.589366912841796875e-01,9.587021827697753684e-01,9.584679603576660156e-01,9.582337379455566628e-01,9.579997062683105469e-01,9.381493568420410378e-01,9.084100723266601562e-01,8.804982185363769975e-01,8.542506217956542525e-01,8.295225143432617410e-01,8.061857223510742188e-01,7.841261386871337669e-01,7.632416248321532981e-01,7.434407234191894309e-01
6.191952705383301225e-01,6.348890304565429910e-01,6.513991355895996094e-01,6.687907695770263228e-01,6.871365070343017356e-01,7.065171241760254128e-01,7.270228862762451172e-01,7.487543582916259544e-01,7.542669296264647993e-01,7.541218280792236772e-01,7.539768695831299272e-01,7.538319587707519309e-01,7.536870956420897993e-01,7.535421848297119141e-01,7.533974647521972656e-01,7.532527923583984819e-01,7.531081199645995872e-01,7.529634952545165572e-01,7.528189182281493919e-01,7.526744842529297097e-01,7.525300502777099165e-01,7.523857116699218528e-01,7.522413253784179243e-01,7.520970821380614790e-01,7.519528865814208984e-01,7.518087863922119363e-01,7.516645908355712447e-01,7.515205860137939009e-01,7.513766288757324219e-01,7.512326717376709428e-01,7.510887622833252175e-01,7.509449481964111106e-01,7.508011817932128684e-01,7.506575107574462447e-01,7.505138874053954856e-01,7.503702163696288618e-01,7.502266883850097212e-01,7.500832080841064453e-01,7.499397754669189231e-01,7.497963428497314009e-01,7.496530055999756081e-01,7.495097637176513228e-01,7.493665695190430132e-01,7.492233276367187278e-01,7.490802288055420366e-01,7.489372253417968528e-01,7.487942218780517800e-01,7.486513137817383257e-01,7.485083580017090066e-01,7.483655452728271706e-01,7.482227802276610884e-01,7.480800628662109819e-01,7.479373455047607644e-01,7.477947235107421653e-01,7.476521968841552956e-01,7.475097179412841797e-01,7.473671913146973100e-01,7.472248077392578125e-01,4.874963760375976562e-01,4.828196525573730247e-01,4.160326004028320201e-01,7.466557502746582475e-01,7.465136051177978516e-01,7.463715553283691850e-01,7.462295532226562722e-01,7.460875034332274947e-01,7.459456443786620650e-01,7.458037853240966353e-01,7.456620216369629350e-01,7.455201625823975053e-01,7.453784942626953125e-01,7.452368736267089844e-01,7.450953006744385210e-01,7.449537754058838113e-01,7.448122501373291016e-01,7.446708202362060103e-01,7.445294857025146484e-01,7.443881511688232866e-01,7.442468166351318137e-01,7.434573650360107866e-01
6.167093753814697488e-01,6.166124343872070312e-01,6.165154933929443137e-01,6.164186000823974609e-01,6.163217544555663618e-01,6.162248611450195090e-01,6.161280632019042747e-01,6.160312652587890403e-01,6.159345626831054243e-01,6.158377647399901900e-01,6.157411098480224387e-01,6.156444549560546875e-01,6.155478477478026900e-01,6.154511928558349387e-01,6.153546333312988059e-01,6.152580738067626731e-01,6.151616096496581587e-01,6.150650978088378906e-01,6.149686336517333762e-01,6.148722171783447266e-01,6.147758483886718306e-01,6.146795272827147993e-01,6.145831108093261497e-01,6.144868373870849831e-01,6.143905639648437056e-01,6.142943382263184038e-01,6.141981124877929910e-01,6.141019344329834428e-01,6.140058040618896484e-01,6.139097213745117188e-01,6.138135910034179243e-01,6.137175083160399947e-01,6.136215209960937944e-01,6.135255336761474831e-01,6.134295940399170366e-01,6.133336067199707253e-01,6.132377147674560325e-01,6.131418228149414507e-01,6.130460262298583762e-01,6.129501342773437944e-01,6.128543853759765847e-01,6.127586364746093750e-01,6.126629352569580300e-01,6.125671863555908203e-01,6.124715328216552290e-01,6.123758792877197488e-01,6.122803211212157759e-01,6.121847152709960493e-01,6.120891571044921875e-01,6.119936466217040794e-01,6.118981361389159712e-01,6.118027210235595925e-01,6.117072105407714844e-01,6.116118431091308594e-01,6.115164756774902344e-01,6.114211559295654741e-01,6.113257884979248491e-01,6.112305164337158425e-01,4.820418834686279186e-01,4.746639728546142578e-01,4.109659671783447155e-01,4.082888603210449441e-01,6.107545852661132590e-01,6.106595039367676003e-01,6.105644226074218306e-01,6.104693412780761719e-01,6.103743553161621316e-01,6.102793693542480913e-01,6.101844310760498047e-01,6.100894451141357644e-01,6.099945545196533425e-01,6.098997116088866743e-01,6.098048686981201172e-01,6.097101211547851785e-01,6.096152782440185103e-01,6.095205307006835715e-01,6.094258308410644975e-01,6.093311786651611772e-01,6.092364788055419922e-01,6.091418266296386719e-01
5.210319519042968528e-01,5.209627628326416460e-01,5.208935737609863281e-01,5.208243846893310103e-01,5.207552433013915572e-01,5.206861019134521040e-01,5.206170082092285156e-01,5.205479145050049272e-01,5.204788208007812278e-01,5.204097270965576394e-01,5.203406810760498047e-01,5.202716827392578347e-01,5.202026844024658647e-01,5.201336383819580300e-01,5.200646877288818137e-01,5.199957370758057085e-01,5.199267864227294922e-01,5.198578357696532759e-01,5.197889328002929243e-01,5.197200775146484375e-01,5.196512222290039507e-01,5.195823669433593528e-01,5.195135116577148660e-01,5.194447040557861328e-01,5.193758964538573997e-01,5.193071365356445312e-01,5.192383766174316628e-01,5.191696166992187944e-01,5.191009044647216797e-01,5.190322399139404297e-01,5.189635276794433150e-01,5.188948631286620650e-01,5.188261985778808150e-01,5.187575817108154297e-01,5.186890125274657981e-01,5.186203479766845481e-01,5.185517787933349165e-01,5.184832572937011497e-01,5.184147357940673828e-01,5.183461666107177512e-01,5.182776927947998491e-01,5.182092189788818359e-01,5.181407451629638228e-01,5.180722713470459206e-01,5.180038452148437722e-01,5.179354190826416238e-01,5.178670406341552290e-01,5.177986621856689453e-01,5.177302837371826616e-01,5.176619529724121316e-01,5.175936698913574663e-01,5.175253391265869363e-01,5.174570560455322710e-01,5.173887729644774947e-01,5.173205375671386941e-01,5.172523021697997825e-01,5.171840667724609819e-01,5.171158790588379350e-01,5.170477390289306419e-01,4.606373310089111328e-01,4.041323661804199219e-01,3.996178865432739036e-01,5.167751789093018022e-01,5.167070865631103738e-01,5.166390419006348100e-01,5.165709495544433816e-01,5.165029525756835715e-01,5.164349079132080078e-01,5.163669586181640625e-01,5.162989139556884988e-01,5.162309646606445535e-01,5.161630153656006081e-01,5.160951137542724165e-01,5.160272121429443359e-01,5.159593105316162553e-01,5.158914089202880637e-01,5.158236026763916016e-01,5.157557487487792747e-01,5.156878948211669478e-01,5.156200885772704856e-01
4.510545253753662220e-01,4.510026931762695090e-01,4.509508132934570424e-01,4.508989810943603294e-01,4.508471488952636719e-01,4.507953166961670144e-01,4.507435321807861106e-01,4.506917476654052623e-01,4.506399631500244141e-01,4.505881786346435658e-01,4.505364418029785267e-01,4.504847049713134877e-01,4.504329681396484486e-01,4.503811836242676003e-01,4.503294944763183705e-01,4.502778053283691406e-01,4.502261161804199108e-01,4.501743793487548717e-01,4.501227378845215066e-01,4.500710964202880859e-01,4.500194549560546653e-01,4.499678134918213002e-01,4.499161720275878795e-01,4.498645782470703236e-01,4.498129844665527122e-01,4.497613906860351562e-01,4.497097969055176003e-01,4.496582508087157981e-01,4.496067047119140514e-01,4.495551586151123047e-01,4.495036125183105580e-01,4.494521141052246205e-01,4.494006156921386830e-01,4.493491172790527455e-01,4.492976665496826172e-01,4.492461681365966797e-01,4.491947174072265514e-01,4.491432666778564231e-01,4.490918159484863503e-01,4.490403652191162220e-01,4.489889621734619030e-01,4.489376068115234486e-01,4.488862037658691295e-01,4.488348007202148660e-01,4.487834453582763561e-01,4.487320899963379017e-01,4.486807823181152566e-01,4.486294746398925559e-01,4.485781192779541016e-01,4.485268115997314564e-01,4.484755516052246205e-01,4.484242439270019753e-01,4.483729839324951394e-01,4.483217239379883035e-01,4.482704639434814675e-01,4.482192516326904408e-01,4.481679916381836049e-01,4.481167793273925781e-01,4.480656147003173606e-01,4.480144500732421986e-01,3.947720050811767689e-01,3.893784046173095481e-01,3.853736400604247936e-01,4.478097915649413840e-01,4.477586746215820312e-01,4.477075099945068137e-01,4.476564407348632701e-01,4.476053237915039174e-01,4.475542545318603738e-01,4.475031852722167747e-01,4.474521160125732311e-01,4.474010944366454967e-01,4.473500728607177623e-01,4.472990512847900280e-01,4.472479820251464844e-01,4.471970081329345592e-01,4.471460342407226340e-01,4.470950603485107644e-01,4.470440387725830300e-01,4.469931125640869141e-01
3.976482152938842773e-01,3.976079225540161133e-01,3.975676059722900169e-01,3.975273370742797852e-01,3.974870204925536887e-01,3.974467754364013894e-01,3.974064826965332253e-01,3.973662376403808705e-01,3.973259687423705833e-01,3.972857475280761608e-01,3.972454786300659291e-01,3.972052812576293834e-01,3.971650838851928933e-01,3.971248388290405384e-01,3.970846652984619252e-01,3.970444440841675027e-01,3.970042228698730247e-01,3.969640254974365345e-01,3.969238758087157981e-01,3.968836784362793080e-01,3.968435525894165039e-01,3.968033790588378906e-01,3.967632293701172097e-01,3.967231035232544056e-01,3.966829776763916016e-01,3.966428756713867299e-01,3.966027498245239258e-01,3.965626239776611217e-01,3.965225458145141824e-01,3.964824438095092551e-01,3.964423418045043834e-01,3.964023113250732533e-01,3.963622331619262584e-01,3.963222026824951283e-01,3.962821245193481334e-01,3.962420701980590709e-01,3.962020635604858176e-01,3.961620330810546875e-01,3.961220502853393666e-01,3.960820198059081809e-01,3.960419893264770508e-01,3.960020303726196067e-01,3.959620237350464089e-01,3.959220409393310325e-01,3.958821058273315208e-01,3.958421230316161998e-01,3.958022117614746205e-01,3.957622289657592995e-01,3.957222938537597878e-01,3.956823825836181530e-01,3.956424474716186412e-01,3.956025600433349387e-01,3.955626487731933594e-01,3.955227375030517800e-01,3.954828739166259544e-01,3.954429864883423074e-01,3.954030752182006725e-01,3.953632593154907116e-01,3.953233718872070090e-01,3.952835559844970481e-01,3.952437162399292103e-01,3.952038526535034402e-01,3.951640605926513561e-01,3.951242208480835183e-01,3.950844526290893666e-01,3.950446367263794056e-01,3.950048208236694447e-01,3.949650764465332253e-01,3.949252843856811412e-01,3.948854923248291127e-01,3.948457717895507701e-01,3.948060035705566184e-01,3.947662830352783314e-01,3.947265386581421120e-01,3.946867942810058372e-01,3.946470975875854270e-01,3.946073532104492076e-01,3.945677042007446067e-01,3.945279836654663197e-01,3.944882869720459095e-01
3.555499792098998912e-01,3.555177211761474387e-01,3.554855346679687278e-01,3.554533004760742076e-01,3.554211139678954967e-01,3.553888797760009766e-01,3.553566932678222656e-01,3.553244829177856223e-01,3.552923202514648438e-01,3.552601575851440652e-01,3.552279710769653542e-01,3.551958084106445201e-01,3.551636457443237416e-01,3.551315069198608398e-01,3.550993204116821289e-01,3.550672054290771595e-01,3.550350427627563255e-01,3.550029277801513561e-01,3.549707651138305775e-01,3.549386739730834850e-01,3.549065351486205833e-01,3.548743963241577370e-01,3.548422813415527122e-01,3.548101902008056752e-01,3.547780752182007058e-01,3.547460079193115456e-01,3.547139167785644531e-01,3.546818256378173606e-01,3.546497583389282005e-01,3.546176910400390403e-01,3.545855998992920033e-01,3.545535802841186523e-01,3.545215129852294922e-01,3.544894695281982644e-01,3.544574260711669811e-01,3.544253826141357533e-01,3.543933629989624023e-01,3.543613433837890514e-01,3.543293476104736328e-01,3.542973041534424050e-01,3.542652845382690541e-01,3.542333126068115123e-01,3.542013168334960938e-01,3.541692972183227428e-01,3.541373491287231334e-01,3.541053533554077148e-01,3.540734052658081055e-01,3.540414333343505637e-01,3.540094375610351451e-01,3.539775133132934681e-01,3.539455652236938588e-01,3.539136409759521262e-01,3.538816928863525169e-01,3.538497447967529075e-01,3.538178443908691628e-01,3.537858963012695535e-01,3.537539720535278209e-01,3.537220954895019531e-01,3.536901712417602761e-01,3.536582946777343528e-01,3.536263942718506081e-01,3.535944938659668080e-01,3.535626411437988170e-01,3.535307645797729492e-01,3.534989118576049583e-01,3.534670352935790905e-01,3.534351587295532227e-01,3.534033298492431641e-01,3.533714771270751731e-01,3.533396244049072377e-01,3.533078193664550559e-01,3.532759666442871205e-01,3.532441854476928711e-01,3.532123565673828125e-01,3.531805276870727539e-01,3.531487464904785045e-01,3.531169414520263783e-01,3.530851602554321289e-01,3.530533790588378795e-01,3.530215740203857533e-01
3.215120792388915794e-01,3.214857578277587891e-01,3.214593887329101340e-01,3.214330673217773438e-01,3.214066982269286887e-01,3.213803768157958984e-01,3.213540792465209850e-01,3.213277339935302623e-01,3.213014125823974720e-01,3.212750911712646262e-01,3.212487936019897683e-01,3.212224721908569225e-01,3.211961746215820090e-01,3.211698532104492188e-01,3.211435794830322377e-01,3.211172580718993919e-01,3.210909843444824108e-01,3.210646867752074973e-01,3.210384368896484486e-01,3.210121393203735352e-01,3.209858894348144309e-01,3.209595918655395730e-01,3.209333419799804688e-01,3.209070682525634877e-01,3.208808183670043834e-01,3.208545684814453347e-01,3.208283185958862305e-01,3.208020687103271262e-01,3.207758426666259544e-01,3.207495927810669056e-01,3.207233428955078014e-01,3.206971406936645619e-01,3.206709146499633900e-01,3.206447124481200950e-01,3.206184864044189231e-01,3.205922603607177512e-01,3.205660581588745117e-01,3.205398559570312722e-01,3.205136775970459095e-01,3.204874753952026145e-01,3.204612731933593750e-01,3.204350948333740123e-01,3.204089164733886497e-01,3.203827142715454102e-01,3.203565835952758567e-01,3.203304052352905495e-01,3.203042507171630637e-01,3.202780723571777566e-01,3.202519178390502708e-01,3.202257871627807728e-01,3.201996326446533425e-01,3.201735019683837891e-01,3.201473474502563588e-01,3.201212167739868053e-01,3.200951099395751842e-01,3.200689554214477539e-01,3.200428247451782005e-01,3.200167417526245117e-01,3.199906110763549583e-01,3.199645042419433372e-01,3.199383974075317161e-01,3.199122905731200950e-01,3.198862075805664062e-01,3.198601007461547852e-01,3.198340415954589733e-01,3.198079586029052845e-01,3.197818517684936634e-01,3.197558164596557839e-01,3.197297334671020397e-01,3.197036504745483509e-01,3.196776151657104714e-01,3.196515321731567272e-01,3.196254968643188477e-01,3.195994377136230358e-01,3.195733785629272239e-01,3.195473670959472767e-01,3.195213317871093972e-01,3.194953203201293945e-01,3.194692611694335826e-01,3.194432258605957031e-01
2.934219360351562611e-01,2.934000015258789174e-01,2.933780431747436412e-01,2.933561086654662975e-01,2.933341503143310769e-01,2.933122396469116100e-01,2.932902812957763894e-01,2.932683706283569225e-01,2.932464361190795787e-01,2.932245254516601674e-01,2.932025909423828236e-01,2.931806802749633567e-01,2.931587457656860130e-01,2.931368589401245339e-01,2.931149482727050670e-01,2.930930376052856556e-01,2.930711269378661887e-01,2.930492401123047097e-01,2.930273532867431752e-01,2.930054664611816406e-01,2.929835557937622292e-01,2.929616928100585715e-01,2.929398059844970925e-01,2.929179430007934348e-01,2.928960561752319558e-01,2.928741931915282981e-01,2.928523063659668191e-01,2.928304433822631614e-01,2.928085803985595592e-01,2.927867174148559570e-01,2.927648544311523549e-01,2.927430152893066295e-01,2.927211523056030273e-01,2.926993131637573020e-01,2.926774501800536998e-01,2.926556110382080300e-01,2.926337957382202370e-01,2.926119327545165794e-01,2.925901174545287864e-01,2.925682783126831166e-01,2.925464630126953236e-01,2.925246477127075306e-01,2.925028324127197377e-01,2.924809932708740123e-01,2.924592018127441517e-01,2.924373865127563588e-01,2.924155950546264426e-01,2.923937797546386497e-01,2.923719644546508567e-01,2.923501968383789285e-01,2.923283815383911355e-01,2.923066139221191517e-01,2.922848224639892356e-01,2.922630310058593750e-01,2.922412633895873912e-01,2.922194719314575306e-01,2.921977043151855469e-01,2.921759366989135631e-01,2.921541690826415794e-01,2.921324253082275280e-01,2.921106576919555442e-01,2.920888900756836160e-01,2.920671463012695090e-01,2.920454025268554576e-01,2.920236587524414062e-01,2.920019149780273549e-01,2.919801473617553711e-01,2.919584274291991965e-01,2.919366836547851451e-01,2.919149398803710938e-01,2.918932437896728516e-01,2.918715000152588002e-01,2.918498039245605580e-01,2.918280839920043834e-01,2.918063402175903320e-01,2.917846441268920898e-01,2.917629241943359153e-01,2.917412519454956055e-01,2.917195320129394309e-01,2.916978359222411887e-01
2.698457956314087025e-01,2.698272228240966575e-01,2.698086738586426003e-01,2.697901010513305553e-01,2.697715520858764426e-01,2.697530031204223855e-01,2.697344541549682728e-01,2.697158813476562278e-01,2.696973562240600475e-01,2.696788072586059348e-01,2.696602821350097545e-01,2.696417331695556419e-01,2.696232080459594616e-01,2.696046590805053489e-01,2.695861339569091686e-01,2.695675849914550559e-01,2.695490837097168080e-01,2.695305585861206277e-01,2.695120334625243919e-01,2.694935083389282116e-01,2.694750070571899636e-01,2.694564819335937278e-01,2.694379806518554799e-01,2.694194793701171764e-01,2.694009780883789285e-01,2.693824768066406250e-01,2.693639755249023215e-01,2.693454742431640736e-01,2.693269729614257701e-01,2.693084955215453991e-01,2.692899942398071511e-01,2.692714929580688477e-01,2.692529916763305442e-01,2.692345380783081055e-01,2.692160367965698020e-01,2.691975593566894309e-01,2.691790819168090598e-01,2.691606044769286887e-01,2.691421508789062500e-01,2.691236734390258789e-01,2.691051959991455078e-01,2.690867424011230691e-01,2.690682649612426980e-01,2.690498113632202037e-01,2.690313577651977650e-01,2.690129041671752708e-01,2.689944505691528320e-01,2.689759969711303933e-01,2.689575433731078991e-01,2.689391136169433372e-01,2.689206600189208984e-01,2.689022302627563366e-01,2.688838005065917747e-01,2.688653469085693359e-01,2.688469171524047741e-01,2.688284873962402122e-01,2.688100576400757058e-01,2.687916517257690208e-01,2.687732219696045144e-01,2.687548160552978294e-01,2.687363862991333230e-01,2.687179565429687611e-01,2.686995506286621316e-01,2.686811447143554465e-01,2.686627388000488170e-01,2.686443328857421875e-01,2.686259269714355580e-01,2.686075448989868053e-01,2.685891389846801758e-01,2.685707330703735463e-01,2.685523509979247936e-01,2.685339450836181641e-01,2.685155868530273438e-01,2.684971809387207142e-01,2.684787988662719616e-01,2.684604406356811412e-01,2.684420585632324441e-01,2.684237003326416238e-01,2.684053182601928711e-01,2.683869361877441184e-01
2.497765064239501898e-01,2.497606039047241266e-01,2.497447013854980358e-01,2.497288227081298773e-01,2.497128963470459095e-01,2.496970176696777233e-01,2.496811151504516602e-01,2.496652364730835016e-01,2.496493339538574108e-01,2.496334552764892523e-01,2.496175527572631891e-01,2.496016740798950306e-01,2.495857715606689398e-01,2.495699167251586859e-01,2.495540142059326227e-01,2.495381593704223688e-01,2.495222568511962780e-01,2.495064020156860241e-01,2.494905233383178655e-01,2.494746685028076116e-01,2.494587898254394531e-01,2.494429349899291992e-01,2.494270801544189453e-01,2.494112014770507868e-01,2.493953466415405329e-01,2.493794918060302790e-01,2.493636369705200251e-01,2.493477821350097712e-01,2.493319511413574219e-01,2.493160724639892634e-01,2.493002414703369141e-01,2.492843866348266602e-01,2.492685556411743109e-01,2.492527008056640569e-01,2.492368698120117076e-01,2.492210149765014537e-01,2.492051839828491322e-01,2.491893529891967829e-01,2.491735219955444336e-01,2.491576910018920843e-01,2.491418600082397350e-01,2.491260290145874134e-01,2.491101980209350641e-01,2.490943670272827148e-01,2.490785598754882701e-01,2.490627288818359486e-01,2.490469217300415039e-01,2.490311145782470592e-01,2.490152835845947377e-01,2.489995002746581976e-01,2.489836692810058483e-01,2.489678859710693359e-01,2.489520788192748912e-01,2.489362478256225697e-01,2.489204645156860296e-01,2.489046573638916127e-01,2.488888502120971680e-01,2.488730669021606556e-01,2.488572835922241155e-01,2.488415002822876032e-01,2.488256931304931585e-01,2.488099098205566462e-01,2.487941265106201061e-01,2.487783432006835938e-01,2.487625837326049860e-01,2.487468004226684459e-01,2.487310171127319336e-01,2.487152338027954213e-01,2.486994743347167858e-01,2.486836910247802734e-01,2.486679315567016657e-01,2.486521482467651256e-01,2.486364126205444225e-01,2.486206293106079102e-01,2.486048698425293024e-01,2.485891103744506947e-01,2.485733509063720592e-01,2.485576152801513561e-01,2.485418558120727484e-01,2.485260963439941406e-01
2.324858188629150280e-01,2.324720382690429743e-01,2.324582576751708929e-01,2.324444770812988392e-01,2.324307203292846624e-01,2.324169397354126088e-01,2.324031829833984319e-01,2.323894023895263783e-01,2.323756456375122015e-01,2.323618650436401478e-01,2.323481082916259710e-01,2.323343276977539174e-01,2.323205709457397405e-01,2.323068141937255915e-01,2.322930574417114147e-01,2.322793006896972656e-01,2.322655439376831166e-01,2.322518110275268444e-01,2.322380304336547907e-01,2.322242975234985463e-01,2.322105407714843694e-01,2.321968078613281250e-01,2.321830511093139759e-01,2.321693181991577037e-01,2.321555614471435547e-01,2.321418285369873102e-01,2.321280717849731334e-01,2.321143627166747936e-01,2.321006059646606445e-01,2.320868730545044001e-01,2.320731401443481556e-01,2.320594310760498158e-01,2.320456743240356390e-01,2.320319652557372991e-01,2.320182323455810547e-01,2.320045232772827148e-01,2.319907903671264704e-01,2.319770574569702259e-01,2.319633483886718861e-01,2.319496154785156139e-01,2.319358825683593694e-01,2.319221735000610296e-01,2.319084644317626898e-01,2.318947315216064453e-01,2.318810462951660101e-01,2.318673133850097656e-01,2.318536281585693304e-01,2.318399190902709905e-01,2.318262100219726507e-01,2.318125009536743109e-01,2.317987918853759710e-01,2.317851066589355358e-01,2.317713975906371959e-01,2.317576885223388561e-01,2.317440032958984486e-01,2.317303180694580134e-01,2.317166090011596735e-01,2.317029237747192383e-01,2.316892385482788030e-01,2.316755533218383678e-01,2.316618680953979603e-01,2.316481828689575251e-01,2.316345214843749944e-01,2.316208362579345592e-01,2.316071510314941517e-01,2.315934658050537165e-01,2.315797805786132812e-01,2.315661191940307506e-01,2.315524578094482477e-01,2.315387725830078125e-01,2.315251111984252819e-01,2.315114498138427790e-01,2.314977884292602484e-01,2.314841032028198131e-01,2.314704418182373102e-01,2.314567804336547796e-01,2.314431190490722767e-01,2.314294815063476507e-01,2.314158201217651478e-01,2.314021587371826172e-01
2.174340009689331166e-01,2.174219608306884877e-01,2.174098968505859264e-01,2.173978567123412975e-01,2.173858165740966686e-01,2.173737764358520397e-01,2.173617124557495062e-01,2.173496723175048773e-01,2.173376321792602484e-01,2.173255920410156194e-01,2.173135519027709905e-01,2.173015117645263616e-01,2.172894716262817327e-01,2.172774314880371038e-01,2.172653913497924749e-01,2.172533750534057506e-01,2.172413349151611217e-01,2.172292947769164928e-01,2.172172784805297963e-01,2.172052383422851674e-01,2.171932220458984431e-01,2.171811819076538141e-01,2.171691656112670898e-01,2.171571254730224609e-01,2.171451330184936412e-01,2.171330928802490123e-01,2.171210765838623158e-01,2.171090602874755915e-01,2.170970439910888672e-01,2.170850276947021429e-01,2.170730113983154186e-01,2.170609951019287220e-01,2.170490026473999023e-01,2.170369625091552734e-01,2.170249700546264537e-01,2.170129537582397572e-01,2.170009613037109375e-01,2.169889450073242132e-01,2.169769525527954213e-01,2.169649600982666016e-01,2.169529438018798773e-01,2.169409513473510853e-01,2.169289350509643610e-01,2.169169187545776367e-01,2.169049263000488170e-01,2.168929338455200251e-01,2.168809413909912054e-01,2.168689489364624134e-01,2.168569564819335938e-01,2.168449640274047741e-01,2.168329715728759821e-01,2.168210029602050670e-01,2.168090105056762751e-01,2.167970180511474554e-01,2.167850494384765681e-01,2.167730569839477484e-01,2.167610645294189564e-01,2.167490959167480413e-01,2.167371034622192494e-01,2.167251348495483343e-01,2.167131662368774470e-01,2.167011737823486273e-01,2.166892051696777399e-01,2.166772365570068248e-01,2.166652679443359375e-01,2.166532993316650502e-01,2.166413307189941351e-01,2.166293621063232477e-01,2.166173934936523326e-01,2.166054248809814453e-01,2.165934801101684626e-01,2.165815114974975475e-01,2.165695428848266602e-01,2.165575742721557728e-01,2.165456295013427623e-01,2.165336847305297796e-01,2.165217161178588923e-01,2.165097713470459095e-01,2.164978027343749944e-01,2.164858579635620117e-01
2.042127132415771373e-01,2.042020559310913086e-01,2.041914463043212891e-01,2.041808128356933649e-01,2.041701793670654408e-01,2.041595458984374889e-01,2.041489362716674694e-01,2.041383028030395452e-01,2.041276693344116211e-01,2.041170358657836970e-01,2.041064262390136774e-01,2.040958166122436579e-01,2.040851831436157338e-01,2.040745735168457142e-01,2.040639638900756947e-01,2.040533542633056752e-01,2.040427207946777233e-01,2.040321111679077037e-01,2.040215015411376842e-01,2.040108919143676647e-01,2.040002822875976451e-01,2.039896726608276256e-01,2.039790630340576061e-01,2.039684534072875866e-01,2.039578437805175670e-01,2.039472341537475475e-01,2.039366245269775280e-01,2.039260387420654408e-01,2.039154291152954213e-01,2.039048433303833063e-01,2.038942337036132868e-01,2.038836240768432673e-01,2.038730382919311523e-01,2.038624286651611328e-01,2.038518428802490179e-01,2.038412570953369030e-01,2.038306474685668834e-01,2.038200616836547963e-01,2.038094758987426813e-01,2.037988901138305664e-01,2.037883043289184515e-01,2.037777185440063366e-01,2.037671327590942494e-01,2.037565231323242299e-01,2.037459611892700195e-01,2.037353754043579046e-01,2.037247896194457897e-01,2.037141799926757701e-01,2.037035942077636830e-01,2.036930322647094727e-01,2.036824464797973577e-01,2.036718845367431752e-01,2.036612987518310602e-01,2.036507129669189453e-01,2.036401510238647350e-01,2.036295652389526478e-01,2.036190032958984375e-01,2.036084175109863226e-01,2.035978555679321400e-01,2.035872936248779297e-01,2.035767078399658148e-01,2.035661458969116322e-01,2.035555839538574219e-01,2.035450220108032116e-01,2.035344600677490290e-01,2.035238981246948187e-01,2.035133361816406361e-01,2.035027742385864258e-01,2.034922122955322155e-01,2.034816503524780329e-01,2.034710884094238226e-01,2.034605264663696400e-01,2.034499883651733343e-01,2.034394264221191517e-01,2.034288644790649414e-01,2.034183263778686634e-01,2.034077644348144531e-01,2.033972263336181752e-01,2.033866643905639648e-01,2.033761262893676869e-01
1.925070881843566895e-01,1.924976587295532116e-01,1.924882054328918568e-01,1.924787521362304743e-01,1.924692988395690918e-01,1.924598693847656139e-01,1.924504280090331976e-01,1.924409747123718151e-01,1.924315571784973034e-01,1.924221038818359486e-01,1.924126625061035045e-01,1.924032211303710882e-01,1.923937916755676381e-01,1.923843502998351940e-01,1.923749089241027777e-01,1.923654675483703613e-01,1.923560500144958496e-01,1.923466205596923717e-01,1.923371791839599554e-01,1.923277378082275391e-01,1.923183321952819935e-01,1.923088908195495494e-01,1.922994613647460993e-01,1.922900199890136830e-01,1.922806143760681097e-01,1.922711849212646595e-01,1.922617554664611816e-01,1.922523260116577037e-01,1.922429203987121582e-01,1.922334909439086803e-01,1.922240614891052302e-01,1.922146439552307184e-01,1.922052383422851451e-01,1.921958088874816950e-01,1.921863913536071833e-01,1.921769857406616100e-01,1.921675682067870983e-01,1.921581506729125866e-01,1.921487331390380748e-01,1.921393275260925293e-01,1.921299099922180176e-01,1.921204924583435059e-01,1.921110868453979603e-01,1.921016931533813532e-01,1.920922756195068415e-01,1.920828580856323298e-01,1.920734524726867565e-01,1.920640587806701771e-01,1.920546531677246038e-01,1.920452475547790583e-01,1.920358300209045466e-01,1.920264244079589733e-01,1.920170187950134277e-01,1.920076131820678822e-01,1.919982314109802135e-01,1.919888257980346680e-01,1.919794201850891224e-01,1.919700264930725153e-01,1.919606208801269420e-01,1.919512391090393011e-01,1.919418454170226940e-01,1.919324517250061146e-01,1.919230461120605413e-01,1.919136524200439342e-01,1.919042825698852595e-01,1.918948888778686523e-01,1.918854951858520452e-01,1.918761014938354381e-01,1.918667078018188588e-01,1.918573141098022516e-01,1.918479442596435491e-01,1.918385624885559082e-01,1.918291687965393011e-01,1.918197870254516602e-01,1.918103933334350530e-01,1.918010354042053167e-01,1.917916536331176758e-01,1.917822599411010687e-01,1.917728781700134277e-01,1.917634963989257868e-01
1.820706844329834095e-01,1.820622205734253041e-01,1.820537924766540416e-01,1.820453286170959362e-01,1.820368766784667969e-01,1.820284485816955622e-01,1.820199966430663951e-01,1.820115447044372559e-01,1.820030927658081166e-01,1.819946646690368541e-01,1.819862127304077148e-01,1.819777607917785756e-01,1.819693088531494085e-01,1.819608926773071400e-01,1.819524407386779730e-01,1.819440007209777721e-01,1.819355487823486328e-01,1.819271326065063366e-01,1.819186806678771973e-01,1.819102406501769964e-01,1.819018006324767955e-01,1.818933844566345270e-01,1.818849444389343262e-01,1.818765044212341253e-01,1.818680644035339244e-01,1.818596482276916559e-01,1.818512082099914551e-01,1.818427681922912542e-01,1.818343400955200195e-01,1.818259239196777233e-01,1.818174839019775502e-01,1.818090558052062877e-01,1.818006396293640192e-01,1.817922115325927845e-01,1.817837834358215221e-01,1.817753553390502874e-01,1.817669391632080189e-01,1.817585110664367565e-01,1.817500829696655218e-01,1.817416548728942871e-01,1.817332506179809570e-01,1.817248344421386608e-01,1.817164063453674261e-01,1.817079782485961914e-01,1.816995739936828613e-01,1.816911578178405651e-01,1.816827297210693304e-01,1.816743135452270619e-01,1.816659212112426702e-01,1.816574931144714355e-01,1.816490769386291393e-01,1.816406607627868708e-01,1.816322684288024791e-01,1.816238284111023060e-01,1.816154360771179144e-01,1.816070199012756459e-01,1.815986037254333496e-01,1.815901994705200195e-01,1.815817832946777233e-01,1.815733909606933594e-01,1.815649867057800293e-01,1.815565705299377330e-01,1.815481662750244030e-01,1.815397500991821345e-01,1.815313696861267090e-01,1.815229654312133789e-01,1.815145611763000488e-01,1.815061569213867188e-01,1.814977526664733887e-01,1.814893484115600586e-01,1.814809560775756947e-01,1.814725637435913030e-01,1.814641594886779730e-01,1.814557552337646429e-01,1.814473628997802790e-01,1.814389824867248535e-01,1.814305782318115234e-01,1.814221858978271595e-01,1.814137935638427679e-01,1.814053893089294378e-01
1.727076649665832409e-01,1.727000474929809570e-01,1.726924657821655162e-01,1.726848483085632324e-01,1.726772427558898870e-01,1.726696372032165416e-01,1.726620554924011286e-01,1.726544499397277832e-01,1.726468443870544378e-01,1.726392388343810924e-01,1.726316571235656794e-01,1.726240515708923340e-01,1.726164460182189886e-01,1.726088523864746094e-01,1.726012706756591686e-01,1.725936651229858509e-01,1.725860714912414440e-01,1.725784659385681263e-01,1.725708961486816517e-01,1.725632905960083063e-01,1.725556969642639271e-01,1.725481033325195201e-01,1.725405216217041071e-01,1.725329279899597279e-01,1.725253343582153209e-01,1.725177407264709417e-01,1.725101709365844671e-01,1.725025773048400879e-01,1.724949836730957087e-01,1.724874138832092341e-01,1.724798202514648549e-01,1.724722385406494141e-01,1.724646449089050348e-01,1.724570751190185602e-01,1.724494934082031194e-01,1.724418997764587402e-01,1.724343180656432994e-01,1.724267482757568248e-01,1.724191665649414118e-01,1.724115848541259710e-01,1.724040031433105580e-01,1.723964333534240834e-01,1.723888516426086426e-01,1.723812699317932018e-01,1.723736882209777888e-01,1.723661303520202526e-01,1.723585486412048395e-01,1.723509788513183649e-01,1.723433971405029241e-01,1.723358392715454157e-01,1.723282575607299749e-01,1.723206877708435003e-01,1.723131299018859919e-01,1.723055481910705511e-01,1.722979784011840765e-01,1.722904086112976019e-01,1.722828507423400934e-01,1.722752571105957142e-01,1.722676873207092396e-01,1.722601413726806696e-01,1.722525715827941950e-01,1.722450017929077204e-01,1.722374320030212458e-01,1.722298622131347712e-01,1.722223162651062012e-01,1.722147464752197266e-01,1.722071766853332520e-01,1.721996188163757435e-01,1.721920490264892689e-01,1.721844911575317327e-01,1.721769452095031627e-01,1.721693873405456543e-01,1.721618175506591797e-01,1.721542596817016713e-01,1.721467018127441351e-01,1.721391558647155651e-01,1.721315979957580566e-01,1.721240401268005482e-01,1.721164822578430120e-01,1.721089243888855036e-01
1.642605304718017523e-01,1.642536520957946777e-01,1.642467617988586370e-01,1.642398953437805287e-01,1.642330169677734264e-01,1.642261385917663519e-01,1.642192602157592773e-01,1.642123937606811412e-01,1.642055153846740667e-01,1.641986370086669922e-01,1.641917586326599177e-01,1.641849040985107477e-01,1.641780257225036732e-01,1.641711473464965709e-01,1.641642689704894964e-01,1.641574144363403265e-01,1.641505360603332520e-01,1.641436696052551159e-01,1.641367912292480413e-01,1.641299366950988714e-01,1.641230702400207631e-01,1.641161918640136608e-01,1.641093254089355524e-01,1.641024708747863825e-01,1.640956044197082464e-01,1.640887260437011719e-01,1.640818834304809681e-01,1.640750169754028320e-01,1.640681385993957575e-01,1.640612721443176214e-01,1.640544295310974177e-01,1.640475630760192816e-01,1.640406966209411732e-01,1.640338301658630371e-01,1.640269875526428334e-01,1.640201210975646973e-01,1.640132546424865612e-01,1.640064001083373912e-01,1.639995455741882213e-01,1.639926910400390514e-01,1.639858245849609431e-01,1.639789700508117731e-01,1.639721274375915416e-01,1.639652729034423717e-01,1.639584064483642634e-01,1.639515519142150934e-01,1.639447093009948619e-01,1.639378547668456920e-01,1.639310002326965221e-01,1.639241576194763184e-01,1.639173030853271484e-01,1.639104485511779785e-01,1.639035940170288086e-01,1.638967633247375433e-01,1.638899087905883734e-01,1.638830542564392034e-01,1.638761997222900335e-01,1.638693690299987682e-01,1.638625144958495983e-01,1.638556718826293945e-01,1.638488173484802246e-01,1.638419747352600209e-01,1.638351202011108509e-01,1.638282775878906194e-01,1.638214468955993541e-01,1.638146042823791504e-01,1.638077497482299805e-01,1.638009071350097767e-01,1.637940645217895452e-01,1.637872219085693415e-01,1.637803912162780762e-01,1.637735486030578724e-01,1.637667059898376409e-01,1.637598633766174372e-01,1.637530207633972057e-01,1.637462019920349066e-01,1.637393593788147028e-01,1.637325167655944713e-01,1.637256860733032338e-01,1.637188434600830023e-01
1.566011786460876354e-01,1.565949201583862194e-01,1.565886616706848034e-01,1.565824031829833873e-01,1.565761685371399037e-01,1.565699100494384877e-01,1.565636634826660101e-01,1.565574049949645941e-01,1.565511703491210826e-01,1.565449118614196666e-01,1.565386652946472168e-01,1.565324187278747670e-01,1.565261840820312556e-01,1.565199255943298395e-01,1.565136790275573619e-01,1.565074324607849121e-01,1.565011978149414007e-01,1.564949512481689509e-01,1.564887046813964733e-01,1.564824581146240234e-01,1.564762234687805120e-01,1.564699769020080622e-01,1.564637303352355846e-01,1.564574956893921009e-01,1.564512491226196234e-01,1.564450144767761119e-01,1.564387679100036621e-01,1.564325332641601507e-01,1.564262986183166393e-01,1.564200520515441895e-01,1.564138174057006780e-01,1.564075827598571666e-01,1.564013481140136830e-01,1.563951015472412054e-01,1.563888669013976940e-01,1.563826441764831487e-01,1.563763976097106989e-01,1.563701629638671875e-01,1.563639283180236761e-01,1.563577055931091309e-01,1.563514709472656194e-01,1.563452243804931696e-01,1.563389897346496582e-01,1.563327789306640514e-01,1.563265442848205677e-01,1.563203096389770563e-01,1.563140869140625111e-01,1.563078522682189997e-01,1.563016176223754883e-01,1.562953829765319769e-01,1.562891721725463978e-01,1.562829375267028864e-01,1.562767148017883412e-01,1.562704801559448298e-01,1.562642693519592230e-01,1.562580347061157116e-01,1.562518119812011663e-01,1.562455773353576549e-01,1.562393665313720759e-01,1.562331318855285645e-01,1.562269091606140192e-01,1.562206864356994740e-01,1.562144756317138672e-01,1.562082529067993220e-01,1.562020182609558105e-01,1.561957955360412653e-01,1.561895728111267201e-01,1.561833500862121471e-01,1.561771273612976019e-01,1.561709046363830566e-01,1.561647057533264160e-01,1.561584830284118708e-01,1.561522603034973256e-01,1.561460375785827526e-01,1.561398148536682073e-01,1.561336159706115667e-01,1.561273932456970215e-01,1.561211824417114147e-01,1.561149597167968694e-01,1.561087369918823242e-01
