6.200552940368652122e-01,6.357914924621581587e-01,6.523471832275390403e-01,6.697880268096924050e-01,6.881872177124023215e-01,7.076256752014160600e-01,7.281942844390869585e-01,7.499943256378174272e-01,7.731400489807128684e-01,7.977597236633300337e-01,8.239990234374999778e-01,8.520230293273926003e-01,8.820204734802246094e-01,9.142070770263671653e-01,9.488319396972656472e-01,1.000000000000000000e+00,1.000000000000000000e+00,1.000000000000000000e+00,1.000000000000000000e+00,1.000000000000000000e+00,1.000000000000000000e+00,1.000000000000000000e+00,1.000000000000000000e+00,1.000000000000000000e+00,1.000000000000000000e+00,1.000000000000000000e+00,1.000000000000000000e+00,1.000000000000000000e+00,1.000000000000000000e+00,1.000000000000000000e+00,1.000000000000000000e+00,1.000000000000000000e+00,1.000000000000000000e+00,1.000000000000000000e+00,1.000000000000000000e+00,1.000000000000000000e+00,1.000000000000000000e+00,1.000000000000000000e+00,1.000000000000000000e+00,1.000000000000000000e+00,1.000000000000000000e+00,1.000000000000000000e+00,1.409229993820190485e-01,1.377579808235168402e-01,1.344958901405334528e-01,1.318804025650024414e-01,1.297893643379211537e-01,1.277636289596557617e-01,1.256581425666808971e-01,1.252874970436096136e-01,1.253684401512145941e-01,1.255803346633911077e-01,1.257929444313049261e-01,1.260062813758850153e-01,1.280551791191101019e-01,1.337802529335022084e-01,1.000000000000000000e+00,1.000000000000000000e+00,1.000000000000000000e+00,1.856914639472961315e-01,1.827044606208801381e-01,1.799460887908935491e-01,1.774307966232299694e-01,1.727400541305542103e-01,1.711790323257446345e-01,1.320319294929504506e-01,1.242952823638916043e-01,1.220445632934570312e-01,1.198739171028137263e-01,1.177791357040405273e-01,1.157562971115112249e-01,1.138017773628234863e-01,1.117000579833984375e-01,1.096640467643737737e-01,1.076681256294250433e-01,1.069534301757812528e-01,1.062481403350830078e-01,1.055521011352539007e-01,1.048651337623596191e-01,1.041411042213439969e-01
6.200432777404785156e-01,6.357790470123291238e-01,6.523341178894043191e-01,6.697742462158202681e-01,6.881726741790771262e-01,7.076103210449218306e-01,7.281780242919921875e-01,7.499770641326903853e-01,7.731216907501220481e-01,7.977401733398437056e-01,8.239781379699706587e-01,8.520008087158202903e-01,8.819965362548828347e-01,9.141814231872558150e-01,9.488042831420898660e-01,9.861528396606444868e-01,1.000000000000000000e+00,1.000000000000000000e+00,1.000000000000000000e+00,1.000000000000000000e+00,1.000000000000000000e+00,1.000000000000000000e+00,1.000000000000000000e+00,1.000000000000000000e+00,1.000000000000000000e+00,1.000000000000000000e+00,1.000000000000000000e+00,1.000000000000000000e+00,1.000000000000000000e+00,1.000000000000000000e+00,1.000000000000000000e+00,1.000000000000000000e+00,1.000000000000000000e+00,1.000000000000000000e+00,1.000000000000000000e+00,1.000000000000000000e+00,1.000000000000000000e+00,1.000000000000000000e+00,1.000000000000000000e+00,1.000000000000000000e+00,1.000000000000000000e+00,1.000000000000000000e+00,1.414649367332458385e-01,1.384473800659179743e-01,1.351529479026794545e-01,1.324649930000305065e-01,1.303555488586425892e-01,1.282635688781738337e-01,1.262055873870849554e-01,1.258316993713378962e-01,1.257761478424072321e-01,1.259894251823425182e-01,1.262034296989441029e-01,1.264181494712829645e-01,1.296603918075561468e-01,1.355331897735595759e-01,1.000000000000000000e+00,1.000000000000000000e+00,1.000000000000000000e+00,1.877871274948120228e-01,1.860569238662719838e-01,1.823007941246032604e-01,1.780704736709594616e-01,1.737198472023010198e-01,1.708094954490661510e-01,1.000000000000000000e+00,1.277540326118469238e-01,1.228233218193054144e-01,1.206251263618469266e-01,1.185042381286621066e-01,1.164566516876220648e-01,1.143419384956359808e-01,1.122094154357910212e-01,1.100415349006652888e-01,1.078461527824401828e-01,1.071290850639343289e-01,1.064214944839477484e-01,1.056996464729309110e-01,1.049422144889831515e-01,1.041955590248107855e-01
6.200300216674804465e-01,6.357664108276367410e-01,6.523210525512694868e-01,6.697605133056641069e-01,6.881581306457519309e-01,7.075949192047119585e-01,7.281617641448974165e-01,7.499598026275634544e-01,7.731033325195312278e-01,7.977206230163573775e-01,8.239573478698730691e-01,8.519784927368163618e-01,8.819726943969726785e-01,9.141557693481445757e-01,9.487767219543457031e-01,9.861230850219726562e-01,1.000000000000000000e+00,1.000000000000000000e+00,1.000000000000000000e+00,1.000000000000000000e+00,1.000000000000000000e+00,1.000000000000000000e+00,1.000000000000000000e+00,1.000000000000000000e+00,1.000000000000000000e+00,1.000000000000000000e+00,1.000000000000000000e+00,1.000000000000000000e+00,1.000000000000000000e+00,1.000000000000000000e+00,1.000000000000000000e+00,1.000000000000000000e+00,1.000000000000000000e+00,1.000000000000000000e+00,1.000000000000000000e+00,1.000000000000000000e+00,1.000000000000000000e+00,1.000000000000000000e+00,1.000000000000000000e+00,1.000000000000000000e+00,1.000000000000000000e+00,1.000000000000000000e+00,1.420110583305358998e-01,1.391437172889709584e-01,1.358164548873901367e-01,1.330548048019409291e-01,1.309266686439514160e-01,1.287495613098144642e-01,1.267578125000000111e-01,1.263806581497192438e-01,1.261865139007568304e-01,1.264011859893798828e-01,1.266165852546691784e-01,1.268327236175537109e-01,1.313063621520996205e-01,1.366765975952148326e-01,1.000000000000000000e+00,1.000000000000000000e+00,1.000000000000000000e+00,1.000000000000000000e+00,1.866800904273986927e-01,1.824691176414489635e-01,1.788558959960937500e-01,1.771016836166381947e-01,1.709237337112426702e-01,1.000000000000000000e+00,1.000000000000000000e+00,1.237446308135986273e-01,1.213858246803283664e-01,1.192383289337158175e-01,1.171118259429931585e-01,1.148757457733154269e-01,1.126390099525451660e-01,1.101224422454833984e-01,1.080247521400451716e-01,1.073053359985351590e-01,1.065249919891357450e-01,1.057669758796691839e-01,1.050751805305480957e-01,1.043923854827880915e-01
6.200167655944823775e-01,6.357524871826172319e-01,6.523077487945556641e-01,6.697467327117919700e-01,6.881435871124267356e-01,7.075795650482177290e-01,7.281454563140868919e-01,7.499425411224365234e-01,7.730849742889404075e-01,7.977011203765869141e-01,8.239364624023437500e-01,8.519562721252441628e-01,8.819487571716309038e-01,9.141302108764648438e-01,9.487490653991699219e-01,9.860932350158690962e-01,1.000000000000000000e+00,1.000000000000000000e+00,1.000000000000000000e+00,1.000000000000000000e+00,1.000000000000000000e+00,1.000000000000000000e+00,1.000000000000000000e+00,1.000000000000000000e+00,1.000000000000000000e+00,1.000000000000000000e+00,1.000000000000000000e+00,1.000000000000000000e+00,1.000000000000000000e+00,1.000000000000000000e+00,1.000000000000000000e+00,1.000000000000000000e+00,1.000000000000000000e+00,1.000000000000000000e+00,1.000000000000000000e+00,1.000000000000000000e+00,1.000000000000000000e+00,1.000000000000000000e+00,1.000000000000000000e+00,1.000000000000000000e+00,1.000000000000000000e+00,1.000000000000000000e+00,1.425613999366760198e-01,1.397031426429748424e-01,1.364865183830261119e-01,1.336498856544494629e-01,1.315028309822082464e-01,1.292392373085022028e-01,1.273149132728576549e-01,1.269344210624694935e-01,1.265995740890502874e-01,1.268156528472900446e-01,1.270324707031250111e-01,1.273352146148681585e-01,1.329946637153625599e-01,1.000000000000000000e+00,1.000000000000000000e+00,1.000000000000000000e+00,1.000000000000000000e+00,1.000000000000000000e+00,1.866336584091186634e-01,1.830470919609069880e-01,1.000000000000000000e+00,1.770614385604858398e-01,1.714406609535217285e-01,1.000000000000000000e+00,1.000000000000000000e+00,1.335994839668273870e-01,1.221561670303344671e-01,1.199815750122070340e-01,1.176609635353088323e-01,1.153455376625061035e-01,1.127237796783447238e-01,1.102034687995910589e-01,1.082466244697570801e-01,1.075221180915832547e-01,1.068072557449340765e-01,1.061018347740173284e-01,1.054056763648986844e-01,1.047185897827148382e-01
6.200034618377685547e-01,6.357385158538818581e-01,6.522930622100829856e-01,6.697327613830565962e-01,6.881290435791015403e-01,7.075642108917236106e-01,7.281291961669922319e-01,7.499252796173095925e-01,7.730666637420654519e-01,7.976815700531005859e-01,8.239156723022460493e-01,8.519340515136718528e-01,8.819250106811523660e-01,9.141045570373534934e-01,9.487214088439941406e-01,9.860633850097656472e-01,1.000000000000000000e+00,1.000000000000000000e+00,1.000000000000000000e+00,1.000000000000000000e+00,1.000000000000000000e+00,1.000000000000000000e+00,1.000000000000000000e+00,1.000000000000000000e+00,1.000000000000000000e+00,1.000000000000000000e+00,1.000000000000000000e+00,1.000000000000000000e+00,1.000000000000000000e+00,1.000000000000000000e+00,1.000000000000000000e+00,1.000000000000000000e+00,1.000000000000000000e+00,1.000000000000000000e+00,1.000000000000000000e+00,1.000000000000000000e+00,1.000000000000000000e+00,1.000000000000000000e+00,1.000000000000000000e+00,1.000000000000000000e+00,1.000000000000000000e+00,1.000000000000000000e+00,1.431160449981689342e-01,1.402357101440429576e-01,1.371632218360900879e-01,1.342503190040588434e-01,1.320840716361999512e-01,1.297326564788818248e-01,1.278769135475158747e-01,1.274930715560912975e-01,1.271115183830261175e-01,1.272328376770019420e-01,1.274510860443115179e-01,1.289223074913024847e-01,1.344260334968566950e-01,1.000000000000000000e+00,1.000000000000000000e+00,1.000000000000000000e+00,1.000000000000000000e+00,1.000000000000000000e+00,1.870945334434509222e-01,1.838917136192321777e-01,1.824458837509155273e-01,1.772683739662170299e-01,1.000000000000000000e+00,1.000000000000000000e+00,1.000000000000000000e+00,1.000000000000000000e+00,1.288223147392272838e-01,1.205800533294677790e-01,1.181494951248169001e-01,1.154509902000427218e-01,1.127693772315978976e-01,1.100507736206054743e-01,1.085973858833313016e-01,1.078682065010070773e-01,1.071487545967102079e-01,1.064388275146484347e-01,1.057382464408874456e-01,1.050468325614929144e-01
6.199902534484863503e-01,6.357245445251464844e-01,6.522783756256103072e-01,6.697173118591308594e-01,6.881143093109131081e-01,7.075488090515136275e-01,7.281129360198974609e-01,7.499080181121826616e-01,7.730483055114746316e-01,7.976621627807617410e-01,8.238948822021484597e-01,8.519117355346679243e-01,8.819010734558105913e-01,9.140789031982421431e-01,9.486938476562499778e-01,9.860335350036620872e-01,1.000000000000000000e+00,1.000000000000000000e+00,1.000000000000000000e+00,1.000000000000000000e+00,1.000000000000000000e+00,1.000000000000000000e+00,1.000000000000000000e+00,1.000000000000000000e+00,1.000000000000000000e+00,1.000000000000000000e+00,1.000000000000000000e+00,1.000000000000000000e+00,1.000000000000000000e+00,1.000000000000000000e+00,1.000000000000000000e+00,1.000000000000000000e+00,1.000000000000000000e+00,1.000000000000000000e+00,1.000000000000000000e+00,1.000000000000000000e+00,1.000000000000000000e+00,1.000000000000000000e+00,1.000000000000000000e+00,1.000000000000000000e+00,1.000000000000000000e+00,1.000000000000000000e+00,1.436750054359436091e-01,1.407723665237426702e-01,1.378466725349426214e-01,1.348561525344848522e-01,1.326392650604248102e-01,1.302298665046691950e-01,1.284438967704772949e-01,1.280566453933715820e-01,1.276717305183410756e-01,1.276527762413025013e-01,1.278724789619445912e-01,1.305494904518127441e-01,1.354457736015319824e-01,1.000000000000000000e+00,1.000000000000000000e+00,1.000000000000000000e+00,1.000000000000000000e+00,1.000000000000000000e+00,1.000000000000000000e+00,1.000000000000000000e+00,1.828222870826721191e-01,1.782023429870605580e-01,1.000000000000000000e+00,1.000000000000000000e+00,1.000000000000000000e+00,1.000000000000000000e+00,1.000000000000000000e+00,1.234067916870117132e-01,1.182733774185180664e-01,1.154412269592285101e-01,1.125556111335754422e-01,1.097937703132629422e-01,1.089504480361938449e-01,1.082165241241455078e-01,1.074924349784851102e-01,1.067779660224914551e-01,1.060729265213012640e-01,1.052733063697814941e-01
6.199769496917724165e-01,6.357106685638427290e-01,6.522636890411377397e-01,6.697018146514892578e-01,6.880980014801025835e-01,7.075333118438720259e-01,7.280966281890869363e-01,7.498908519744873491e-01,7.730299472808838113e-01,7.976426124572754128e-01,8.238739967346191406e-01,8.518894195556641069e-01,8.818772315979004350e-01,9.140532493591309038e-01,9.486661911010741965e-01,9.860036849975586382e-01,1.000000000000000000e+00,1.000000000000000000e+00,1.000000000000000000e+00,1.000000000000000000e+00,1.000000000000000000e+00,1.000000000000000000e+00,1.000000000000000000e+00,1.000000000000000000e+00,1.000000000000000000e+00,1.000000000000000000e+00,1.000000000000000000e+00,1.000000000000000000e+00,1.000000000000000000e+00,1.000000000000000000e+00,1.000000000000000000e+00,1.000000000000000000e+00,1.000000000000000000e+00,1.000000000000000000e+00,1.000000000000000000e+00,1.000000000000000000e+00,1.000000000000000000e+00,1.000000000000000000e+00,1.000000000000000000e+00,1.000000000000000000e+00,1.000000000000000000e+00,1.000000000000000000e+00,1.442383646965026966e-01,1.413131475448608509e-01,1.385042190551757924e-01,1.354674935340881292e-01,1.331590414047241211e-01,1.307309031486511286e-01,1.290159344673156849e-01,1.286252379417419378e-01,1.282368898391723633e-01,1.280755043029785101e-01,1.282966494560241755e-01,1.322182536125183216e-01,1.364811062812805176e-01,1.000000000000000000e+00,1.000000000000000000e+00,1.000000000000000000e+00,1.000000000000000000e+00,1.000000000000000000e+00,1.000000000000000000e+00,1.000000000000000000e+00,1.000000000000000000e+00,1.000000000000000000e+00,1.000000000000000000e+00,1.000000000000000000e+00,1.000000000000000000e+00,1.000000000000000000e+00,1.000000000000000000e+00,1.212158203125000000e-01,1.182201743125915472e-01,1.151771187782287542e-01,1.122867941856384305e-01,1.100546240806579562e-01,1.093057990074157715e-01,1.085671067237854032e-01,1.078383326530456543e-01,1.071192741394042941e-01,1.063333511352539118e-01,1.054000496864318792e-01
6.199636936187744585e-01,6.356966972351074663e-01,6.522490024566650613e-01,6.696863174438476562e-01,6.880816459655761941e-01,7.075160980224609597e-01,7.280802249908446822e-01,7.498735904693603072e-01,7.730116367340087447e-01,7.976230621337890847e-01,8.238532066345214400e-01,8.518671989440917969e-01,8.818533897399902788e-01,9.140275955200195535e-01,9.486385345458984153e-01,9.859738349914550781e-01,1.000000000000000000e+00,1.000000000000000000e+00,1.000000000000000000e+00,1.000000000000000000e+00,1.000000000000000000e+00,1.000000000000000000e+00,1.000000000000000000e+00,1.000000000000000000e+00,1.000000000000000000e+00,1.000000000000000000e+00,1.000000000000000000e+00,1.000000000000000000e+00,1.000000000000000000e+00,1.000000000000000000e+00,1.000000000000000000e+00,1.000000000000000000e+00,1.000000000000000000e+00,1.000000000000000000e+00,1.000000000000000000e+00,1.000000000000000000e+00,1.000000000000000000e+00,1.000000000000000000e+00,1.000000000000000000e+00,1.000000000000000000e+00,1.000000000000000000e+00,1.000000000000000000e+00,1.448061347007751354e-01,1.418580889701843151e-01,1.390276908874511774e-01,1.360844135284423884e-01,1.336829185485839955e-01,1.312357902526855580e-01,1.295930862426757924e-01,1.291988849639892634e-01,1.288070797920227162e-01,1.285010337829589899e-01,1.287236571311950739e-01,1.332352519035339411e-01,1.375324010848998912e-01,1.000000000000000000e+00,1.000000000000000000e+00,1.000000000000000000e+00,1.000000000000000000e+00,1.000000000000000000e+00,1.000000000000000000e+00,1.000000000000000000e+00,1.000000000000000000e+00,1.000000000000000000e+00,1.000000000000000000e+00,1.000000000000000000e+00,1.000000000000000000e+00,1.000000000000000000e+00,1.000000000000000000e+00,1.211155891418456976e-01,1.179236650466918973e-01,1.148956418037414551e-01,1.120192527770996066e-01,1.104172229766845759e-01,1.096634864807128906e-01,1.089199662208557157e-01,1.081864595413208063e-01,1.074149727821350070e-01,1.064626693725585910e-01,1.055271029472351074e-01
6.199504375457763894e-01,6.356827735900878462e-01,6.522343158721923828e-01,6.696708679199219194e-01,6.880652904510498047e-01,7.074987888336181641e-01,7.280619621276855913e-01,7.498561382293701394e-01,7.729932785034179243e-01,7.976035594940185103e-01,8.238323211669922319e-01,8.518448829650878684e-01,8.818294525146483931e-01,9.140020370483398215e-01,9.486109733581542525e-01,9.859439849853515181e-01,1.000000000000000000e+00,1.000000000000000000e+00,1.000000000000000000e+00,1.000000000000000000e+00,1.000000000000000000e+00,1.000000000000000000e+00,1.000000000000000000e+00,1.000000000000000000e+00,1.000000000000000000e+00,1.000000000000000000e+00,1.000000000000000000e+00,1.000000000000000000e+00,1.000000000000000000e+00,1.000000000000000000e+00,1.000000000000000000e+00,1.000000000000000000e+00,1.000000000000000000e+00,1.000000000000000000e+00,1.000000000000000000e+00,1.000000000000000000e+00,1.000000000000000000e+00,1.000000000000000000e+00,1.000000000000000000e+00,1.000000000000000000e+00,1.000000000000000000e+00,1.000000000000000000e+00,1.453784227371215931e-01,1.424072623252868597e-01,1.395551085472107045e-01,1.367069602012634388e-01,1.342109203338623102e-01,1.317446112632751354e-01,1.301754236221313588e-01,1.297776937484741155e-01,1.293823719024658203e-01,1.289894461631774791e-01,1.298012733459472656e-01,1.342369437217712513e-01,1.386000037193298451e-01,1.000000000000000000e+00,1.000000000000000000e+00,1.000000000000000000e+00,1.000000000000000000e+00,1.000000000000000000e+00,1.000000000000000000e+00,1.000000000000000000e+00,1.000000000000000000e+00,1.000000000000000000e+00,1.000000000000000000e+00,1.000000000000000000e+00,1.000000000000000000e+00,1.000000000000000000e+00,1.000000000000000000e+00,1.208043813705444308e-01,1.176286220550537137e-01,1.146155476570129422e-01,1.117529869079589844e-01,1.107822299003601019e-01,1.100235104560852023e-01,1.092751264572143499e-01,1.085188269615173368e-01,1.075469374656677218e-01,1.065922975540161133e-01,1.060795307159423800e-01
6.199371337890624556e-01,6.356688022613525835e-01,6.522196769714355691e-01,6.696553707122803178e-01,6.880489826202392800e-01,7.074814796447753684e-01,7.280436515808105247e-01,7.498367786407470481e-01,7.729748249053954856e-01,7.975840091705321822e-01,8.238115310668945312e-01,8.518226623535156694e-01,8.818056106567382368e-01,9.139763832092284712e-01,9.485833168029784712e-01,9.859141349792480691e-01,1.000000000000000000e+00,1.000000000000000000e+00,1.000000000000000000e+00,1.000000000000000000e+00,1.000000000000000000e+00,1.000000000000000000e+00,1.000000000000000000e+00,1.000000000000000000e+00,1.000000000000000000e+00,1.000000000000000000e+00,1.000000000000000000e+00,1.000000000000000000e+00,1.000000000000000000e+00,1.000000000000000000e+00,1.000000000000000000e+00,1.000000000000000000e+00,1.000000000000000000e+00,1.000000000000000000e+00,1.000000000000000000e+00,1.000000000000000000e+00,1.000000000000000000e+00,1.000000000000000000e+00,1.000000000000000000e+00,1.000000000000000000e+00,1.000000000000000000e+00,1.000000000000000000e+00,1.000000000000000000e+00,1.430193424224853460e-01,1.401038169860839844e-01,1.373240709304809626e-01,1.347431063652038685e-01,1.322661876678466741e-01,1.307613134384155162e-01,1.303616881370544545e-01,1.299628138542175404e-01,1.295663714408874512e-01,1.310957074165344238e-01,1.352538108825683538e-01,1.000000000000000000e+00,1.000000000000000000e+00,1.000000000000000000e+00,1.000000000000000000e+00,1.000000000000000000e+00,1.000000000000000000e+00,1.000000000000000000e+00,1.000000000000000000e+00,1.000000000000000000e+00,1.000000000000000000e+00,1.000000000000000000e+00,1.000000000000000000e+00,1.000000000000000000e+00,1.000000000000000000e+00,1.000000000000000000e+00,1.204825758934020968e-01,1.173350572586059626e-01,1.143368124961852972e-01,1.119240403175354032e-01,1.111496567726135282e-01,1.103859186172485296e-01,1.096325993537902860e-01,1.086535096168518011e-01,1.076792120933532659e-01,1.067222356796264648e-01,1.067020416259765597e-01
6.199239253997802512e-01,6.356548309326172097e-01,6.522049427032470259e-01,6.696399211883544700e-01,6.880326271057128906e-01,7.074642658233643022e-01,7.280252933502197044e-01,7.498173713684082031e-01,7.729542732238769975e-01,7.975645065307617188e-01,8.237906455993652122e-01,8.518003463745117410e-01,8.817817687988280806e-01,9.139507293701172319e-01,9.485556602478026900e-01,9.858843803405761275e-01,1.000000000000000000e+00,1.000000000000000000e+00,1.000000000000000000e+00,1.000000000000000000e+00,1.000000000000000000e+00,1.000000000000000000e+00,1.000000000000000000e+00,1.000000000000000000e+00,1.000000000000000000e+00,1.000000000000000000e+00,1.000000000000000000e+00,1.000000000000000000e+00,1.000000000000000000e+00,1.000000000000000000e+00,1.000000000000000000e+00,1.000000000000000000e+00,1.000000000000000000e+00,1.000000000000000000e+00,1.000000000000000000e+00,1.000000000000000000e+00,1.000000000000000000e+00,1.000000000000000000e+00,1.000000000000000000e+00,1.000000000000000000e+00,1.000000000000000000e+00,1.000000000000000000e+00,1.000000000000000000e+00,1.437737107276916559e-01,1.407502770423889049e-01,1.379491329193115179e-01,1.353557467460632380e-01,1.328539371490478627e-01,1.314711928367614802e-01,1.309347748756408691e-01,1.305367231369018444e-01,1.301410794258117676e-01,1.322030663490295355e-01,1.362861871719360241e-01,1.000000000000000000e+00,1.000000000000000000e+00,1.000000000000000000e+00,1.000000000000000000e+00,1.000000000000000000e+00,1.000000000000000000e+00,1.000000000000000000e+00,1.000000000000000000e+00,1.000000000000000000e+00,1.000000000000000000e+00,1.000000000000000000e+00,1.000000000000000000e+00,1.000000000000000000e+00,1.000000000000000000e+00,1.000000000000000000e+00,1.201299190521240290e-01,1.170429468154907254e-01,1.140594363212585477e-01,1.122990965843200656e-01,1.115195393562316839e-01,1.107507109642028864e-01,1.097830891609191950e-01,1.087885260581970270e-01,1.078118205070495578e-01,1.073239564895629855e-01,1.073318839073181125e-01
6.199106216430664285e-01,6.356409072875977007e-01,6.521902561187744585e-01,6.696244239807128684e-01,6.880163192749023660e-01,7.074469566345215066e-01,7.280070781707763672e-01,7.497979164123534934e-01,7.729336261749267800e-01,7.975425243377685103e-01,8.237698554992676225e-01,8.517781257629394309e-01,8.817579269409179243e-01,9.139250755310058816e-01,9.485280990600586382e-01,9.858545303344726785e-01,1.000000000000000000e+00,1.000000000000000000e+00,1.000000000000000000e+00,1.000000000000000000e+00,1.000000000000000000e+00,1.000000000000000000e+00,1.000000000000000000e+00,1.000000000000000000e+00,1.000000000000000000e+00,1.000000000000000000e+00,1.000000000000000000e+00,1.000000000000000000e+00,1.000000000000000000e+00,1.000000000000000000e+00,1.000000000000000000e+00,1.000000000000000000e+00,1.000000000000000000e+00,1.000000000000000000e+00,1.000000000000000000e+00,1.000000000000000000e+00,1.000000000000000000e+00,1.000000000000000000e+00,1.000000000000000000e+00,1.000000000000000000e+00,1.000000000000000000e+00,1.000000000000000000e+00,1.467509150505065807e-01,1.439927220344543457e-01,1.414445996284484919e-01,1.385930895805358998e-01,1.359707593917846569e-01,1.334451198577880915e-01,1.323294878005981390e-01,1.315102696418762318e-01,1.311087131500244252e-01,1.307096004486084095e-01,1.342000246047973522e-01,1.381710767745971680e-01,1.000000000000000000e+00,1.000000000000000000e+00,1.000000000000000000e+00,1.000000000000000000e+00,1.000000000000000000e+00,1.000000000000000000e+00,1.000000000000000000e+00,1.000000000000000000e+00,1.000000000000000000e+00,1.000000000000000000e+00,1.000000000000000000e+00,1.000000000000000000e+00,1.000000000000000000e+00,1.000000000000000000e+00,1.227659940719604548e-01,1.197793126106262152e-01,1.167522907257080023e-01,1.137833833694457952e-01,1.126766681671142606e-01,1.118918776512145968e-01,1.109364151954650851e-01,1.099209308624267550e-01,1.089238882064819391e-01,1.079531550407409612e-01,1.079611778259277344e-01,1.079692244529724121e-01
6.198974132537842241e-01,6.356269359588623269e-01,6.521756172180175337e-01,6.696089267730712669e-01,6.879999637603759766e-01,7.074296951293945757e-01,7.279887676239014116e-01,7.497785568237305132e-01,7.729129791259765625e-01,7.975205421447754128e-01,8.237463951110839400e-01,8.517558097839355025e-01,8.817339897155761497e-01,9.138995170593261497e-01,9.485005378723144753e-01,9.858247756958007368e-01,1.000000000000000000e+00,1.000000000000000000e+00,1.000000000000000000e+00,1.000000000000000000e+00,1.000000000000000000e+00,1.000000000000000000e+00,1.000000000000000000e+00,1.000000000000000000e+00,1.000000000000000000e+00,1.000000000000000000e+00,1.000000000000000000e+00,1.000000000000000000e+00,1.000000000000000000e+00,1.000000000000000000e+00,1.000000000000000000e+00,1.000000000000000000e+00,1.000000000000000000e+00,1.000000000000000000e+00,1.000000000000000000e+00,1.000000000000000000e+00,1.000000000000000000e+00,1.000000000000000000e+00,1.000000000000000000e+00,1.000000000000000000e+00,1.000000000000000000e+00,1.493555426597595326e-01,1.464971423149108998e-01,1.436097145080566517e-01,1.411916494369506725e-01,1.388236045837402399e-01,1.365260004997253529e-01,1.340581297874450795e-01,1.331990599632263128e-01,1.323509454727172796e-01,1.316857337951660156e-01,1.323192954063415472e-01,1.361232876777648815e-01,1.398195624351501465e-01,1.000000000000000000e+00,1.000000000000000000e+00,1.000000000000000000e+00,1.000000000000000000e+00,1.000000000000000000e+00,1.000000000000000000e+00,1.000000000000000000e+00,1.000000000000000000e+00,1.000000000000000000e+00,1.000000000000000000e+00,1.000000000000000000e+00,1.000000000000000000e+00,1.000000000000000000e+00,1.000000000000000000e+00,1.223998665809631348e-01,1.194307446479797308e-01,1.164630770683288546e-01,1.138580679893493597e-01,1.130567908287048312e-01,1.121142268180847223e-01,1.110771656036377009e-01,1.100591301918029813e-01,1.090595841407775851e-01,1.085978984832763616e-01,1.086060285568237332e-01,1.086141586303710910e-01
6.198841094970702903e-01,6.356130599975585715e-01,6.521609306335449663e-01,6.695934772491455300e-01,6.879836082458495872e-01,7.074124336242675337e-01,7.279705047607422097e-01,7.497591495513915572e-01,7.728924274444579634e-01,7.974985122680664507e-01,8.237230300903319868e-01,8.517308235168457031e-01,8.817102432250976118e-01,9.138738632202147993e-01,9.484728813171386941e-01,9.857949256896972878e-01,1.000000000000000000e+00,1.000000000000000000e+00,1.000000000000000000e+00,1.000000000000000000e+00,1.000000000000000000e+00,1.000000000000000000e+00,1.000000000000000000e+00,1.000000000000000000e+00,1.000000000000000000e+00,1.000000000000000000e+00,1.000000000000000000e+00,1.000000000000000000e+00,1.000000000000000000e+00,1.000000000000000000e+00,1.000000000000000000e+00,1.000000000000000000e+00,1.000000000000000000e+00,1.000000000000000000e+00,1.000000000000000000e+00,1.000000000000000000e+00,1.000000000000000000e+00,1.000000000000000000e+00,1.000000000000000000e+00,1.000000000000000000e+00,1.524521470069885309e-01,1.489024877548217884e-01,1.460612416267395020e-01,1.433263778686523493e-01,1.409005761146545355e-01,1.387858510017395131e-01,1.367336630821228138e-01,1.351369619369506836e-01,1.341386914253234752e-01,1.332438826560974066e-01,1.323724031448364202e-01,1.341353297233581487e-01,1.377229928970336859e-01,1.000000000000000000e+00,1.000000000000000000e+00,1.000000000000000000e+00,1.000000000000000000e+00,1.000000000000000000e+00,1.000000000000000000e+00,1.000000000000000000e+00,1.000000000000000000e+00,1.000000000000000000e+00,1.000000000000000000e+00,1.000000000000000000e+00,1.000000000000000000e+00,1.000000000000000000e+00,1.000000000000000000e+00,1.000000000000000000e+00,1.220359086990356473e-01,1.190842151641845759e-01,1.161752939224243164e-01,1.142462134361267034e-01,1.133172988891601590e-01,1.122579813003539984e-01,1.112182855606079074e-01,1.101976633071899414e-01,1.092421770095825251e-01,1.092504024505615290e-01,1.092586278915405329e-01,1.092668652534484891e-01
6.198709011077880859e-01,6.355990886688231978e-01,6.521462917327880415e-01,6.695779800415039285e-01,6.879673004150390625e-01,7.073951244354248491e-01,7.279521942138671431e-01,7.497397899627685769e-01,7.728717327117919922e-01,7.974766254425048606e-01,8.236995697021484153e-01,8.517058372497559038e-01,8.816834449768066184e-01,9.138482093811035600e-01,9.484453201293945312e-01,9.857650756835937278e-01,1.000000000000000000e+00,1.000000000000000000e+00,1.000000000000000000e+00,1.000000000000000000e+00,1.000000000000000000e+00,1.000000000000000000e+00,1.000000000000000000e+00,1.000000000000000000e+00,1.000000000000000000e+00,1.000000000000000000e+00,1.000000000000000000e+00,1.000000000000000000e+00,1.000000000000000000e+00,1.000000000000000000e+00,1.000000000000000000e+00,1.000000000000000000e+00,1.000000000000000000e+00,1.000000000000000000e+00,1.000000000000000000e+00,1.000000000000000000e+00,1.000000000000000000e+00,1.000000000000000000e+00,1.000000000000000000e+00,1.565330624580383301e-01,1.513881564140319713e-01,1.484521746635437123e-01,1.456279277801513783e-01,1.433771729469299205e-01,1.413799047470092884e-01,1.394375205039977972e-01,1.375329256057739313e-01,1.363204240798950306e-01,1.351623415946960338e-01,1.342538714408874623e-01,1.340595841407775934e-01,1.375685811042785534e-01,1.414341807365417369e-01,1.000000000000000000e+00,1.000000000000000000e+00,1.000000000000000000e+00,1.000000000000000000e+00,1.000000000000000000e+00,1.000000000000000000e+00,1.000000000000000000e+00,1.000000000000000000e+00,1.000000000000000000e+00,1.000000000000000000e+00,1.000000000000000000e+00,1.000000000000000000e+00,1.000000000000000000e+00,1.000000000000000000e+00,1.000000000000000000e+00,1.216740965843200739e-01,1.187396764755248996e-01,1.158889412879943875e-01,1.145464897155761691e-01,1.134641766548156738e-01,1.124021172523498591e-01,1.113043427467346191e-01,1.102268218994140597e-01,1.093156933784484863e-01,1.094508767127990723e-01,1.095576882362365723e-01,1.096647143363952692e-01
6.198575973510742632e-01,6.355851650238036887e-01,6.521315574645996094e-01,6.695625782012939453e-01,6.879509449005126731e-01,7.073779106140136719e-01,7.279338836669921875e-01,7.497203350067138672e-01,7.728511810302733931e-01,7.974546432495117632e-01,8.236762046813964622e-01,8.516807556152343750e-01,8.816566467285156250e-01,9.138195037841796431e-01,9.484176635742187500e-01,9.857352256774902788e-01,1.000000000000000000e+00,1.000000000000000000e+00,1.000000000000000000e+00,1.000000000000000000e+00,1.000000000000000000e+00,1.000000000000000000e+00,1.000000000000000000e+00,1.000000000000000000e+00,1.000000000000000000e+00,1.000000000000000000e+00,1.000000000000000000e+00,1.000000000000000000e+00,1.000000000000000000e+00,1.000000000000000000e+00,1.000000000000000000e+00,1.000000000000000000e+00,1.000000000000000000e+00,1.000000000000000000e+00,1.000000000000000000e+00,1.000000000000000000e+00,1.000000000000000000e+00,1.000000000000000000e+00,1.000000000000000000e+00,1.545434951782226618e-01,1.509227156639099121e-01,1.480045914649963379e-01,1.458008766174316295e-01,1.437360048294067383e-01,1.417409658432006725e-01,1.401246428489685003e-01,1.391536593437194824e-01,1.376489996910095215e-01,1.363124370574951283e-01,1.352792978286743164e-01,1.380488872528076172e-01,1.421387910842895619e-01,1.000000000000000000e+00,1.000000000000000000e+00,1.000000000000000000e+00,1.000000000000000000e+00,1.000000000000000000e+00,1.000000000000000000e+00,1.000000000000000000e+00,1.000000000000000000e+00,1.000000000000000000e+00,1.000000000000000000e+00,1.000000000000000000e+00,1.000000000000000000e+00,1.000000000000000000e+00,1.000000000000000000e+00,1.000000000000000000e+00,1.243791580200195312e-01,1.213144421577453669e-01,1.183971285820007296e-01,1.157644748687744196e-01,1.145993113517761175e-01,1.134573698043823270e-01,1.123379707336425726e-01,1.112404346466064481e-01,1.101641416549682673e-01,1.091690421104431208e-01,1.093694329261779841e-01,1.094761013984680148e-01,1.095829725265502902e-01
6.198367118835449441e-01,6.355676651000976562e-01,6.521169185638427956e-01,6.695470809936523438e-01,6.879346370697021484e-01,7.073606014251708762e-01,7.279156208038329856e-01,7.497009277343750222e-01,7.728305339813232866e-01,7.974327564239501731e-01,8.236527442932128906e-01,8.516556739807128462e-01,8.816297531127930132e-01,9.137907028198242188e-01,9.483868598937987837e-01,9.857054710388183372e-01,1.000000000000000000e+00,1.000000000000000000e+00,1.000000000000000000e+00,1.000000000000000000e+00,1.000000000000000000e+00,1.000000000000000000e+00,1.000000000000000000e+00,1.000000000000000000e+00,1.000000000000000000e+00,1.000000000000000000e+00,1.000000000000000000e+00,1.000000000000000000e+00,1.000000000000000000e+00,1.000000000000000000e+00,1.000000000000000000e+00,1.000000000000000000e+00,1.000000000000000000e+00,1.000000000000000000e+00,1.000000000000000000e+00,1.000000000000000000e+00,1.000000000000000000e+00,1.000000000000000000e+00,1.587386846542358509e-01,1.534768581390380804e-01,1.505072474479675348e-01,1.483079314231872670e-01,1.462508559226989857e-01,1.445306658744812123e-01,1.428504705429077259e-01,1.421857357025146373e-01,1.409469246864318848e-01,1.394034504890441784e-01,1.378934025764465277e-01,1.396540999412536621e-01,1.442409753799438477e-01,1.000000000000000000e+00,1.000000000000000000e+00,1.000000000000000000e+00,1.000000000000000000e+00,1.000000000000000000e+00,1.000000000000000000e+00,1.000000000000000000e+00,1.000000000000000000e+00,1.000000000000000000e+00,1.000000000000000000e+00,1.000000000000000000e+00,1.000000000000000000e+00,1.000000000000000000e+00,1.000000000000000000e+00,1.000000000000000000e+00,1.000000000000000000e+00,1.241056323051452637e-01,1.212223052978515653e-01,1.184699058532714816e-01,1.158397197723388672e-01,1.145315527915954645e-01,1.133909583091735895e-01,1.122728586196899414e-01,1.111765980720520047e-01,1.101015210151672363e-01,1.091277241706848089e-01,1.092634797096252441e-01,1.093946218490600558e-01,1.095013380050659235e-01
6.198136806488037109e-01,6.355434417724609153e-01,6.520924091339110884e-01,6.695262432098388894e-01,6.879178524017334206e-01,7.073433876037598100e-01,7.278973102569580300e-01,7.496815681457519309e-01,7.728099822998046875e-01,7.974107742309570757e-01,8.236293792724609375e-01,8.516306877136230469e-01,8.816029548645019087e-01,9.137619018554687944e-01,9.483558654785155806e-01,9.856721878051757368e-01,1.000000000000000000e+00,1.000000000000000000e+00,1.000000000000000000e+00,1.000000000000000000e+00,1.000000000000000000e+00,1.000000000000000000e+00,1.000000000000000000e+00,1.000000000000000000e+00,1.000000000000000000e+00,1.000000000000000000e+00,1.000000000000000000e+00,1.000000000000000000e+00,1.000000000000000000e+00,1.000000000000000000e+00,1.000000000000000000e+00,1.000000000000000000e+00,1.000000000000000000e+00,1.000000000000000000e+00,1.000000000000000000e+00,1.000000000000000000e+00,1.000000000000000000e+00,1.652506828308105413e-01,1.566930294036865123e-01,1.531802773475647028e-01,1.510571718215942272e-01,1.492227673530578669e-01,1.474323749542236217e-01,1.456844449043273870e-01,1.448614120483398549e-01,1.443765282630920521e-01,1.427870273590087780e-01,1.412032127380370983e-01,1.424887657165527233e-01,1.472669363021850697e-01,1.000000000000000000e+00,1.000000000000000000e+00,1.000000000000000000e+00,1.000000000000000000e+00,1.000000000000000000e+00,1.000000000000000000e+00,1.000000000000000000e+00,1.000000000000000000e+00,1.000000000000000000e+00,1.000000000000000000e+00,1.000000000000000000e+00,1.000000000000000000e+00,1.000000000000000000e+00,1.000000000000000000e+00,1.000000000000000000e+00,1.000000000000000000e+00,1.000000000000000000e+00,1.242682576179504339e-01,1.213771224021911593e-01,1.186177611351013211e-01,1.159810900688171414e-01,1.144638776779174777e-01,1.133246183395385798e-01,1.122078299522399902e-01,1.111128211021423368e-01,1.100620627403259277e-01,1.090904951095581082e-01,1.091169714927673340e-01,1.093132734298705999e-01,1.094198226928710938e-01
6.197929859161377397e-01,6.355192661285400391e-01,6.520669460296630859e-01,6.694993972778320312e-01,6.878895282745360884e-01,7.073184490203857644e-01,7.278768539428710493e-01,7.496621608734130859e-01,7.727893352508544700e-01,7.973888874053954856e-01,8.236060142517089844e-01,8.516057014465332475e-01,8.815761566162109153e-01,9.137331008911132590e-01,9.483247756958007590e-01,9.856387138366698997e-01,1.000000000000000000e+00,1.000000000000000000e+00,1.000000000000000000e+00,1.000000000000000000e+00,1.000000000000000000e+00,1.000000000000000000e+00,1.000000000000000000e+00,1.000000000000000000e+00,1.000000000000000000e+00,1.000000000000000000e+00,1.000000000000000000e+00,1.000000000000000000e+00,1.000000000000000000e+00,1.000000000000000000e+00,1.000000000000000000e+00,1.000000000000000000e+00,1.000000000000000000e+00,1.000000000000000000e+00,1.000000000000000000e+00,1.000000000000000000e+00,1.000000000000000000e+00,1.639915823936462513e-01,1.561893701553344616e-01,1.542297363281250056e-01,1.523179650306701605e-01,1.504530072212219294e-01,1.486331582069397028e-01,1.476397275924682673e-01,1.471360921859741211e-01,1.463389515876770131e-01,1.446757912635803223e-01,1.454409003257751409e-01,1.000000000000000000e+00,1.000000000000000000e+00,1.000000000000000000e+00,1.000000000000000000e+00,1.000000000000000000e+00,1.000000000000000000e+00,1.000000000000000000e+00,1.000000000000000000e+00,1.000000000000000000e+00,1.000000000000000000e+00,1.000000000000000000e+00,1.000000000000000000e+00,1.000000000000000000e+00,1.000000000000000000e+00,1.000000000000000000e+00,1.000000000000000000e+00,1.000000000000000000e+00,1.000000000000000000e+00,1.000000000000000000e+00,1.244340181350707952e-01,1.215323328971862765e-01,1.187659978866577176e-01,1.161227941513061496e-01,1.143962860107421847e-01,1.132583737373352023e-01,1.121428608894348145e-01,1.110491275787353488e-01,1.100241899490356501e-01,1.090533018112182645e-01,1.089708566665649470e-01,1.092113137245178250e-01,1.093384385108947809e-01
6.197797298431396706e-01,6.355032444000243697e-01,6.520453453063964622e-01,6.694725513458251731e-01,6.878611564636230025e-01,7.072885036468505859e-01,7.278451442718505415e-01,7.496324062347412553e-01,7.727643489837646706e-01,7.973669052124023882e-01,8.235825538635254128e-01,8.515806198120117188e-01,8.815493583679199219e-01,9.137042999267578347e-01,9.482936859130859375e-01,9.856051445007324441e-01,1.000000000000000000e+00,1.000000000000000000e+00,1.000000000000000000e+00,1.000000000000000000e+00,1.000000000000000000e+00,1.000000000000000000e+00,1.000000000000000000e+00,1.000000000000000000e+00,1.000000000000000000e+00,1.000000000000000000e+00,1.000000000000000000e+00,1.000000000000000000e+00,1.000000000000000000e+00,1.000000000000000000e+00,1.000000000000000000e+00,1.000000000000000000e+00,1.000000000000000000e+00,1.000000000000000000e+00,1.000000000000000000e+00,1.000000000000000000e+00,1.000000000000000000e+00,1.622171163558960016e-01,1.574730873107910156e-01,1.555193901062011663e-01,1.535999774932861328e-01,1.517036914825439509e-01,1.505267143249511830e-01,1.500032067298889271e-01,1.494833469390869085e-01,1.483235120773315485e-01,1.485179662704467773e-01,1.000000000000000000e+00,1.000000000000000000e+00,1.000000000000000000e+00,1.000000000000000000e+00,1.000000000000000000e+00,1.000000000000000000e+00,1.000000000000000000e+00,1.000000000000000000e+00,1.000000000000000000e+00,1.000000000000000000e+00,1.000000000000000000e+00,1.000000000000000000e+00,1.000000000000000000e+00,1.000000000000000000e+00,1.000000000000000000e+00,1.000000000000000000e+00,1.000000000000000000e+00,1.000000000000000000e+00,1.000000000000000000e+00,1.000000000000000000e+00,1.246002197265625028e-01,1.216879367828369168e-01,1.189145922660827664e-01,1.162648439407348577e-01,1.143287658691406194e-01,1.131921887397766141e-01,1.120779752731323187e-01,1.109855055809021024e-01,1.099863648414611816e-01,1.090161323547363253e-01,1.088251233100891169e-01,1.090649366378784180e-01,1.092571616172790527e-01
6.197665691375732200e-01,6.354894161224364790e-01,6.520307064056396484e-01,6.694561481475830300e-01,6.878386020660400835e-01,7.072590351104736106e-01,7.278133869171142800e-01,7.495987415313720703e-01,7.727285861968994363e-01,7.973311901092529075e-01,8.235519409179687944e-01,8.515556335449219194e-01,8.815225601196289285e-01,9.136754989624022993e-01,9.482626914978027344e-01,9.855715751647948775e-01,1.000000000000000000e+00,1.000000000000000000e+00,1.000000000000000000e+00,1.000000000000000000e+00,1.000000000000000000e+00,1.000000000000000000e+00,1.000000000000000000e+00,1.000000000000000000e+00,1.000000000000000000e+00,1.000000000000000000e+00,1.000000000000000000e+00,1.000000000000000000e+00,1.000000000000000000e+00,1.000000000000000000e+00,1.000000000000000000e+00,1.000000000000000000e+00,1.000000000000000000e+00,1.000000000000000000e+00,1.000000000000000000e+00,1.000000000000000000e+00,1.700945496559143066e-01,1.608150243759155218e-01,1.587780714035034180e-01,1.567920804023742731e-01,1.548551321029663086e-01,1.533693671226501465e-01,1.529842972755432184e-01,1.524435758590698131e-01,1.519066929817199652e-01,1.517280220985412487e-01,1.000000000000000000e+00,1.000000000000000000e+00,1.000000000000000000e+00,1.000000000000000000e+00,1.000000000000000000e+00,1.000000000000000000e+00,1.000000000000000000e+00,1.000000000000000000e+00,1.000000000000000000e+00,1.000000000000000000e+00,1.000000000000000000e+00,1.000000000000000000e+00,1.000000000000000000e+00,1.000000000000000000e+00,1.000000000000000000e+00,1.000000000000000000e+00,1.000000000000000000e+00,1.000000000000000000e+00,1.000000000000000000e+00,1.000000000000000000e+00,1.000000000000000000e+00,1.000000000000000000e+00,1.218468427658081082e-01,1.190635681152343722e-01,1.164072513580322321e-01,1.142613291740417480e-01,1.131260871887207059e-01,1.120131731033325168e-01,1.109355211257934543e-01,1.099485516548156794e-01,1.089789867401123047e-01,1.086797833442687961e-01,1.089189529418945340e-01,1.091591954231262152e-01
6.197533607482910156e-01,6.354755401611328347e-01,6.520161151885985884e-01,6.694407939910889116e-01,6.878223419189453125e-01,7.072418212890625444e-01,7.277897834777832253e-01,7.495674610137939009e-01,7.726927757263183372e-01,7.972931385040282759e-01,8.235113143920897993e-01,8.515125274658202903e-01,8.814849853515625000e-01,9.136444091796874778e-01,9.482316970825195312e-01,9.855381011962890403e-01,1.000000000000000000e+00,1.000000000000000000e+00,1.000000000000000000e+00,1.000000000000000000e+00,1.000000000000000000e+00,1.000000000000000000e+00,1.000000000000000000e+00,1.000000000000000000e+00,1.000000000000000000e+00,1.000000000000000000e+00,1.000000000000000000e+00,1.000000000000000000e+00,1.000000000000000000e+00,1.000000000000000000e+00,1.000000000000000000e+00,1.000000000000000000e+00,1.000000000000000000e+00,1.000000000000000000e+00,1.000000000000000000e+00,1.000000000000000000e+00,1.691192507743835560e-01,1.621762156486511175e-01,1.601048707962036133e-01,1.580857396125793513e-01,1.561403989791870228e-01,1.551000952720641979e-01,1.548647999763488881e-01,1.546302080154418890e-01,1.556367278099060059e-01,1.000000000000000000e+00,1.000000000000000000e+00,1.000000000000000000e+00,1.000000000000000000e+00,1.000000000000000000e+00,1.000000000000000000e+00,1.000000000000000000e+00,1.000000000000000000e+00,1.000000000000000000e+00,1.000000000000000000e+00,1.000000000000000000e+00,1.000000000000000000e+00,1.000000000000000000e+00,1.000000000000000000e+00,1.000000000000000000e+00,1.000000000000000000e+00,1.000000000000000000e+00,1.000000000000000000e+00,1.000000000000000000e+00,1.000000000000000000e+00,1.000000000000000000e+00,1.000000000000000000e+00,1.000000000000000000e+00,1.220062136650085505e-01,1.192129135131835965e-01,1.165500044822692927e-01,1.141939759254455566e-01,1.130600571632385254e-01,1.119484424591064425e-01,1.108970642089843750e-01,1.099107623100280817e-01,1.089418649673461886e-01,1.085348367691039984e-01,1.087733745574951116e-01,1.090129733085632296e-01
6.197401523590088113e-01,6.354616165161133257e-01,6.520014762878417747e-01,6.694253921508789285e-01,6.878061294555664062e-01,7.072247028350829856e-01,7.277715682983398882e-01,7.495481014251709206e-01,7.726680755615233931e-01,7.972596645355224387e-01,8.234706878662109153e-01,8.514691352844238059e-01,8.814384460449218306e-01,9.135943412780761497e-01,9.481853485107422097e-01,9.854988098144531472e-01,1.000000000000000000e+00,1.000000000000000000e+00,1.000000000000000000e+00,1.000000000000000000e+00,1.000000000000000000e+00,1.000000000000000000e+00,1.000000000000000000e+00,1.000000000000000000e+00,1.000000000000000000e+00,1.000000000000000000e+00,1.000000000000000000e+00,1.000000000000000000e+00,1.000000000000000000e+00,1.000000000000000000e+00,1.000000000000000000e+00,1.000000000000000000e+00,1.000000000000000000e+00,1.000000000000000000e+00,1.000000000000000000e+00,1.762782454490661732e-01,1.675888180732726940e-01,1.635606646537780817e-01,1.614540100097656139e-01,1.594272613525390681e-01,1.574750065803527943e-01,1.568703413009643610e-01,1.566296458244323675e-01,1.563896775245666448e-01,1.654893159866333008e-01,1.000000000000000000e+00,1.000000000000000000e+00,1.000000000000000000e+00,1.000000000000000000e+00,1.000000000000000000e+00,1.000000000000000000e+00,1.000000000000000000e+00,1.000000000000000000e+00,1.000000000000000000e+00,1.000000000000000000e+00,1.000000000000000000e+00,1.000000000000000000e+00,1.000000000000000000e+00,1.000000000000000000e+00,1.000000000000000000e+00,1.000000000000000000e+00,1.000000000000000000e+00,1.000000000000000000e+00,1.000000000000000000e+00,1.000000000000000000e+00,1.000000000000000000e+00,1.000000000000000000e+00,1.000000000000000000e+00,1.221660017967224066e-01,1.193650603294372503e-01,1.166931033134460394e-01,1.141403794288635282e-01,1.129941105842590388e-01,1.118837833404540960e-01,1.108586311340332003e-01,1.098730087280273410e-01,1.089047670364379911e-01,1.083902716636657715e-01,1.086281776428222601e-01,1.088671207427978488e-01
6.197269439697266069e-01,6.354477405548095703e-01,6.519868850708008257e-01,6.694099426269530806e-01,6.877898216247558816e-01,7.072074890136719194e-01,7.277534008026123047e-01,7.495287418365478294e-01,7.726475238800049050e-01,7.972378253936767134e-01,8.234447479248047097e-01,8.514332771301269531e-01,8.813919067382812722e-01,9.135443687438964400e-01,9.481314659118652566e-01,9.854406356811523660e-01,1.000000000000000000e+00,1.000000000000000000e+00,1.000000000000000000e+00,1.000000000000000000e+00,1.000000000000000000e+00,1.000000000000000000e+00,1.000000000000000000e+00,1.000000000000000000e+00,1.000000000000000000e+00,1.000000000000000000e+00,1.000000000000000000e+00,1.000000000000000000e+00,1.000000000000000000e+00,1.000000000000000000e+00,1.000000000000000000e+00,1.000000000000000000e+00,1.000000000000000000e+00,1.000000000000000000e+00,1.000000000000000000e+00,1.752309441566467230e-01,1.671689510345459040e-01,1.649689435958862360e-01,1.628554582595825306e-01,1.608188986778259222e-01,1.592209100723266657e-01,1.586814522743225098e-01,1.584351658821105957e-01,1.612091779708862416e-01,1.000000000000000000e+00,1.000000000000000000e+00,1.000000000000000000e+00,1.000000000000000000e+00,1.000000000000000000e+00,1.000000000000000000e+00,1.000000000000000000e+00,1.000000000000000000e+00,1.000000000000000000e+00,1.000000000000000000e+00,1.000000000000000000e+00,1.000000000000000000e+00,1.000000000000000000e+00,1.000000000000000000e+00,1.000000000000000000e+00,1.000000000000000000e+00,1.000000000000000000e+00,1.000000000000000000e+00,1.000000000000000000e+00,1.000000000000000000e+00,1.000000000000000000e+00,1.000000000000000000e+00,1.000000000000000000e+00,1.000000000000000000e+00,1.223261952400207520e-01,1.195179939270019503e-01,1.168365597724914523e-01,1.142776131629943820e-01,1.129282355308532659e-01,1.118229746818542453e-01,1.108202099800109919e-01,1.098352789878845187e-01,1.088676929473876981e-01,1.082460880279541016e-01,1.084833621978759793e-01,1.087216734886169434e-01
6.197136878967285378e-01,6.354338169097900613e-01,6.519722461700439009e-01,6.693945407867432085e-01,6.877735614776611106e-01,7.071902751922607422e-01,7.277351856231689675e-01,7.495095252990722212e-01,7.726270675659179243e-01,7.972159385681152344e-01,8.234214782714843750e-01,8.514082908630371538e-01,8.813646316528320757e-01,9.135057449340819868e-01,9.480798721313477007e-01,9.853824615478515847e-01,1.000000000000000000e+00,1.000000000000000000e+00,1.000000000000000000e+00,1.000000000000000000e+00,1.000000000000000000e+00,1.000000000000000000e+00,1.000000000000000000e+00,1.000000000000000000e+00,1.000000000000000000e+00,1.000000000000000000e+00,1.000000000000000000e+00,1.000000000000000000e+00,1.000000000000000000e+00,1.000000000000000000e+00,1.000000000000000000e+00,1.000000000000000000e+00,1.000000000000000000e+00,1.000000000000000000e+00,1.000000000000000000e+00,1.741960287094116155e-01,1.686403155326843262e-01,1.664343237876892145e-01,1.643078565597534124e-01,1.622350335121154896e-01,1.610232114791870228e-01,1.605348706245422474e-01,1.602827906608581543e-01,1.704507708549499456e-01,1.000000000000000000e+00,1.000000000000000000e+00,1.000000000000000000e+00,1.000000000000000000e+00,1.000000000000000000e+00,1.000000000000000000e+00,1.000000000000000000e+00,1.000000000000000000e+00,1.000000000000000000e+00,1.000000000000000000e+00,1.000000000000000000e+00,1.000000000000000000e+00,1.000000000000000000e+00,1.000000000000000000e+00,1.000000000000000000e+00,1.000000000000000000e+00,1.000000000000000000e+00,1.000000000000000000e+00,1.000000000000000000e+00,1.000000000000000000e+00,1.000000000000000000e+00,1.000000000000000000e+00,1.000000000000000000e+00,1.000000000000000000e+00,1.224868178367614774e-01,1.196713328361511258e-01,1.169823646545410101e-01,1.144151926040649359e-01,1.128624439239502009e-01,1.117838978767395075e-01,1.107818245887756403e-01,1.097975730895996149e-01,1.088306546211242620e-01,1.081022977828979548e-01,1.083389401435852079e-01,1.085766077041625949e-01
6.197005271911620872e-01,6.354199409484863059e-01,6.519576072692870872e-01,6.693790912628173606e-01,6.877572536468505859e-01,7.071730613708495650e-01,7.277169704437256303e-01,7.494901657104492410e-01,7.726065158843994363e-01,7.971941471099853738e-01,8.233981132507324219e-01,8.513833999633788618e-01,8.813378334045409712e-01,9.134770393371581809e-01,9.480488777160644975e-01,9.853405952453613281e-01,1.000000000000000000e+00,1.000000000000000000e+00,1.000000000000000000e+00,1.000000000000000000e+00,1.000000000000000000e+00,1.000000000000000000e+00,1.000000000000000000e+00,1.000000000000000000e+00,1.000000000000000000e+00,1.000000000000000000e+00,1.000000000000000000e+00,1.000000000000000000e+00,1.000000000000000000e+00,1.000000000000000000e+00,1.000000000000000000e+00,1.000000000000000000e+00,1.000000000000000000e+00,1.000000000000000000e+00,1.829119682312011774e-01,1.731732487678527832e-01,1.701740384101867731e-01,1.679515719413757213e-01,1.657864093780517523e-01,1.637560129165649414e-01,1.628667950630187933e-01,1.624320983886718694e-01,1.670828580856323353e-01,1.000000000000000000e+00,1.000000000000000000e+00,1.000000000000000000e+00,1.000000000000000000e+00,1.000000000000000000e+00,1.000000000000000000e+00,1.000000000000000000e+00,1.000000000000000000e+00,1.000000000000000000e+00,1.000000000000000000e+00,1.000000000000000000e+00,1.000000000000000000e+00,1.000000000000000000e+00,1.000000000000000000e+00,1.000000000000000000e+00,1.000000000000000000e+00,1.000000000000000000e+00,1.000000000000000000e+00,1.000000000000000000e+00,1.000000000000000000e+00,1.000000000000000000e+00,1.000000000000000000e+00,1.000000000000000000e+00,1.000000000000000000e+00,1.000000000000000000e+00,1.226478576660156306e-01,1.198250412940979059e-01,1.171292424201965388e-01,1.145531058311462375e-01,1.127967238426208496e-01,1.117448329925537082e-01,1.107434749603271457e-01,1.097598910331726019e-01,1.087936282157897921e-01,1.079588890075683649e-01,1.081948995590209933e-01,1.084319353103637695e-01
6.196873188018798828e-01,6.354060649871826616e-01,6.519429683685302734e-01,6.693636894226073775e-01,6.877409934997558150e-01,7.071558475494384988e-01,7.276987075805664285e-01,7.494708538055420144e-01,7.725859642028808372e-01,7.971722602844237837e-01,8.233748435974120872e-01,8.513585090637206809e-01,8.813112258911133257e-01,9.134483337402343750e-01,9.480179786682129128e-01,9.853071212768554910e-01,1.000000000000000000e+00,1.000000000000000000e+00,1.000000000000000000e+00,1.000000000000000000e+00,1.000000000000000000e+00,1.000000000000000000e+00,1.000000000000000000e+00,1.000000000000000000e+00,1.000000000000000000e+00,1.000000000000000000e+00,1.000000000000000000e+00,1.000000000000000000e+00,1.000000000000000000e+00,1.000000000000000000e+00,1.000000000000000000e+00,1.000000000000000000e+00,1.000000000000000000e+00,1.000000000000000000e+00,1.825127363204956110e-01,1.741628885269164984e-01,1.717605590820312500e-01,1.694967269897461049e-01,1.672917962074279841e-01,1.656630516052245983e-01,1.647530555725097712e-01,1.643747210502624623e-01,1.757189393043518122e-01,1.000000000000000000e+00,1.000000000000000000e+00,1.000000000000000000e+00,1.000000000000000000e+00,1.000000000000000000e+00,1.000000000000000000e+00,1.000000000000000000e+00,1.000000000000000000e+00,1.000000000000000000e+00,1.000000000000000000e+00,1.000000000000000000e+00,1.000000000000000000e+00,1.000000000000000000e+00,1.000000000000000000e+00,1.000000000000000000e+00,1.000000000000000000e+00,1.000000000000000000e+00,1.000000000000000000e+00,1.000000000000000000e+00,1.000000000000000000e+00,1.000000000000000000e+00,1.000000000000000000e+00,1.000000000000000000e+00,1.000000000000000000e+00,1.000000000000000000e+00,1.228093266487121638e-01,1.199791550636291476e-01,1.172765016555786105e-01,1.146929144859313993e-01,1.127310872077941922e-01,1.117058038711547796e-01,1.107051372528076172e-01,1.097222447395324735e-01,1.087566375732421931e-01,1.078158497810363797e-01,1.080512285232543973e-01,1.082876443862915011e-01
6.196741104125976785e-01,6.353921890258789062e-01,6.519284248352050781e-01,6.693483352661132590e-01,6.877246856689452903e-01,7.071386337280273215e-01,7.276804924011230913e-01,7.494514942169189231e-01,7.725654125213623491e-01,7.971503734588623047e-01,8.233514785766601340e-01,8.513335227966308816e-01,8.812844276428222212e-01,9.134196281433105691e-01,9.479870796203613281e-01,9.852737426757812722e-01,1.000000000000000000e+00,1.000000000000000000e+00,1.000000000000000000e+00,1.000000000000000000e+00,1.000000000000000000e+00,1.000000000000000000e+00,1.000000000000000000e+00,1.000000000000000000e+00,1.000000000000000000e+00,1.000000000000000000e+00,1.000000000000000000e+00,1.000000000000000000e+00,1.000000000000000000e+00,1.000000000000000000e+00,1.000000000000000000e+00,1.000000000000000000e+00,1.000000000000000000e+00,1.000000000000000000e+00,1.816469192504882868e-01,1.759758353233337458e-01,1.735210895538329967e-01,1.711338996887206976e-01,1.688247680664062556e-01,1.676150321960449274e-01,1.666835308074951227e-01,1.721417903900146484e-01,1.000000000000000000e+00,1.000000000000000000e+00,1.000000000000000000e+00,1.000000000000000000e+00,1.000000000000000000e+00,1.000000000000000000e+00,1.000000000000000000e+00,1.000000000000000000e+00,1.000000000000000000e+00,1.000000000000000000e+00,1.000000000000000000e+00,1.000000000000000000e+00,1.000000000000000000e+00,1.000000000000000000e+00,1.000000000000000000e+00,1.000000000000000000e+00,1.000000000000000000e+00,1.000000000000000000e+00,1.000000000000000000e+00,1.000000000000000000e+00,1.000000000000000000e+00,1.000000000000000000e+00,1.000000000000000000e+00,1.000000000000000000e+00,1.000000000000000000e+00,1.000000000000000000e+00,1.229712128639221247e-01,1.201336741447448786e-01,1.174241185188293485e-01,1.148341059684753473e-01,1.126850128173828153e-01,1.116668105125427218e-01,1.106668353080749456e-01,1.096846103668212835e-01,1.087196707725524847e-01,1.077715516090393122e-01,1.079079508781433105e-01,1.081437349319458036e-01
6.196609020233154741e-01,6.353783130645751509e-01,6.519137859344482644e-01,6.693328857421875222e-01,6.877084732055663840e-01,7.071214675903320090e-01,7.276622772216796431e-01,7.494321823120116965e-01,7.725448608398437500e-01,7.971285343170165794e-01,8.233282089233397993e-01,8.513086318969727007e-01,8.812577247619628462e-01,9.133909225463867632e-01,9.479561805725097434e-01,9.852403640747070535e-01,1.000000000000000000e+00,1.000000000000000000e+00,1.000000000000000000e+00,1.000000000000000000e+00,1.000000000000000000e+00,1.000000000000000000e+00,1.000000000000000000e+00,1.000000000000000000e+00,1.000000000000000000e+00,1.000000000000000000e+00,1.000000000000000000e+00,1.000000000000000000e+00,1.000000000000000000e+00,1.000000000000000000e+00,1.000000000000000000e+00,1.000000000000000000e+00,1.000000000000000000e+00,1.000000000000000000e+00,1.807892799377441295e-01,1.778269171714782770e-01,1.753206253051757812e-01,1.728840112686157171e-01,1.711659193038940485e-01,1.699092864990234264e-01,1.686810135841369518e-01,1.000000000000000000e+00,1.000000000000000000e+00,1.000000000000000000e+00,1.000000000000000000e+00,1.000000000000000000e+00,1.000000000000000000e+00,1.000000000000000000e+00,1.000000000000000000e+00,1.000000000000000000e+00,1.000000000000000000e+00,1.000000000000000000e+00,1.000000000000000000e+00,1.000000000000000000e+00,1.000000000000000000e+00,1.000000000000000000e+00,1.000000000000000000e+00,1.000000000000000000e+00,1.000000000000000000e+00,1.000000000000000000e+00,1.000000000000000000e+00,1.000000000000000000e+00,1.000000000000000000e+00,1.000000000000000000e+00,1.000000000000000000e+00,1.000000000000000000e+00,1.000000000000000000e+00,1.000000000000000000e+00,1.231335520744323703e-01,1.202906012535095159e-01,1.175865888595581110e-01,1.150014638900756780e-01,1.127589464187622043e-01,1.117385625839233398e-01,1.107364773750305204e-01,1.097522020339965765e-01,1.087852716445922852e-01,1.078315734863281306e-01,1.078139424324035672e-01,1.080399036407470731e-01
6.196476459503174050e-01,6.353643894195556419e-01,6.518991470336914507e-01,6.693174839019775391e-01,6.876922130584717241e-01,7.071042537689209428e-01,7.276441097259521706e-01,7.494129180908203347e-01,7.725243091583251509e-01,7.971066474914551003e-01,8.233048439025878462e-01,8.512837409973144087e-01,8.812310218811034712e-01,9.133622169494628462e-01,9.479252815246581587e-01,9.852069854736328347e-01,1.000000000000000000e+00,1.000000000000000000e+00,1.000000000000000000e+00,1.000000000000000000e+00,1.000000000000000000e+00,1.000000000000000000e+00,1.000000000000000000e+00,1.000000000000000000e+00,1.000000000000000000e+00,1.000000000000000000e+00,1.000000000000000000e+00,1.000000000000000000e+00,1.000000000000000000e+00,1.000000000000000000e+00,1.000000000000000000e+00,1.000000000000000000e+00,1.000000000000000000e+00,1.902184247970581110e-01,1.823518872261047363e-01,1.797173619270324707e-01,1.771686553955078014e-01,1.747301816940307617e-01,1.740973353385925348e-01,1.727177739143371527e-01,1.791787266731262318e-01,1.000000000000000000e+00,1.000000000000000000e+00,1.000000000000000000e+00,1.000000000000000000e+00,1.000000000000000000e+00,1.000000000000000000e+00,1.000000000000000000e+00,1.000000000000000000e+00,1.000000000000000000e+00,1.000000000000000000e+00,1.000000000000000000e+00,1.000000000000000000e+00,1.000000000000000000e+00,1.000000000000000000e+00,1.000000000000000000e+00,1.000000000000000000e+00,1.000000000000000000e+00,1.000000000000000000e+00,1.000000000000000000e+00,1.000000000000000000e+00,1.000000000000000000e+00,1.000000000000000000e+00,1.000000000000000000e+00,1.000000000000000000e+00,1.000000000000000000e+00,1.000000000000000000e+00,1.000000000000000000e+00,1.256420612335205078e-01,1.204854726791381864e-01,1.177728056907653836e-01,1.151795744895935114e-01,1.128363728523254367e-01,1.118145942687988337e-01,1.108111500740051325e-01,1.098255634307861300e-01,1.088573336601257324e-01,1.078963398933410617e-01,1.077326893806457575e-01,1.079583287239074679e-01
6.196344375610352007e-01,6.353505134582519975e-01,6.518845081329345259e-01,6.693020820617675559e-01,6.876759529113769531e-01,7.070870399475097656e-01,7.276258945465088335e-01,7.493936061859131081e-01,7.725038528442382812e-01,7.970848560333252397e-01,8.232815742492676225e-01,8.512587547302246094e-01,8.812043190002440962e-01,9.133336067199706587e-01,9.478943824768066850e-01,9.710369110107421875e-01,9.707967758178710493e-01,9.705567359924316406e-01,9.703168869018554688e-01,9.700771331787109153e-01,9.698374748229980913e-01,9.695980072021483931e-01,9.693585395812988059e-01,9.691192626953124556e-01,9.688800811767578347e-01,9.686410903930664507e-01,9.684020996093749556e-01,9.681632995605469194e-01,9.679245948791503906e-01,9.676859855651855913e-01,9.674475669860840288e-01,9.672091484069824663e-01,9.669709205627441406e-01,1.898068070411682018e-01,1.843402981758117676e-01,1.816754579544067327e-01,1.791122436523437389e-01,1.766203165054321400e-01,1.770471811294555553e-01,1.756206631660461315e-01,9.650692939758300781e-01,9.648321151733398882e-01,9.645951271057129350e-01,9.643581390380859819e-01,9.641213417053222656e-01,9.638846397399902788e-01,9.636480331420897993e-01,9.634115219116210493e-01,9.631752014160156472e-01,9.629388809204101340e-01,9.627027511596679688e-01,9.624667167663574219e-01,9.622308731079101118e-01,9.619951248168945312e-01,9.617593765258789507e-01,9.615238189697266069e-01,9.612883567810058816e-01,9.610530853271483931e-01,9.608179092407226340e-01,9.605827331542968750e-01,9.603477478027343528e-01,9.601129531860351785e-01,9.598782539367676225e-01,9.596435546874999556e-01,9.594090461730957475e-01,9.591746330261230469e-01,9.589404106140136941e-01,9.587061882019043413e-01,1.280134439468383900e-01,1.206809878349304199e-01,1.179595947265625056e-01,1.153582215309143094e-01,1.129139184951782199e-01,1.118907332420349121e-01,1.108859300613403293e-01,1.098990082740783636e-01,1.089295029640197782e-01,1.079611897468566867e-01,1.076515674591064509e-01,1.078768610954284612e-01
6.196212768554687500e-01,6.353365898132323775e-01,6.518699169158935769e-01,6.692866325378418191e-01,6.876596450805664285e-01,7.070698738098144531e-01,7.276076793670653853e-01,7.493742465972900169e-01,7.542598724365234819e-01,7.541149616241454856e-01,7.539701461791992188e-01,7.538254261016845703e-01,7.536806583404540572e-01,7.535360336303711382e-01,7.533913612365722434e-01,7.532468318939209428e-01,7.531023979187011497e-01,7.529579162597656028e-01,7.528135299682616743e-01,7.526691436767578569e-01,7.525249004364014116e-01,7.523807525634765847e-01,7.522365093231201394e-01,7.520924568176269309e-01,7.519484519958495872e-01,7.518043994903564897e-01,7.516604900360107644e-01,7.515165328979491743e-01,7.513727188110351785e-01,7.512290000915526900e-01,7.510852336883544478e-01,7.509416103363036887e-01,7.507979393005370650e-01,1.893743991851806752e-01,1.864175319671630970e-01,1.837197303771972712e-01,1.810989260673522838e-01,1.799626588821411077e-01,1.800986886024475153e-01,7.497942447662353516e-01,7.496510028839111772e-01,7.495079040527343750e-01,7.493648052215575728e-01,7.492218494415283647e-01,7.490788936614990456e-01,7.489359378814697266e-01,7.487931251525878906e-01,7.486503124237060547e-01,7.485075950622558372e-01,7.483649253845214844e-01,7.482222557067871316e-01,7.480797290802001509e-01,7.479371547698974165e-01,7.477947235107421653e-01,7.476523399353027788e-01,7.475099563598632812e-01,7.473676681518555132e-01,7.472253799438476340e-01,7.470832347869873491e-01,7.469410896301269531e-01,7.467989921569824219e-01,7.466569900512695090e-01,7.465150356292724609e-01,7.463730335235595481e-01,7.462312221527099831e-01,7.460893630981445535e-01,7.459475994110107422e-01,7.458059310913085493e-01,7.456642150878906028e-01,1.208771347999572782e-01,1.181469798088073675e-01,1.155374407768249567e-01,1.130406737327575711e-01,1.119669795036315890e-01,1.109608054161071722e-01,1.099725604057311956e-01,1.090017557144165039e-01,1.080260992050170871e-01,1.075757384300231878e-01,1.077955126762390192e-01
6.167036056518554465e-01,6.166067600250244585e-01,6.165099620819092241e-01,6.164131641387939897e-01,6.163164138793945090e-01,6.162197113037108931e-01,6.161229610443115234e-01,6.160263061523437722e-01,6.159296989440917747e-01,6.158330440521240234e-01,6.157364845275878906e-01,6.156399250030517578e-01,6.155433654785156250e-01,6.154469013214111106e-01,6.153503894805908425e-01,6.152539730072021928e-01,6.151576042175292969e-01,6.150611877441406472e-01,6.149648666381836160e-01,6.148684978485107200e-01,6.147722244262695535e-01,6.146759986877441406e-01,6.145797729492187278e-01,6.144835948944091797e-01,6.143873691558837669e-01,6.142912864685058372e-01,6.141952037811279075e-01,6.140990734100342241e-01,6.140030384063720481e-01,6.139070034027099831e-01,6.138110637664795366e-01,6.137151241302489790e-01,6.136191368103027788e-01,1.967571735382080134e-01,1.907825231552124079e-01,1.858105540275573619e-01,1.831301927566528209e-01,1.835035920143127386e-01,1.832572460174560491e-01,6.129485130310058372e-01,6.128528594970703569e-01,6.127572536468506303e-01,6.126615524291991743e-01,6.125659942626953125e-01,6.124703884124755859e-01,6.123748779296874778e-01,6.122794151306152344e-01,6.121839046478271262e-01,6.120884895324707475e-01,6.119930744171142578e-01,6.118976593017577681e-01,6.118022918701171431e-01,6.117069721221923828e-01,6.116117000579833762e-01,6.115164279937743697e-01,6.114211559295654741e-01,6.113259792327880859e-01,6.112307548522949441e-01,6.111356258392334206e-01,6.110405445098876509e-01,6.109454154968261275e-01,6.108503818511963335e-01,6.107553005218505637e-01,6.106603145599365234e-01,6.105653762817382368e-01,6.104703903198241965e-01,6.103754997253417747e-01,6.102805614471435991e-01,6.101857662200927956e-01,1.211795330047607394e-01,1.183349609374999972e-01,1.157172083854675348e-01,1.132127523422241239e-01,1.120433211326599121e-01,1.110357880592346136e-01,1.100461959838867215e-01,1.090681433677673368e-01,1.080911040306091336e-01,1.075833678245544378e-01,1.077142953872680664e-01
5.210276603698730247e-01,5.209585666656494363e-01,5.208894252777099831e-01,5.208203792572021484e-01,5.207512855529785600e-01,5.206822395324707253e-01,5.206131935119628906e-01,5.205441951751709206e-01,5.204751968383789507e-01,5.204061985015868697e-01,5.203372478485107644e-01,5.202682971954345481e-01,5.201993465423584428e-01,5.201304435729980913e-01,5.200615406036377397e-01,5.199926376342773882e-01,5.199237823486327903e-01,5.198549270629883035e-01,5.197861194610595703e-01,5.197172641754150835e-01,5.196485042572021040e-01,5.195796966552734819e-01,5.195109844207763672e-01,5.194422245025634988e-01,5.193735122680663840e-01,5.193048000335693803e-01,5.192360877990722656e-01,5.191674709320068803e-01,5.190988540649413840e-01,5.190301895141601340e-01,5.189615726470947488e-01,5.188930034637451172e-01,2.045292615890502985e-01,1.960102558135986273e-01,1.923873662948608343e-01,1.910451173782348744e-01,1.859304189682006725e-01,1.871866703033447377e-01,5.184133529663086382e-01,5.183448791503906250e-01,5.182764530181884766e-01,5.182080745697021928e-01,5.181396484375000444e-01,5.180713176727295144e-01,5.180029392242431197e-01,5.179346084594727007e-01,5.178662776947021706e-01,5.177979469299316406e-01,5.177297115325927290e-01,5.176613807678223100e-01,5.175931930541992632e-01,5.175249576568603516e-01,5.174567222595214400e-01,5.173885345458983931e-01,5.173203468322753462e-01,5.172522068023681641e-01,5.171840667724609819e-01,5.171159267425536887e-01,5.170478343963622603e-01,5.169797420501709428e-01,5.169116973876952681e-01,5.168436527252197044e-01,5.167756080627441406e-01,5.167075634002685769e-01,5.166395664215087669e-01,5.165716171264648215e-01,5.165036678314208762e-01,5.164356708526611772e-01,5.163677692413329856e-01,1.215105175971984836e-01,1.185235619544982855e-01,1.158975243568420438e-01,1.133853554725647028e-01,1.121197700500488337e-01,1.111108660697937012e-01,1.101199507713317843e-01,1.091344118118286188e-01,1.081561803817749079e-01,1.075909972190856878e-01,1.076331973075866644e-01
4.510512351989746094e-01,4.509994506835937611e-01,4.509476184844970481e-01,4.508958816528320090e-01,4.508440971374511608e-01,4.507923126220703125e-01,4.507405757904052734e-01,4.506888389587402344e-01,4.506371498107910045e-01,4.505854129791259655e-01,4.505337238311767356e-01,4.504820346832275613e-01,4.504303932189941406e-01,4.503787040710449108e-01,4.503270149230956809e-01,4.502754211425781250e-01,4.502237319946288951e-01,4.501721382141113392e-01,4.501204967498779186e-01,4.500689029693603627e-01,4.500173091888427512e-01,4.499657154083251953e-01,4.499141693115234486e-01,4.498626232147217019e-01,4.498110771179198997e-01,4.497595310211181530e-01,4.497080326080322155e-01,4.496565341949462780e-01,4.496050357818603405e-01,4.495535373687744030e-01,4.495020866394042747e-01,4.494505882263183372e-01,2.026776790618896595e-01,1.961490631103515736e-01,1.937077283859252874e-01,1.929125547409057673e-01,1.925524353981017955e-01,4.491420745849609153e-01,4.490907192230224609e-01,4.490393161773681419e-01,4.489880084991454967e-01,4.489366054534912331e-01,4.488852977752685325e-01,4.488339900970458873e-01,4.487826824188232422e-01,4.487313747406005970e-01,4.486800670623779519e-01,4.486288070678711160e-01,4.485775947570800892e-01,4.485262870788574441e-01,4.484750747680664174e-01,4.484238624572753906e-01,4.483726501464843639e-01,4.483214378356933372e-01,4.482702255249023660e-01,4.482190608978271484e-01,4.481678962707519309e-01,4.481167316436767689e-01,4.480656147003173606e-01,4.480144500732421986e-01,4.479633331298827903e-01,4.479122638702392467e-01,4.478611469268798939e-01,4.478100776672363503e-01,4.477589607238769420e-01,4.477079391479492076e-01,4.476568698883056641e-01,4.476058006286621205e-01,4.475548267364501953e-01,1.218433260917663602e-01,1.187127351760864230e-01,1.160784244537353543e-01,1.135584831237792941e-01,1.121963262557983398e-01,1.111860513687133734e-01,1.101937890052795410e-01,1.092007517814636286e-01,1.082213401794433622e-01,1.075986385345459040e-01,1.075522184371948270e-01
3.976455688476562278e-01,3.976052999496459961e-01,3.975650548934936412e-01,3.975247859954834095e-01,3.974845647811889870e-01,3.974443197250366322e-01,3.974041223526000866e-01,3.973638772964477317e-01,3.973237037658691184e-01,3.972834825515746959e-01,3.972433090209960826e-01,3.972031116485595925e-01,3.971629619598388561e-01,3.971227645874023660e-01,3.970826387405395619e-01,3.970424652099609486e-01,3.970023632049560769e-01,3.969621896743774636e-01,3.969220399856567272e-01,3.968819379806518555e-01,3.968418121337890514e-01,3.968016862869262473e-01,3.967616319656371848e-01,3.967215299606323131e-01,3.966814279556274414e-01,3.966413736343383789e-01,3.966012954711913840e-01,3.965612173080444447e-01,3.965211391448974498e-01,3.964811325073241965e-01,3.964410781860351340e-01,3.964010477066040039e-01,2.017865180969238281e-01,1.956695318222045898e-01,1.935163140296936035e-01,1.925400733947753851e-01,1.929154515266418568e-01,1.970475316047668457e-01,3.961210489273071511e-01,3.960811376571655162e-01,3.960411548614501953e-01,3.960011959075927512e-01,3.959612846374511719e-01,3.959213495254516602e-01,3.958813905715942161e-01,3.958415269851684459e-01,3.958015918731689342e-01,3.957616806030273549e-01,3.957218170166015847e-01,3.956819295883178822e-01,3.956420421600341797e-01,3.956021547317504772e-01,3.955623149871826394e-01,3.955224514007568137e-01,3.954825878143310436e-01,3.954427957534790150e-01,3.954029560089111217e-01,3.953631162643432839e-01,3.953233242034911998e-01,3.952835083007812389e-01,3.952437162399292103e-01,3.952039003372192494e-01,3.951641559600830300e-01,3.951243638992309459e-01,3.950845956802367942e-01,3.950448751449585072e-01,3.950051069259643555e-01,3.949653387069702037e-01,3.949256420135497936e-01,1.221779704093933078e-01,1.190043926239013616e-01,1.162598848342895480e-01,1.137321472167968778e-01,1.122729778289794922e-01,1.112613201141357394e-01,1.102656960487365667e-01,1.092671751976013184e-01,1.082865715026855441e-01,1.076062798500061063e-01,1.074713706970214788e-01
3.555477857589721680e-01,3.555155754089355247e-01,3.554834127426147461e-01,3.554512262344360352e-01,3.554190635681152566e-01,3.553868770599365456e-01,3.553547382354736439e-01,3.553225755691528098e-01,3.552904367446899636e-01,3.552582740783691295e-01,3.552261352539062278e-01,3.551940202713012584e-01,3.551618576049804799e-01,3.551297664642333873e-01,3.550976276397704856e-01,3.550655364990234486e-01,3.550334215164184792e-01,3.550013542175293191e-01,3.549692392349242942e-01,3.549371719360351340e-01,3.549050807952880970e-01,3.548730134963989369e-01,3.548409223556518444e-01,3.548088550567626842e-01,3.547768115997314564e-01,3.547447443008422963e-01,3.547126770019531361e-01,3.546806573867797852e-01,3.546486139297485574e-01,3.546165704727172741e-01,3.545845508575439231e-01,3.545525312423706277e-01,3.545204877853393444e-01,1.947877287864684948e-01,1.929304122924804799e-01,1.918243169784545898e-01,1.920156955718994030e-01,1.941999554634094294e-01,3.543285131454467773e-01,3.542965173721313588e-01,3.542645692825317494e-01,3.542325973510742076e-01,3.542006254196167214e-01,3.541686773300171120e-01,3.541367530822753795e-01,3.541047811508178933e-01,3.540728330612182839e-01,3.540409326553344838e-01,3.540090084075927512e-01,3.539770603179931419e-01,3.539451837539672741e-01,3.539132595062255970e-01,3.538813591003417969e-01,3.538494348526001199e-01,3.538175821304321289e-01,3.537856817245483287e-01,3.537537813186645286e-01,3.537219524383544700e-01,3.536900520324707253e-01,3.536581993103027344e-01,3.536263704299926758e-01,3.535944938659668080e-01,3.535626411437988170e-01,3.535308361053466908e-01,3.534989833831786998e-01,3.534671545028686412e-01,3.534353017807007058e-01,3.534035205841064564e-01,3.533716917037963978e-01,1.225144505500793402e-01,1.193235993385314969e-01,1.164419054985046387e-01,1.139063239097595215e-01,1.123497486114501953e-01,1.113367080688476562e-01,1.103334188461303766e-01,1.093336820602417020e-01,1.083518981933593722e-01,1.076139211654663086e-01,1.074613571166992132e-01
3.215102434158325084e-01,3.214839458465575950e-01,3.214576005935668723e-01,3.214313030242920144e-01,3.214049816131591686e-01,3.213786840438842551e-01,3.213523864746093972e-01,3.213260889053344838e-01,3.212997913360595703e-01,3.212735176086425892e-01,3.212472200393676758e-01,3.212209463119506947e-01,3.211946725845337136e-01,3.211683988571166770e-01,3.211421251296996959e-01,3.211158752441406472e-01,3.210896015167236106e-01,3.210633754730224387e-01,3.210371017456054576e-01,3.210108518600464089e-01,3.209846258163452370e-01,3.209583759307861328e-01,3.209321498870849609e-01,3.209059476852417214e-01,3.208796977996826172e-01,3.208534717559814453e-01,3.208272695541382058e-01,3.208010435104370339e-01,3.207748174667358620e-01,3.207486391067504994e-01,3.207224369049072044e-01,3.206962108612060325e-01,3.206700563430786022e-01,1.934694647789001465e-01,1.920814156532287542e-01,1.913169860839843694e-01,1.913063645362854115e-01,1.926600575447082464e-01,3.205129384994506725e-01,3.204868078231811745e-01,3.204606294631958119e-01,3.204344511032104492e-01,3.204083204269408958e-01,3.203821659088134655e-01,3.203560113906860352e-01,3.203298807144164817e-01,3.203037500381469838e-01,3.202776193618774303e-01,3.202514886856079324e-01,3.202253818511963113e-01,3.201992511749267578e-01,3.201731443405151367e-01,3.201470375061035156e-01,3.201209306716918945e-01,3.200948238372802734e-01,3.200687408447265847e-01,3.200426578521728405e-01,3.200165510177612194e-01,3.199904441833495983e-01,3.199643850326537864e-01,3.199383020401000977e-01,3.199122190475464089e-01,3.198861837387084739e-01,3.198601007461547852e-01,3.198340415954589733e-01,3.198080062866210938e-01,3.197819471359252819e-01,3.197558879852294700e-01,3.197298526763915905e-01,1.228527784347534235e-01,1.196445226669311523e-01,1.166244983673095648e-01,1.140810608863830622e-01,1.124266147613525446e-01,1.114121913909912054e-01,1.104012250900268527e-01,1.094002604484558133e-01,1.084172844886779757e-01,1.076215505599975586e-01,1.074689745903015109e-01
2.934203386306762917e-01,2.933984279632568248e-01,2.933764934539794811e-01,2.933546066284179465e-01,2.933326721191406028e-01,2.933107614517211914e-01,2.932888507843017800e-01,2.932669639587402455e-01,2.932450532913207786e-01,2.932231426239013672e-01,2.932012557983398326e-01,2.931793451309204213e-01,2.931574821472168191e-01,2.931355714797973522e-01,2.931137084960937500e-01,2.930918216705322155e-01,2.930699586868286133e-01,2.930480718612670787e-01,2.930262088775634766e-01,2.930043458938598744e-01,2.929824829101562722e-01,2.929606199264526145e-01,2.929387807846069447e-01,2.929169178009033425e-01,2.928950786590576172e-01,2.928732156753540150e-01,2.928514003753662220e-01,2.928295373916626199e-01,2.928077220916748269e-01,2.927858591079711692e-01,2.927640199661254994e-01,2.927422046661377064e-01,2.927203893661499134e-01,1.922429919242858998e-01,1.909053087234497126e-01,1.906093358993530273e-01,1.906040787696838268e-01,1.916259169578552191e-01,1.945359945297241155e-01,2.925676822662353627e-01,2.925458669662475697e-01,2.925240993499755859e-01,2.925022840499877930e-01,2.924804925918579324e-01,2.924587249755859486e-01,2.924369335174560325e-01,2.924151420593261719e-01,2.923933744430541881e-01,2.923715829849243275e-01,2.923498153686523438e-01,2.923280477523803600e-01,2.923062801361083762e-01,2.922845125198364480e-01,2.922627449035644642e-01,2.922410249710082897e-01,2.922192573547363059e-01,2.921974897384643777e-01,2.921757698059082031e-01,2.921540260314941517e-01,2.921322822570801003e-01,2.921105384826659934e-01,2.920888185501098744e-01,2.920670747756958230e-01,2.920453310012817161e-01,2.920236349105834739e-01,2.920019149780273549e-01,2.919801712036133035e-01,2.919584751129150613e-01,2.919367790222168191e-01,1.231930017471313532e-01,1.199671626091003418e-01,1.169059634208679255e-01,1.142563104629516629e-01,1.125035881996154785e-01,1.114877820014953669e-01,1.104691147804260226e-01,1.094669222831726046e-01,1.084827542304992731e-01,1.076291918754577609e-01,1.074765920639038086e-01
2.698444128036499023e-01,2.698258638381957897e-01,2.698073387145996094e-01,2.697887897491454967e-01,2.697702646255493164e-01,2.697517156600952037e-01,2.697331905364990234e-01,2.697146654129028431e-01,2.696961402893066628e-01,2.696776151657104270e-01,2.696591138839721791e-01,2.696405649185180664e-01,2.696220636367797630e-01,2.696035385131835826e-01,2.695850610733032116e-01,2.695665359497070312e-01,2.695480346679687278e-01,2.695295333862304799e-01,2.695110321044921764e-01,2.694925308227539285e-01,2.694740295410156250e-01,2.694555521011352539e-01,2.694370508193969505e-01,2.694185733795165794e-01,2.694000959396362083e-01,2.693816184997558372e-01,2.693631172180175892e-01,2.693446636199950950e-01,2.693261861801147239e-01,2.693077087402343528e-01,2.692892313003539817e-01,2.692707777023315430e-01,2.692523002624511719e-01,1.908137440681457464e-01,1.893142700195312444e-01,1.894945621490478627e-01,1.896952867507934459e-01,1.905435562133789007e-01,1.919823050498962458e-01,2.691231250762939342e-01,2.691046714782714955e-01,2.690862178802490012e-01,2.690677642822265625e-01,2.690493583679199330e-01,2.690309047698974387e-01,2.690124750137329324e-01,2.689940452575683705e-01,2.689756155014038086e-01,2.689571857452392467e-01,2.689387559890746848e-01,2.689203262329101785e-01,2.689019203186034934e-01,2.688834905624389870e-01,2.688650846481323020e-01,2.688466787338256725e-01,2.688282489776611106e-01,2.688098669052124134e-01,2.687914609909057839e-01,2.687730312347412220e-01,2.687546491622924694e-01,2.687362432479858398e-01,2.687178611755370872e-01,2.686994791030883900e-01,2.686810731887817605e-01,2.686626911163330078e-01,2.686442852020263783e-01,2.686259269714355580e-01,2.686075448989868053e-01,2.685891628265381081e-01,1.235350966453552246e-01,1.202915668487548884e-01,1.172140002250671442e-01,1.144321203231811468e-01,1.125806570053100586e-01,1.115590691566467341e-01,1.105370879173278864e-01,1.095336675643920898e-01,1.085483193397522028e-01,1.076368451118469294e-01,1.074842095375061063e-01
2.497752904891967773e-01,2.497594118118286188e-01,2.497435331344604603e-01,2.497276306152343694e-01,2.497117757797241155e-01,2.496958732604980524e-01,2.496800184249877985e-01,2.496641397476196400e-01,2.496482610702514537e-01,2.496323823928832952e-01,2.496165037155151367e-01,2.496006488800048828e-01,2.495847702026367243e-01,2.495689153671264704e-01,2.495530605316162165e-01,2.495372056961059626e-01,2.495213508605957087e-01,2.495054960250854548e-01,2.494896411895752009e-01,2.494737863540649470e-01,2.494579315185546931e-01,2.494421005249023438e-01,2.494262456893920898e-01,2.494104146957397405e-01,2.493945598602294866e-01,2.493787288665771373e-01,2.493628978729248158e-01,2.493470430374145619e-01,2.493312120437622126e-01,2.493153810501098633e-01,2.492995500564575140e-01,2.492837190628051647e-01,2.492679119110107477e-01,2.492520809173583984e-01,1.878261685371399037e-01,1.882159233093261830e-01,1.886651396751403698e-01,1.897276639938354492e-01,1.913812518119812067e-01,2.491571903228759766e-01,2.491413593292236273e-01,2.491255760192871149e-01,2.491097688674926702e-01,2.490939378738403209e-01,2.490781307220459040e-01,2.490623474121093639e-01,2.490465402603149470e-01,2.490307331085205023e-01,2.490149497985839899e-01,2.489991664886474498e-01,2.489833593368530329e-01,2.489675760269164928e-01,2.489517927169799805e-01,2.489360094070434681e-01,2.489202260971069280e-01,2.489044427871704157e-01,2.488886594772338756e-01,2.488728761672973633e-01,2.488571166992187556e-01,2.488413333892822155e-01,2.488255500793457031e-01,2.488097906112670954e-01,2.487940311431884877e-01,2.487782478332519476e-01,2.487625122070312444e-01,2.487467288970947321e-01,2.487309694290161244e-01,2.487152099609374889e-01,2.486994743347167858e-01,1.238790988922119085e-01,1.206177234649658259e-01,1.175236582756042508e-01,1.146084547042846707e-01,1.126578330993652372e-01,1.116283893585205134e-01,1.106051445007324163e-01,1.096004962921142550e-01,1.086139440536499079e-01,1.076449871063232394e-01,1.074918270111084040e-01
2.324847221374511663e-01,2.324709653854370173e-01,2.324572086334228405e-01,2.324434518814086914e-01,2.324296951293945424e-01,2.324159383773803655e-01,2.324021816253662165e-01,2.323884248733520397e-01,2.323746681213378906e-01,2.323609352111816462e-01,2.323471784591674694e-01,2.323334217071533203e-01,2.323196887969970759e-01,2.323059320449828991e-01,2.322921991348266546e-01,2.322784662246704102e-01,2.322647094726562611e-01,2.322509765624999889e-01,2.322372436523437444e-01,2.322234869003295954e-01,2.322097778320312556e-01,2.321960210800170787e-01,2.321823120117187389e-01,2.321685791015624944e-01,2.321548461914062500e-01,2.321411132812500056e-01,2.321274042129516657e-01,2.321136713027954213e-01,2.320999622344970814e-01,2.320862531661987416e-01,2.320725440979004017e-01,2.320588111877441295e-01,2.320451021194457897e-01,2.320313930511474498e-01,1.875741600990295521e-01,1.876758098602294977e-01,1.885532140731811523e-01,1.896978378295898493e-01,1.912185072898864857e-01,1.899675011634826549e-01,2.319354534149170033e-01,2.319217443466186634e-01,2.319080352783203236e-01,2.318943500518798884e-01,2.318806648254394531e-01,2.318669557571411133e-01,2.318532705307006780e-01,2.318395853042602428e-01,2.318258762359619030e-01,2.318121910095214955e-01,2.317985057830810602e-01,2.317848205566406250e-01,2.317711353302001898e-01,2.317574501037597545e-01,2.317437648773193470e-01,2.317300796508789118e-01,2.317164182662963812e-01,2.317027330398559459e-01,2.316890716552734431e-01,2.316753864288330078e-01,2.316617250442504772e-01,2.316480636596679743e-01,2.316343784332275391e-01,2.316207408905029408e-01,2.316070556640625056e-01,2.315933942794799749e-01,2.315797328948974720e-01,2.315660715103149414e-01,2.315524101257324108e-01,2.315387725830078125e-01,1.209456562995910589e-01,1.178349614143371638e-01,1.148802638053894043e-01,1.127351284027099665e-01,1.116977930068969727e-01,1.106732964515686063e-01,1.096674084663391141e-01,1.086796522140502930e-01,1.077095270156860352e-01,1.074994683265686063e-01
2.174330472946167103e-01,2.174210071563720814e-01,2.174089670181274525e-01,2.173969268798828236e-01,2.173848867416381947e-01,2.173728704452514704e-01,2.173608303070068415e-01,2.173488140106201172e-01,2.173367738723754883e-01,2.173247337341308594e-01,2.173127174377441351e-01,2.173006772994995062e-01,2.172886610031127819e-01,2.172766208648681530e-01,2.172646284103393610e-01,2.172525882720947321e-01,2.172405719757080078e-01,2.172285556793212835e-01,2.172165393829345592e-01,2.172045230865478627e-01,2.171925067901611384e-01,2.171804904937744141e-01,2.171684980392455944e-01,2.171564817428588978e-01,2.171444654464721735e-01,2.171324729919433538e-01,2.171204566955566295e-01,2.171084403991699330e-01,2.170964479446411133e-01,2.170844554901122936e-01,2.170724391937255970e-01,2.170604467391967773e-01,2.170484542846679576e-01,2.170364618301391657e-01,2.170244455337524414e-01,1.853051900863647572e-01,1.852409958839416615e-01,1.852988004684448242e-01,1.860454201698303334e-01,1.878432393074035700e-01,1.904440522193908691e-01,2.169405221939086914e-01,2.169285535812378041e-01,2.169165611267089844e-01,2.169045686721801647e-01,2.168926000595092773e-01,2.168806076049804576e-01,2.168686389923095703e-01,2.168566703796386830e-01,2.168446779251098633e-01,2.168326854705810436e-01,2.168207168579101562e-01,2.168087482452392689e-01,2.167967796325683538e-01,2.167848110198974665e-01,2.167728424072265514e-01,2.167608737945556641e-01,2.167489051818847767e-01,2.167369365692138616e-01,2.167249679565429743e-01,2.167129993438720592e-01,2.167010545730590765e-01,2.166890859603881891e-01,2.166771173477172741e-01,2.166651487350463867e-01,2.166532039642334040e-01,2.166412591934204213e-01,2.166292905807495062e-01,2.166173458099365234e-01,2.166054010391235407e-01,2.165934324264526256e-01,1.212473154067993109e-01,1.151777029037475558e-01,1.128122448921203558e-01,1.117672920227050781e-01,1.107415199279785101e-01,1.097344160079956055e-01,1.087454438209533719e-01,1.077741503715515109e-01,1.075070977210998563e-01
2.042118072509765681e-01,2.042011976242065485e-01,2.041905879974365290e-01,2.041799545288086049e-01,2.041693449020385853e-01,2.041587352752685658e-01,2.041481256484985463e-01,2.041374921798705944e-01,2.041269063949585072e-01,2.041162729263305553e-01,2.041056632995605358e-01,2.040950536727905162e-01,2.040844678878784291e-01,2.040738582611084095e-01,2.040632486343383900e-01,2.040526390075683705e-01,2.040420293807983509e-01,2.040314435958862360e-01,2.040208339691162165e-01,2.040102243423461970e-01,2.039996385574340820e-01,2.039890289306640625e-01,2.039784431457519476e-01,2.039678573608398326e-01,2.039572477340698131e-01,2.039466619491577259e-01,2.039360523223877064e-01,2.039254665374755915e-01,2.039148807525634766e-01,2.039042949676513616e-01,2.038937091827392467e-01,2.038831233978271595e-01,2.038725376129150446e-01,2.038619518280029297e-01,2.038513660430908148e-01,1.856074929237365723e-01,1.848454236984252985e-01,1.843356013298034779e-01,1.850975632667541393e-01,1.863092541694641169e-01,1.858712315559387096e-01,2.037773132324218750e-01,2.037667512893676647e-01,2.037561655044555775e-01,2.037456035614013672e-01,2.037350177764892523e-01,2.037244558334350697e-01,2.037138938903808594e-01,2.037033319473266491e-01,2.036927461624145619e-01,2.036821842193603516e-01,2.036716222763061412e-01,2.036610364913940541e-01,2.036504983901977484e-01,2.036399364471435658e-01,2.036293506622314509e-01,2.036187887191772405e-01,2.036082506179809626e-01,2.035976886749267523e-01,2.035871267318725697e-01,2.035765647888183594e-01,2.035660028457641491e-01,2.035554409027099665e-01,2.035449028015136608e-01,2.035343408584594782e-01,2.035238027572631725e-01,2.035132408142089899e-01,2.035027027130126842e-01,2.034921407699585016e-01,2.034816026687621959e-01,2.034710645675659180e-01,1.207775115966796819e-01,1.174038648605346680e-01,1.150498390197753906e-01,1.133837223052978488e-01,1.123253107070922852e-01,1.112864613533020020e-01,1.109361886978149359e-01,1.104977488517761286e-01,1.099017143249511747e-01
1.925063014030456432e-01,1.924968600273132269e-01,1.924874305725097767e-01,1.924779772758483942e-01,1.924685478210449163e-01,1.924591183662414662e-01,1.924497008323669545e-01,1.924402475357055720e-01,1.924308180809020941e-01,1.924214005470275823e-01,1.924119591712951660e-01,1.924025297164916881e-01,1.923931121826171764e-01,1.923836946487426647e-01,1.923742532730102484e-01,1.923648357391357366e-01,1.923554182052612249e-01,1.923460006713867132e-01,1.923365592956542969e-01,1.923271417617797852e-01,1.923177361488342396e-01,1.923083186149597279e-01,1.922988891601562500e-01,1.922894716262817383e-01,1.922800660133361927e-01,1.922706604003906194e-01,1.922612309455871693e-01,1.922518134117126576e-01,1.922424077987670843e-01,1.922329783439636341e-01,1.922235846519470270e-01,1.922141790390014537e-01,1.922047734260559082e-01,1.921953439712524303e-01,1.921859502792358509e-01,1.921765446662902777e-01,1.921671509742736705e-01,1.921577334403991588e-01,1.921483278274536133e-01,1.921389341354370062e-01,1.921295404434203991e-01,1.921201229095458873e-01,1.921107292175293080e-01,1.921013355255127009e-01,1.920919299125671276e-01,1.920825362205505482e-01,1.920731425285339411e-01,1.920637488365173340e-01,1.920543432235717884e-01,1.920449733734130859e-01,1.920355677604675404e-01,1.920261859893798717e-01,1.920168042182922308e-01,1.920073986053466852e-01,1.919980168342590443e-01,1.919886350631713756e-01,1.919792294502258301e-01,1.919698476791381891e-01,1.919604420661926159e-01,1.919510722160339411e-01,1.919416904449463002e-01,1.919322967529296931e-01,1.919229149818420521e-01,1.919135451316833496e-01,1.919041514396667425e-01,1.918947815895080677e-01,1.918853998184203991e-01,1.918760061264038197e-01,1.918666362762451172e-01,1.918572664260864147e-01,1.918478846549987737e-01,1.202959299087524442e-01,1.168819308280944769e-01,1.149958372116088867e-01,1.130640268325805720e-01,1.120342254638671819e-01,1.110007405281066839e-01,1.106243610382080106e-01,1.098681330680847112e-01,1.094563007354736328e-01
1.820699453353881725e-01,1.820615172386169378e-01,1.820530533790588323e-01,1.820446252822875977e-01,1.820361852645873968e-01,1.820277571678161621e-01,1.820193052291870228e-01,1.820108652114868220e-01,1.820024371147155873e-01,1.819940090179443248e-01,1.819855570793151855e-01,1.819771289825439509e-01,1.819687008857727162e-01,1.819602727890014537e-01,1.819518327713012806e-01,1.819434046745300182e-01,1.819349765777587835e-01,1.819265604019165150e-01,1.819181084632873480e-01,1.819096922874450795e-01,1.819012641906738170e-01,1.818928241729736439e-01,1.818844079971313477e-01,1.818759918212890514e-01,1.818675637245178167e-01,1.818591356277465820e-01,1.818507194519042858e-01,1.818423032760620173e-01,1.818338871002197210e-01,1.818254470825195201e-01,1.818170309066772516e-01,1.818086266517639216e-01,1.818002104759216253e-01,1.817917823791503906e-01,1.817833662033080944e-01,1.817749619483947643e-01,1.817665338516235296e-01,1.817581176757812611e-01,1.817497134208679310e-01,1.817413091659546009e-01,1.817328810691833385e-01,1.817244768142700084e-01,1.817160725593566784e-01,1.817076683044433483e-01,1.816992402076721136e-01,1.816908478736877497e-01,1.816824436187744196e-01,1.816740393638610895e-01,1.816656231880187933e-01,1.816572189331054632e-01,1.816488265991210993e-01,1.816404223442077692e-01,1.816320061683654730e-01,1.816236138343811091e-01,1.816152215003967174e-01,1.816068291664123535e-01,1.815984129905700573e-01,1.815900206565856934e-01,1.815816283226013295e-01,1.815732121467590332e-01,1.815648198127746693e-01,1.815564393997192438e-01,1.815480232238769476e-01,1.815396428108215221e-01,1.815312504768371582e-01,1.815228462219238281e-01,1.815144538879394642e-01,1.815060734748840388e-01,1.814976692199707087e-01,1.814892888069152832e-01,1.233711838722229004e-01,1.194767832756042508e-01,1.166538119316101046e-01,1.145255923271179255e-01,1.127326846122741755e-01,1.117269039154052679e-01,1.107164621353149414e-01,1.101085305213928278e-01,1.093269467353820829e-01,1.089460492134094183e-01
1.727069854736328069e-01,1.726993918418884277e-01,1.726917862892150823e-01,1.726841926574707031e-01,1.726766109466552623e-01,1.726690173149108831e-01,1.726614117622375377e-01,1.726538300514221247e-01,1.726462364196777455e-01,1.726386308670044001e-01,1.726310491561889593e-01,1.726234674453735463e-01,1.726158857345581055e-01,1.726082801818847601e-01,1.726006984710693470e-01,1.725931167602539062e-01,1.725855350494384655e-01,1.725779414176940862e-01,1.725703597068786732e-01,1.725627779960632324e-01,1.725551962852477916e-01,1.725476026535034124e-01,1.725400328636169378e-01,1.725324511528015248e-01,1.725248694419860840e-01,1.725172877311706432e-01,1.725097060203552302e-01,1.725021362304687556e-01,1.724945425987243763e-01,1.724869728088379017e-01,1.724794030189514271e-01,1.724718213081359863e-01,1.724642395973205455e-01,1.724566698074340709e-01,1.724491000175475963e-01,1.724415302276611217e-01,1.724339485168457087e-01,1.724263787269592341e-01,1.724188089370727595e-01,1.724112510681152233e-01,1.724036574363708441e-01,1.723960995674133356e-01,1.723885297775268610e-01,1.723809719085693248e-01,1.723733901977539118e-01,1.723658323287963756e-01,1.723582625389099010e-01,1.723506927490234264e-01,1.723431348800659180e-01,1.723355650901794434e-01,1.723280072212219349e-01,1.723204374313354603e-01,1.723128795623779241e-01,1.723053216934204157e-01,1.722977638244628795e-01,1.722901940345764049e-01,1.722826361656188965e-01,1.722750902175903265e-01,1.722675323486328181e-01,1.722599744796752819e-01,1.722524046897888073e-01,1.722448587417602650e-01,1.722373127937316950e-01,1.722297430038452204e-01,1.722221851348876842e-01,1.722146272659301758e-01,1.722070813179016058e-01,1.721995234489440973e-01,1.721919655799865612e-01,1.721844196319580189e-01,1.224385619163513156e-01,1.193317651748657254e-01,1.168825864791870062e-01,1.146696567535400446e-01,1.124740242958068848e-01,1.113393187522888211e-01,1.103821873664855985e-01,1.095656156539916992e-01,1.087910532951354980e-01,1.081462264060974177e-01
