6.200908184051513450e-01,6.358287811279297319e-01,6.523863792419433150e-01,6.698294162750244585e-01,6.882308006286621538e-01,7.076717853546142800e-01,7.282430648803710493e-01,7.500460624694824663e-01,7.731949806213378462e-01,7.978182315826416460e-01,8.240612983703613503e-01,8.520896911621094194e-01,1.000000000000000000e+00,1.000000000000000000e+00,1.000000000000000000e+00,1.000000000000000000e+00,1.000000000000000000e+00,1.000000000000000000e+00,1.000000000000000000e+00,1.000000000000000000e+00,1.000000000000000000e+00,1.000000000000000000e+00,1.000000000000000000e+00,1.000000000000000000e+00,1.000000000000000000e+00,1.000000000000000000e+00,1.000000000000000000e+00,1.000000000000000000e+00,1.000000000000000000e+00,1.000000000000000000e+00,1.000000000000000000e+00,1.000000000000000000e+00,1.000000000000000000e+00,1.000000000000000000e+00,1.000000000000000000e+00,1.000000000000000000e+00,1.000000000000000000e+00,1.000000000000000000e+00,1.000000000000000000e+00,1.000000000000000000e+00,1.000000000000000000e+00,1.000000000000000000e+00,1.000000000000000000e+00,1.000000000000000000e+00,1.000000000000000000e+00,1.000000000000000000e+00,1.000000000000000000e+00,1.000000000000000000e+00,1.000000000000000000e+00,1.000000000000000000e+00,1.000000000000000000e+00,1.000000000000000000e+00,1.000000000000000000e+00,1.000000000000000000e+00,1.000000000000000000e+00,1.000000000000000000e+00,1.000000000000000000e+00,1.000000000000000000e+00,1.000000000000000000e+00,1.000000000000000000e+00,1.000000000000000000e+00,1.000000000000000000e+00,1.000000000000000000e+00,1.000000000000000000e+00,1.000000000000000000e+00,1.000000000000000000e+00,1.000000000000000000e+00,1.000000000000000000e+00,1.000000000000000000e+00,1.000000000000000000e+00,1.000000000000000000e+00,1.000000000000000000e+00,1.000000000000000000e+00,1.000000000000000000e+00,8.528058052062987837e-01,8.281410217285156694e-01,8.048628807067871316e-01,1.000000000000000000e+00,1.000000000000000000e+00,1.000000000000000000e+00
6.200790405273437500e-01,6.358163356781005859e-01,6.523733615875244585e-01,6.698156356811523215e-01,6.882162570953369585e-01,7.076564311981201616e-01,7.282267570495605247e-01,7.500288009643554243e-01,7.731766223907470259e-01,7.977986812591553178e-01,8.240405082702636497e-01,8.520674705505371094e-01,8.820678710937499556e-01,1.000000000000000000e+00,1.000000000000000000e+00,1.000000000000000000e+00,1.000000000000000000e+00,1.000000000000000000e+00,1.000000000000000000e+00,1.000000000000000000e+00,1.000000000000000000e+00,1.000000000000000000e+00,1.000000000000000000e+00,1.000000000000000000e+00,1.000000000000000000e+00,1.000000000000000000e+00,1.000000000000000000e+00,1.000000000000000000e+00,1.000000000000000000e+00,1.000000000000000000e+00,1.000000000000000000e+00,1.000000000000000000e+00,1.000000000000000000e+00,1.000000000000000000e+00,1.000000000000000000e+00,1.000000000000000000e+00,1.000000000000000000e+00,1.000000000000000000e+00,1.000000000000000000e+00,1.000000000000000000e+00,1.000000000000000000e+00,1.000000000000000000e+00,1.000000000000000000e+00,1.000000000000000000e+00,1.000000000000000000e+00,1.000000000000000000e+00,1.000000000000000000e+00,1.000000000000000000e+00,1.000000000000000000e+00,1.000000000000000000e+00,1.000000000000000000e+00,1.000000000000000000e+00,1.000000000000000000e+00,1.000000000000000000e+00,1.000000000000000000e+00,1.000000000000000000e+00,1.000000000000000000e+00,1.000000000000000000e+00,1.000000000000000000e+00,1.000000000000000000e+00,1.000000000000000000e+00,1.000000000000000000e+00,1.000000000000000000e+00,1.000000000000000000e+00,1.000000000000000000e+00,1.000000000000000000e+00,1.000000000000000000e+00,1.000000000000000000e+00,1.000000000000000000e+00,1.000000000000000000e+00,1.000000000000000000e+00,1.000000000000000000e+00,1.000000000000000000e+00,8.789848327636718972e-01,8.528058052062987837e-01,8.281410217285156694e-01,8.078383207321167270e-02,1.000000000000000000e+00,1.000000000000000000e+00,1.000000000000000000e+00
6.200672149658202903e-01,6.358039379119873047e-01,6.523602962493896262e-01,6.698018550872802956e-01,6.882017612457275169e-01,7.076410293579101785e-01,7.282104969024658647e-01,7.500114917755127397e-01,7.731583118438720703e-01,7.977791786193847434e-01,8.240197181701660600e-01,8.520451545715331809e-01,8.820440292358397993e-01,9.142324447631835493e-01,1.000000000000000000e+00,1.000000000000000000e+00,1.000000000000000000e+00,1.000000000000000000e+00,1.000000000000000000e+00,1.000000000000000000e+00,1.000000000000000000e+00,1.000000000000000000e+00,1.000000000000000000e+00,1.000000000000000000e+00,1.000000000000000000e+00,1.000000000000000000e+00,1.000000000000000000e+00,1.000000000000000000e+00,1.000000000000000000e+00,1.000000000000000000e+00,1.000000000000000000e+00,1.000000000000000000e+00,1.000000000000000000e+00,1.000000000000000000e+00,1.000000000000000000e+00,1.000000000000000000e+00,1.000000000000000000e+00,1.000000000000000000e+00,1.000000000000000000e+00,1.000000000000000000e+00,1.000000000000000000e+00,1.000000000000000000e+00,1.000000000000000000e+00,1.000000000000000000e+00,1.000000000000000000e+00,1.000000000000000000e+00,1.000000000000000000e+00,1.000000000000000000e+00,1.000000000000000000e+00,1.000000000000000000e+00,1.000000000000000000e+00,1.000000000000000000e+00,1.000000000000000000e+00,1.000000000000000000e+00,1.000000000000000000e+00,1.000000000000000000e+00,1.000000000000000000e+00,1.000000000000000000e+00,1.000000000000000000e+00,1.000000000000000000e+00,1.000000000000000000e+00,1.000000000000000000e+00,1.000000000000000000e+00,1.000000000000000000e+00,1.000000000000000000e+00,1.000000000000000000e+00,1.000000000000000000e+00,1.000000000000000000e+00,1.000000000000000000e+00,1.000000000000000000e+00,1.000000000000000000e+00,1.000000000000000000e+00,9.068221092224121316e-01,8.789848327636718972e-01,8.528058052062987837e-01,8.281499862670897993e-01,8.027288913726807196e-02,1.000000000000000000e+00,1.000000000000000000e+00,1.000000000000000000e+00
6.200554370880126953e-01,6.357915401458740234e-01,6.523472309112549050e-01,6.697881221771240234e-01,6.881872177124023215e-01,7.076256752014160600e-01,7.281942367553710938e-01,7.499942302703856978e-01,7.731399536132812500e-01,7.977596282958984153e-01,8.239988327026367410e-01,8.520228385925292525e-01,8.820201873779296431e-01,9.142067909240723100e-01,9.488314628601074441e-01,1.000000000000000000e+00,1.000000000000000000e+00,1.000000000000000000e+00,1.000000000000000000e+00,1.000000000000000000e+00,1.000000000000000000e+00,1.000000000000000000e+00,1.000000000000000000e+00,1.000000000000000000e+00,1.000000000000000000e+00,1.000000000000000000e+00,1.000000000000000000e+00,1.000000000000000000e+00,1.000000000000000000e+00,1.000000000000000000e+00,1.000000000000000000e+00,1.000000000000000000e+00,1.000000000000000000e+00,1.000000000000000000e+00,1.000000000000000000e+00,1.000000000000000000e+00,1.000000000000000000e+00,1.000000000000000000e+00,1.000000000000000000e+00,1.000000000000000000e+00,1.000000000000000000e+00,1.000000000000000000e+00,1.000000000000000000e+00,1.000000000000000000e+00,1.000000000000000000e+00,1.000000000000000000e+00,1.000000000000000000e+00,1.000000000000000000e+00,1.000000000000000000e+00,1.000000000000000000e+00,1.000000000000000000e+00,1.000000000000000000e+00,1.000000000000000000e+00,1.000000000000000000e+00,1.000000000000000000e+00,1.000000000000000000e+00,1.000000000000000000e+00,1.000000000000000000e+00,1.000000000000000000e+00,1.000000000000000000e+00,1.000000000000000000e+00,1.000000000000000000e+00,1.000000000000000000e+00,1.000000000000000000e+00,1.000000000000000000e+00,1.000000000000000000e+00,1.000000000000000000e+00,1.000000000000000000e+00,1.000000000000000000e+00,1.000000000000000000e+00,1.000000000000000000e+00,9.364801406860351340e-01,9.068221092224121316e-01,8.789848327636718972e-01,8.528178215026855913e-01,8.186939358711242676e-02,1.000000000000000000e+00,1.000000000000000000e+00,1.000000000000000000e+00,1.000000000000000000e+00
6.200433731079101340e-01,6.357791423797607422e-01,6.523341655731200728e-01,6.697743415832519975e-01,6.881726741790771262e-01,7.076103210449218306e-01,7.281779289245605691e-01,7.499770641326903853e-01,7.731215953826904297e-01,7.977400779724120872e-01,8.239780426025390403e-01,8.520006179809570535e-01,8.819962501525878684e-01,9.141811370849609597e-01,9.488039016723632812e-01,9.861524581909180132e-01,1.000000000000000000e+00,1.000000000000000000e+00,1.000000000000000000e+00,1.000000000000000000e+00,1.000000000000000000e+00,1.000000000000000000e+00,1.000000000000000000e+00,1.000000000000000000e+00,1.000000000000000000e+00,1.000000000000000000e+00,1.000000000000000000e+00,1.000000000000000000e+00,1.000000000000000000e+00,1.000000000000000000e+00,1.000000000000000000e+00,1.000000000000000000e+00,1.000000000000000000e+00,1.000000000000000000e+00,1.000000000000000000e+00,1.000000000000000000e+00,1.000000000000000000e+00,1.000000000000000000e+00,1.000000000000000000e+00,1.000000000000000000e+00,1.000000000000000000e+00,1.000000000000000000e+00,1.000000000000000000e+00,1.000000000000000000e+00,1.000000000000000000e+00,1.000000000000000000e+00,1.000000000000000000e+00,1.000000000000000000e+00,1.000000000000000000e+00,1.000000000000000000e+00,1.000000000000000000e+00,1.000000000000000000e+00,1.000000000000000000e+00,1.000000000000000000e+00,1.000000000000000000e+00,1.000000000000000000e+00,1.000000000000000000e+00,1.000000000000000000e+00,1.000000000000000000e+00,1.000000000000000000e+00,1.000000000000000000e+00,1.000000000000000000e+00,1.000000000000000000e+00,1.000000000000000000e+00,1.000000000000000000e+00,1.000000000000000000e+00,1.000000000000000000e+00,1.000000000000000000e+00,1.000000000000000000e+00,1.000000000000000000e+00,9.681437492370605913e-01,9.364801406860351340e-01,9.068221092224121316e-01,8.790003776550292525e-01,8.336192965507507879e-02,8.132166266441345770e-02,1.000000000000000000e+00,1.000000000000000000e+00,1.000000000000000000e+00,1.000000000000000000e+00
6.200301647186279297e-01,6.357665538787842241e-01,6.523211002349853516e-01,6.697605609893798606e-01,6.881581306457519309e-01,7.075949192047119585e-01,7.281616687774657981e-01,7.499598026275634544e-01,7.731032371520996094e-01,7.977205276489257590e-01,8.239571571350097212e-01,8.519783020019531250e-01,8.819724082946777122e-01,9.141554832458496094e-01,9.487762451171875000e-01,9.861226081848144531e-01,1.000000000000000000e+00,1.000000000000000000e+00,1.000000000000000000e+00,1.000000000000000000e+00,1.000000000000000000e+00,1.000000000000000000e+00,1.000000000000000000e+00,1.000000000000000000e+00,1.000000000000000000e+00,1.000000000000000000e+00,1.000000000000000000e+00,1.000000000000000000e+00,1.000000000000000000e+00,1.000000000000000000e+00,1.000000000000000000e+00,1.000000000000000000e+00,1.000000000000000000e+00,1.000000000000000000e+00,1.000000000000000000e+00,1.000000000000000000e+00,1.000000000000000000e+00,1.000000000000000000e+00,1.000000000000000000e+00,1.000000000000000000e+00,1.000000000000000000e+00,1.000000000000000000e+00,1.000000000000000000e+00,1.000000000000000000e+00,1.000000000000000000e+00,1.000000000000000000e+00,1.000000000000000000e+00,1.000000000000000000e+00,1.000000000000000000e+00,1.000000000000000000e+00,1.000000000000000000e+00,1.000000000000000000e+00,1.000000000000000000e+00,1.000000000000000000e+00,1.000000000000000000e+00,1.000000000000000000e+00,1.000000000000000000e+00,1.000000000000000000e+00,1.000000000000000000e+00,1.000000000000000000e+00,1.000000000000000000e+00,1.000000000000000000e+00,1.000000000000000000e+00,1.000000000000000000e+00,1.000000000000000000e+00,1.000000000000000000e+00,1.000000000000000000e+00,1.000000000000000000e+00,1.000000000000000000e+00,1.000000000000000000e+00,9.681437492370605913e-01,9.364801406860351340e-01,9.068414688110351118e-01,8.490988016128539484e-02,8.296063542366027832e-02,8.078116178512573242e-02,1.000000000000000000e+00,1.000000000000000000e+00,1.000000000000000000e+00,1.000000000000000000e+00
6.200169086456298606e-01,6.357526302337646040e-01,6.523077964782715288e-01,6.697467803955078347e-01,6.881435871124267356e-01,7.075795650482177290e-01,7.281454086303711382e-01,7.499425411224365234e-01,7.730848789215087891e-01,7.977010250091552956e-01,8.239363670349121316e-01,8.519559860229491965e-01,8.819484710693359375e-01,9.141298294067382590e-01,9.487485885620117188e-01,9.860927581787108931e-01,1.000000000000000000e+00,1.000000000000000000e+00,1.000000000000000000e+00,1.000000000000000000e+00,1.000000000000000000e+00,1.000000000000000000e+00,1.000000000000000000e+00,1.000000000000000000e+00,1.000000000000000000e+00,1.000000000000000000e+00,1.000000000000000000e+00,1.000000000000000000e+00,1.000000000000000000e+00,1.000000000000000000e+00,1.000000000000000000e+00,1.000000000000000000e+00,1.000000000000000000e+00,1.000000000000000000e+00,1.000000000000000000e+00,1.000000000000000000e+00,1.000000000000000000e+00,1.000000000000000000e+00,1.000000000000000000e+00,1.000000000000000000e+00,1.000000000000000000e+00,1.000000000000000000e+00,1.000000000000000000e+00,1.000000000000000000e+00,1.000000000000000000e+00,1.000000000000000000e+00,1.000000000000000000e+00,1.000000000000000000e+00,1.000000000000000000e+00,1.000000000000000000e+00,1.000000000000000000e+00,1.000000000000000000e+00,1.000000000000000000e+00,1.000000000000000000e+00,1.000000000000000000e+00,1.000000000000000000e+00,1.000000000000000000e+00,1.000000000000000000e+00,1.000000000000000000e+00,1.000000000000000000e+00,1.000000000000000000e+00,1.000000000000000000e+00,1.000000000000000000e+00,1.000000000000000000e+00,1.000000000000000000e+00,1.000000000000000000e+00,1.000000000000000000e+00,1.000000000000000000e+00,1.000000000000000000e+00,1.000000000000000000e+00,9.681442260742187944e-01,9.365038871765136719e-01,9.068662643432616743e-01,8.451837897300720770e-02,8.239820003509520929e-02,8.024780154228210172e-02,1.000000000000000000e+00,1.000000000000000000e+00,1.000000000000000000e+00,1.000000000000000000e+00
6.200037479400635210e-01,6.357387065887450950e-01,6.522931575775146040e-01,6.697328090667724609e-01,6.881290435791015403e-01,7.075642108917236106e-01,7.281291007995605025e-01,7.499252796173095925e-01,7.730665683746338335e-01,7.976814746856689675e-01,8.239154815673828125e-01,8.519337654113769975e-01,8.819247245788573997e-01,9.141041755676269087e-01,9.487210273742675559e-01,9.860629081726074441e-01,1.000000000000000000e+00,1.000000000000000000e+00,1.000000000000000000e+00,1.000000000000000000e+00,1.000000000000000000e+00,1.000000000000000000e+00,1.000000000000000000e+00,1.000000000000000000e+00,1.000000000000000000e+00,1.000000000000000000e+00,1.000000000000000000e+00,1.000000000000000000e+00,1.000000000000000000e+00,1.000000000000000000e+00,1.000000000000000000e+00,1.000000000000000000e+00,1.000000000000000000e+00,1.000000000000000000e+00,1.000000000000000000e+00,1.000000000000000000e+00,1.000000000000000000e+00,1.000000000000000000e+00,1.000000000000000000e+00,1.000000000000000000e+00,1.000000000000000000e+00,1.000000000000000000e+00,1.000000000000000000e+00,1.000000000000000000e+00,1.000000000000000000e+00,1.000000000000000000e+00,1.000000000000000000e+00,1.000000000000000000e+00,1.000000000000000000e+00,1.000000000000000000e+00,1.000000000000000000e+00,1.000000000000000000e+00,1.000000000000000000e+00,1.000000000000000000e+00,1.000000000000000000e+00,1.000000000000000000e+00,1.000000000000000000e+00,1.000000000000000000e+00,1.000000000000000000e+00,1.000000000000000000e+00,1.000000000000000000e+00,1.000000000000000000e+00,1.000000000000000000e+00,1.000000000000000000e+00,1.000000000000000000e+00,1.000000000000000000e+00,1.000000000000000000e+00,1.000000000000000000e+00,1.000000000000000000e+00,1.000000000000000000e+00,9.681725502014160156e-01,9.365303993225098100e-01,8.610999584197998047e-02,8.408130407333373746e-02,8.184334635734558105e-02,1.000000000000000000e+00,1.000000000000000000e+00,1.000000000000000000e+00,1.000000000000000000e+00,1.000000000000000000e+00
6.199905395507812056e-01,6.357247829437255859e-01,6.522785663604736550e-01,6.697174072265624778e-01,6.881143569946288618e-01,7.075488090515136275e-01,7.281128406524658425e-01,7.499080181121826616e-01,7.730482101440430132e-01,7.976619720458983931e-01,8.238946914672851118e-01,8.519114494323730691e-01,8.819007873535156250e-01,9.140785217285156694e-01,9.486933708190917747e-01,9.860330581665038840e-01,1.000000000000000000e+00,1.000000000000000000e+00,1.000000000000000000e+00,1.000000000000000000e+00,1.000000000000000000e+00,1.000000000000000000e+00,1.000000000000000000e+00,1.000000000000000000e+00,1.000000000000000000e+00,1.000000000000000000e+00,1.000000000000000000e+00,1.000000000000000000e+00,1.000000000000000000e+00,1.000000000000000000e+00,1.000000000000000000e+00,1.000000000000000000e+00,1.000000000000000000e+00,1.000000000000000000e+00,1.000000000000000000e+00,1.000000000000000000e+00,1.000000000000000000e+00,1.000000000000000000e+00,1.000000000000000000e+00,1.000000000000000000e+00,1.000000000000000000e+00,1.000000000000000000e+00,1.000000000000000000e+00,1.000000000000000000e+00,1.000000000000000000e+00,1.000000000000000000e+00,1.000000000000000000e+00,1.000000000000000000e+00,1.000000000000000000e+00,1.000000000000000000e+00,1.000000000000000000e+00,1.000000000000000000e+00,1.000000000000000000e+00,1.000000000000000000e+00,1.000000000000000000e+00,1.000000000000000000e+00,1.000000000000000000e+00,1.000000000000000000e+00,1.000000000000000000e+00,1.000000000000000000e+00,1.000000000000000000e+00,1.000000000000000000e+00,1.000000000000000000e+00,1.000000000000000000e+00,1.000000000000000000e+00,1.000000000000000000e+00,1.000000000000000000e+00,1.000000000000000000e+00,1.000000000000000000e+00,1.000000000000000000e+00,9.682008743286132368e-01,8.776270747184752863e-02,8.570738434791565219e-02,8.350362777709960382e-02,8.129591345787048895e-02,1.000000000000000000e+00,1.000000000000000000e+00,1.000000000000000000e+00,1.000000000000000000e+00,1.000000000000000000e+00
6.199772834777832475e-01,6.357109069824218306e-01,6.522639274597168413e-01,6.697019577026367410e-01,6.880980968475342019e-01,7.075333118438720259e-01,7.280965805053710715e-01,7.498907566070556197e-01,7.730298519134521928e-01,7.976424217224120650e-01,8.238738059997559038e-01,8.518891334533691406e-01,8.818769454956054688e-01,9.140528678894043191e-01,9.486657142639159934e-01,9.860032081604004350e-01,1.000000000000000000e+00,1.000000000000000000e+00,1.000000000000000000e+00,1.000000000000000000e+00,1.000000000000000000e+00,1.000000000000000000e+00,1.000000000000000000e+00,1.000000000000000000e+00,1.000000000000000000e+00,1.000000000000000000e+00,1.000000000000000000e+00,1.000000000000000000e+00,1.000000000000000000e+00,1.000000000000000000e+00,1.000000000000000000e+00,1.000000000000000000e+00,1.000000000000000000e+00,1.000000000000000000e+00,1.000000000000000000e+00,1.000000000000000000e+00,1.000000000000000000e+00,1.000000000000000000e+00,1.000000000000000000e+00,1.000000000000000000e+00,1.000000000000000000e+00,1.000000000000000000e+00,1.000000000000000000e+00,1.000000000000000000e+00,1.000000000000000000e+00,1.000000000000000000e+00,1.000000000000000000e+00,1.000000000000000000e+00,1.000000000000000000e+00,1.000000000000000000e+00,1.000000000000000000e+00,1.000000000000000000e+00,1.000000000000000000e+00,1.000000000000000000e+00,1.000000000000000000e+00,1.000000000000000000e+00,1.000000000000000000e+00,1.000000000000000000e+00,1.000000000000000000e+00,1.000000000000000000e+00,1.000000000000000000e+00,1.000000000000000000e+00,1.000000000000000000e+00,1.000000000000000000e+00,1.000000000000000000e+00,1.000000000000000000e+00,1.000000000000000000e+00,1.000000000000000000e+00,1.000000000000000000e+00,1.000000000000000000e+00,8.948009610176085871e-02,8.734452128410338800e-02,8.523266315460205356e-02,8.293383717536925714e-02,8.075576424598693293e-02,1.000000000000000000e+00,1.000000000000000000e+00,1.000000000000000000e+00,1.000000000000000000e+00,1.000000000000000000e+00
6.199640750885009322e-01,6.356970310211181863e-01,6.522492885589599165e-01,6.696865081787108931e-01,6.880817890167236772e-01,7.075160980224609597e-01,7.280802249908446822e-01,7.498734951019286887e-01,7.730115413665771262e-01,7.976228713989257368e-01,8.238530158996582031e-01,8.518669128417968306e-01,8.818531036376953125e-01,9.140273094177245872e-01,9.486380577087402122e-01,9.859733581542968750e-01,1.000000000000000000e+00,1.000000000000000000e+00,1.000000000000000000e+00,1.000000000000000000e+00,1.000000000000000000e+00,1.000000000000000000e+00,1.000000000000000000e+00,1.000000000000000000e+00,1.000000000000000000e+00,1.000000000000000000e+00,1.000000000000000000e+00,1.000000000000000000e+00,1.000000000000000000e+00,1.000000000000000000e+00,1.000000000000000000e+00,1.000000000000000000e+00,1.000000000000000000e+00,1.000000000000000000e+00,1.000000000000000000e+00,1.000000000000000000e+00,1.000000000000000000e+00,1.000000000000000000e+00,1.000000000000000000e+00,1.000000000000000000e+00,1.000000000000000000e+00,1.000000000000000000e+00,1.000000000000000000e+00,1.000000000000000000e+00,1.000000000000000000e+00,1.000000000000000000e+00,1.000000000000000000e+00,1.000000000000000000e+00,1.000000000000000000e+00,1.000000000000000000e+00,1.000000000000000000e+00,1.000000000000000000e+00,1.000000000000000000e+00,1.000000000000000000e+00,1.000000000000000000e+00,1.000000000000000000e+00,1.000000000000000000e+00,1.000000000000000000e+00,1.000000000000000000e+00,1.000000000000000000e+00,1.000000000000000000e+00,1.000000000000000000e+00,1.000000000000000000e+00,1.000000000000000000e+00,1.000000000000000000e+00,1.000000000000000000e+00,1.000000000000000000e+00,1.000000000000000000e+00,1.000000000000000000e+00,1.000000000000000000e+00,8.904542922973632257e-02,8.693030476570129395e-02,8.463912010192871371e-02,8.237176537513732355e-02,8.055146336555481235e-02,1.000000000000000000e+00,1.000000000000000000e+00,1.000000000000000000e+00,1.000000000000000000e+00,1.000000000000000000e+00
6.199508190155029741e-01,6.356831073760986772e-01,6.522346496582031028e-01,6.696711540222167747e-01,6.880654811859130415e-01,7.074989318847656472e-01,7.280619621276855913e-01,7.498560428619385210e-01,7.729931831359863059e-01,7.976033687591552734e-01,8.238321304321288840e-01,8.518445968627930132e-01,8.818291664123535378e-01,9.140016555786132368e-01,9.486104965209960493e-01,9.859435081481933150e-01,1.000000000000000000e+00,1.000000000000000000e+00,1.000000000000000000e+00,1.000000000000000000e+00,1.000000000000000000e+00,1.000000000000000000e+00,1.000000000000000000e+00,1.000000000000000000e+00,1.000000000000000000e+00,1.000000000000000000e+00,1.000000000000000000e+00,1.000000000000000000e+00,1.000000000000000000e+00,1.000000000000000000e+00,1.000000000000000000e+00,1.000000000000000000e+00,1.000000000000000000e+00,1.000000000000000000e+00,1.000000000000000000e+00,1.000000000000000000e+00,1.000000000000000000e+00,1.000000000000000000e+00,1.000000000000000000e+00,1.000000000000000000e+00,1.000000000000000000e+00,1.000000000000000000e+00,1.000000000000000000e+00,1.000000000000000000e+00,1.000000000000000000e+00,1.000000000000000000e+00,1.000000000000000000e+00,1.000000000000000000e+00,1.000000000000000000e+00,1.000000000000000000e+00,1.000000000000000000e+00,1.000000000000000000e+00,1.000000000000000000e+00,1.000000000000000000e+00,1.000000000000000000e+00,1.000000000000000000e+00,1.000000000000000000e+00,1.000000000000000000e+00,1.000000000000000000e+00,1.000000000000000000e+00,1.000000000000000000e+00,1.000000000000000000e+00,1.000000000000000000e+00,1.000000000000000000e+00,1.000000000000000000e+00,1.000000000000000000e+00,1.000000000000000000e+00,1.000000000000000000e+00,1.000000000000000000e+00,9.081389904022216242e-02,8.861495852470398227e-02,8.641599416732788363e-02,8.405377864837645929e-02,8.186755776405334195e-02,8.096556663513183871e-02,8.008322715759277899e-02,1.000000000000000000e+00,1.000000000000000000e+00,1.000000000000000000e+00,1.000000000000000000e+00
6.199376583099365234e-01,6.356692314147949219e-01,6.522199630737304243e-01,6.696557044982910378e-01,6.880491733551025169e-01,7.074816703796387163e-01,7.280436992645263894e-01,7.498367786407470481e-01,7.729747295379638672e-01,7.975838184356689453e-01,8.238113403320312944e-01,8.518223762512207031e-01,8.818053245544433816e-01,9.139760017395019975e-01,9.485828399658202681e-01,9.859136581420898660e-01,1.000000000000000000e+00,1.000000000000000000e+00,1.000000000000000000e+00,1.000000000000000000e+00,1.000000000000000000e+00,1.000000000000000000e+00,1.000000000000000000e+00,1.000000000000000000e+00,1.000000000000000000e+00,1.000000000000000000e+00,1.000000000000000000e+00,1.000000000000000000e+00,1.000000000000000000e+00,1.000000000000000000e+00,1.000000000000000000e+00,1.000000000000000000e+00,1.000000000000000000e+00,1.000000000000000000e+00,1.000000000000000000e+00,1.000000000000000000e+00,1.000000000000000000e+00,1.000000000000000000e+00,1.000000000000000000e+00,1.000000000000000000e+00,1.000000000000000000e+00,1.000000000000000000e+00,1.000000000000000000e+00,1.000000000000000000e+00,1.000000000000000000e+00,1.000000000000000000e+00,1.000000000000000000e+00,1.000000000000000000e+00,1.000000000000000000e+00,1.000000000000000000e+00,1.000000000000000000e+00,1.000000000000000000e+00,1.000000000000000000e+00,1.000000000000000000e+00,1.000000000000000000e+00,1.000000000000000000e+00,1.000000000000000000e+00,1.000000000000000000e+00,1.000000000000000000e+00,1.000000000000000000e+00,1.000000000000000000e+00,1.000000000000000000e+00,1.000000000000000000e+00,1.000000000000000000e+00,1.000000000000000000e+00,1.000000000000000000e+00,1.000000000000000000e+00,1.000000000000000000e+00,9.265403151512145719e-02,9.036620855331420343e-02,8.818864226341247003e-02,8.580591678619384211e-02,8.347648382186889648e-02,8.229534029960632047e-02,8.138394951820374090e-02,8.049252629280090332e-02,1.000000000000000000e+00,1.000000000000000000e+00,1.000000000000000000e+00,1.000000000000000000e+00
6.199244499206543191e-01,6.356553077697754128e-01,6.522054195404052290e-01,6.696402549743651900e-01,6.880329132080078569e-01,7.074644565582275391e-01,7.280254840850830522e-01,7.498174190521240678e-01,7.729541778564452681e-01,7.975643157958984819e-01,8.237904548645019753e-01,8.518000602722167747e-01,8.817814826965332253e-01,9.139503479003906472e-01,9.485552787780762163e-01,9.858838081359863059e-01,1.000000000000000000e+00,1.000000000000000000e+00,1.000000000000000000e+00,1.000000000000000000e+00,1.000000000000000000e+00,1.000000000000000000e+00,1.000000000000000000e+00,1.000000000000000000e+00,1.000000000000000000e+00,1.000000000000000000e+00,1.000000000000000000e+00,1.000000000000000000e+00,1.000000000000000000e+00,1.000000000000000000e+00,1.000000000000000000e+00,1.000000000000000000e+00,1.000000000000000000e+00,1.000000000000000000e+00,1.000000000000000000e+00,1.000000000000000000e+00,1.000000000000000000e+00,1.000000000000000000e+00,1.000000000000000000e+00,1.000000000000000000e+00,1.000000000000000000e+00,1.000000000000000000e+00,1.000000000000000000e+00,1.000000000000000000e+00,1.000000000000000000e+00,1.000000000000000000e+00,1.000000000000000000e+00,1.000000000000000000e+00,1.000000000000000000e+00,1.000000000000000000e+00,1.000000000000000000e+00,1.000000000000000000e+00,1.000000000000000000e+00,1.000000000000000000e+00,1.000000000000000000e+00,1.000000000000000000e+00,1.000000000000000000e+00,1.000000000000000000e+00,1.000000000000000000e+00,1.000000000000000000e+00,1.000000000000000000e+00,1.000000000000000000e+00,1.000000000000000000e+00,1.000000000000000000e+00,1.000000000000000000e+00,1.000000000000000000e+00,1.000000000000000000e+00,9.457027912139892578e-02,9.218805432319640558e-02,8.992290496826171875e-02,8.763265013694762628e-02,8.520438075065613071e-02,8.366953134536743442e-02,8.272761702537537176e-02,8.180668354034423273e-02,8.090603351593017578e-02,8.002498149871825617e-02,1.000000000000000000e+00,1.000000000000000000e+00,1.000000000000000000e+00
6.199111938476562500e-01,6.356413841247559038e-01,6.521907806396484153e-01,6.696248531341553178e-01,6.880166530609130859e-01,7.074472427368163618e-01,7.280073165893554688e-01,7.497981071472168413e-01,7.729336261749267800e-01,7.975424289703368919e-01,8.237696647644042747e-01,8.517778396606445757e-01,8.817575454711914507e-01,9.139246940612792969e-01,9.485277175903320535e-01,9.858539581298828569e-01,1.000000000000000000e+00,1.000000000000000000e+00,1.000000000000000000e+00,1.000000000000000000e+00,1.000000000000000000e+00,1.000000000000000000e+00,1.000000000000000000e+00,1.000000000000000000e+00,1.000000000000000000e+00,1.000000000000000000e+00,1.000000000000000000e+00,1.000000000000000000e+00,1.000000000000000000e+00,1.000000000000000000e+00,1.000000000000000000e+00,1.000000000000000000e+00,1.000000000000000000e+00,1.000000000000000000e+00,1.000000000000000000e+00,1.000000000000000000e+00,1.000000000000000000e+00,1.000000000000000000e+00,1.000000000000000000e+00,1.000000000000000000e+00,1.000000000000000000e+00,1.000000000000000000e+00,1.000000000000000000e+00,1.000000000000000000e+00,1.000000000000000000e+00,1.000000000000000000e+00,1.000000000000000000e+00,1.000000000000000000e+00,1.000000000000000000e+00,1.000000000000000000e+00,1.000000000000000000e+00,1.000000000000000000e+00,1.000000000000000000e+00,1.000000000000000000e+00,1.000000000000000000e+00,1.000000000000000000e+00,1.000000000000000000e+00,1.000000000000000000e+00,1.000000000000000000e+00,1.000000000000000000e+00,1.000000000000000000e+00,1.000000000000000000e+00,1.000000000000000000e+00,1.000000000000000000e+00,1.000000000000000000e+00,1.000000000000000000e+00,1.000000000000000000e+00,9.408488869667053223e-02,9.172675013542175293e-02,8.948392868041991910e-02,8.700532913208007535e-02,8.509038686752319613e-02,8.411640524864197332e-02,8.316447138786316196e-02,8.223382830619811734e-02,8.132379651069640558e-02,8.043367862701415738e-02,1.000000000000000000e+00,1.000000000000000000e+00,1.000000000000000000e+00
6.198979854583740456e-01,6.356275558471680132e-01,6.521761417388916016e-01,6.696094036102294700e-01,6.880003929138183150e-01,7.074300289154052956e-01,7.279890537261962669e-01,7.497787475585937500e-01,7.729131221771240456e-01,7.975205421447754128e-01,8.237462997436523215e-01,8.517556190490722656e-01,8.817337036132812944e-01,9.138990402221679465e-01,9.485000610351562722e-01,9.858242034912109153e-01,1.000000000000000000e+00,1.000000000000000000e+00,1.000000000000000000e+00,1.000000000000000000e+00,1.000000000000000000e+00,1.000000000000000000e+00,1.000000000000000000e+00,1.000000000000000000e+00,1.000000000000000000e+00,1.000000000000000000e+00,1.000000000000000000e+00,1.000000000000000000e+00,1.000000000000000000e+00,1.000000000000000000e+00,1.000000000000000000e+00,1.000000000000000000e+00,1.000000000000000000e+00,1.000000000000000000e+00,1.000000000000000000e+00,1.000000000000000000e+00,1.000000000000000000e+00,1.000000000000000000e+00,1.000000000000000000e+00,1.000000000000000000e+00,1.000000000000000000e+00,1.000000000000000000e+00,1.000000000000000000e+00,1.000000000000000000e+00,1.000000000000000000e+00,1.000000000000000000e+00,1.000000000000000000e+00,1.000000000000000000e+00,1.000000000000000000e+00,1.000000000000000000e+00,1.000000000000000000e+00,1.000000000000000000e+00,1.000000000000000000e+00,1.000000000000000000e+00,1.000000000000000000e+00,1.000000000000000000e+00,1.000000000000000000e+00,1.000000000000000000e+00,1.000000000000000000e+00,1.000000000000000000e+00,1.000000000000000000e+00,1.000000000000000000e+00,1.000000000000000000e+00,1.000000000000000000e+00,1.000000000000000000e+00,1.000000000000000000e+00,9.606141448020935614e-02,9.360444545745849609e-02,9.127004146575927457e-02,8.888404369354248324e-02,8.656034469604492743e-02,8.555260896682739813e-02,8.456808328628540039e-02,8.360595703124999722e-02,8.266546130180359164e-02,8.175247311592101496e-02,8.086589574813843329e-02,1.000000000000000000e+00,1.000000000000000000e+00,1.000000000000000000e+00
6.198847293853759766e-01,6.356136322021483931e-01,6.521615028381347878e-01,6.695940494537353516e-01,6.879840850830077903e-01,7.074127674102783647e-01,7.279708385467529297e-01,7.497593879699706587e-01,7.728925704956054465e-01,7.974986076354980691e-01,8.237230300903319868e-01,8.517306327819824663e-01,8.817098617553711382e-01,9.138733863830565962e-01,9.484724998474121094e-01,9.857943534851074663e-01,1.000000000000000000e+00,1.000000000000000000e+00,1.000000000000000000e+00,1.000000000000000000e+00,1.000000000000000000e+00,1.000000000000000000e+00,1.000000000000000000e+00,1.000000000000000000e+00,1.000000000000000000e+00,1.000000000000000000e+00,1.000000000000000000e+00,1.000000000000000000e+00,1.000000000000000000e+00,1.000000000000000000e+00,1.000000000000000000e+00,1.000000000000000000e+00,1.000000000000000000e+00,1.000000000000000000e+00,1.000000000000000000e+00,1.000000000000000000e+00,1.000000000000000000e+00,1.000000000000000000e+00,1.000000000000000000e+00,1.000000000000000000e+00,1.000000000000000000e+00,1.000000000000000000e+00,1.000000000000000000e+00,1.000000000000000000e+00,1.000000000000000000e+00,1.000000000000000000e+00,1.000000000000000000e+00,1.000000000000000000e+00,1.000000000000000000e+00,1.000000000000000000e+00,1.000000000000000000e+00,1.000000000000000000e+00,1.000000000000000000e+00,1.000000000000000000e+00,1.000000000000000000e+00,1.000000000000000000e+00,1.000000000000000000e+00,1.000000000000000000e+00,1.000000000000000000e+00,1.000000000000000000e+00,1.000000000000000000e+00,1.000000000000000000e+00,1.000000000000000000e+00,1.000000000000000000e+00,1.000000000000000000e+00,9.812276363372803012e-02,9.556062221527099332e-02,9.312889575958252508e-02,9.081784486770630438e-02,8.823875188827515204e-02,8.703871965408324640e-02,8.601989150047302524e-02,8.502463102340698797e-02,8.405392169952392856e-02,8.311700820922851562e-02,8.220075964927672785e-02,8.130448460578917902e-02,8.042754530906677524e-02,1.000000000000000000e+00,1.000000000000000000e+00
6.198715209960937722e-01,6.355997562408447488e-01,6.521468639373779741e-01,6.695785999298096147e-01,6.879677772521972656e-01,7.073956489562988059e-01,7.279525756835937278e-01,7.497401237487792969e-01,7.728720188140869585e-01,7.974767208099364790e-01,8.236996650695800337e-01,8.517057418823241743e-01,8.816832542419433816e-01,9.138478279113769753e-01,9.484448432922363281e-01,9.857645034790039062e-01,1.000000000000000000e+00,1.000000000000000000e+00,1.000000000000000000e+00,1.000000000000000000e+00,1.000000000000000000e+00,1.000000000000000000e+00,1.000000000000000000e+00,1.000000000000000000e+00,1.000000000000000000e+00,1.000000000000000000e+00,1.000000000000000000e+00,1.000000000000000000e+00,1.000000000000000000e+00,1.000000000000000000e+00,1.000000000000000000e+00,1.000000000000000000e+00,1.000000000000000000e+00,1.000000000000000000e+00,1.000000000000000000e+00,1.000000000000000000e+00,1.000000000000000000e+00,1.000000000000000000e+00,1.000000000000000000e+00,1.000000000000000000e+00,1.000000000000000000e+00,1.000000000000000000e+00,1.000000000000000000e+00,1.000000000000000000e+00,1.000000000000000000e+00,1.000000000000000000e+00,1.000000000000000000e+00,1.000000000000000000e+00,1.000000000000000000e+00,1.000000000000000000e+00,1.000000000000000000e+00,1.000000000000000000e+00,1.000000000000000000e+00,1.000000000000000000e+00,1.000000000000000000e+00,1.000000000000000000e+00,1.000000000000000000e+00,1.000000000000000000e+00,1.000000000000000000e+00,1.000000000000000000e+00,1.000000000000000000e+00,1.000000000000000000e+00,1.000000000000000000e+00,1.000000000000000000e+00,1.000000000000000000e+00,9.760031104087829590e-02,9.506503343582153875e-02,9.265814423561095914e-02,9.017170071601868231e-02,8.857735991477966309e-02,8.752241134643554132e-02,8.649229407310485285e-02,8.549703359603881558e-02,8.452786803245544711e-02,8.358042240142822543e-02,8.265396952629089355e-02,8.174784183502196988e-02,8.086136579513550360e-02,1.000000000000000000e+00,1.000000000000000000e+00
6.198583602905273215e-01,6.355858325958252397e-01,6.521322727203369141e-01,6.695631504058837669e-01,6.879515171051024947e-01,7.073784351348877397e-01,7.279343605041503906e-01,7.497207641601562056e-01,7.728514671325683594e-01,7.974549293518066184e-01,8.236763000488280806e-01,8.516807556152343750e-01,8.816564559936523882e-01,9.138192176818847878e-01,9.484171867370605469e-01,9.857346534729003462e-01,1.000000000000000000e+00,1.000000000000000000e+00,1.000000000000000000e+00,1.000000000000000000e+00,1.000000000000000000e+00,1.000000000000000000e+00,1.000000000000000000e+00,1.000000000000000000e+00,1.000000000000000000e+00,1.000000000000000000e+00,1.000000000000000000e+00,1.000000000000000000e+00,1.000000000000000000e+00,1.000000000000000000e+00,1.000000000000000000e+00,1.000000000000000000e+00,1.000000000000000000e+00,1.000000000000000000e+00,1.000000000000000000e+00,1.000000000000000000e+00,1.000000000000000000e+00,1.000000000000000000e+00,1.000000000000000000e+00,1.000000000000000000e+00,1.000000000000000000e+00,1.000000000000000000e+00,1.000000000000000000e+00,1.000000000000000000e+00,1.000000000000000000e+00,1.000000000000000000e+00,1.000000000000000000e+00,1.000000000000000000e+00,1.000000000000000000e+00,1.000000000000000000e+00,1.000000000000000000e+00,1.000000000000000000e+00,1.000000000000000000e+00,1.000000000000000000e+00,1.000000000000000000e+00,1.000000000000000000e+00,1.000000000000000000e+00,1.000000000000000000e+00,1.000000000000000000e+00,1.000000000000000000e+00,1.000000000000000000e+00,1.000000000000000000e+00,1.000000000000000000e+00,1.000000000000000000e+00,9.997289776802062433e-02,9.709423184394835871e-02,9.457455873489380160e-02,9.219124317169188898e-02,9.017139077186583918e-02,8.907836079597472589e-02,8.801738619804382047e-02,8.699056506156921387e-02,8.598744273185729425e-02,8.500717878341675082e-02,8.404901623725891113e-02,8.311221599578857977e-02,8.219606280326843817e-02,8.129988908767700473e-02,8.045817613601684293e-02,1.000000000000000000e+00
6.198375225067138672e-01,6.355684280395508257e-01,6.521176338195801003e-01,6.695477485656737837e-01,6.879352569580078347e-01,7.073611736297606978e-01,7.279160976409911887e-01,7.497014045715332253e-01,7.728309154510497603e-01,7.974330425262451394e-01,8.236529350280761275e-01,8.516558647155761941e-01,8.816297531127930132e-01,9.137905120849609819e-01,9.483864784240723100e-01,9.857048034667968972e-01,1.000000000000000000e+00,1.000000000000000000e+00,1.000000000000000000e+00,1.000000000000000000e+00,1.000000000000000000e+00,1.000000000000000000e+00,1.000000000000000000e+00,1.000000000000000000e+00,1.000000000000000000e+00,1.000000000000000000e+00,1.000000000000000000e+00,1.000000000000000000e+00,1.000000000000000000e+00,1.000000000000000000e+00,1.000000000000000000e+00,1.000000000000000000e+00,1.000000000000000000e+00,1.000000000000000000e+00,1.000000000000000000e+00,1.000000000000000000e+00,1.000000000000000000e+00,1.000000000000000000e+00,1.000000000000000000e+00,1.000000000000000000e+00,1.000000000000000000e+00,1.000000000000000000e+00,1.000000000000000000e+00,1.000000000000000000e+00,1.000000000000000000e+00,1.000000000000000000e+00,1.000000000000000000e+00,1.000000000000000000e+00,1.000000000000000000e+00,1.000000000000000000e+00,1.000000000000000000e+00,1.000000000000000000e+00,1.000000000000000000e+00,1.000000000000000000e+00,1.000000000000000000e+00,1.000000000000000000e+00,1.000000000000000000e+00,1.000000000000000000e+00,1.000000000000000000e+00,1.000000000000000000e+00,1.000000000000000000e+00,1.000000000000000000e+00,1.000000000000000000e+00,1.024037361145019587e-01,9.949558377265929621e-02,9.664394855499267023e-02,9.408912658691406805e-02,9.182383418083191196e-02,9.069083929061889926e-02,8.960108160972594937e-02,8.853721618652343750e-02,8.749830722808837891e-02,8.648349642753601352e-02,8.549196124076843817e-02,8.452290296554565430e-02,8.357556462287903110e-02,8.264922499656676691e-02,8.174319863319397250e-02,8.114630579948425848e-02,8.056972622871398648e-02
6.198145866394042525e-01,6.355443000793457031e-01,6.520932197570801225e-01,6.695269584655761941e-01,6.879185676574707253e-01,7.073439598083496316e-01,7.278979301452637163e-01,7.496820926666259988e-01,7.728104114532470259e-01,7.974111557006835493e-01,8.236296653747559038e-01,8.516308784484862837e-01,8.816030502319336382e-01,9.137618064880370650e-01,9.483555793762207253e-01,9.856718063354492632e-01,1.000000000000000000e+00,1.000000000000000000e+00,1.000000000000000000e+00,1.000000000000000000e+00,1.000000000000000000e+00,1.000000000000000000e+00,1.000000000000000000e+00,1.000000000000000000e+00,1.000000000000000000e+00,1.000000000000000000e+00,1.000000000000000000e+00,1.000000000000000000e+00,1.000000000000000000e+00,1.000000000000000000e+00,1.000000000000000000e+00,1.000000000000000000e+00,1.000000000000000000e+00,1.000000000000000000e+00,1.000000000000000000e+00,1.000000000000000000e+00,1.000000000000000000e+00,1.000000000000000000e+00,1.000000000000000000e+00,1.000000000000000000e+00,1.000000000000000000e+00,1.000000000000000000e+00,1.000000000000000000e+00,1.000000000000000000e+00,1.000000000000000000e+00,1.000000000000000000e+00,1.000000000000000000e+00,1.000000000000000000e+00,1.000000000000000000e+00,1.000000000000000000e+00,1.000000000000000000e+00,1.000000000000000000e+00,1.000000000000000000e+00,1.000000000000000000e+00,1.000000000000000000e+00,1.000000000000000000e+00,1.000000000000000000e+00,1.000000000000000000e+00,1.000000000000000000e+00,1.000000000000000000e+00,1.000000000000000000e+00,1.000000000000000000e+00,1.059780001640319852e-01,1.020187258720397921e-01,9.902281761169433316e-02,9.619783163070678988e-02,9.357725381851196567e-02,9.237312078475952426e-02,9.124282002449035645e-02,9.013984799385070523e-02,8.906321525573730746e-02,8.801200389862059992e-02,8.698531389236449640e-02,8.598230481147765836e-02,8.500215411186218262e-02,8.404411077499389371e-02,8.310741186141967773e-02,8.244137763977051059e-02,8.184630870819091519e-02,8.125978112220763605e-02
6.197939872741698997e-01,6.355202198028564453e-01,6.520678043365478738e-01,6.695002555847168191e-01,6.878902912139892578e-01,7.073192119598388228e-01,7.278775691986083540e-01,7.496627330780029075e-01,7.727898597717285378e-01,7.973892688751220703e-01,8.236063003540039507e-01,8.516059875488281028e-01,8.815762519836425337e-01,9.137331008911132590e-01,9.483245849609375222e-01,9.856383323669433150e-01,1.000000000000000000e+00,1.000000000000000000e+00,1.000000000000000000e+00,1.000000000000000000e+00,1.000000000000000000e+00,1.000000000000000000e+00,1.000000000000000000e+00,1.000000000000000000e+00,1.000000000000000000e+00,1.000000000000000000e+00,1.000000000000000000e+00,1.000000000000000000e+00,1.000000000000000000e+00,1.000000000000000000e+00,1.000000000000000000e+00,1.000000000000000000e+00,1.000000000000000000e+00,1.000000000000000000e+00,1.000000000000000000e+00,1.000000000000000000e+00,1.000000000000000000e+00,1.000000000000000000e+00,1.000000000000000000e+00,1.000000000000000000e+00,1.000000000000000000e+00,1.000000000000000000e+00,1.000000000000000000e+00,1.000000000000000000e+00,1.000000000000000000e+00,1.000000000000000000e+00,1.000000000000000000e+00,1.000000000000000000e+00,1.000000000000000000e+00,1.000000000000000000e+00,1.000000000000000000e+00,1.000000000000000000e+00,1.000000000000000000e+00,1.000000000000000000e+00,1.000000000000000000e+00,1.000000000000000000e+00,1.000000000000000000e+00,1.000000000000000000e+00,1.000000000000000000e+00,1.000000000000000000e+00,1.000000000000000000e+00,1.000000000000000000e+00,1.045146107673644992e-01,1.015217304229736328e-01,9.855451583862304132e-02,9.575580358505249301e-02,9.414099454879761020e-02,9.294585585594176969e-02,9.180157780647277277e-02,9.068513512611389715e-02,8.959552049636840265e-02,8.853177428245544156e-02,8.749299049377441684e-02,8.647829890251160223e-02,8.548688292503356378e-02,8.451793789863586148e-02,8.377844691276550848e-02,8.316400647163391113e-02,8.255850076675415317e-02,8.196175694465637762e-02
6.197807788848876953e-01,6.355042934417725053e-01,6.520463466644287331e-01,6.694734573364258257e-01,6.878621101379394087e-01,7.072893142700195090e-01,7.278459072113037109e-01,7.496330738067626953e-01,7.727649688720703569e-01,7.973673820495605913e-01,8.235829353332519975e-01,8.515810012817383035e-01,8.815495491027831587e-01,9.137043952941894531e-01,9.482936859130859375e-01,9.856048583984374778e-01,1.000000000000000000e+00,1.000000000000000000e+00,1.000000000000000000e+00,1.000000000000000000e+00,1.000000000000000000e+00,1.000000000000000000e+00,1.000000000000000000e+00,1.000000000000000000e+00,1.000000000000000000e+00,1.000000000000000000e+00,1.000000000000000000e+00,1.000000000000000000e+00,1.000000000000000000e+00,1.000000000000000000e+00,1.000000000000000000e+00,1.000000000000000000e+00,1.000000000000000000e+00,1.000000000000000000e+00,1.000000000000000000e+00,1.000000000000000000e+00,1.000000000000000000e+00,1.000000000000000000e+00,1.000000000000000000e+00,1.000000000000000000e+00,1.000000000000000000e+00,1.000000000000000000e+00,1.000000000000000000e+00,1.000000000000000000e+00,1.000000000000000000e+00,1.000000000000000000e+00,1.000000000000000000e+00,1.000000000000000000e+00,1.000000000000000000e+00,1.000000000000000000e+00,1.000000000000000000e+00,1.000000000000000000e+00,1.000000000000000000e+00,1.000000000000000000e+00,1.000000000000000000e+00,1.000000000000000000e+00,1.000000000000000000e+00,1.000000000000000000e+00,1.000000000000000000e+00,1.000000000000000000e+00,1.000000000000000000e+00,1.070831060409545843e-01,1.041500329971313532e-01,1.010295629501342801e-01,9.809061884880065918e-02,9.602795839309692660e-02,9.478327631950378418e-02,9.357045292854308804e-02,9.238827824592590887e-02,9.123705029487609586e-02,9.013420939445496161e-02,8.905771374702453613e-02,8.800663352012634555e-02,8.698006868362426203e-02,8.597717285156250555e-02,8.515961766242981235e-02,8.452481627464294989e-02,8.389941453933716375e-02,8.328319191932678778e-02,8.274838924407959539e-02
6.197675228118896262e-01,6.354903221130371316e-01,6.520317077636719194e-01,6.694571495056151900e-01,6.878396034240722434e-01,7.072600841522216353e-01,7.278142452239990678e-01,7.495995998382568581e-01,7.727292537689208762e-01,7.973318576812744585e-01,8.235525131225586160e-01,8.515560150146483931e-01,8.815228462219237837e-01,9.136756896972656472e-01,9.482627868652343528e-01,9.855714797973632590e-01,1.000000000000000000e+00,1.000000000000000000e+00,1.000000000000000000e+00,1.000000000000000000e+00,1.000000000000000000e+00,1.000000000000000000e+00,1.000000000000000000e+00,1.000000000000000000e+00,1.000000000000000000e+00,1.000000000000000000e+00,1.000000000000000000e+00,1.000000000000000000e+00,1.000000000000000000e+00,1.000000000000000000e+00,1.000000000000000000e+00,1.000000000000000000e+00,1.000000000000000000e+00,1.000000000000000000e+00,1.000000000000000000e+00,1.000000000000000000e+00,1.000000000000000000e+00,1.000000000000000000e+00,1.000000000000000000e+00,1.000000000000000000e+00,1.000000000000000000e+00,1.000000000000000000e+00,1.000000000000000000e+00,1.000000000000000000e+00,1.000000000000000000e+00,1.000000000000000000e+00,1.000000000000000000e+00,1.000000000000000000e+00,1.000000000000000000e+00,1.000000000000000000e+00,1.000000000000000000e+00,1.000000000000000000e+00,1.000000000000000000e+00,1.000000000000000000e+00,1.000000000000000000e+00,1.000000000000000000e+00,1.000000000000000000e+00,1.000000000000000000e+00,1.000000000000000000e+00,1.000000000000000000e+00,1.116081953048706082e-01,1.067143201828002902e-01,1.036321043968200656e-01,1.005421280860900879e-01,9.799210429191589078e-02,9.669634103775023859e-02,9.543438553810119906e-02,9.420495033264160434e-02,9.300678968429565430e-02,9.183872342109680731e-02,9.069963693618773859e-02,8.958994150161743442e-02,8.852632641792297641e-02,8.748767971992492398e-02,8.658707737922669012e-02,8.593090772628783625e-02,8.528459668159485418e-02,8.464794754981994074e-02,8.402072191238403598e-02,8.359107971191406805e-02
6.197542667388915572e-01,6.354763984680176225e-01,6.520170211791992410e-01,6.694417476654053178e-01,6.878232955932617188e-01,7.072428226470947044e-01,7.277908325195312500e-01,7.495684623718261719e-01,7.726936817169189897e-01,7.972938537597655806e-01,8.235119819641113503e-01,8.515130996704101118e-01,8.814853668212890847e-01,9.136447906494140625e-01,9.482317924499511497e-01,9.855381011962890403e-01,1.000000000000000000e+00,1.000000000000000000e+00,1.000000000000000000e+00,1.000000000000000000e+00,1.000000000000000000e+00,1.000000000000000000e+00,1.000000000000000000e+00,1.000000000000000000e+00,1.000000000000000000e+00,1.000000000000000000e+00,1.000000000000000000e+00,1.000000000000000000e+00,1.000000000000000000e+00,1.000000000000000000e+00,1.000000000000000000e+00,1.000000000000000000e+00,1.000000000000000000e+00,1.000000000000000000e+00,1.000000000000000000e+00,1.000000000000000000e+00,1.000000000000000000e+00,1.000000000000000000e+00,1.000000000000000000e+00,1.000000000000000000e+00,1.000000000000000000e+00,1.000000000000000000e+00,1.000000000000000000e+00,1.000000000000000000e+00,1.000000000000000000e+00,1.000000000000000000e+00,1.000000000000000000e+00,1.000000000000000000e+00,1.000000000000000000e+00,1.000000000000000000e+00,1.000000000000000000e+00,1.000000000000000000e+00,1.000000000000000000e+00,1.000000000000000000e+00,1.000000000000000000e+00,1.000000000000000000e+00,1.000000000000000000e+00,1.000000000000000000e+00,1.000000000000000000e+00,1.000000000000000000e+00,1.093934774398803711e-01,1.063480854034423856e-01,1.031193137168884277e-01,1.000593781471252469e-01,9.868820905685424250e-02,9.737407565116881769e-02,9.609450697898865024e-02,9.484811425209045688e-02,9.363363981246948520e-02,9.244987964630127508e-02,9.129567742347717563e-02,9.016992449760437289e-02,8.907160758972168524e-02,8.806322216987609586e-02,8.738456368446349820e-02,8.671630024909973700e-02,8.605816364288329523e-02,8.540995121002196988e-02,8.487227559089660645e-02,1.028319716453552218e-01
6.197410106658935991e-01,6.354624748229980025e-01,6.520023822784424272e-01,6.694262504577637163e-01,6.878069400787353294e-01,7.072256088256836382e-01,7.277725219726562944e-01,7.495490074157714622e-01,7.726690292358397993e-01,7.972606182098388450e-01,8.234715461730957031e-01,8.514698982238769753e-01,8.814390182495117632e-01,9.135949134826659712e-01,9.481856346130370650e-01,9.854990005493163840e-01,1.000000000000000000e+00,1.000000000000000000e+00,1.000000000000000000e+00,1.000000000000000000e+00,1.000000000000000000e+00,1.000000000000000000e+00,1.000000000000000000e+00,1.000000000000000000e+00,1.000000000000000000e+00,1.000000000000000000e+00,1.000000000000000000e+00,1.000000000000000000e+00,1.000000000000000000e+00,1.000000000000000000e+00,1.000000000000000000e+00,1.000000000000000000e+00,1.000000000000000000e+00,1.000000000000000000e+00,1.000000000000000000e+00,1.000000000000000000e+00,1.000000000000000000e+00,1.000000000000000000e+00,1.000000000000000000e+00,1.000000000000000000e+00,1.000000000000000000e+00,1.000000000000000000e+00,1.000000000000000000e+00,1.000000000000000000e+00,1.000000000000000000e+00,1.000000000000000000e+00,1.000000000000000000e+00,1.000000000000000000e+00,1.000000000000000000e+00,1.000000000000000000e+00,1.000000000000000000e+00,1.000000000000000000e+00,1.000000000000000000e+00,1.000000000000000000e+00,1.000000000000000000e+00,1.000000000000000000e+00,1.000000000000000000e+00,1.000000000000000000e+00,1.000000000000000000e+00,1.122106194496154813e-01,1.090086460113525446e-01,1.058321237564086859e-01,1.026115655899047796e-01,1.007638573646545410e-01,9.939426183700561523e-02,9.806140661239623468e-02,9.676381349563598078e-02,9.550011754035950262e-02,9.426899552345276156e-02,9.306921958923339289e-02,9.189958572387695035e-02,9.076458811759949286e-02,8.978019952774048129e-02,8.909859657287597101e-02,8.827787041664122980e-02,8.751617670059204379e-02,8.684589862823485773e-02,8.619335889816284735e-02,1.046124696731567383e-01,1.026668548583984375e-01
6.197277069091796653e-01,6.354485511779784934e-01,6.519876956939697488e-01,6.694108486175537331e-01,6.877906799316406694e-01,7.072082996368408425e-01,7.277542591094970925e-01,7.495296955108642356e-01,7.726483821868896928e-01,7.972387313842773660e-01,8.234456062316894975e-01,8.514341354370117410e-01,8.813926696777343306e-01,9.135450363159179910e-01,9.481320381164550781e-01,9.854410171508789507e-01,1.000000000000000000e+00,1.000000000000000000e+00,1.000000000000000000e+00,1.000000000000000000e+00,1.000000000000000000e+00,1.000000000000000000e+00,1.000000000000000000e+00,1.000000000000000000e+00,1.000000000000000000e+00,1.000000000000000000e+00,1.000000000000000000e+00,1.000000000000000000e+00,1.000000000000000000e+00,1.000000000000000000e+00,1.000000000000000000e+00,1.000000000000000000e+00,1.000000000000000000e+00,1.000000000000000000e+00,1.000000000000000000e+00,1.000000000000000000e+00,1.000000000000000000e+00,1.000000000000000000e+00,1.000000000000000000e+00,1.000000000000000000e+00,1.000000000000000000e+00,1.000000000000000000e+00,1.000000000000000000e+00,1.000000000000000000e+00,1.000000000000000000e+00,1.000000000000000000e+00,1.000000000000000000e+00,1.000000000000000000e+00,1.000000000000000000e+00,1.000000000000000000e+00,1.000000000000000000e+00,1.000000000000000000e+00,1.000000000000000000e+00,1.000000000000000000e+00,1.000000000000000000e+00,1.000000000000000000e+00,1.000000000000000000e+00,1.000000000000000000e+00,1.178701877593994196e-01,1.118057370185852051e-01,1.086265087127685491e-01,1.052973628044128473e-01,1.029287099838256808e-01,1.015000462532043429e-01,1.001105070114135798e-01,9.875849485397339422e-02,9.744251966476440152e-02,9.616115093231200617e-02,9.491303563117980957e-02,9.370599389076232633e-02,9.253278374671936035e-02,9.141727685928344171e-02,9.102607369422913153e-02,9.016961455345154364e-02,8.932912945747376043e-02,8.850417137145996649e-02,8.769430518150329867e-02,7.833101749420166016e-01,1.044415712356567411e-01,1.025022506713867132e-01
6.197144985198974609e-01,6.354345798492431197e-01,6.519730567932129350e-01,6.693953514099121316e-01,6.877743244171142800e-01,7.071910858154296653e-01,7.277359485626220259e-01,7.495102405548095259e-01,7.726278781890869585e-01,7.972167968750000222e-01,8.234222412109375444e-01,8.514091491699218306e-01,8.813653945922851340e-01,9.135065078735351562e-01,9.480805397033691406e-01,9.853830337524414062e-01,1.000000000000000000e+00,1.000000000000000000e+00,1.000000000000000000e+00,1.000000000000000000e+00,1.000000000000000000e+00,1.000000000000000000e+00,1.000000000000000000e+00,1.000000000000000000e+00,1.000000000000000000e+00,1.000000000000000000e+00,1.000000000000000000e+00,1.000000000000000000e+00,1.000000000000000000e+00,1.000000000000000000e+00,1.000000000000000000e+00,1.000000000000000000e+00,1.000000000000000000e+00,1.000000000000000000e+00,1.000000000000000000e+00,1.000000000000000000e+00,1.000000000000000000e+00,1.000000000000000000e+00,1.000000000000000000e+00,1.000000000000000000e+00,1.000000000000000000e+00,1.000000000000000000e+00,1.000000000000000000e+00,1.000000000000000000e+00,1.000000000000000000e+00,1.000000000000000000e+00,1.000000000000000000e+00,1.000000000000000000e+00,1.000000000000000000e+00,1.000000000000000000e+00,1.000000000000000000e+00,1.000000000000000000e+00,1.000000000000000000e+00,1.000000000000000000e+00,1.000000000000000000e+00,1.000000000000000000e+00,1.000000000000000000e+00,1.000000000000000000e+00,1.147501587867736789e-01,1.114037871360778753e-01,1.081275343894958496e-01,1.051886200904846164e-01,1.036969780921936091e-01,1.022470831871032659e-01,1.008371472358703669e-01,9.946556687355041781e-02,9.813081026077270785e-02,9.684442877769469660e-02,9.559183716773986261e-02,9.437123537063599188e-02,9.318140149116516113e-02,9.303877949714660367e-02,9.214421510696410578e-02,9.126669764518738348e-02,9.040573239326477051e-02,8.956086039543151300e-02,8.053435325622558816e-01,1.122106790542602567e-01,1.042712450027465793e-01,1.023381829261779813e-01
6.197012424468993919e-01,6.354207038879394753e-01,6.519583702087402566e-01,6.693798542022705300e-01,6.877580165863037553e-01,7.071737766265868697e-01,7.277177333831786887e-01,7.494909286499022993e-01,7.726072311401367410e-01,7.971949100494384322e-01,8.233988761901855913e-01,8.513841629028320312e-01,8.813385963439941406e-01,9.134777069091797319e-01,9.480495452880859375e-01,9.853412628173827681e-01,1.000000000000000000e+00,1.000000000000000000e+00,1.000000000000000000e+00,1.000000000000000000e+00,1.000000000000000000e+00,1.000000000000000000e+00,1.000000000000000000e+00,1.000000000000000000e+00,1.000000000000000000e+00,1.000000000000000000e+00,1.000000000000000000e+00,1.000000000000000000e+00,1.000000000000000000e+00,1.000000000000000000e+00,1.000000000000000000e+00,1.000000000000000000e+00,1.000000000000000000e+00,1.000000000000000000e+00,1.000000000000000000e+00,1.000000000000000000e+00,1.000000000000000000e+00,1.000000000000000000e+00,1.000000000000000000e+00,1.000000000000000000e+00,1.000000000000000000e+00,1.000000000000000000e+00,1.000000000000000000e+00,1.000000000000000000e+00,1.000000000000000000e+00,1.000000000000000000e+00,1.000000000000000000e+00,1.000000000000000000e+00,1.000000000000000000e+00,1.000000000000000000e+00,1.000000000000000000e+00,1.000000000000000000e+00,1.000000000000000000e+00,1.000000000000000000e+00,1.000000000000000000e+00,1.000000000000000000e+00,1.000000000000000000e+00,1.000000000000000000e+00,1.143267750740051270e-01,1.110046982765197782e-01,1.075693964958190918e-01,1.059911489486694280e-01,1.044768214225769015e-01,1.030051827430725070e-01,1.015775084495544461e-01,1.002003431320190457e-01,9.886006116867065985e-02,9.755514264106750211e-02,9.628421664237976629e-02,9.504598379135131836e-02,9.496003985404968817e-02,9.420722723007202148e-02,9.329017996788024902e-02,9.239079952239989679e-02,9.150859713554382324e-02,8.286522865295410378e-01,8.053630828857422097e-01,1.100144863128662137e-01,1.041014671325683622e-01,1.021746397018432617e-01
6.196879863739013228e-01,6.354067325592041016e-01,6.519437313079834428e-01,6.693644046783446822e-01,6.877417087554931197e-01,7.071565628051758035e-01,7.276994228363037331e-01,7.494715213775634544e-01,7.725866794586181419e-01,7.971729278564453347e-01,8.233755111694336382e-01,8.513591766357422319e-01,8.813117980957031472e-01,9.134489059448241965e-01,9.480185508728027344e-01,9.853076934814453125e-01,1.000000000000000000e+00,1.000000000000000000e+00,1.000000000000000000e+00,1.000000000000000000e+00,1.000000000000000000e+00,1.000000000000000000e+00,1.000000000000000000e+00,1.000000000000000000e+00,1.000000000000000000e+00,1.000000000000000000e+00,1.000000000000000000e+00,1.000000000000000000e+00,1.000000000000000000e+00,1.000000000000000000e+00,1.000000000000000000e+00,1.000000000000000000e+00,1.000000000000000000e+00,1.000000000000000000e+00,1.000000000000000000e+00,1.000000000000000000e+00,1.000000000000000000e+00,1.000000000000000000e+00,1.000000000000000000e+00,1.000000000000000000e+00,1.000000000000000000e+00,1.000000000000000000e+00,1.000000000000000000e+00,1.000000000000000000e+00,1.000000000000000000e+00,1.000000000000000000e+00,1.000000000000000000e+00,1.000000000000000000e+00,1.000000000000000000e+00,1.000000000000000000e+00,1.000000000000000000e+00,1.000000000000000000e+00,1.000000000000000000e+00,1.000000000000000000e+00,1.000000000000000000e+00,1.000000000000000000e+00,1.000000000000000000e+00,1.000000000000000000e+00,1.139065265655517523e-01,1.105247497558593806e-01,1.083891034126281683e-01,1.068059921264648410e-01,1.052757620811462375e-01,1.037972331047058161e-01,1.023596644401550265e-01,1.009613752365112332e-01,9.960078001022339145e-02,9.827637076377868097e-02,9.698671102523803711e-02,9.679340720176696222e-02,9.636474251747131903e-02,9.540542364120482843e-02,9.446499347686768133e-02,8.795429229736327903e-01,8.533505439758301003e-01,8.286729812622070090e-01,8.053827285766601562e-01,1.079026103019714300e-01,1.039322376251220759e-01,1.020116090774536161e-01
6.196747303009033647e-01,6.353928565979003462e-01,6.519290447235107644e-01,6.693489074707030806e-01,6.877254009246825950e-01,7.071393013000488725e-01,7.276811122894286665e-01,7.494521617889404741e-01,7.725660324096679243e-01,7.971510410308837447e-01,8.233520507812499556e-01,8.513340950012207031e-01,8.812849998474121538e-01,9.134202003479003906e-01,9.479875564575195312e-01,9.852742195129394753e-01,1.000000000000000000e+00,1.000000000000000000e+00,1.000000000000000000e+00,1.000000000000000000e+00,1.000000000000000000e+00,1.000000000000000000e+00,1.000000000000000000e+00,1.000000000000000000e+00,1.000000000000000000e+00,1.000000000000000000e+00,1.000000000000000000e+00,1.000000000000000000e+00,1.000000000000000000e+00,1.000000000000000000e+00,1.000000000000000000e+00,1.000000000000000000e+00,1.000000000000000000e+00,1.000000000000000000e+00,1.000000000000000000e+00,1.000000000000000000e+00,1.000000000000000000e+00,1.000000000000000000e+00,1.000000000000000000e+00,1.000000000000000000e+00,1.000000000000000000e+00,1.000000000000000000e+00,1.000000000000000000e+00,1.000000000000000000e+00,1.000000000000000000e+00,1.000000000000000000e+00,1.000000000000000000e+00,1.000000000000000000e+00,1.000000000000000000e+00,1.000000000000000000e+00,1.000000000000000000e+00,1.000000000000000000e+00,1.000000000000000000e+00,1.000000000000000000e+00,1.000000000000000000e+00,1.000000000000000000e+00,1.000000000000000000e+00,1.266719579696655162e-01,1.134893536567687933e-01,1.108980774879455566e-01,1.092534899711608831e-01,1.076619744300842257e-01,1.061161518096923884e-01,1.046141028404235784e-01,1.031539797782898005e-01,1.017340540885925265e-01,1.003526806831359919e-01,9.900833964347839633e-02,9.869895577430724820e-02,9.862339496612548828e-02,9.761880636215210238e-02,9.663446545600891391e-02,9.074189186096190962e-01,8.795662879943847434e-01,8.533724784851074441e-01,8.286937713623047097e-01,8.054021835327148660e-01,1.057513713836669977e-01,1.037635564804077204e-01,1.018491029739379827e-01
6.196615219116210493e-01,6.353788852691650835e-01,6.519144058227539507e-01,6.693335056304932085e-01,6.877090454101562056e-01,7.071220874786376953e-01,7.276628971099853294e-01,7.494327545166015181e-01,7.725454807281494363e-01,7.971291065216064009e-01,8.233286857604980025e-01,8.513091087341309038e-01,8.812582015991210493e-01,9.133913993835449663e-01,9.479565620422363281e-01,9.852407455444336382e-01,1.000000000000000000e+00,1.000000000000000000e+00,1.000000000000000000e+00,1.000000000000000000e+00,1.000000000000000000e+00,1.000000000000000000e+00,1.000000000000000000e+00,1.000000000000000000e+00,1.000000000000000000e+00,1.000000000000000000e+00,1.000000000000000000e+00,1.000000000000000000e+00,1.000000000000000000e+00,1.000000000000000000e+00,1.000000000000000000e+00,1.000000000000000000e+00,1.000000000000000000e+00,1.000000000000000000e+00,1.000000000000000000e+00,1.000000000000000000e+00,1.000000000000000000e+00,1.000000000000000000e+00,1.000000000000000000e+00,1.000000000000000000e+00,1.000000000000000000e+00,1.000000000000000000e+00,1.000000000000000000e+00,1.000000000000000000e+00,1.000000000000000000e+00,1.000000000000000000e+00,1.000000000000000000e+00,1.000000000000000000e+00,1.000000000000000000e+00,1.000000000000000000e+00,1.000000000000000000e+00,1.000000000000000000e+00,1.000000000000000000e+00,1.000000000000000000e+00,1.000000000000000000e+00,1.000000000000000000e+00,1.275826215744018666e-01,1.232007622718811063e-01,1.180952429771423284e-01,1.118256330490112332e-01,1.101588606834411621e-01,1.085410594940185575e-01,1.069700837135314914e-01,1.054439187049865667e-01,1.039607048034667941e-01,1.025186300277709933e-01,1.011160254478454534e-01,1.006810188293457003e-01,1.007741570472717313e-01,9.993732571601868231e-02,9.890593290328979215e-02,9.371197700500488725e-01,9.074438095092773882e-01,8.795895576477050781e-01,8.533945083618164062e-01,8.287143707275390625e-01,1.123634696006774875e-01,1.056080818176269587e-01,1.036203145980834905e-01,1.017120242118835505e-01
6.196482181549072266e-01,6.353650093078613281e-01,6.518997192382812722e-01,6.693180084228516069e-01,6.876927852630615456e-01,7.071047782897948997e-01,7.276445865631103738e-01,7.494134426116942915e-01,7.725248813629150835e-01,7.971071243286133035e-01,8.233053207397460493e-01,8.512841224670409934e-01,8.812314033508300559e-01,9.133625984191894309e-01,9.479255676269531250e-01,9.852072715759276900e-01,1.000000000000000000e+00,1.000000000000000000e+00,1.000000000000000000e+00,1.000000000000000000e+00,1.000000000000000000e+00,1.000000000000000000e+00,1.000000000000000000e+00,1.000000000000000000e+00,1.000000000000000000e+00,1.000000000000000000e+00,1.000000000000000000e+00,1.000000000000000000e+00,1.000000000000000000e+00,1.000000000000000000e+00,1.000000000000000000e+00,1.000000000000000000e+00,1.000000000000000000e+00,1.000000000000000000e+00,1.000000000000000000e+00,1.000000000000000000e+00,1.000000000000000000e+00,1.000000000000000000e+00,1.000000000000000000e+00,1.000000000000000000e+00,1.000000000000000000e+00,1.000000000000000000e+00,1.000000000000000000e+00,1.000000000000000000e+00,1.000000000000000000e+00,1.000000000000000000e+00,1.000000000000000000e+00,1.000000000000000000e+00,1.000000000000000000e+00,1.000000000000000000e+00,1.000000000000000000e+00,1.000000000000000000e+00,1.000000000000000000e+00,1.000000000000000000e+00,1.000000000000000000e+00,1.289591550827026423e-01,1.253911614418029841e-01,1.209691047668457059e-01,1.172826886177062988e-01,1.149091839790344211e-01,1.110793709754943903e-01,1.094346046447753906e-01,1.078378438949584989e-01,1.062870144844055148e-01,1.047801494598388644e-01,1.033154129981994629e-01,1.027443528175353976e-01,1.028413534164428766e-01,1.023686647415161105e-01,1.012867331504821722e-01,9.688306808471679465e-01,9.371462821960448997e-01,9.074686050415039507e-01,8.796129226684570312e-01,8.534163475036621316e-01,8.287351608276367632e-01,1.105979442596435602e-01,1.054818987846374567e-01,1.034815549850463812e-01,1.015783190727233831e-01
6.196350097656250222e-01,6.353510379791259544e-01,6.518850803375244585e-01,6.693026065826416238e-01,6.876764297485351562e-01,7.070875644683838335e-01,7.276263713836670366e-01,7.493939876556396928e-01,7.725043296813964844e-01,7.970852375030517134e-01,8.232819557189940962e-01,8.512591361999511941e-01,8.812046051025390625e-01,9.133337974548340066e-01,9.478945732116699219e-01,9.710258483886718972e-01,9.707851409912109375e-01,9.705447196960449441e-01,9.703042030334472212e-01,9.700639724731445757e-01,9.698237419128418191e-01,9.695837020874022993e-01,9.693437576293945090e-01,9.691039085388183372e-01,9.688642501831055132e-01,9.686245918273925781e-01,9.683851242065429910e-01,9.681458473205566406e-01,9.679065704345702903e-01,9.676674842834472878e-01,9.674283981323241743e-01,9.671895027160644087e-01,9.669507980346679910e-01,9.667120933532714622e-01,9.664735794067382812e-01,9.662351608276367188e-01,9.659969329833983931e-01,9.657587051391601785e-01,9.655206680297852007e-01,9.652827262878418413e-01,9.650448799133301003e-01,9.648072242736815962e-01,9.645695686340332031e-01,9.643321037292480469e-01,9.640948295593261275e-01,9.638575553894043191e-01,9.636204719543457475e-01,9.633833885192870650e-01,9.631464958190918413e-01,9.629097938537597434e-01,9.626730918884277566e-01,9.624365806579590066e-01,9.622001647949218750e-01,9.619638442993163618e-01,1.312067508697509766e-01,1.275434970855712780e-01,1.237390160560607882e-01,1.201130270957946750e-01,1.175282359123230036e-01,1.152561664581298884e-01,1.137465715408325223e-01,1.126112461090087863e-01,1.087198138236999539e-01,1.071437001228332520e-01,1.056126236915588407e-01,1.048940181732177790e-01,1.049951195716857938e-01,1.049212574958801325e-01,1.037849903106689425e-01,9.581986427307128684e-01,9.579643249511718972e-01,9.371727943420410378e-01,9.074934005737305132e-01,8.796361923217773660e-01,8.534383773803710938e-01,8.287558555603027344e-01,1.088870525360107477e-01,1.053560256958007840e-01,1.033431529998779241e-01,1.014449715614318820e-01
6.196217536926269531e-01,6.353371620178223100e-01,6.518703937530517800e-01,6.692871093750000222e-01,6.876601696014403853e-01,7.070703029632567915e-01,7.276080608367919700e-01,7.493746757507324663e-01,7.542552947998046875e-01,7.541100502014159712e-01,7.539649009704589844e-01,7.538198471069336160e-01,7.536747932434082475e-01,7.535297393798827681e-01,7.533848285675048828e-01,7.532400131225586160e-01,7.530951499938964844e-01,7.529503822326659712e-01,7.528056621551513228e-01,7.526610374450684038e-01,7.525164127349853738e-01,7.523718833923339622e-01,7.522274017333984153e-01,7.520829200744628684e-01,7.519385814666748047e-01,7.517942905426024947e-01,7.516499519348144309e-01,7.515057563781738503e-01,7.513616561889648882e-01,7.512175559997558150e-01,7.510734558105468528e-01,7.509294986724853738e-01,7.507855892181396484e-01,7.506416320800781694e-01,7.504978179931640625e-01,7.503540992736816850e-01,7.502103805541991965e-01,7.500666618347168191e-01,7.499230861663818137e-01,7.497795581817626731e-01,7.496360301971435325e-01,7.494925975799560103e-01,7.493492603302002175e-01,7.492058277130126953e-01,7.490625858306885210e-01,7.489193916320801003e-01,7.487762451171875444e-01,7.486330986022948775e-01,7.484900474548339400e-01,7.483470916748047319e-01,7.482040882110595481e-01,7.480612277984619585e-01,7.479184150695801225e-01,7.477756500244140403e-01,1.298007845878600963e-01,1.263817787170410101e-01,1.228988289833068820e-01,1.199357748031616155e-01,1.177373409271240262e-01,1.156530022621154730e-01,1.146155714988708468e-01,1.134903550148010226e-01,1.125217676162719727e-01,1.080142974853515597e-01,1.071355700492858942e-01,1.072410345077514648e-01,1.073467016220092801e-01,7.457823276519774947e-01,7.456403732299804465e-01,7.454984664916992632e-01,7.453566551208495872e-01,7.452147960662841575e-01,7.450730323791503462e-01,7.449313640594482644e-01,7.447896480560303178e-01,7.446481227874756081e-01,1.075198292732238714e-01,1.052304506301879883e-01,1.032051324844360379e-01,1.013119697570800809e-01
6.167021751403808372e-01,6.166050910949707475e-01,6.165081024169921653e-01,6.164110660552978294e-01,6.163141250610351118e-01,6.162171840667725053e-01,6.161201953887939231e-01,6.160233020782470703e-01,6.159264564514159712e-01,6.158295631408691184e-01,6.157328128814697488e-01,6.156360149383545144e-01,6.155393123626708984e-01,6.154425621032715288e-01,6.153458595275879128e-01,6.152492523193359153e-01,6.151525974273681641e-01,6.150559902191161665e-01,6.149594306945800337e-01,6.148629188537597656e-01,6.147664070129394975e-01,6.146699428558349831e-01,6.145735263824463335e-01,6.144770622253418191e-01,6.143806934356689231e-01,6.142843723297118919e-01,6.141880035400391069e-01,6.140917301177978294e-01,6.139954566955566628e-01,6.138992309570312500e-01,6.138030052185058372e-01,6.137068748474121538e-01,6.136107444763183594e-01,6.135145664215088113e-01,6.134185314178466353e-01,6.133224964141845703e-01,6.132265090942382590e-01,6.131304740905761941e-01,6.130345344543457475e-01,6.129386425018310547e-01,6.128427028656006081e-01,6.127468109130859153e-01,6.126510143280029519e-01,6.125551700592041238e-01,6.124593734741210493e-01,6.123636722564697044e-01,6.122679710388183594e-01,6.121722221374511497e-01,6.120765686035156694e-01,6.119809627532959428e-01,6.118853092193603516e-01,6.117897510528564897e-01,6.116942405700683816e-01,6.115987300872802734e-01,1.287457108497619684e-01,1.254876375198364369e-01,1.223061561584472684e-01,1.197981119155883817e-01,1.178402900695800781e-01,1.164211153984069796e-01,1.154979586601257296e-01,1.144475460052490207e-01,1.133819341659545871e-01,1.132071375846862848e-01,6.105500221252441184e-01,1.096954703330993708e-01,6.103598117828369363e-01,6.102646350860595481e-01,6.101696014404296431e-01,6.100745677947998491e-01,6.099795818328856978e-01,6.098845958709716575e-01,6.097896575927734819e-01,6.096947669982910600e-01,6.095998287200927734e-01,6.095049858093262163e-01,1.073890328407287598e-01,1.051051735877990695e-01,1.030674815177917425e-01,1.011793136596679660e-01
5.210266113281250000e-01,5.209572792053223100e-01,5.208880424499511275e-01,5.208187580108643022e-01,5.207495689392089844e-01,5.206803321838379128e-01,5.206111431121825950e-01,5.205419063568115234e-01,5.204727649688720703e-01,5.204036235809326172e-01,5.203345298767090288e-01,5.202654361724853294e-01,5.201963424682617410e-01,5.201272487640380415e-01,5.200582027435303178e-01,5.199891567230224831e-01,5.199201107025146484e-01,5.198511123657226785e-01,5.197821140289307085e-01,5.197131633758544922e-01,5.196442127227782759e-01,5.195752620697021706e-01,5.195064067840575728e-01,5.194374561309814675e-01,5.193686008453368697e-01,5.192997455596923828e-01,5.192308902740478960e-01,5.191620826721191628e-01,5.190932750701904297e-01,5.190245151519775613e-01,5.189557075500488281e-01,5.188869953155517134e-01,5.188182830810547097e-01,5.187495231628418413e-01,5.186808586120605913e-01,5.186121940612793413e-01,5.185435295104980913e-01,5.184748649597168413e-01,5.184062480926513450e-01,5.183376789093017134e-01,5.182690620422363281e-01,5.182004928588866965e-01,5.181319713592529297e-01,5.180634021759032981e-01,5.179949283599853960e-01,5.179264545440673828e-01,5.178579807281493697e-01,5.177895069122314675e-01,5.177210807800293191e-01,5.176526546478271706e-01,5.175842285156250222e-01,5.175158500671386275e-01,5.174475193023682085e-01,5.173791885375976785e-01,5.173108100891112837e-01,1.246082663536071805e-01,1.219473123550414984e-01,1.194706201553344671e-01,1.179689526557922419e-01,1.168058633804321261e-01,1.159222245216369601e-01,1.152803301811218262e-01,1.145954251289367648e-01,1.144339919090271024e-01,5.166285037994384766e-01,5.165603637695312944e-01,5.164922714233398660e-01,5.164241790771484375e-01,5.163560867309570090e-01,5.162880420684814453e-01,5.162199974060058816e-01,5.161519527435303178e-01,5.160839557647705078e-01,5.160160064697265625e-01,5.159480094909667525e-01,1.121617317199707087e-01,1.072585701942443820e-01,1.049801945686340277e-01,1.029301881790161133e-01,1.010470032691955511e-01
4.510503292083740123e-01,4.509984493255615456e-01,4.509465217590332142e-01,4.508945941925048828e-01,4.508427143096923606e-01,4.507908344268798939e-01,4.507389545440673717e-01,4.506871223449707142e-01,4.506352424621581920e-01,4.505834579467773438e-01,4.505315780639648215e-01,4.504797935485839733e-01,4.504280090332031250e-01,4.503762245178222767e-01,4.503244400024414285e-01,4.502727031707763894e-01,4.502209186553954856e-01,4.501691818237304465e-01,4.501174449920654075e-01,4.500657558441162331e-01,4.500140190124511941e-01,4.499623298645019642e-01,4.499106407165527344e-01,4.498589515686035045e-01,4.498073101043701394e-01,4.497556686401367188e-01,4.497040271759032981e-01,4.496523857116699330e-01,4.496007919311523215e-01,4.495491981506347656e-01,4.494976043701172097e-01,4.494460105895995983e-01,4.493944644927978516e-01,4.493428707122802956e-01,4.492913722991943581e-01,4.492398262023925559e-01,4.491883277893066184e-01,4.491367816925048717e-01,4.490852832794189342e-01,4.490338325500488059e-01,4.489823341369628684e-01,4.489308834075927956e-01,4.488794326782226674e-01,4.488279819488525391e-01,4.487765789031982200e-01,4.487251758575439564e-01,4.486737728118896373e-01,4.486223697662353738e-01,4.485710144042968639e-01,4.485196590423584095e-01,4.484683036804198997e-01,4.484169483184814453e-01,4.483656406402588002e-01,4.483143329620361550e-01,4.482629776000976451e-01,1.237575292587280301e-01,1.213910102844238253e-01,1.191449165344238281e-01,1.178136229515075739e-01,1.165645956993102972e-01,1.158836960792541532e-01,1.152048945426940862e-01,1.152983307838439941e-01,1.163124799728393610e-01,4.477505683898925781e-01,4.476994037628173606e-01,4.476482391357421986e-01,4.475970745086669811e-01,4.475459575653076283e-01,4.474948406219482200e-01,4.474437236785888672e-01,4.473926067352295144e-01,4.473414897918701061e-01,4.472904205322265625e-01,4.472393512725830189e-01,1.104024887084960882e-01,1.071284174919128473e-01,1.048555016517639105e-01,1.027932643890380887e-01,1.009150385856628362e-01
3.976448297500610463e-01,3.976044893264770730e-01,3.975641250610351674e-01,3.975238084793090709e-01,3.974834442138671653e-01,3.974431514739990012e-01,3.974028110504150280e-01,3.973624706268310547e-01,3.973222017288208230e-01,3.972818851470947266e-01,3.972416162490844949e-01,3.972013235092163308e-01,3.971610307693481667e-01,3.971208095550536887e-01,3.970805168151855247e-01,3.970403194427490345e-01,3.970000505447387473e-01,3.969598531723022572e-01,3.969196081161499023e-01,3.968794107437133567e-01,3.968391895294189342e-01,3.967989683151245117e-01,3.967588186264038308e-01,3.967186212539672852e-01,3.966784238815307395e-01,3.966382741928100586e-01,3.965981006622314453e-01,3.965579271316528320e-01,3.965178251266479603e-01,3.964776754379272239e-01,3.964375257492065430e-01,3.963974475860595481e-01,3.963572978973388672e-01,3.963171958923339955e-01,3.962771177291870006e-01,3.962370157241821289e-01,3.961969614028930664e-01,3.961568832397460715e-01,3.961168050765991322e-01,3.960767745971679465e-01,3.960367202758788840e-01,3.959966659545898215e-01,3.959566593170166238e-01,3.959166288375854381e-01,3.958765983581543080e-01,3.958366155624389870e-01,3.957966089248657338e-01,3.957565784454345481e-01,3.957166433334350364e-01,3.956766366958618386e-01,3.956366539001464622e-01,3.955967426300048828e-01,3.955567598342895619e-01,3.955168485641479270e-01,3.954769134521484153e-01,1.229606986045837375e-01,1.204200267791748075e-01,1.188912391662597656e-01,1.175705194473266602e-01,1.163509964942932157e-01,1.156132817268371582e-01,1.149376273155212347e-01,1.152175068855285645e-01,1.171254277229309138e-01,3.950779914855956920e-01,3.950381755828857311e-01,3.949983119964599609e-01,3.949584722518920676e-01,3.949186801910400391e-01,3.948788404464721458e-01,3.948390722274780495e-01,3.947992563247680886e-01,3.947594642639160045e-01,3.947196960449218528e-01,3.946799039840698242e-01,1.093664050102233914e-01,1.069985866546630804e-01,1.047311186790466364e-01,1.026567101478576688e-01,1.007834196090698214e-01
3.555471420288086049e-01,3.555149078369140847e-01,3.554826259613036998e-01,3.554503679275512473e-01,3.554181337356567272e-01,3.553858757019042747e-01,3.553536653518676869e-01,3.553214073181152344e-01,3.552891731262207142e-01,3.552569627761840709e-01,3.552247285842895508e-01,3.551925420761108398e-01,3.551603317260741965e-01,3.551281452178954856e-01,3.550959348678588978e-01,3.550637483596801869e-01,3.550315856933593528e-01,3.549993991851806419e-01,3.549672365188598633e-01,3.549350738525390847e-01,3.549029350280761830e-01,3.548707723617553489e-01,3.548386335372925027e-01,3.548064947128296009e-01,3.547743320465087669e-01,3.547422409057617299e-01,3.547100782394408958e-01,3.546779632568359264e-01,3.546458721160888894e-01,3.546137571334838645e-01,3.545816421508788951e-01,3.545495510101318581e-01,3.545174598693847656e-01,3.544853687286376731e-01,3.544533014297485130e-01,3.544212102890014759e-01,3.543891668319701926e-01,3.543570995330810325e-01,3.543250322341918723e-01,3.542930126190185769e-01,3.542609453201294167e-01,3.542289018630981334e-01,3.541968822479247825e-01,3.541648626327514870e-01,3.541328191757202037e-01,3.541008234024047852e-01,3.540688037872314342e-01,3.540367841720580833e-01,3.540048122406005970e-01,3.539728164672851785e-01,3.539408206939697044e-01,3.539088487625122181e-01,3.538768768310546764e-01,3.538449287414550670e-01,3.538129568099975808e-01,1.225995779037475641e-01,1.196575284004211398e-01,1.183809399604797419e-01,1.172465920448303167e-01,1.161617755889892550e-01,1.153751015663146973e-01,1.146882772445678711e-01,1.151496410369872991e-01,1.164584040641784696e-01,3.534936189651489147e-01,3.534617424011230469e-01,3.534298419952392467e-01,3.533979415893554465e-01,3.533660888671875111e-01,3.533341884613037109e-01,3.533023357391357200e-01,3.532704591751098522e-01,3.532386064529419167e-01,3.532067775726318581e-01,3.531749010086059348e-01,1.092310905456543024e-01,1.068690657615661566e-01,1.046070337295532254e-01,1.025205135345459012e-01,1.006521463394165067e-01
3.215097188949584961e-01,3.214833259582519642e-01,3.214569568634033092e-01,3.214305639266967773e-01,3.214041709899902455e-01,3.213778257369995228e-01,3.213514566421508678e-01,3.213251113891601451e-01,3.212987422943115456e-01,3.212723970413208230e-01,3.212460517883301003e-01,3.212196826934814453e-01,3.211933612823486550e-01,3.211670160293579324e-01,3.211407184600830189e-01,3.211143732070922963e-01,3.210880517959594505e-01,3.210617542266845925e-01,3.210354089736938699e-01,3.210091352462768333e-01,3.209828138351440430e-01,3.209565401077270619e-01,3.209302186965942161e-01,3.209039449691772350e-01,3.208776473999023215e-01,3.208513736724853405e-01,3.208250999450683594e-01,3.207988023757934459e-01,3.207725524902343972e-01,3.207462787628173606e-01,3.207200050354003795e-01,3.206937551498413308e-01,3.206675052642822266e-01,3.206412315368652455e-01,3.206150054931640736e-01,3.205887556076049694e-01,3.205625534057617299e-01,3.205363035202026256e-01,3.205100536346435769e-01,3.204838514328002819e-01,3.204576253890991100e-01,3.204313993453979381e-01,3.204052209854125755e-01,3.203789949417114036e-01,3.203527688980102317e-01,3.203265905380249245e-01,3.203003883361816295e-01,3.202741861343383900e-01,3.202480316162109597e-01,3.202218294143676647e-01,3.201956510543823020e-01,3.201694965362548717e-01,3.201433181762695090e-01,3.201171875000000111e-01,3.200910091400146484e-01,1.222439289093017606e-01,1.189046144485473577e-01,1.178477406501770020e-01,1.168309569358825656e-01,1.159731626510620145e-01,1.152419686317443792e-01,1.147055387496948298e-01,1.148979783058166476e-01,1.156626939773559570e-01,3.198296308517455944e-01,3.198035240173339733e-01,3.197774171829223522e-01,3.197512865066528542e-01,3.197252273559570424e-01,3.196991205215454213e-01,3.196730375289916770e-01,3.196469306945800559e-01,3.196208477020263672e-01,3.195947885513305553e-01,3.195687055587768666e-01,1.090961217880248996e-01,1.067398548126220759e-01,1.044832229614257868e-01,1.023846745491027860e-01,1.005212068557739258e-01
2.934198617935180886e-01,2.933979034423828125e-01,2.933759212493896595e-01,2.933539628982543834e-01,2.933319807052612305e-01,2.933100223541259544e-01,2.932880640029907338e-01,2.932660818099975808e-01,2.932441473007202370e-01,2.932221889495849609e-01,2.932002544403076172e-01,2.931782960891723411e-01,2.931563854217529297e-01,2.931344270706176536e-01,2.931124687194824330e-01,2.930905580520629661e-01,2.930686235427856223e-01,2.930467128753662109e-01,2.930247783660888672e-01,2.930028438568115234e-01,2.929809570312499889e-01,2.929590225219726451e-01,2.929371356964111106e-01,2.929152250289916992e-01,2.928933382034301647e-01,2.928714275360107533e-01,2.928495168685912864e-01,2.928276538848876842e-01,2.928057670593261497e-01,2.927838802337646706e-01,2.927619934082031361e-01,2.927401304244995339e-01,2.927182435989379994e-01,2.926963567733764648e-01,2.926744937896728627e-01,2.926526308059692605e-01,2.926307678222656028e-01,2.926089048385620006e-01,2.925870418548583984e-01,2.925652027130126731e-01,2.925433397293090709e-01,2.925214767456054688e-01,2.924996614456176758e-01,2.924778223037719505e-01,2.924559593200683483e-01,2.924341440200805553e-01,2.924123048782348855e-01,2.923904657363891602e-01,2.923686742782592995e-01,2.923468351364135742e-01,2.923249959945678489e-01,2.923032045364379883e-01,2.922813892364501953e-01,2.922595977783203347e-01,2.922377824783325417e-01,2.922159671783447488e-01,1.181611180305481013e-01,1.173385143280029352e-01,1.164231181144714383e-01,1.157774925231933594e-01,1.151289582252502386e-01,1.147236347198486300e-01,1.147853970527648870e-01,1.155239701271057184e-01,2.920198917388915905e-01,2.919981479644775391e-01,2.919763803482055553e-01,2.919545888900756947e-01,2.919328451156616433e-01,2.919111013412475364e-01,2.918893575668334850e-01,2.918675899505615012e-01,2.918458461761474498e-01,2.918241024017333984e-01,1.119607090950012207e-01,1.089614629745483398e-01,1.066109538078308105e-01,1.043597221374511774e-01,1.022491931915283231e-01,1.003906130790710449e-01
2.698439836502075084e-01,2.698254108428955189e-01,2.698068141937255970e-01,2.697882175445556752e-01,2.697696447372436301e-01,2.697510719299316406e-01,2.697324991226196511e-01,2.697139263153076061e-01,2.696953535079956166e-01,2.696767807006835715e-01,2.696582078933715820e-01,2.696396589279174694e-01,2.696210861206054799e-01,2.696025609970092995e-01,2.695839881896972545e-01,2.695654392242431419e-01,2.695468902587890847e-01,2.695283412933349720e-01,2.695098161697387917e-01,2.694912672042846791e-01,2.694727420806884988e-01,2.694541931152343861e-01,2.694356441497802734e-01,2.694171428680419700e-01,2.693985939025879128e-01,2.693800926208496094e-01,2.693615436553954967e-01,2.693430185317993164e-01,2.693245172500610130e-01,2.693059921264648326e-01,2.692874908447265847e-01,2.692689895629882812e-01,2.692504644393921009e-01,2.692319631576537975e-01,2.692134618759155495e-01,2.691949605941772461e-01,2.691764831542968750e-01,2.691579818725585715e-01,2.691394805908203236e-01,2.691209793090820201e-01,2.691025018692016491e-01,2.690840005874634011e-01,2.690655231475830300e-01,2.690470457077026589e-01,2.690285444259643555e-01,2.690100908279419167e-01,2.689916133880615456e-01,2.689731359481811745e-01,2.689546823501586803e-01,2.689362049102783092e-01,2.689177274703979381e-01,2.688992738723754994e-01,2.688808202743530051e-01,2.688623666763305664e-01,2.688439130783081277e-01,2.688254594802856334e-01,1.173455715179443359e-01,1.165556550025939886e-01,1.159402847290039035e-01,1.154471755027770968e-01,1.150027036666870089e-01,1.147091269493103055e-01,1.147337675094604464e-01,1.153855919837951660e-01,2.686594963073730691e-01,2.686410903930663840e-01,2.686226606369018777e-01,2.686042308807373158e-01,2.685858249664306863e-01,2.685673952102661244e-01,2.685489892959594949e-01,2.685305833816528098e-01,2.685121774673461803e-01,2.684937715530395508e-01,1.112775206565856934e-01,1.088271498680114802e-01,1.064823746681213407e-01,1.042364954948425265e-01,1.021140813827514648e-01,1.002603530883789118e-01
2.497749090194702204e-01,2.497589826583862249e-01,2.497430562973022572e-01,2.497271299362182617e-01,2.497112274169921986e-01,2.496953010559082031e-01,2.496793746948242076e-01,2.496634721755981445e-01,2.496475696563720814e-01,2.496316671371459905e-01,2.496157407760620228e-01,2.495998382568359319e-01,2.495839357376098688e-01,2.495680332183837780e-01,2.495521545410156194e-01,2.495362520217895563e-01,2.495203495025634655e-01,2.495044469833374023e-01,2.494885683059692438e-01,2.494726896286010853e-01,2.494567871093749944e-01,2.494409084320068359e-01,2.494250297546386774e-01,2.494091272354125866e-01,2.493932723999023326e-01,2.493773698806762695e-01,2.493615150451660156e-01,2.493456363677978571e-01,2.493297815322876032e-01,2.493139028549194447e-01,2.492980241775512584e-01,2.492821693420410045e-01,2.492662906646728460e-01,2.492504596710204967e-01,2.492346048355102428e-01,2.492187261581420843e-01,2.492028951644897350e-01,2.491870403289794811e-01,2.491711854934692272e-01,2.491553306579589733e-01,2.491394758224487194e-01,2.491236209869384655e-01,2.491077899932861439e-01,2.490919589996337946e-01,2.490761041641235407e-01,2.490602731704711914e-01,2.490444421768188421e-01,2.490285873413085882e-01,2.490127801895141713e-01,2.489969491958618220e-01,2.489811182022094727e-01,2.489652872085571234e-01,2.489494562149047741e-01,2.489336490631103571e-01,2.489178180694580078e-01,2.489020109176635631e-01,1.164517879486084012e-01,1.157543420791626032e-01,1.152874827384948730e-01,1.150375485420227079e-01,1.147761583328247015e-01,1.144472241401672391e-01,1.145035505294799832e-01,1.150631785392761258e-01,2.487597465515136719e-01,2.487439393997192272e-01,2.487281560897827148e-01,2.487123489379882701e-01,2.486965656280517578e-01,2.486807823181152455e-01,2.486649990081787054e-01,2.486492156982421931e-01,2.486334085464477484e-01,2.486176490783691406e-01,1.111374378204345731e-01,1.086931705474853543e-01,1.063540935516357477e-01,1.041135787963867188e-01,1.019793152809143066e-01,1.001304388046264648e-01
2.324843883514404186e-01,2.324705839157104603e-01,2.324567794799804743e-01,2.324429988861083929e-01,2.324291944503784069e-01,2.324154138565063532e-01,2.324016332626342718e-01,2.323878288269042858e-01,2.323740482330322321e-01,2.323602676391601507e-01,2.323464870452880970e-01,2.323327064514160156e-01,2.323189258575439342e-01,2.323051452636718806e-01,2.322913646697997991e-01,2.322776079177856501e-01,2.322638273239135687e-01,2.322500705718994196e-01,2.322362899780273382e-01,2.322225332260131891e-01,2.322087526321411077e-01,2.321949958801269587e-01,2.321812391281127819e-01,2.321674585342407282e-01,2.321537256240844838e-01,2.321399450302124023e-01,2.321261882781982533e-01,2.321124315261840765e-01,2.320986747741699274e-01,2.320849418640136830e-01,2.320711851119995062e-01,2.320574522018432617e-01,2.320436954498291127e-01,2.320299386978149359e-01,2.320162057876586914e-01,2.320024490356445424e-01,2.319887399673462025e-01,2.319749832153320257e-01,2.319612503051757812e-01,2.319475412368774414e-01,2.319337844848632924e-01,2.319200515747070201e-01,2.319063186645507757e-01,2.318925857543945312e-01,2.318788528442382868e-01,2.318651437759399470e-01,2.318514108657837025e-01,2.318376779556274303e-01,2.318239688873290905e-01,2.318102598190307506e-01,2.317965269088745062e-01,2.317828178405761663e-01,2.317691087722778265e-01,2.317553997039794866e-01,2.317416667938232422e-01,2.317279577255249023e-01,1.161974906921386663e-01,1.149578332901000921e-01,1.146067500114440890e-01,1.145693302154540960e-01,1.144015669822692899e-01,1.141598939895629855e-01,1.142539381980895996e-01,1.147891879081726074e-01,1.159198880195617676e-01,2.315909624099731501e-01,2.315772771835327148e-01,2.315635681152343750e-01,2.315498828887939398e-01,2.315361976623535045e-01,2.315225362777710016e-01,2.315088272094726618e-01,2.314951419830322266e-01,2.314814805984496959e-01,1.109977126121521052e-01,1.085595130920410101e-01,1.062261343002319364e-01,1.039909482002258356e-01,1.018478870391845703e-01,1.000008702278137179e-01
2.174327135086059626e-01,2.174206495285034291e-01,2.174085855484008678e-01,2.173965215682983343e-01,2.173844575881958008e-01,2.173723936080932673e-01,2.173603296279907338e-01,2.173482656478881725e-01,2.173362255096435436e-01,2.173241615295410101e-01,2.173120975494384766e-01,2.173000335693359431e-01,2.172879934310913141e-01,2.172759532928466852e-01,2.172638893127441517e-01,2.172518491744995228e-01,2.172397851943969616e-01,2.172277450561523326e-01,2.172157049179077037e-01,2.172036409378051702e-01,2.171916246414184459e-01,2.171795606613159124e-01,2.171675205230712835e-01,2.171555042266845592e-01,2.171434402465820257e-01,2.171314239501953014e-01,2.171193838119506725e-01,2.171073675155639759e-01,2.170953273773193470e-01,2.170832872390747181e-01,2.170712709426879938e-01,2.170592308044433649e-01,2.170472145080566406e-01,2.170351743698120117e-01,2.170231580734252874e-01,2.170111417770385631e-01,2.169991016387939342e-01,2.169870853424072377e-01,2.169750690460205134e-01,2.169630527496337891e-01,2.169510364532470648e-01,2.169390201568603405e-01,2.169270277023315485e-01,2.169150114059448242e-01,2.169029951095580999e-01,2.168909788131713756e-01,2.168789625167846791e-01,2.168669700622558594e-01,2.168549537658691351e-01,2.168429613113403431e-01,2.168309450149536188e-01,2.168189525604247991e-01,2.168069362640380748e-01,2.167949676513671875e-01,2.167829513549804632e-01,2.167709589004516713e-01,1.157256960868835449e-01,1.142826318740844671e-01,1.137992620468139676e-01,1.140220165252685547e-01,1.139503955841064398e-01,1.138161420822143555e-01,1.139826416969299261e-01,1.145508885383605957e-01,1.150544285774230957e-01,2.166510581970214899e-01,2.166390657424926702e-01,2.166270732879638783e-01,2.166151046752929632e-01,2.166031360626220759e-01,2.165911674499511608e-01,2.165791749954223688e-01,2.165672063827514537e-01,2.165552377700805664e-01,2.165432691574096791e-01,1.113988757133483887e-01,1.060984730720520020e-01,1.038685917854309110e-01,1.017305254936218262e-01,1.000715374946594266e-01
2.042115211486816295e-01,2.042008638381958008e-01,2.041902303695678766e-01,2.041795969009399525e-01,2.041689395904540960e-01,2.041583061218261719e-01,2.041476488113403431e-01,2.041370391845703236e-01,2.041263818740844671e-01,2.041157484054565430e-01,2.041051149368286188e-01,2.040944814682006947e-01,2.040838479995727428e-01,2.040732145309448187e-01,2.040625810623168945e-01,2.040519475936889704e-01,2.040413379669189509e-01,2.040307044982910267e-01,2.040200710296630748e-01,2.040094614028930553e-01,2.039988279342651312e-01,2.039882183074951116e-01,2.039775848388671875e-01,2.039669752120971680e-01,2.039563417434692438e-01,2.039457082748413197e-01,2.039350986480713002e-01,2.039244890213012806e-01,2.039138793945312611e-01,2.039032697677612416e-01,2.038926362991332897e-01,2.038820266723632701e-01,2.038714170455932506e-01,2.038608074188232311e-01,2.038501977920532116e-01,2.038396120071411244e-01,2.038290023803711049e-01,2.038183689117431530e-01,2.038077831268310658e-01,2.037971735000610463e-01,2.037865877151489313e-01,2.037759780883789118e-01,2.037653923034667969e-01,2.037547826766967773e-01,2.037441730499267578e-01,2.037335872650146429e-01,2.037230014801025280e-01,2.037123918533325084e-01,2.037018060684204213e-01,2.036912202835083063e-01,2.036806106567382868e-01,2.036700248718261719e-01,2.036594390869140569e-01,2.036488533020019420e-01,2.036382675170898549e-01,2.036276817321777399e-01,2.036170959472656250e-01,1.137884974479675265e-01,1.128432631492614774e-01,1.132047891616821261e-01,1.132680892944335910e-01,1.134725570678710993e-01,1.137844920158386230e-01,1.143031001091003446e-01,1.147295832633972168e-01,2.035218715667724554e-01,2.035113096237182728e-01,2.035007238388061579e-01,2.034901618957519476e-01,2.034795761108398326e-01,2.034690141677856501e-01,2.034584522247314398e-01,2.034478902816772572e-01,2.034373283386230469e-01,2.034267425537109319e-01,1.109206914901733343e-01,1.083051681518554660e-01,1.037465333938598633e-01,1.016134381294250544e-01,1.001854658126831027e-01
