6.195317745208740456e-01,6.352428913116454634e-01,6.517715930938721147e-01,6.691856861114502397e-01,6.875564575195312056e-01,7.069642066955565962e-01,7.274995326995850053e-01,7.492635726928711382e-01,7.723699092864990678e-01,7.969466686248779519e-01,8.231389999389648882e-01,8.511114120483398438e-01,8.810519218444824441e-01,9.131757736206054243e-01,9.477307319641112837e-01,9.850037574768066850e-01,1.000000000000000000e+00,1.000000000000000000e+00,1.000000000000000000e+00,1.000000000000000000e+00,1.000000000000000000e+00,1.000000000000000000e+00,1.000000000000000000e+00,1.000000000000000000e+00,1.000000000000000000e+00,1.000000000000000000e+00,1.000000000000000000e+00,1.000000000000000000e+00,1.000000000000000000e+00,1.000000000000000000e+00,1.000000000000000000e+00,1.000000000000000000e+00,1.000000000000000000e+00,1.000000000000000000e+00,1.000000000000000000e+00,1.000000000000000000e+00,1.000000000000000000e+00,1.000000000000000000e+00,1.000000000000000000e+00,1.000000000000000000e+00,1.000000000000000000e+00,1.000000000000000000e+00,1.000000000000000000e+00,1.000000000000000000e+00,1.000000000000000000e+00,1.000000000000000000e+00,1.000000000000000000e+00,1.000000000000000000e+00,1.000000000000000000e+00,1.000000000000000000e+00,1.000000000000000000e+00,1.000000000000000000e+00,1.000000000000000000e+00,1.000000000000000000e+00,1.000000000000000000e+00,4.196396350860595592e-01,4.161942481994628795e-01,4.137627124786377175e-01,4.037393093109130637e-01,3.979096412658691406e-01,3.945171117782592662e-01,3.925035238265991433e-01,3.918213844299316406e-01,3.923238277435302512e-01,3.944102764129638894e-01,4.010235309600830300e-01,4.138349533081054910e-01,4.091411590576171653e-01,4.098196983337402122e-01,1.000000000000000000e+00,9.691798210144042525e-01,9.374740600585937944e-01,9.077768325805664062e-01,8.799033164978027344e-01,8.536905288696289285e-01,8.289943695068359153e-01,8.056869506835937500e-01,7.836543083190917747e-01,7.627945423126221147e-01,7.430164813995361328e-01
6.195186138153075950e-01,6.352290153503418191e-01,6.517569541931151900e-01,6.691679477691649947e-01,6.875371932983398438e-01,7.069438934326172097e-01,7.274780750274658647e-01,7.492407321929931419e-01,7.723456382751464622e-01,7.969209194183349831e-01,8.231114387512207253e-01,8.510820388793944868e-01,8.810204505920410378e-01,9.131419181823730025e-01,9.476943016052246094e-01,9.849643707275390625e-01,1.000000000000000000e+00,1.000000000000000000e+00,1.000000000000000000e+00,1.000000000000000000e+00,1.000000000000000000e+00,1.000000000000000000e+00,1.000000000000000000e+00,1.000000000000000000e+00,1.000000000000000000e+00,1.000000000000000000e+00,1.000000000000000000e+00,1.000000000000000000e+00,1.000000000000000000e+00,1.000000000000000000e+00,1.000000000000000000e+00,1.000000000000000000e+00,1.000000000000000000e+00,1.000000000000000000e+00,1.000000000000000000e+00,1.000000000000000000e+00,1.000000000000000000e+00,1.000000000000000000e+00,1.000000000000000000e+00,1.000000000000000000e+00,1.000000000000000000e+00,1.000000000000000000e+00,1.000000000000000000e+00,1.000000000000000000e+00,1.000000000000000000e+00,1.000000000000000000e+00,1.000000000000000000e+00,1.000000000000000000e+00,1.000000000000000000e+00,1.000000000000000000e+00,1.000000000000000000e+00,1.000000000000000000e+00,1.000000000000000000e+00,1.000000000000000000e+00,1.000000000000000000e+00,4.212967395782470925e-01,4.165826797485351340e-01,4.158398151397705300e-01,4.053906440734863503e-01,3.982365369796753152e-01,3.943874359130859486e-01,3.926802396774292103e-01,3.923573255538940208e-01,3.930133819580078347e-01,3.955707073211670033e-01,4.088585376739501953e-01,4.158373355865478405e-01,4.112712860107421986e-01,4.100530624389648326e-01,1.000000000000000000e+00,9.692082405090332031e-01,9.375004768371582031e-01,9.078016281127929688e-01,8.799266815185546875e-01,8.537124633789062722e-01,8.290150642395019975e-01,8.057065010070800781e-01,7.836727142333984597e-01,7.628119945526122825e-01,7.430331230163573775e-01
6.195054054260253906e-01,6.352151393890380637e-01,6.517423152923583762e-01,6.691525459289551225e-01,6.875184059143066850e-01,7.069236278533935769e-01,7.274565696716308594e-01,7.492179870605468750e-01,7.723214626312255859e-01,7.968950748443603960e-01,8.230838775634765625e-01,8.510525703430176225e-01,8.809888839721680132e-01,9.131080627441405806e-01,9.476577758789062056e-01,9.849249839782714400e-01,1.000000000000000000e+00,1.000000000000000000e+00,1.000000000000000000e+00,1.000000000000000000e+00,1.000000000000000000e+00,1.000000000000000000e+00,1.000000000000000000e+00,1.000000000000000000e+00,1.000000000000000000e+00,1.000000000000000000e+00,1.000000000000000000e+00,1.000000000000000000e+00,1.000000000000000000e+00,1.000000000000000000e+00,1.000000000000000000e+00,1.000000000000000000e+00,1.000000000000000000e+00,1.000000000000000000e+00,1.000000000000000000e+00,1.000000000000000000e+00,1.000000000000000000e+00,1.000000000000000000e+00,1.000000000000000000e+00,1.000000000000000000e+00,1.000000000000000000e+00,1.000000000000000000e+00,1.000000000000000000e+00,1.000000000000000000e+00,1.000000000000000000e+00,1.000000000000000000e+00,1.000000000000000000e+00,1.000000000000000000e+00,1.000000000000000000e+00,1.000000000000000000e+00,1.000000000000000000e+00,1.000000000000000000e+00,1.000000000000000000e+00,1.000000000000000000e+00,1.000000000000000000e+00,4.229669570922851562e-01,4.175141334533691295e-01,4.160407543182372825e-01,4.033473014831542858e-01,3.957488298416137473e-01,3.925195693969726340e-01,3.908949613571167103e-01,3.918200016021728405e-01,3.925106525421142578e-01,3.934026956558227539e-01,1.000000000000000000e+00,4.206918716430664285e-01,4.133664131164550559e-01,4.116099357604980358e-01,4.152814388275146706e-01,9.692365646362304243e-01,9.375268936157226118e-01,9.078264236450195312e-01,8.799499511718750222e-01,8.537344932556152344e-01,8.290357589721679688e-01,8.057259559631347878e-01,7.836911678314208984e-01,7.628294944763183150e-01,7.430496215820312500e-01
6.194921970367431863e-01,6.352012157440185547e-01,6.517277240753174272e-01,6.691370964050292747e-01,6.875021457672119141e-01,7.069036960601806641e-01,7.274351119995117188e-01,7.491951465606689897e-01,7.722971916198730913e-01,7.968693733215331809e-01,8.230564117431640181e-01,8.510231971740722656e-01,8.809574127197266069e-01,9.130742073059081587e-01,9.476213455200195312e-01,9.848855972290039285e-01,1.000000000000000000e+00,1.000000000000000000e+00,1.000000000000000000e+00,1.000000000000000000e+00,1.000000000000000000e+00,1.000000000000000000e+00,1.000000000000000000e+00,1.000000000000000000e+00,1.000000000000000000e+00,1.000000000000000000e+00,1.000000000000000000e+00,1.000000000000000000e+00,1.000000000000000000e+00,1.000000000000000000e+00,1.000000000000000000e+00,1.000000000000000000e+00,1.000000000000000000e+00,1.000000000000000000e+00,1.000000000000000000e+00,1.000000000000000000e+00,1.000000000000000000e+00,1.000000000000000000e+00,1.000000000000000000e+00,1.000000000000000000e+00,1.000000000000000000e+00,1.000000000000000000e+00,1.000000000000000000e+00,1.000000000000000000e+00,1.000000000000000000e+00,1.000000000000000000e+00,1.000000000000000000e+00,1.000000000000000000e+00,1.000000000000000000e+00,1.000000000000000000e+00,1.000000000000000000e+00,1.000000000000000000e+00,1.000000000000000000e+00,1.000000000000000000e+00,1.000000000000000000e+00,4.251689910888671875e-01,4.195243358612060769e-01,4.108126163482666016e-01,4.020338058471679688e-01,3.955838203430175892e-01,3.918110370635986550e-01,3.904339313507080300e-01,3.902697324752807395e-01,3.910042524337768444e-01,3.925307989120483398e-01,3.977733612060546653e-01,4.246258735656738281e-01,4.139343261718749778e-01,4.074767589569091575e-01,4.048647403717041127e-01,9.692647933959961382e-01,9.375534057617187500e-01,9.078512191772460938e-01,8.799732208251953569e-01,8.537563323974609597e-01,8.290564537048339400e-01,8.057455062866211160e-01,7.837096691131592019e-01,7.628465652465820090e-01,7.430652141571044700e-01
6.194789886474609819e-01,6.351873397827147993e-01,6.517130851745605025e-01,6.691216945648192915e-01,6.874858856201171431e-01,7.068864822387694868e-01,7.274138927459716797e-01,7.491724014282226118e-01,7.722730159759521040e-01,7.968435287475585938e-01,8.230289459228515847e-01,8.509938240051269087e-01,8.809258460998534712e-01,9.130403518676757368e-01,9.475848197937011275e-01,9.848462104797363059e-01,1.000000000000000000e+00,1.000000000000000000e+00,1.000000000000000000e+00,1.000000000000000000e+00,1.000000000000000000e+00,1.000000000000000000e+00,1.000000000000000000e+00,1.000000000000000000e+00,1.000000000000000000e+00,1.000000000000000000e+00,1.000000000000000000e+00,1.000000000000000000e+00,1.000000000000000000e+00,1.000000000000000000e+00,1.000000000000000000e+00,1.000000000000000000e+00,1.000000000000000000e+00,1.000000000000000000e+00,1.000000000000000000e+00,1.000000000000000000e+00,1.000000000000000000e+00,1.000000000000000000e+00,1.000000000000000000e+00,1.000000000000000000e+00,1.000000000000000000e+00,1.000000000000000000e+00,1.000000000000000000e+00,1.000000000000000000e+00,1.000000000000000000e+00,1.000000000000000000e+00,1.000000000000000000e+00,1.000000000000000000e+00,1.000000000000000000e+00,1.000000000000000000e+00,1.000000000000000000e+00,1.000000000000000000e+00,1.000000000000000000e+00,1.000000000000000000e+00,1.000000000000000000e+00,4.271445751190185436e-01,4.222204685211181641e-01,4.103712558746338002e-01,4.022768974304199441e-01,3.976715564727782981e-01,3.950459718704223411e-01,3.928415536880492942e-01,3.919040203094482644e-01,3.924012422561645730e-01,3.949003219604492188e-01,4.036088466644286998e-01,1.000000000000000000e+00,4.110998630523681752e-01,4.048837184906005637e-01,4.003475189208984264e-01,4.005798816680908314e-01,9.375798225402831587e-01,9.078760147094726562e-01,8.799964904785155806e-01,8.537782669067383035e-01,8.290768623352050559e-01,8.057641029357910378e-01,7.837265014648437944e-01,7.628623008728027122e-01,7.430800914764403853e-01
6.194657802581786665e-01,6.351734638214111550e-01,6.516984939575195535e-01,6.691062927246094194e-01,6.874696254730224831e-01,7.068692684173584206e-01,7.273956775665283425e-01,7.491497993469238281e-01,7.722487449645996094e-01,7.968177795410156250e-01,8.230013847351074219e-01,8.509643554687500444e-01,8.808943748474120650e-01,9.130064964294433150e-01,9.475483894348144531e-01,9.848068237304687944e-01,1.000000000000000000e+00,1.000000000000000000e+00,1.000000000000000000e+00,1.000000000000000000e+00,1.000000000000000000e+00,1.000000000000000000e+00,1.000000000000000000e+00,1.000000000000000000e+00,1.000000000000000000e+00,1.000000000000000000e+00,1.000000000000000000e+00,1.000000000000000000e+00,1.000000000000000000e+00,1.000000000000000000e+00,1.000000000000000000e+00,1.000000000000000000e+00,1.000000000000000000e+00,1.000000000000000000e+00,1.000000000000000000e+00,1.000000000000000000e+00,1.000000000000000000e+00,1.000000000000000000e+00,1.000000000000000000e+00,1.000000000000000000e+00,1.000000000000000000e+00,1.000000000000000000e+00,1.000000000000000000e+00,1.000000000000000000e+00,1.000000000000000000e+00,1.000000000000000000e+00,1.000000000000000000e+00,1.000000000000000000e+00,1.000000000000000000e+00,1.000000000000000000e+00,1.000000000000000000e+00,1.000000000000000000e+00,1.000000000000000000e+00,1.000000000000000000e+00,1.000000000000000000e+00,4.285102844238281028e-01,4.234114170074462780e-01,4.106144905090332031e-01,4.027430534362793080e-01,3.988253355026245006e-01,3.953070878982544167e-01,3.940623760223388450e-01,3.926162958145141824e-01,3.927608013153076061e-01,3.957580804824828991e-01,4.008264541625976562e-01,1.000000000000000000e+00,4.147901058197021595e-01,4.040054321289062722e-01,3.973656654357909934e-01,3.926699876785278431e-01,9.376062393188476785e-01,9.079008102416992188e-01,8.800189971923828569e-01,8.537985801696776900e-01,8.290954589843749778e-01,8.057816505432129350e-01,7.837430953979491743e-01,7.628779888153076616e-01,7.430949687957764116e-01
6.194525718688964622e-01,6.351595878601073997e-01,6.516838550567627397e-01,6.690908908843994363e-01,6.874533176422119585e-01,7.068521022796631081e-01,7.273774623870850053e-01,7.491304874420166016e-01,7.722247600555419700e-01,7.967919826507567915e-01,8.229739189147948775e-01,8.509349822998046875e-01,8.808629035949706587e-01,9.129726409912108931e-01,9.475119590759277788e-01,9.847674369812011719e-01,1.000000000000000000e+00,1.000000000000000000e+00,1.000000000000000000e+00,1.000000000000000000e+00,1.000000000000000000e+00,1.000000000000000000e+00,1.000000000000000000e+00,1.000000000000000000e+00,1.000000000000000000e+00,1.000000000000000000e+00,1.000000000000000000e+00,1.000000000000000000e+00,1.000000000000000000e+00,1.000000000000000000e+00,1.000000000000000000e+00,1.000000000000000000e+00,1.000000000000000000e+00,1.000000000000000000e+00,1.000000000000000000e+00,1.000000000000000000e+00,1.000000000000000000e+00,1.000000000000000000e+00,1.000000000000000000e+00,1.000000000000000000e+00,1.000000000000000000e+00,1.000000000000000000e+00,1.000000000000000000e+00,1.000000000000000000e+00,1.000000000000000000e+00,1.000000000000000000e+00,1.000000000000000000e+00,1.000000000000000000e+00,1.000000000000000000e+00,1.000000000000000000e+00,1.000000000000000000e+00,1.000000000000000000e+00,1.000000000000000000e+00,1.000000000000000000e+00,1.000000000000000000e+00,4.261471271514892800e-01,4.211555480957031028e-01,4.123478889465331809e-01,4.014954566955566406e-01,3.980590581893920787e-01,3.947540283203124778e-01,3.963797807693481556e-01,3.955389022827148215e-01,3.960190534591674916e-01,3.965514659881591575e-01,4.013645172119140736e-01,1.000000000000000000e+00,1.000000000000000000e+00,4.087516307830810769e-01,3.966830968856811523e-01,3.902040243148803822e-01,3.898925065994262584e-01,9.079232215881347656e-01,8.800398826599120650e-01,8.538182258605957475e-01,8.291140556335448997e-01,8.057991027832031028e-01,7.837596416473389116e-01,7.628936767578125000e-01,7.431098937988280806e-01
6.194393634796142578e-01,6.351456642150878906e-01,6.516692161560058150e-01,6.690754890441894531e-01,6.874370574951171875e-01,7.068348884582519309e-01,7.273592472076415572e-01,7.491111755371093750e-01,7.722042083740234819e-01,7.967663288116455522e-01,8.229463577270508257e-01,8.509056091308593306e-01,8.808313369750976340e-01,9.129387855529784712e-01,9.474755287170409934e-01,9.847280502319335493e-01,1.000000000000000000e+00,1.000000000000000000e+00,1.000000000000000000e+00,1.000000000000000000e+00,1.000000000000000000e+00,1.000000000000000000e+00,1.000000000000000000e+00,1.000000000000000000e+00,1.000000000000000000e+00,1.000000000000000000e+00,1.000000000000000000e+00,1.000000000000000000e+00,1.000000000000000000e+00,1.000000000000000000e+00,1.000000000000000000e+00,1.000000000000000000e+00,1.000000000000000000e+00,1.000000000000000000e+00,1.000000000000000000e+00,1.000000000000000000e+00,1.000000000000000000e+00,1.000000000000000000e+00,1.000000000000000000e+00,1.000000000000000000e+00,1.000000000000000000e+00,1.000000000000000000e+00,1.000000000000000000e+00,1.000000000000000000e+00,1.000000000000000000e+00,1.000000000000000000e+00,1.000000000000000000e+00,1.000000000000000000e+00,1.000000000000000000e+00,1.000000000000000000e+00,1.000000000000000000e+00,1.000000000000000000e+00,1.000000000000000000e+00,1.000000000000000000e+00,1.000000000000000000e+00,4.245198249816894420e-01,4.198132991790771706e-01,4.109194278717041016e-01,3.966974496841430553e-01,3.894751310348510964e-01,3.858885765075683594e-01,3.843798398971557395e-01,3.981055736541748158e-01,4.005232810974120872e-01,4.005660057067871316e-01,4.019953250885009988e-01,1.000000000000000000e+00,1.000000000000000000e+00,1.000000000000000000e+00,1.000000000000000000e+00,3.974297761917114369e-01,3.809767484664917103e-01,9.079454421997070757e-01,8.800607681274413840e-01,8.538379669189453125e-01,8.291325569152832031e-01,8.058166503906250000e-01,7.837762355804442915e-01,7.629093647003173384e-01,7.431248664855957253e-01
6.194261550903320535e-01,6.351317882537841353e-01,6.516546249389648660e-01,6.690600395202637163e-01,6.874207973480224165e-01,7.068176746368408647e-01,7.273410320281982200e-01,7.490918636322021484e-01,7.721837043762207475e-01,7.967444896697998269e-01,8.229189872741698997e-01,8.508762359619140847e-01,8.807998657226562278e-01,9.129049301147460493e-01,9.474390029907227007e-01,9.846886634826660378e-01,1.000000000000000000e+00,1.000000000000000000e+00,1.000000000000000000e+00,1.000000000000000000e+00,1.000000000000000000e+00,1.000000000000000000e+00,1.000000000000000000e+00,1.000000000000000000e+00,1.000000000000000000e+00,1.000000000000000000e+00,1.000000000000000000e+00,1.000000000000000000e+00,1.000000000000000000e+00,1.000000000000000000e+00,1.000000000000000000e+00,1.000000000000000000e+00,1.000000000000000000e+00,1.000000000000000000e+00,1.000000000000000000e+00,1.000000000000000000e+00,1.000000000000000000e+00,1.000000000000000000e+00,1.000000000000000000e+00,1.000000000000000000e+00,1.000000000000000000e+00,1.000000000000000000e+00,1.000000000000000000e+00,1.000000000000000000e+00,1.000000000000000000e+00,1.000000000000000000e+00,1.000000000000000000e+00,1.000000000000000000e+00,1.000000000000000000e+00,1.000000000000000000e+00,1.000000000000000000e+00,1.000000000000000000e+00,1.000000000000000000e+00,1.000000000000000000e+00,1.000000000000000000e+00,4.239053726196289062e-01,4.185191631317138894e-01,4.086576461791991965e-01,3.932931900024413951e-01,3.861250400543213002e-01,3.827084302902221680e-01,3.793517589569092019e-01,3.847387313842773326e-01,4.032023429870605358e-01,4.009965419769286887e-01,4.033002853393554688e-01,1.000000000000000000e+00,1.000000000000000000e+00,1.000000000000000000e+00,1.000000000000000000e+00,9.693997383117676225e-01,3.744807958602905384e-01,3.750402450561523549e-01,8.800817489624023215e-01,8.538576126098632590e-01,8.291511535644531250e-01,8.058341979980468972e-01,7.837927818298340288e-01,7.629251480102539062e-01,7.431397438049316406e-01
6.194129467010498491e-01,6.351179122924804910e-01,6.516399860382080522e-01,6.690446376800537331e-01,6.874045372009277566e-01,7.068005084991455522e-01,7.273228645324707475e-01,7.490725517272949219e-01,7.721631526947021484e-01,7.967226028442382368e-01,8.228957176208495650e-01,8.508467674255371094e-01,8.807683944702148215e-01,9.128710746765136275e-01,9.474025726318359153e-01,9.846492767333984153e-01,1.000000000000000000e+00,1.000000000000000000e+00,1.000000000000000000e+00,1.000000000000000000e+00,1.000000000000000000e+00,1.000000000000000000e+00,1.000000000000000000e+00,1.000000000000000000e+00,1.000000000000000000e+00,1.000000000000000000e+00,1.000000000000000000e+00,1.000000000000000000e+00,1.000000000000000000e+00,1.000000000000000000e+00,1.000000000000000000e+00,1.000000000000000000e+00,1.000000000000000000e+00,1.000000000000000000e+00,1.000000000000000000e+00,1.000000000000000000e+00,1.000000000000000000e+00,1.000000000000000000e+00,1.000000000000000000e+00,1.000000000000000000e+00,1.000000000000000000e+00,1.000000000000000000e+00,1.000000000000000000e+00,1.000000000000000000e+00,1.000000000000000000e+00,1.000000000000000000e+00,1.000000000000000000e+00,1.000000000000000000e+00,1.000000000000000000e+00,1.000000000000000000e+00,1.000000000000000000e+00,1.000000000000000000e+00,1.000000000000000000e+00,1.000000000000000000e+00,1.000000000000000000e+00,4.222608089447021373e-01,4.163913726806640625e-01,4.091145038604736550e-01,3.902179479598998912e-01,3.834546089172363170e-01,3.801914215087890403e-01,3.769833326339721569e-01,3.799241304397583119e-01,4.034889221191406139e-01,4.011866092681884988e-01,4.041927337646484264e-01,1.000000000000000000e+00,1.000000000000000000e+00,1.000000000000000000e+00,1.000000000000000000e+00,9.694251060485840066e-01,9.377022743225097434e-01,3.833972454071045144e-01,3.660284519195556863e-01,8.538772583007812056e-01,8.291696548461914285e-01,8.058516502380370650e-01,7.838094234466552734e-01,7.629408359527587447e-01,7.431546211242675559e-01
6.193997383117675337e-01,6.351040363311767356e-01,6.516253948211669922e-01,6.690292358398437500e-01,6.873882770538329856e-01,7.067832946777343750e-01,7.273046493530272993e-01,7.490532398223876953e-01,7.721426486968994141e-01,7.967007637023926225e-01,8.228724479675293413e-01,8.508219718933105469e-01,8.807368278503417969e-01,9.128372192382812056e-01,9.473661422729492410e-01,9.846098899841309038e-01,1.000000000000000000e+00,1.000000000000000000e+00,1.000000000000000000e+00,1.000000000000000000e+00,1.000000000000000000e+00,1.000000000000000000e+00,1.000000000000000000e+00,1.000000000000000000e+00,1.000000000000000000e+00,1.000000000000000000e+00,1.000000000000000000e+00,1.000000000000000000e+00,1.000000000000000000e+00,1.000000000000000000e+00,1.000000000000000000e+00,1.000000000000000000e+00,1.000000000000000000e+00,1.000000000000000000e+00,1.000000000000000000e+00,1.000000000000000000e+00,1.000000000000000000e+00,1.000000000000000000e+00,1.000000000000000000e+00,1.000000000000000000e+00,1.000000000000000000e+00,1.000000000000000000e+00,1.000000000000000000e+00,1.000000000000000000e+00,1.000000000000000000e+00,1.000000000000000000e+00,1.000000000000000000e+00,1.000000000000000000e+00,1.000000000000000000e+00,1.000000000000000000e+00,1.000000000000000000e+00,1.000000000000000000e+00,1.000000000000000000e+00,1.000000000000000000e+00,1.000000000000000000e+00,4.210842609405517356e-01,4.148136615753174050e-01,4.113482475280761941e-01,3.913296937942504772e-01,3.813753366470337136e-01,3.778784036636352317e-01,3.746531963348388450e-01,3.759248018264770286e-01,4.039602279663085938e-01,4.013292789459228516e-01,4.052330017089843528e-01,1.000000000000000000e+00,1.000000000000000000e+00,1.000000000000000000e+00,1.000000000000000000e+00,9.694504737854003906e-01,9.377261161804198997e-01,9.080121994018555132e-01,3.818686246871948464e-01,3.666371822357177845e-01,8.291881561279297319e-01,8.058692932128905806e-01,7.838260173797607644e-01,7.629565715789794478e-01,7.431695461273193359e-01
6.193865299224853294e-01,6.350901603698730913e-01,6.516107559204101785e-01,6.690138339996337669e-01,6.873720169067383257e-01,7.067661285400390625e-01,7.272864341735839622e-01,7.490340232849120872e-01,7.721222400665282981e-01,7.966790199279785156e-01,8.228490829467773882e-01,8.507969856262207475e-01,8.807101249694824219e-01,9.128034591674805132e-01,9.473297119140624556e-01,9.845705032348632812e-01,1.000000000000000000e+00,1.000000000000000000e+00,1.000000000000000000e+00,1.000000000000000000e+00,1.000000000000000000e+00,1.000000000000000000e+00,1.000000000000000000e+00,1.000000000000000000e+00,1.000000000000000000e+00,1.000000000000000000e+00,1.000000000000000000e+00,1.000000000000000000e+00,1.000000000000000000e+00,1.000000000000000000e+00,1.000000000000000000e+00,1.000000000000000000e+00,1.000000000000000000e+00,1.000000000000000000e+00,1.000000000000000000e+00,1.000000000000000000e+00,1.000000000000000000e+00,1.000000000000000000e+00,1.000000000000000000e+00,1.000000000000000000e+00,1.000000000000000000e+00,1.000000000000000000e+00,1.000000000000000000e+00,1.000000000000000000e+00,1.000000000000000000e+00,1.000000000000000000e+00,1.000000000000000000e+00,1.000000000000000000e+00,1.000000000000000000e+00,1.000000000000000000e+00,1.000000000000000000e+00,1.000000000000000000e+00,1.000000000000000000e+00,1.000000000000000000e+00,1.000000000000000000e+00,4.221468448638915905e-01,4.173981666564941517e-01,1.000000000000000000e+00,3.925038814544677956e-01,3.810097694396972767e-01,3.758876800537109264e-01,3.724902153015136608e-01,3.717900753021240456e-01,3.769184589385986550e-01,4.024696350097656250e-01,4.079207897186279408e-01,1.000000000000000000e+00,1.000000000000000000e+00,1.000000000000000000e+00,1.000000000000000000e+00,9.694759368896483931e-01,9.377497673034668191e-01,9.080344200134277122e-01,8.801444053649902788e-01,8.539166450500488281e-01,8.292067527770996538e-01,8.058867454528808594e-01,7.838425636291503906e-01,7.629722595214843972e-01,7.431844234466552512e-01
6.193733215332031250e-01,6.350762844085693359e-01,6.515961647033691184e-01,6.689984321594237837e-01,6.873557567596435547e-01,7.067489624023437500e-01,7.272683143615722434e-01,7.490147113800048606e-01,7.721016883850098100e-01,7.966571807861327903e-01,8.228258132934570535e-01,8.507720947265624556e-01,8.806834220886230469e-01,9.127746582031249778e-01,9.472932815551757812e-01,9.845312118530273882e-01,1.000000000000000000e+00,1.000000000000000000e+00,1.000000000000000000e+00,1.000000000000000000e+00,1.000000000000000000e+00,1.000000000000000000e+00,1.000000000000000000e+00,1.000000000000000000e+00,1.000000000000000000e+00,1.000000000000000000e+00,1.000000000000000000e+00,1.000000000000000000e+00,1.000000000000000000e+00,1.000000000000000000e+00,1.000000000000000000e+00,1.000000000000000000e+00,1.000000000000000000e+00,1.000000000000000000e+00,1.000000000000000000e+00,1.000000000000000000e+00,1.000000000000000000e+00,1.000000000000000000e+00,1.000000000000000000e+00,1.000000000000000000e+00,1.000000000000000000e+00,1.000000000000000000e+00,1.000000000000000000e+00,1.000000000000000000e+00,1.000000000000000000e+00,1.000000000000000000e+00,1.000000000000000000e+00,1.000000000000000000e+00,1.000000000000000000e+00,1.000000000000000000e+00,1.000000000000000000e+00,1.000000000000000000e+00,1.000000000000000000e+00,1.000000000000000000e+00,1.000000000000000000e+00,4.197361469268798828e-01,4.130127429962158203e-01,4.137107372283935769e-01,3.965498685836791881e-01,3.821906566619873158e-01,3.734796285629272683e-01,3.699355840682983509e-01,3.675770282745361439e-01,3.725508451461791992e-01,4.051556587219238281e-01,4.113908767700195090e-01,1.000000000000000000e+00,1.000000000000000000e+00,1.000000000000000000e+00,1.000000000000000000e+00,9.695012092590331587e-01,9.377735137939453569e-01,9.080566406250000222e-01,8.801652908325194868e-01,8.539363861083983931e-01,8.292253494262695757e-01,8.059042930603027566e-01,7.838591575622558816e-01,7.629879474639892356e-01,7.431993484497070312e-01
6.193707466125488725e-01,6.350674152374267134e-01,6.515815258026123047e-01,6.689830780029296653e-01,6.873395442962646484e-01,7.067317962646484375e-01,7.272500991821289062e-01,7.489953994750976340e-01,7.720811843872070757e-01,7.966353416442870650e-01,8.228025436401367188e-01,8.507472038269042747e-01,8.806567192077636719e-01,9.127459526062011719e-01,9.472620964050293413e-01,9.844918251037597656e-01,1.000000000000000000e+00,1.000000000000000000e+00,1.000000000000000000e+00,1.000000000000000000e+00,1.000000000000000000e+00,1.000000000000000000e+00,1.000000000000000000e+00,1.000000000000000000e+00,1.000000000000000000e+00,1.000000000000000000e+00,1.000000000000000000e+00,1.000000000000000000e+00,1.000000000000000000e+00,1.000000000000000000e+00,1.000000000000000000e+00,1.000000000000000000e+00,1.000000000000000000e+00,1.000000000000000000e+00,1.000000000000000000e+00,1.000000000000000000e+00,1.000000000000000000e+00,1.000000000000000000e+00,1.000000000000000000e+00,1.000000000000000000e+00,1.000000000000000000e+00,1.000000000000000000e+00,1.000000000000000000e+00,1.000000000000000000e+00,1.000000000000000000e+00,1.000000000000000000e+00,1.000000000000000000e+00,1.000000000000000000e+00,1.000000000000000000e+00,1.000000000000000000e+00,1.000000000000000000e+00,1.000000000000000000e+00,1.000000000000000000e+00,1.000000000000000000e+00,1.000000000000000000e+00,4.169401168823242410e-01,4.124606609344482200e-01,4.089434623718261608e-01,1.000000000000000000e+00,3.835553646087646595e-01,3.720620632171630637e-01,3.671498060226440208e-01,3.637243032455444447e-01,3.680375576019286887e-01,4.086909770965576061e-01,4.158013343811035045e-01,1.000000000000000000e+00,1.000000000000000000e+00,1.000000000000000000e+00,1.000000000000000000e+00,9.695265769958496538e-01,9.377972602844237837e-01,9.080788612365722212e-01,8.801862716674804243e-01,8.539560317993164507e-01,8.292438507080077681e-01,8.059218406677246538e-01,7.838757514953613725e-01,7.630036830902099387e-01,7.432142257690429465e-01
6.193707942962646262e-01,6.350675582885741965e-01,6.515805244445800337e-01,6.689752101898193137e-01,6.873240947723389116e-01,7.067145824432372603e-01,7.272318840026855691e-01,7.489760875701904075e-01,7.720606803894043413e-01,7.966135025024414507e-01,8.227791786193847656e-01,8.507223129272460938e-01,8.806300163269042969e-01,9.127172470092773660e-01,9.472311973571777566e-01,9.844579696655273438e-01,1.000000000000000000e+00,1.000000000000000000e+00,1.000000000000000000e+00,1.000000000000000000e+00,1.000000000000000000e+00,1.000000000000000000e+00,1.000000000000000000e+00,1.000000000000000000e+00,1.000000000000000000e+00,1.000000000000000000e+00,1.000000000000000000e+00,1.000000000000000000e+00,1.000000000000000000e+00,1.000000000000000000e+00,1.000000000000000000e+00,1.000000000000000000e+00,1.000000000000000000e+00,1.000000000000000000e+00,1.000000000000000000e+00,1.000000000000000000e+00,1.000000000000000000e+00,1.000000000000000000e+00,1.000000000000000000e+00,1.000000000000000000e+00,1.000000000000000000e+00,1.000000000000000000e+00,1.000000000000000000e+00,1.000000000000000000e+00,1.000000000000000000e+00,1.000000000000000000e+00,1.000000000000000000e+00,1.000000000000000000e+00,1.000000000000000000e+00,1.000000000000000000e+00,1.000000000000000000e+00,1.000000000000000000e+00,1.000000000000000000e+00,1.000000000000000000e+00,1.000000000000000000e+00,4.159308433532714622e-01,1.000000000000000000e+00,4.083411693572998047e-01,1.000000000000000000e+00,3.865793704986572044e-01,3.737377166748047097e-01,3.655897140502929465e-01,3.610309600830078347e-01,3.633749723434448464e-01,4.124117374420165905e-01,1.000000000000000000e+00,1.000000000000000000e+00,1.000000000000000000e+00,1.000000000000000000e+00,1.000000000000000000e+00,9.695519447326660378e-01,9.378210067749023215e-01,9.081011772155761497e-01,8.802071571350097434e-01,8.539756774902343972e-01,8.292624473571776900e-01,8.059392929077148215e-01,7.838922977447509988e-01,7.630193710327148882e-01,7.432291030883788618e-01
6.193675994873046875e-01,6.350676059722900613e-01,6.515806674957275169e-01,6.689753055572509322e-01,6.873241901397705300e-01,7.067079544067382812e-01,7.272169113159179243e-01,7.489567756652831809e-01,7.720401287078857422e-01,7.965916633605957253e-01,8.227559089660644309e-01,8.506973266601562944e-01,8.806033134460449219e-01,9.126886367797851785e-01,9.472003936767577903e-01,9.844246864318847434e-01,1.000000000000000000e+00,1.000000000000000000e+00,1.000000000000000000e+00,1.000000000000000000e+00,1.000000000000000000e+00,1.000000000000000000e+00,1.000000000000000000e+00,1.000000000000000000e+00,1.000000000000000000e+00,1.000000000000000000e+00,1.000000000000000000e+00,1.000000000000000000e+00,1.000000000000000000e+00,1.000000000000000000e+00,1.000000000000000000e+00,1.000000000000000000e+00,1.000000000000000000e+00,1.000000000000000000e+00,1.000000000000000000e+00,1.000000000000000000e+00,1.000000000000000000e+00,1.000000000000000000e+00,1.000000000000000000e+00,1.000000000000000000e+00,1.000000000000000000e+00,1.000000000000000000e+00,1.000000000000000000e+00,1.000000000000000000e+00,1.000000000000000000e+00,1.000000000000000000e+00,1.000000000000000000e+00,1.000000000000000000e+00,1.000000000000000000e+00,1.000000000000000000e+00,1.000000000000000000e+00,1.000000000000000000e+00,1.000000000000000000e+00,1.000000000000000000e+00,1.000000000000000000e+00,4.145294666290283425e-01,1.000000000000000000e+00,1.000000000000000000e+00,1.000000000000000000e+00,3.891577243804931752e-01,3.751609325408935547e-01,3.642596721649170033e-01,3.593291521072387584e-01,3.596387147903442605e-01,4.165045261383056863e-01,1.000000000000000000e+00,1.000000000000000000e+00,1.000000000000000000e+00,1.000000000000000000e+00,1.000000000000000000e+00,9.695773124694824219e-01,9.378447532653808594e-01,9.081234931945800781e-01,8.802280426025390625e-01,8.539953231811523438e-01,8.292809486389159934e-01,8.059568405151367188e-01,7.839088916778564897e-01,7.630350589752197266e-01,7.432440280914306419e-01
6.193543910980224831e-01,6.350564479827880415e-01,6.515752792358397993e-01,6.689754486083984153e-01,6.873242855072021484e-01,7.067081451416015181e-01,7.272170066833496538e-01,7.489518165588379128e-01,7.720258235931396484e-01,7.965697765350341353e-01,8.227326393127440962e-01,8.506724357604980025e-01,8.805767059326171653e-01,9.126599311828613725e-01,9.471694946289062056e-01,9.843914031982421431e-01,1.000000000000000000e+00,1.000000000000000000e+00,1.000000000000000000e+00,1.000000000000000000e+00,1.000000000000000000e+00,1.000000000000000000e+00,1.000000000000000000e+00,1.000000000000000000e+00,1.000000000000000000e+00,1.000000000000000000e+00,1.000000000000000000e+00,1.000000000000000000e+00,1.000000000000000000e+00,1.000000000000000000e+00,1.000000000000000000e+00,1.000000000000000000e+00,1.000000000000000000e+00,1.000000000000000000e+00,1.000000000000000000e+00,1.000000000000000000e+00,1.000000000000000000e+00,1.000000000000000000e+00,1.000000000000000000e+00,1.000000000000000000e+00,1.000000000000000000e+00,1.000000000000000000e+00,1.000000000000000000e+00,1.000000000000000000e+00,1.000000000000000000e+00,1.000000000000000000e+00,1.000000000000000000e+00,1.000000000000000000e+00,1.000000000000000000e+00,1.000000000000000000e+00,1.000000000000000000e+00,1.000000000000000000e+00,1.000000000000000000e+00,1.000000000000000000e+00,1.000000000000000000e+00,1.000000000000000000e+00,1.000000000000000000e+00,1.000000000000000000e+00,1.000000000000000000e+00,1.000000000000000000e+00,3.773218870162963756e-01,3.652190923690795676e-01,3.587787389755249245e-01,3.581585168838500866e-01,4.196994781494140514e-01,1.000000000000000000e+00,1.000000000000000000e+00,1.000000000000000000e+00,1.000000000000000000e+00,1.000000000000000000e+00,9.696026802062988059e-01,9.378684997558593972e-01,9.081457138061523882e-01,8.802489280700683816e-01,8.540150642395019087e-01,8.292995452880859153e-01,8.059743881225586160e-01,7.839254379272461160e-01,7.630507946014404297e-01,7.432589054107665572e-01
6.193412780761718972e-01,6.350425720214843972e-01,6.515607357025146040e-01,6.689610958099365678e-01,6.873163223266601785e-01,7.067072868347168413e-01,7.272171497344970259e-01,7.489519119262695312e-01,7.720260143280028853e-01,7.965669631958007812e-01,8.227193832397461382e-01,8.506475448608398215e-01,8.805500030517577903e-01,9.126313209533691850e-01,9.471386909484863503e-01,9.843580245971679243e-01,1.000000000000000000e+00,1.000000000000000000e+00,1.000000000000000000e+00,1.000000000000000000e+00,1.000000000000000000e+00,1.000000000000000000e+00,1.000000000000000000e+00,1.000000000000000000e+00,1.000000000000000000e+00,1.000000000000000000e+00,1.000000000000000000e+00,1.000000000000000000e+00,1.000000000000000000e+00,1.000000000000000000e+00,1.000000000000000000e+00,1.000000000000000000e+00,1.000000000000000000e+00,1.000000000000000000e+00,1.000000000000000000e+00,1.000000000000000000e+00,1.000000000000000000e+00,1.000000000000000000e+00,1.000000000000000000e+00,1.000000000000000000e+00,1.000000000000000000e+00,1.000000000000000000e+00,1.000000000000000000e+00,1.000000000000000000e+00,1.000000000000000000e+00,1.000000000000000000e+00,1.000000000000000000e+00,1.000000000000000000e+00,1.000000000000000000e+00,1.000000000000000000e+00,1.000000000000000000e+00,1.000000000000000000e+00,1.000000000000000000e+00,1.000000000000000000e+00,1.000000000000000000e+00,1.000000000000000000e+00,1.000000000000000000e+00,1.000000000000000000e+00,1.000000000000000000e+00,1.000000000000000000e+00,3.794258356094360463e-01,3.657649278640747181e-01,3.596894502639770286e-01,3.590435743331908958e-01,1.000000000000000000e+00,1.000000000000000000e+00,1.000000000000000000e+00,1.000000000000000000e+00,1.000000000000000000e+00,1.000000000000000000e+00,9.696280479431151900e-01,9.378922462463379350e-01,9.081679344177245872e-01,8.802698135375977007e-01,8.540347099304199663e-01,8.293181419372558372e-01,8.059919357299805132e-01,7.839420318603516069e-01,7.630664825439452681e-01,7.432738304138183372e-01
6.193280696868896928e-01,6.350287437438965066e-01,6.515460968017577903e-01,6.689456939697265847e-01,6.873001575469970259e-01,7.066901206970215288e-01,7.272060394287109819e-01,7.489486694335937278e-01,7.720261096954346147e-01,7.965671539306640181e-01,8.227195739746093750e-01,8.506475448608398215e-01,8.805381774902343306e-01,9.126060485839844194e-01,9.471077919006347656e-01,9.843246459960937056e-01,1.000000000000000000e+00,1.000000000000000000e+00,1.000000000000000000e+00,1.000000000000000000e+00,1.000000000000000000e+00,1.000000000000000000e+00,1.000000000000000000e+00,1.000000000000000000e+00,1.000000000000000000e+00,1.000000000000000000e+00,1.000000000000000000e+00,1.000000000000000000e+00,1.000000000000000000e+00,1.000000000000000000e+00,1.000000000000000000e+00,1.000000000000000000e+00,1.000000000000000000e+00,1.000000000000000000e+00,1.000000000000000000e+00,1.000000000000000000e+00,1.000000000000000000e+00,1.000000000000000000e+00,1.000000000000000000e+00,1.000000000000000000e+00,1.000000000000000000e+00,1.000000000000000000e+00,1.000000000000000000e+00,1.000000000000000000e+00,1.000000000000000000e+00,1.000000000000000000e+00,1.000000000000000000e+00,1.000000000000000000e+00,1.000000000000000000e+00,1.000000000000000000e+00,1.000000000000000000e+00,1.000000000000000000e+00,1.000000000000000000e+00,1.000000000000000000e+00,1.000000000000000000e+00,1.000000000000000000e+00,1.000000000000000000e+00,1.000000000000000000e+00,1.000000000000000000e+00,1.000000000000000000e+00,3.785399913787841908e-01,3.657084941864013894e-01,3.613322257995605358e-01,3.602668523788452037e-01,1.000000000000000000e+00,1.000000000000000000e+00,1.000000000000000000e+00,1.000000000000000000e+00,1.000000000000000000e+00,1.000000000000000000e+00,9.696534156799316850e-01,9.379158973693847434e-01,9.081901550292968972e-01,8.802907943725586382e-01,8.540544509887695312e-01,8.293366432189941406e-01,8.060094833374022993e-01,7.839586257934569868e-01,7.630824565887450728e-01,7.432896137237549050e-01
6.193149089813232422e-01,6.350148677825927512e-01,6.515315055847168413e-01,6.689303398132324663e-01,6.872838973999023660e-01,7.066730022430419700e-01,7.271878242492675337e-01,7.489293575286865012e-01,7.720110893249512163e-01,7.965607166290282759e-01,8.227196693420409934e-01,8.506477355957031694e-01,8.805383682250976785e-01,9.126062393188476562e-01,9.470980644226074663e-01,9.842995643615722878e-01,1.000000000000000000e+00,1.000000000000000000e+00,1.000000000000000000e+00,1.000000000000000000e+00,1.000000000000000000e+00,1.000000000000000000e+00,1.000000000000000000e+00,1.000000000000000000e+00,1.000000000000000000e+00,1.000000000000000000e+00,1.000000000000000000e+00,1.000000000000000000e+00,1.000000000000000000e+00,1.000000000000000000e+00,1.000000000000000000e+00,1.000000000000000000e+00,1.000000000000000000e+00,1.000000000000000000e+00,1.000000000000000000e+00,1.000000000000000000e+00,1.000000000000000000e+00,1.000000000000000000e+00,1.000000000000000000e+00,1.000000000000000000e+00,1.000000000000000000e+00,1.000000000000000000e+00,1.000000000000000000e+00,1.000000000000000000e+00,1.000000000000000000e+00,1.000000000000000000e+00,1.000000000000000000e+00,1.000000000000000000e+00,1.000000000000000000e+00,1.000000000000000000e+00,1.000000000000000000e+00,1.000000000000000000e+00,1.000000000000000000e+00,1.000000000000000000e+00,1.000000000000000000e+00,1.000000000000000000e+00,1.000000000000000000e+00,1.000000000000000000e+00,1.000000000000000000e+00,1.000000000000000000e+00,3.762893438339233176e-01,3.662272453308105247e-01,3.626852035522460938e-01,3.615855693817138783e-01,1.000000000000000000e+00,1.000000000000000000e+00,1.000000000000000000e+00,1.000000000000000000e+00,1.000000000000000000e+00,1.000000000000000000e+00,9.696787834167480691e-01,9.379396438598632812e-01,9.082124710083008257e-01,8.803116798400878462e-01,8.540740966796874778e-01,8.293552398681640625e-01,8.060276031494140181e-01,7.839765548706054688e-01,7.630998611450194868e-01,7.433061599731445312e-01
6.193017005920410378e-01,6.350009918212891069e-01,6.515169620513916460e-01,6.689149379730224831e-01,6.872676372528075950e-01,7.066557884216309038e-01,7.271696090698241965e-01,7.489101409912108931e-01,7.719905853271484819e-01,7.965389728546142800e-01,8.226997375488280806e-01,8.506373405456543191e-01,8.805385589599609153e-01,9.126064300537108931e-01,9.470982551574707031e-01,9.842997550964355247e-01,1.000000000000000000e+00,1.000000000000000000e+00,1.000000000000000000e+00,1.000000000000000000e+00,1.000000000000000000e+00,1.000000000000000000e+00,1.000000000000000000e+00,1.000000000000000000e+00,1.000000000000000000e+00,1.000000000000000000e+00,1.000000000000000000e+00,1.000000000000000000e+00,1.000000000000000000e+00,1.000000000000000000e+00,1.000000000000000000e+00,1.000000000000000000e+00,1.000000000000000000e+00,1.000000000000000000e+00,1.000000000000000000e+00,1.000000000000000000e+00,1.000000000000000000e+00,1.000000000000000000e+00,1.000000000000000000e+00,1.000000000000000000e+00,1.000000000000000000e+00,1.000000000000000000e+00,1.000000000000000000e+00,1.000000000000000000e+00,1.000000000000000000e+00,1.000000000000000000e+00,1.000000000000000000e+00,1.000000000000000000e+00,1.000000000000000000e+00,1.000000000000000000e+00,1.000000000000000000e+00,1.000000000000000000e+00,1.000000000000000000e+00,1.000000000000000000e+00,1.000000000000000000e+00,1.000000000000000000e+00,1.000000000000000000e+00,1.000000000000000000e+00,1.000000000000000000e+00,4.561353683471679465e-01,3.742014169692993164e-01,3.667474508285522572e-01,3.633765220642090066e-01,3.644981145858764426e-01,1.000000000000000000e+00,1.000000000000000000e+00,1.000000000000000000e+00,1.000000000000000000e+00,1.000000000000000000e+00,1.000000000000000000e+00,9.697041511535644531e-01,9.379633903503418191e-01,9.082347869873046431e-01,8.803329467773437500e-01,8.540949821472167969e-01,8.293756484985351785e-01,8.060470581054687278e-01,7.839949607849121538e-01,7.631172180175781472e-01,7.433226585388184038e-01
6.192884922027588335e-01,6.349871635437012163e-01,6.515023231506347212e-01,6.688995361328125000e-01,6.872514247894286887e-01,7.066386222839355913e-01,7.271514892578124778e-01,7.488908290863036665e-01,7.719700813293457475e-01,7.965171337127685547e-01,8.226764678955078569e-01,8.506124496459961382e-01,8.805124282836913618e-01,9.125910758972167747e-01,9.470952987670898660e-01,9.843000411987304910e-01,1.000000000000000000e+00,1.000000000000000000e+00,1.000000000000000000e+00,1.000000000000000000e+00,1.000000000000000000e+00,1.000000000000000000e+00,1.000000000000000000e+00,1.000000000000000000e+00,1.000000000000000000e+00,1.000000000000000000e+00,1.000000000000000000e+00,1.000000000000000000e+00,1.000000000000000000e+00,1.000000000000000000e+00,1.000000000000000000e+00,1.000000000000000000e+00,1.000000000000000000e+00,1.000000000000000000e+00,1.000000000000000000e+00,1.000000000000000000e+00,1.000000000000000000e+00,1.000000000000000000e+00,1.000000000000000000e+00,1.000000000000000000e+00,1.000000000000000000e+00,1.000000000000000000e+00,1.000000000000000000e+00,1.000000000000000000e+00,1.000000000000000000e+00,1.000000000000000000e+00,1.000000000000000000e+00,1.000000000000000000e+00,1.000000000000000000e+00,1.000000000000000000e+00,1.000000000000000000e+00,1.000000000000000000e+00,1.000000000000000000e+00,1.000000000000000000e+00,1.000000000000000000e+00,1.000000000000000000e+00,1.000000000000000000e+00,1.000000000000000000e+00,1.000000000000000000e+00,4.536794662475586160e-01,3.743123531341552845e-01,3.671512126922607533e-01,3.628577232360840066e-01,3.628397464752197155e-01,1.000000000000000000e+00,1.000000000000000000e+00,1.000000000000000000e+00,1.000000000000000000e+00,1.000000000000000000e+00,1.000000000000000000e+00,9.697295188903808372e-01,9.379880905151367632e-01,9.082588195800781472e-01,8.803561210632324663e-01,8.541167259216309038e-01,8.293962478637695312e-01,8.060665130615234375e-01,7.840132713317871094e-01,7.631346702575683150e-01,7.433392047882080300e-01
6.192753791809082475e-01,6.349732875823974609e-01,6.514877319335937722e-01,6.688842296600341353e-01,6.872351646423340288e-01,7.066215038299560325e-01,7.271333217620850053e-01,7.488715171813964400e-01,7.719496250152587669e-01,7.964952945709228294e-01,8.226531982421875222e-01,8.505876541137695757e-01,8.804857254028319868e-01,9.125623703002929688e-01,9.470644950866698997e-01,9.842780113220215288e-01,1.000000000000000000e+00,1.000000000000000000e+00,1.000000000000000000e+00,1.000000000000000000e+00,1.000000000000000000e+00,1.000000000000000000e+00,1.000000000000000000e+00,1.000000000000000000e+00,1.000000000000000000e+00,1.000000000000000000e+00,1.000000000000000000e+00,1.000000000000000000e+00,1.000000000000000000e+00,1.000000000000000000e+00,1.000000000000000000e+00,1.000000000000000000e+00,1.000000000000000000e+00,1.000000000000000000e+00,1.000000000000000000e+00,1.000000000000000000e+00,1.000000000000000000e+00,1.000000000000000000e+00,1.000000000000000000e+00,1.000000000000000000e+00,1.000000000000000000e+00,1.000000000000000000e+00,1.000000000000000000e+00,1.000000000000000000e+00,1.000000000000000000e+00,1.000000000000000000e+00,1.000000000000000000e+00,1.000000000000000000e+00,1.000000000000000000e+00,1.000000000000000000e+00,1.000000000000000000e+00,1.000000000000000000e+00,1.000000000000000000e+00,1.000000000000000000e+00,1.000000000000000000e+00,1.000000000000000000e+00,1.000000000000000000e+00,1.000000000000000000e+00,1.000000000000000000e+00,4.545320510864258035e-01,3.806216955184936745e-01,3.675221204757690430e-01,3.621613502502441517e-01,3.611963510513305775e-01,1.000000000000000000e+00,1.000000000000000000e+00,1.000000000000000000e+00,1.000000000000000000e+00,1.000000000000000000e+00,1.000000000000000000e+00,9.697576522827148215e-01,9.380144119262695535e-01,9.082835197448730913e-01,8.803792953491210715e-01,8.541386604309082475e-01,8.294168472290038840e-01,8.060859680175781472e-01,7.840316772460937944e-01,7.631521224975585938e-01,7.433557510375976562e-01
6.192621707916259322e-01,6.349594116210937056e-01,6.514731884002685769e-01,6.688688278198242632e-01,6.872189521789551225e-01,7.066043376922607200e-01,7.271151065826415572e-01,7.488523006439209428e-01,7.719291210174560325e-01,7.964735507965088335e-01,8.226300239562988059e-01,8.505627632141112837e-01,8.804591178894043413e-01,9.125337600708007812e-01,9.470336914062500444e-01,9.842447280883789285e-01,1.000000000000000000e+00,1.000000000000000000e+00,1.000000000000000000e+00,1.000000000000000000e+00,1.000000000000000000e+00,1.000000000000000000e+00,1.000000000000000000e+00,1.000000000000000000e+00,1.000000000000000000e+00,1.000000000000000000e+00,1.000000000000000000e+00,1.000000000000000000e+00,1.000000000000000000e+00,1.000000000000000000e+00,1.000000000000000000e+00,1.000000000000000000e+00,1.000000000000000000e+00,1.000000000000000000e+00,1.000000000000000000e+00,1.000000000000000000e+00,1.000000000000000000e+00,1.000000000000000000e+00,1.000000000000000000e+00,1.000000000000000000e+00,1.000000000000000000e+00,1.000000000000000000e+00,1.000000000000000000e+00,1.000000000000000000e+00,1.000000000000000000e+00,1.000000000000000000e+00,1.000000000000000000e+00,1.000000000000000000e+00,1.000000000000000000e+00,1.000000000000000000e+00,1.000000000000000000e+00,1.000000000000000000e+00,1.000000000000000000e+00,1.000000000000000000e+00,1.000000000000000000e+00,1.000000000000000000e+00,1.000000000000000000e+00,1.000000000000000000e+00,1.000000000000000000e+00,4.558473110198974498e-01,4.518686771392822488e-01,3.678938627243041881e-01,3.618583202362060658e-01,3.595677852630615456e-01,1.000000000000000000e+00,1.000000000000000000e+00,1.000000000000000000e+00,1.000000000000000000e+00,1.000000000000000000e+00,1.000000000000000000e+00,9.697856903076171875e-01,9.380407333374023438e-01,9.083082199096679243e-01,8.804024696350097878e-01,8.541604042053222434e-01,8.294374465942382368e-01,8.061054229736328569e-01,7.840501308441162331e-01,7.631695747375488725e-01,7.433722972869872825e-01
6.192489624023437278e-01,6.349455833435058150e-01,6.514585971832275169e-01,6.688534736633300337e-01,6.872026920318603516e-01,7.065871238708496538e-01,7.270969867706298384e-01,7.488329887390137163e-01,7.719087123870849165e-01,7.964517116546631081e-01,8.226066589355468528e-01,8.505378723144531028e-01,8.804325103759765847e-01,9.125051498413085938e-01,9.470028877258300781e-01,9.842113494873047097e-01,1.000000000000000000e+00,1.000000000000000000e+00,1.000000000000000000e+00,1.000000000000000000e+00,1.000000000000000000e+00,1.000000000000000000e+00,1.000000000000000000e+00,1.000000000000000000e+00,1.000000000000000000e+00,1.000000000000000000e+00,1.000000000000000000e+00,1.000000000000000000e+00,1.000000000000000000e+00,1.000000000000000000e+00,1.000000000000000000e+00,1.000000000000000000e+00,1.000000000000000000e+00,1.000000000000000000e+00,1.000000000000000000e+00,1.000000000000000000e+00,1.000000000000000000e+00,1.000000000000000000e+00,1.000000000000000000e+00,1.000000000000000000e+00,1.000000000000000000e+00,1.000000000000000000e+00,1.000000000000000000e+00,1.000000000000000000e+00,1.000000000000000000e+00,1.000000000000000000e+00,1.000000000000000000e+00,1.000000000000000000e+00,1.000000000000000000e+00,1.000000000000000000e+00,1.000000000000000000e+00,1.000000000000000000e+00,1.000000000000000000e+00,1.000000000000000000e+00,1.000000000000000000e+00,1.000000000000000000e+00,1.000000000000000000e+00,1.000000000000000000e+00,4.688500881195068470e-01,4.587209224700927734e-01,4.552211761474609375e-01,3.682662725448608287e-01,3.616452693939208873e-01,3.579538583755493275e-01,3.632817506790161355e-01,1.000000000000000000e+00,1.000000000000000000e+00,1.000000000000000000e+00,1.000000000000000000e+00,1.000000000000000000e+00,9.698139190673827903e-01,9.380670547485351340e-01,9.083328247070312500e-01,8.804257392883301225e-01,8.541822433471679688e-01,8.294579505920409712e-01,8.061247825622558372e-01,7.840685367584228072e-01,7.631869316101074219e-01,7.433887481689452903e-01
6.192358016967773882e-01,6.349317073822021706e-01,6.514440536499023215e-01,6.688380718231201616e-01,6.871864795684814453e-01,7.065700054168700950e-01,7.270788192749023660e-01,7.488137722015381081e-01,7.718882083892821822e-01,7.964298725128173828e-01,8.225834846496582475e-01,8.505130767822265403e-01,8.804059028625488281e-01,9.124765396118164062e-01,9.469719886779784934e-01,9.841780662536621094e-01,1.000000000000000000e+00,1.000000000000000000e+00,1.000000000000000000e+00,1.000000000000000000e+00,1.000000000000000000e+00,1.000000000000000000e+00,1.000000000000000000e+00,1.000000000000000000e+00,1.000000000000000000e+00,1.000000000000000000e+00,1.000000000000000000e+00,1.000000000000000000e+00,1.000000000000000000e+00,1.000000000000000000e+00,1.000000000000000000e+00,1.000000000000000000e+00,1.000000000000000000e+00,1.000000000000000000e+00,1.000000000000000000e+00,1.000000000000000000e+00,1.000000000000000000e+00,1.000000000000000000e+00,1.000000000000000000e+00,1.000000000000000000e+00,1.000000000000000000e+00,1.000000000000000000e+00,1.000000000000000000e+00,1.000000000000000000e+00,1.000000000000000000e+00,1.000000000000000000e+00,1.000000000000000000e+00,1.000000000000000000e+00,1.000000000000000000e+00,1.000000000000000000e+00,1.000000000000000000e+00,1.000000000000000000e+00,1.000000000000000000e+00,1.000000000000000000e+00,1.000000000000000000e+00,1.000000000000000000e+00,1.000000000000000000e+00,1.000000000000000000e+00,4.710957527160644642e-01,4.623641014099121316e-01,4.586954593658447155e-01,3.686802148818969505e-01,3.620303153991699108e-01,3.580155611038208230e-01,3.618625164031982200e-01,1.000000000000000000e+00,1.000000000000000000e+00,1.000000000000000000e+00,1.000000000000000000e+00,1.000000000000000000e+00,9.698419570922851562e-01,9.380933761596679243e-01,9.083575248718261941e-01,8.804488182067871094e-01,8.542040824890136941e-01,8.294786453247070535e-01,8.061442375183105469e-01,7.840868473052978738e-01,7.632043838500977007e-01,7.434052944183349165e-01
6.192226409912109375e-01,6.349178314208984153e-01,6.514294147491455078e-01,6.688226699829101785e-01,6.871702671051025391e-01,7.065528392791747825e-01,7.270606040954590288e-01,7.487944602966308816e-01,7.718677043914794478e-01,7.964081287384032759e-01,8.225602149963379128e-01,8.504881858825683594e-01,8.803791999816894531e-01,9.124479293823242188e-01,9.469411849975586382e-01,9.841447830200195090e-01,1.000000000000000000e+00,1.000000000000000000e+00,1.000000000000000000e+00,1.000000000000000000e+00,1.000000000000000000e+00,1.000000000000000000e+00,1.000000000000000000e+00,1.000000000000000000e+00,1.000000000000000000e+00,1.000000000000000000e+00,1.000000000000000000e+00,1.000000000000000000e+00,1.000000000000000000e+00,1.000000000000000000e+00,1.000000000000000000e+00,1.000000000000000000e+00,1.000000000000000000e+00,1.000000000000000000e+00,1.000000000000000000e+00,1.000000000000000000e+00,1.000000000000000000e+00,1.000000000000000000e+00,1.000000000000000000e+00,1.000000000000000000e+00,1.000000000000000000e+00,1.000000000000000000e+00,1.000000000000000000e+00,1.000000000000000000e+00,1.000000000000000000e+00,1.000000000000000000e+00,1.000000000000000000e+00,1.000000000000000000e+00,1.000000000000000000e+00,1.000000000000000000e+00,1.000000000000000000e+00,1.000000000000000000e+00,1.000000000000000000e+00,1.000000000000000000e+00,1.000000000000000000e+00,1.000000000000000000e+00,1.000000000000000000e+00,1.000000000000000000e+00,4.732879161834716575e-01,4.661072731018066628e-01,1.000000000000000000e+00,3.692639827728271262e-01,3.626135110855102650e-01,3.587166309356689675e-01,3.604542732238769642e-01,1.000000000000000000e+00,1.000000000000000000e+00,1.000000000000000000e+00,1.000000000000000000e+00,1.000000000000000000e+00,9.698701858520507590e-01,9.381196975708008257e-01,9.083822250366211382e-01,8.804720878601074441e-01,8.542259216308594194e-01,8.294991493225097878e-01,8.061636924743652566e-01,7.841052532196044478e-01,7.632218360900878684e-01,7.434218406677246538e-01
6.192094326019287331e-01,6.349040031433105247e-01,6.514148235321044478e-01,6.688073635101318137e-01,6.871540069580077681e-01,7.065356731414794700e-01,7.270424842834473100e-01,7.487751960754394087e-01,7.718472957611084428e-01,7.963863372802734153e-01,8.225369453430175781e-01,8.504632949829101785e-01,8.803525924682616965e-01,9.124193191528320312e-01,9.469103813171386719e-01,9.710528373718261275e-01,9.708127975463867188e-01,9.705728530883789285e-01,9.703329086303711382e-01,9.700932502746582031e-01,9.698535919189452681e-01,9.696140289306640625e-01,9.693746566772460938e-01,9.691353797912597434e-01,9.688962936401367410e-01,9.686572074890136275e-01,9.684183120727538618e-01,9.681795120239258257e-01,9.679408073425292969e-01,9.677022933959961160e-01,9.674637794494629350e-01,9.672254562377929910e-01,9.669872283935546653e-01,9.667491912841796875e-01,9.665111541748047097e-01,9.662733078002929688e-01,9.660355567932128462e-01,9.657979011535644531e-01,9.655604362487792969e-01,9.653229713439941406e-01,9.650857925415039507e-01,9.648486137390136497e-01,9.646115303039550781e-01,9.643746376037597434e-01,9.641378402709961382e-01,9.639011383056640403e-01,9.636645317077636719e-01,9.634281158447265403e-01,9.631917953491211382e-01,9.629554748535156250e-01,9.627194404602050781e-01,9.624834060668945312e-01,9.622474670410156028e-01,9.620118141174316406e-01,9.617760658264160600e-01,9.615406036376953347e-01,9.613051414489746094e-01,9.610698699951172319e-01,4.787900924682617076e-01,4.719928741455078347e-01,9.603646278381348100e-01,3.713168382644653209e-01,3.631986141204833762e-01,3.587894439697265625e-01,3.590569972991943248e-01,9.591915130615233931e-01,9.589571952819824219e-01,9.587230682373046875e-01,9.584890365600585715e-01,9.582551002502441850e-01,9.580212593078613059e-01,9.381460189819336160e-01,9.084069252014159712e-01,8.804952621459960493e-01,8.542477607727050337e-01,8.295197486877441406e-01,8.061831474304199663e-01,7.841236591339111328e-01,7.632392883300781472e-01,7.434384346008300337e-01
6.191962718963622825e-01,6.348901271820068803e-01,6.514002799987792525e-01,6.687919616699218306e-01,6.871377468109131081e-01,7.065185546875000222e-01,7.270242691040038618e-01,7.487559795379639116e-01,7.542682647705077903e-01,7.541234016418456587e-01,7.539786338806152566e-01,7.538338184356689897e-01,7.536890983581543413e-01,7.535444736480713113e-01,7.533998966217041460e-01,7.532553672790527344e-01,7.531108379364013228e-01,7.529664516448975053e-01,7.528220653533935769e-01,7.526777744293212669e-01,7.525335311889648215e-01,7.523892402648926225e-01,7.522451400756835493e-01,7.521010398864745872e-01,7.519570350646972434e-01,7.518130779266357644e-01,7.516690731048584206e-01,7.515252113342285600e-01,7.513813972473144531e-01,7.512376785278320757e-01,7.510939598083495872e-01,7.509502410888672097e-01,7.508066654205322044e-01,7.506631374359130637e-01,7.505196571350097878e-01,7.503762245178222656e-01,7.502327919006347434e-01,7.500895023345947044e-01,7.499462127685546653e-01,7.498030185699462447e-01,7.496597766876220703e-01,7.495167255401611328e-01,7.493736743927001953e-01,7.492306709289551225e-01,7.490877628326415572e-01,7.489448070526123491e-01,7.488019943237305132e-01,7.486592292785644309e-01,7.485165119171142134e-01,7.483738899230957253e-01,7.482312202453613725e-01,7.480886459350586382e-01,7.479461669921875222e-01,7.478037357330322710e-01,7.476613521575927734e-01,7.475189685821532759e-01,7.473766803741455078e-01,4.964495182037353405e-01,4.774238586425781361e-01,7.469501495361328125e-01,7.468080520629882812e-01,7.466660499572753684e-01,3.637855529785156139e-01,3.582192897796631081e-01,3.576704502105713113e-01,7.460984706878661665e-01,7.459567546844482200e-01,7.458150386810302734e-01,7.456734180450439453e-01,7.455317974090576172e-01,7.453902721405029075e-01,7.452487945556640625e-01,7.451073646545409712e-01,7.449660301208496094e-01,7.448246479034423828e-01,7.446834087371826394e-01,7.445421695709228960e-01,7.444010257720947710e-01,7.442599296569823997e-01,7.434548854827880415e-01
6.167084693908690962e-01,6.166116237640381081e-01,6.165148258209228738e-01,6.164180278778076394e-01,6.163212776184081587e-01,6.162245273590087891e-01,6.161278247833251731e-01,6.160311698913574219e-01,6.159345626831054243e-01,6.158379554748535378e-01,6.157413482666015403e-01,6.156447887420654075e-01,6.155482769012451394e-01,6.154518127441406250e-01,6.153553485870361106e-01,6.152588844299315962e-01,6.151625156402588113e-01,6.150661468505859153e-01,6.149698257446288840e-01,6.148735046386718528e-01,6.147771835327148215e-01,6.146809577941894087e-01,6.145847797393798606e-01,6.144886016845703125e-01,6.143924236297607644e-01,6.142962932586669700e-01,6.142002105712890403e-01,6.141041278839111106e-01,6.140080928802490456e-01,6.139121055603027344e-01,6.138161182403564231e-01,6.137201786041259766e-01,6.136242389678955300e-01,6.135283946990967019e-01,6.134325027465820090e-01,6.133366584777831809e-01,6.132409095764159712e-01,6.131451606750488725e-01,6.130494117736816628e-01,6.129536628723144531e-01,6.128580093383788618e-01,6.127624034881591353e-01,6.126667976379394087e-01,6.125711917877196822e-01,6.124755859374999556e-01,6.123800754547119585e-01,6.122846126556396040e-01,6.121891498565673606e-01,6.120937347412109819e-01,6.119982719421386275e-01,6.119029045104980025e-01,6.118075370788573775e-01,6.117122650146484819e-01,6.116169929504394753e-01,6.115216732025146040e-01,6.114264488220214622e-01,6.113312721252441850e-01,6.112360954284667969e-01,4.692859172821045033e-01,4.730611801147460715e-01,6.109507560729980913e-01,6.108557224273681863e-01,3.666830301284790261e-01,3.609463453292846569e-01,6.105707168579102007e-01,6.104757785797119141e-01,6.103808879852294922e-01,6.102860450744629350e-01,6.101911544799805132e-01,6.100963115692138450e-01,6.100015640258789062e-01,6.099068164825439675e-01,6.098121166229247825e-01,6.097173690795898438e-01,6.096227169036865234e-01,6.095280647277832031e-01,6.094334602355957475e-01,6.093389034271240456e-01,6.092442989349364790e-01,6.091497898101806419e-01
5.210307121276855913e-01,5.209615707397461382e-01,5.208924770355224387e-01,5.208233833312988503e-01,5.207543373107910156e-01,5.206852436065674272e-01,5.206161975860595925e-01,5.205471992492676225e-01,5.204782009124755415e-01,5.204091548919678178e-01,5.203402042388916016e-01,5.202712535858153853e-01,5.202023506164550337e-01,5.201334476470946822e-01,5.200644969940185769e-01,5.199956417083739790e-01,5.199267864227294922e-01,5.198579788208007590e-01,5.197891235351562722e-01,5.197203159332275391e-01,5.196515083312988059e-01,5.195827484130859375e-01,5.195140361785888228e-01,5.194453239440918191e-01,5.193765640258789507e-01,5.193078517913818359e-01,5.192391872406005859e-01,5.191705703735352007e-01,5.191019058227539507e-01,5.190332889556884544e-01,5.189646720886230691e-01,5.188961029052734375e-01,5.188275337219238059e-01,5.187589645385741743e-01,5.186904430389404075e-01,5.186219215393066406e-01,5.185534477233886275e-01,5.184849739074707253e-01,5.184165000915527122e-01,5.183480262756348100e-01,5.182796478271484153e-01,5.182112216949462669e-01,5.181428432464599831e-01,5.180744647979735884e-01,5.180061340332031694e-01,5.179378032684326394e-01,5.178694725036621094e-01,5.178011894226074441e-01,5.177329063415527788e-01,5.176646232604980025e-01,5.175963878631592019e-01,5.175282001495361550e-01,5.174599647521972434e-01,5.173917770385741965e-01,5.173235893249511497e-01,5.172554492950439675e-01,5.171873569488525391e-01,5.171192169189453569e-01,4.595427036285400502e-01,4.588467597961425892e-01,5.169149875640869363e-01,5.168469429016113725e-01,3.689588785171508678e-01,3.599014520645141824e-01,3.553942680358886941e-01,5.165749549865722434e-01,5.165070056915282981e-01,5.164390087127685991e-01,5.163711071014404075e-01,5.163032054901123269e-01,5.162353515625000000e-01,5.161674976348876731e-01,5.160995960235595925e-01,5.160317897796631303e-01,5.159639835357665572e-01,5.158961772918700950e-01,5.158283710479736328e-01,5.157606124877929243e-01,5.156929016113280806e-01,5.156251907348632368e-01
4.510530948638916127e-01,4.510013103485107644e-01,4.509495258331298606e-01,4.508977413177490123e-01,4.508459568023681641e-01,4.507942199707031250e-01,4.507424831390380859e-01,4.506907463073730469e-01,4.506390094757080078e-01,4.505873203277587780e-01,4.505355834960937389e-01,4.504838943481445090e-01,4.504322052001953347e-01,4.503805160522461049e-01,4.503288745880126842e-01,4.502772331237793191e-01,4.502256393432617076e-01,4.501739978790283425e-01,4.501223564147949219e-01,4.500707626342773660e-01,4.500192165374755637e-01,4.499676227569580078e-01,4.499160289764404519e-01,4.498644828796386497e-01,4.498129844665527122e-01,4.497614383697509655e-01,4.497099399566650280e-01,4.496584415435790905e-01,4.496069431304931530e-01,4.495554447174072155e-01,4.495039939880370872e-01,4.494525432586670144e-01,4.494010925292968861e-01,4.493496417999267578e-01,4.492982387542724387e-01,4.492468357086181752e-01,4.491954326629638561e-01,4.491440296173095925e-01,4.490926742553710826e-01,4.490413188934326283e-01,4.489899635314941184e-01,4.489386558532714733e-01,4.488873004913330189e-01,4.488359928131103738e-01,4.487846851348876731e-01,4.487333774566650280e-01,4.486821174621581920e-01,4.486308574676513561e-01,4.485795974731445201e-01,4.485283374786376842e-01,4.484771251678466575e-01,4.484258651733398215e-01,4.483746528625488503e-01,4.483234882354736328e-01,4.482723236083984153e-01,4.482211589813232533e-01,4.481699466705322266e-01,4.481187820434570090e-01,4.480676651000976562e-01,4.480165481567383035e-01,4.479654312133788951e-01,4.479143142700195424e-01,4.478632450103759988e-01,3.551303386688232644e-01,3.479176044464111217e-01,3.438903093338012695e-01,4.476589679718017689e-01,4.476079463958740345e-01,4.475569248199463002e-01,4.475059032440185658e-01,4.474548816680908314e-01,4.474039077758789062e-01,4.473529338836669811e-01,4.473020076751709206e-01,4.472510337829589955e-01,4.472000598907470703e-01,4.471491336822509544e-01,4.470982551574707031e-01,4.470473289489745872e-01,4.469964504241943359e-01
3.976467609405517356e-01,3.976065158843994363e-01,3.975662469863891491e-01,3.975260019302367942e-01,3.974857568740844949e-01,3.974454879760742076e-01,3.974052906036377175e-01,3.973650693893432395e-01,3.973248720169067494e-01,3.972846508026123269e-01,3.972445011138915905e-01,3.972042798995971680e-01,3.971641302108764870e-01,3.971239566802978738e-01,3.970837593078613281e-01,3.970436334609985241e-01,3.970034837722778431e-01,3.969633340835571067e-01,3.969232320785522350e-01,3.968830823898315541e-01,3.968429803848266824e-01,3.968028783798217551e-01,3.967627525329590066e-01,3.967226982116699441e-01,3.966825962066650169e-01,3.966425418853759544e-01,3.966024637222290150e-01,3.965623855590820201e-01,3.965223550796508900e-01,3.964823007583618275e-01,3.964422941207885742e-01,3.964022636413574441e-01,3.963622331619262584e-01,3.963222503662109375e-01,3.962822198867798074e-01,3.962422609329223633e-01,3.962022542953491100e-01,3.961622714996337891e-01,3.961223125457763450e-01,3.960823535919189564e-01,3.960423707962036355e-01,3.960024595260620006e-01,3.959625005722046120e-01,3.959225893020629772e-01,3.958826541900634655e-01,3.958427429199218861e-01,3.958028554916381836e-01,3.957629442214966042e-01,3.957230806350707786e-01,3.956831693649291992e-01,3.956432819366454967e-01,3.956034421920776589e-01,3.955635786056518333e-01,3.955237627029418723e-01,3.954838991165161022e-01,3.954440593719482644e-01,3.954042434692383035e-01,3.953644275665283425e-01,3.953246355056762584e-01,3.952848196029662975e-01,3.952450037002563366e-01,3.952052593231201172e-01,3.951654672622680886e-01,3.471160173416137917e-01,3.391623258590698020e-01,3.332553148269653542e-01,3.290377140045165905e-01,3.274558544158935325e-01,3.949270009994506614e-01,3.948872566223144420e-01,3.948475360870361550e-01,3.948078632354736217e-01,3.947681427001953347e-01,3.947284698486328014e-01,3.946887731552123912e-01,3.946491003036499134e-01,3.946094512939453125e-01,3.945697784423828347e-01,3.945301532745361106e-01,3.944905042648315652e-01
3.555485010147094727e-01,3.555162906646728294e-01,3.554841279983520508e-01,3.554519414901733398e-01,3.554197788238525613e-01,3.553875923156738503e-01,3.553554534912109486e-01,3.553232908248901145e-01,3.552911520004272683e-01,3.552589893341064342e-01,3.552268505096435325e-01,3.551947355270385631e-01,3.551625728607177845e-01,3.551304817199706920e-01,3.550983428955077903e-01,3.550662517547607533e-01,3.550341367721557839e-01,3.550020694732666238e-01,3.549699544906615989e-01,3.549378395080566295e-01,3.549057483673095925e-01,3.548736810684204324e-01,3.548416137695312722e-01,3.548095703124999889e-01,3.547774791717529519e-01,3.547454118728637917e-01,3.547133922576904408e-01,3.546813249588012806e-01,3.546493053436279297e-01,3.546172618865967019e-01,3.545852422714233509e-01,3.545532226562500000e-01,3.545212030410766491e-01,3.544892072677612305e-01,3.544572114944458119e-01,3.544251918792724609e-01,3.543932199478149192e-01,3.543612241744995006e-01,3.543292522430420144e-01,3.542972803115844727e-01,3.542652845382690541e-01,3.542333602905273215e-01,3.542013883590698353e-01,3.541694641113281028e-01,3.541374921798706166e-01,3.541055440902710072e-01,3.540736198425292747e-01,3.540416955947875977e-01,3.540097951889037975e-01,3.539778470993041881e-01,3.539459228515625111e-01,3.539140462875366433e-01,3.538821220397949108e-01,3.538502693176269753e-01,3.538183689117431752e-01,3.537864685058593750e-01,3.537546157836913840e-01,3.537227153778076394e-01,3.536908388137817161e-01,3.536590099334716575e-01,3.536271333694457897e-01,3.535953283309936634e-01,3.535634517669677956e-01,3.535315990447998047e-01,3.534997940063476785e-01,3.534679651260376199e-01,3.534361600875854381e-01,3.534043312072753795e-01,3.533725261688232533e-01,3.533407449722290039e-01,3.533089399337768777e-01,3.532771587371826283e-01,3.532453775405883789e-01,3.532135725021362527e-01,3.531818151473998801e-01,3.531500339508056863e-01,3.531183004379272461e-01,3.530865430831909291e-01,3.530547857284546120e-01,3.530230522155761719e-01
3.215106725692749023e-01,3.214843273162841797e-01,3.214580297470092662e-01,3.214317083358764759e-01,3.214054107666015625e-01,3.213790893554687722e-01,3.213527679443359264e-01,3.213264942169189453e-01,3.213001966476440319e-01,3.212739229202270508e-01,3.212476253509521373e-01,3.212213516235351562e-01,3.211950540542602428e-01,3.211688041687011941e-01,3.211425304412841575e-01,3.211162567138671764e-01,3.210900068283081277e-01,3.210637331008910911e-01,3.210375070571899192e-01,3.210112571716308705e-01,3.209850311279296986e-01,3.209587812423705944e-01,3.209325551986694225e-01,3.209063053131103738e-01,3.208800792694092019e-01,3.208538293838500977e-01,3.208276510238647350e-01,3.208014249801635631e-01,3.207751989364623912e-01,3.207489967346191517e-01,3.207227945327758567e-01,3.206966161727905495e-01,3.206704139709472545e-01,3.206442117691040150e-01,3.206180572509765847e-01,3.205918550491332897e-01,3.205657005310058594e-01,3.205395221710204967e-01,3.205133438110351340e-01,3.204871892929077037e-01,3.204610347747802734e-01,3.204348802566528431e-01,3.204087257385254128e-01,3.203825712203979270e-01,3.203564405441284291e-01,3.203303098678588756e-01,3.203041791915893777e-01,3.202780485153198242e-01,3.202519178390502708e-01,3.202258110046386497e-01,3.201996803283691517e-01,3.201735973358154075e-01,3.201474666595459095e-01,3.201213598251342884e-01,3.200952768325805442e-01,3.200691699981689231e-01,3.200431108474731667e-01,3.200170040130615456e-01,3.199908971786499245e-01,3.199648380279541127e-01,3.199387550354003684e-01,3.199127197265624889e-01,3.198866367340088002e-01,3.198605775833129883e-01,3.198345422744751088e-01,3.198084592819213645e-01,3.197824478149414174e-01,3.197563886642456055e-01,3.197303295135497936e-01,3.197043180465698464e-01,3.196782827377319114e-01,3.196522712707519642e-01,3.196262359619140847e-01,3.196002006530761497e-01,3.195742130279540794e-01,3.195482015609741322e-01,3.195221662521362527e-01,3.194962024688720592e-01,3.194701910018921120e-01,3.194442033767700417e-01
2.934205293655395286e-01,2.933986186981201172e-01,2.933766841888427734e-01,2.933547735214233620e-01,2.933328390121460183e-01,2.933109521865844838e-01,2.932890415191650169e-01,2.932671308517456055e-01,2.932452201843261941e-01,2.932233333587646595e-01,2.932014226913451926e-01,2.931795358657837136e-01,2.931576490402221791e-01,2.931357622146606445e-01,2.931138992309570424e-01,2.930919885635375755e-01,2.930701255798339733e-01,2.930482625961303711e-01,2.930263996124267689e-01,2.930045127868652344e-01,2.929826498031616322e-01,2.929607868194580300e-01,2.929389238357543723e-01,2.929170846939087025e-01,2.928952217102051003e-01,2.928734064102173074e-01,2.928515434265136497e-01,2.928296804428100475e-01,2.928078413009643777e-01,2.927860260009765847e-01,2.927641868591308594e-01,2.927423715591430664e-01,2.927205324172973411e-01,2.926986932754516713e-01,2.926769018173217551e-01,2.926550626754760853e-01,2.926332712173461692e-01,2.926114559173583762e-01,2.925896406173705833e-01,2.925678491592407227e-01,2.925460577011108620e-01,2.925242662429809459e-01,2.925024747848510853e-01,2.924806594848632924e-01,2.924588918685913086e-01,2.924371004104614480e-01,2.924153089523315319e-01,2.923935651779174805e-01,2.923717737197876199e-01,2.923500061035156361e-01,2.923282384872436523e-01,2.923064708709716686e-01,2.922847270965576172e-01,2.922629594802856334e-01,2.922412157058715820e-01,2.922194480895995983e-01,2.921977043151855469e-01,2.921759843826293723e-01,2.921542167663574441e-01,2.921324968338012695e-01,2.921107530593872181e-01,2.920890092849731667e-01,2.920673131942749245e-01,2.920455694198608176e-01,2.920238733291625755e-01,2.920021295547485241e-01,2.919804096221924050e-01,2.919587135314941628e-01,2.919369935989379883e-01,2.919152975082397461e-01,2.918936014175415039e-01,2.918718814849853294e-01,2.918502092361450195e-01,2.918285131454467773e-01,2.918068408966064675e-01,2.917851448059082253e-01,2.917634487152099831e-01,2.917417764663696178e-01,2.917200803756713756e-01,2.916984319686889426e-01
2.698444366455078347e-01,2.698258876800537220e-01,2.698073387145996094e-01,2.697888135910034291e-01,2.697702884674072488e-01,2.697517395019531361e-01,2.697332143783569558e-01,2.697146892547607200e-01,2.696961641311645397e-01,2.696776390075683594e-01,2.696591138839721791e-01,2.696405887603759988e-01,2.696220874786376953e-01,2.696035623550415150e-01,2.695850610733032116e-01,2.695665597915649636e-01,2.695480346679687278e-01,2.695295572280883567e-01,2.695110321044921764e-01,2.694925546646118053e-01,2.694740533828735574e-01,2.694555759429931863e-01,2.694370746612548828e-01,2.694185972213745117e-01,2.694001197814941406e-01,2.693816184997558372e-01,2.693631410598754661e-01,2.693446636199950950e-01,2.693262100219726562e-01,2.693077087402343528e-01,2.692892551422119141e-01,2.692707538604736106e-01,2.692523002624511719e-01,2.692338466644287331e-01,2.692153930664062389e-01,2.691969156265258678e-01,2.691784620285034291e-01,2.691600322723388672e-01,2.691415548324584961e-01,2.691231250762939342e-01,2.691046714782714955e-01,2.690862178802490012e-01,2.690677881240844949e-01,2.690493583679199330e-01,2.690309286117553711e-01,2.690124750137329324e-01,2.689940452575683705e-01,2.689756393432617410e-01,2.689572095870971791e-01,2.689387798309326172e-01,2.689203500747680553e-01,2.689019441604614258e-01,2.688835382461547963e-01,2.688651084899902344e-01,2.688467025756836049e-01,2.688282966613769753e-01,2.688098907470702903e-01,2.687914848327636608e-01,2.687730789184570312e-01,2.687546968460082786e-01,2.687362909317016491e-01,2.687178850173950195e-01,2.686995267868041992e-01,2.686811208724975697e-01,2.686627388000488170e-01,2.686443567276001199e-01,2.686259746551513672e-01,2.686076164245605469e-01,2.685892105102539174e-01,2.685708522796630970e-01,2.685524940490722767e-01,2.685341119766235241e-01,2.685157537460327037e-01,2.684973955154418834e-01,2.684790134429931863e-01,2.684606790542602428e-01,2.684422969818115456e-01,2.684239625930786022e-01,2.684056043624877819e-01,2.683872461318969616e-01
2.497751951217651312e-01,2.497593164443969727e-01,2.497434377670288141e-01,2.497275590896606556e-01,2.497116804122924694e-01,2.496957778930664062e-01,2.496799230575561523e-01,2.496640443801879938e-01,2.496481657028198353e-01,2.496322870254516491e-01,2.496164083480834905e-01,2.496005535125732366e-01,2.495846748352050781e-01,2.495688438415527288e-01,2.495529651641845703e-01,2.495371103286743164e-01,2.495212554931640625e-01,2.495054006576538086e-01,2.494895458221435547e-01,2.494736909866333008e-01,2.494578361511230469e-01,2.494419813156127930e-01,2.494261503219604437e-01,2.494102954864501898e-01,2.493944644927978405e-01,2.493786096572875866e-01,2.493628025054931696e-01,2.493469476699829157e-01,2.493311166763305664e-01,2.493152856826782171e-01,2.492994546890258678e-01,2.492836236953735463e-01,2.492677927017211970e-01,2.492519855499267523e-01,2.492361307144164984e-01,2.492203235626220814e-01,2.492044925689697321e-01,2.491887092590331920e-01,2.491728782653808705e-01,2.491570472717285212e-01,2.491412639617919811e-01,2.491254329681396595e-01,2.491096496582031194e-01,2.490938425064087025e-01,2.490780353546142578e-01,2.490622282028198131e-01,2.490464210510253962e-01,2.490306377410888561e-01,2.490148544311523438e-01,2.489990472793578991e-01,2.489832639694213867e-01,2.489674806594848744e-01,2.489516973495483343e-01,2.489359140396118220e-01,2.489201068878173773e-01,2.489043474197387695e-01,2.488885641098022572e-01,2.488728046417236217e-01,2.488570213317871094e-01,2.488412380218505970e-01,2.488254785537719616e-01,2.488096952438354492e-01,2.487939596176147461e-01,2.487781763076782338e-01,2.487624168395995983e-01,2.487466573715209905e-01,2.487308979034423828e-01,2.487151384353637751e-01,2.486993789672851674e-01,2.486836194992065319e-01,2.486678838729858287e-01,2.486521482467651256e-01,2.486364126205444225e-01,2.486206531524658148e-01,2.486048936843872070e-01,2.485891819000244085e-01,2.485734224319458008e-01,2.485577106475830023e-01,2.485419511795043945e-01,2.485262155532836914e-01
2.324845790863037109e-01,2.324707984924316295e-01,2.324570417404174805e-01,2.324432849884033314e-01,2.324295282363891546e-01,2.324157714843750056e-01,2.324019908905029241e-01,2.323882579803466797e-01,2.323745012283325306e-01,2.323607444763183538e-01,2.323469877243042048e-01,2.323332548141479603e-01,2.323194980621337835e-01,2.323057651519775391e-01,2.322920083999633900e-01,2.322782754898071178e-01,2.322645425796508734e-01,2.322507858276367243e-01,2.322370529174804799e-01,2.322233200073242076e-01,2.322095870971679632e-01,2.321958541870117188e-01,2.321821451187133789e-01,2.321683883666992299e-01,2.321546554565429576e-01,2.321409463882446178e-01,2.321272134780883734e-01,2.321135044097900335e-01,2.320997714996337891e-01,2.320860624313354492e-01,2.320723295211792048e-01,2.320586442947387695e-01,2.320449113845825251e-01,2.320312023162841852e-01,2.320174932479858454e-01,2.320037841796875056e-01,2.319900751113891657e-01,2.319763660430908259e-01,2.319626569747924860e-01,2.319489479064941462e-01,2.319352388381958063e-01,2.319215536117553711e-01,2.319078445434570312e-01,2.318941593170165960e-01,2.318804502487182562e-01,2.318667650222778209e-01,2.318530559539794811e-01,2.318393945693969782e-01,2.318256855010986384e-01,2.318120002746582031e-01,2.317983150482177679e-01,2.317846298217773326e-01,2.317709445953369252e-01,2.317572593688964899e-01,2.317435741424560547e-01,2.317299127578735241e-01,2.317162275314331166e-01,2.317025423049926813e-01,2.316888809204101507e-01,2.316752195358276478e-01,2.316615581512451172e-01,2.316478729248046819e-01,2.316342115402221791e-01,2.316205501556396484e-01,2.316068887710571178e-01,2.315932273864746149e-01,2.315795660018920843e-01,2.315659046173095814e-01,2.315522670745849554e-01,2.315386056900024525e-01,2.315249443054199219e-01,2.315113067626953236e-01,2.314976453781127930e-01,2.314840078353881947e-01,2.314703464508056641e-01,2.314567089080810658e-01,2.314430713653564398e-01,2.314294099807739369e-01,2.314157724380493109e-01,2.314021348953247126e-01
2.174328088760376088e-01,2.174207687377929799e-01,2.174087285995483509e-01,2.173966884613037220e-01,2.173846483230590931e-01,2.173726320266723688e-01,2.173605918884277399e-01,2.173485755920410156e-01,2.173365354537963867e-01,2.173244953155517578e-01,2.173124790191650335e-01,2.173004388809204046e-01,2.172884225845336803e-01,2.172763824462890514e-01,2.172643899917602595e-01,2.172523498535156306e-01,2.172403335571289062e-01,2.172283172607421819e-01,2.172163009643554576e-01,2.172042846679687611e-01,2.171922683715820368e-01,2.171802520751953125e-01,2.171682357788085882e-01,2.171562433242797963e-01,2.171442270278930720e-01,2.171322345733642523e-01,2.171202182769775280e-01,2.171082019805908314e-01,2.170962095260620117e-01,2.170841932296752874e-01,2.170722007751464955e-01,2.170601844787597712e-01,2.170482158660888561e-01,2.170361995697021595e-01,2.170242071151733398e-01,2.170122146606445201e-01,2.170002222061157282e-01,2.169882297515869085e-01,2.169762372970581166e-01,2.169642448425292969e-01,2.169522523880004772e-01,2.169402837753295898e-01,2.169282674789428655e-01,2.169162988662719782e-01,2.169043064117431585e-01,2.168923377990722712e-01,2.168803453445434515e-01,2.168683528900146595e-01,2.168563842773437444e-01,2.168444156646728571e-01,2.168324470520019420e-01,2.168204545974731501e-01,2.168084859848022350e-01,2.167965173721313477e-01,2.167845487594604603e-01,2.167725801467895452e-01,2.167606115341186579e-01,2.167486429214477428e-01,2.167366981506347601e-01,2.167247295379638727e-01,2.167127609252929576e-01,2.167007923126220703e-01,2.166888236999511830e-01,2.166768789291381725e-01,2.166649341583251898e-01,2.166529655456543024e-01,2.166410207748413197e-01,2.166290521621704046e-01,2.166171073913574219e-01,2.166051626205444391e-01,2.165931940078735241e-01,2.165812730789184459e-01,2.165693044662475586e-01,2.165573835372924805e-01,2.165454149246215931e-01,2.165334701538085826e-01,2.165215492248535045e-01,2.165096044540405218e-01,2.164976596832275391e-01,2.164857387542724609e-01
2.042115449905395619e-01,2.042009115219116100e-01,2.041903018951415905e-01,2.041796922683715709e-01,2.041690587997436468e-01,2.041584491729736273e-01,2.041478395462036077e-01,2.041372060775756836e-01,2.041266202926635687e-01,2.041159868240356445e-01,2.041053771972656250e-01,2.040947675704956055e-01,2.040841817855834905e-01,2.040735721588134710e-01,2.040629386901855469e-01,2.040523529052734319e-01,2.040417432785034124e-01,2.040311574935912975e-01,2.040205478668212780e-01,2.040099382400512584e-01,2.039993524551391713e-01,2.039887428283691517e-01,2.039781570434570368e-01,2.039675712585449219e-01,2.039569616317749023e-01,2.039463520050048828e-01,2.039357662200927679e-01,2.039251804351806530e-01,2.039145946502685658e-01,2.039040088653564509e-01,2.038934230804443359e-01,2.038828372955322210e-01,2.038722515106201061e-01,2.038616657257080189e-01,2.038510799407959040e-01,2.038404941558837891e-01,2.038299083709716741e-01,2.038193225860595592e-01,2.038087606430053766e-01,2.037981748580932617e-01,2.037875890731811468e-01,2.037770271301269642e-01,2.037664413452148493e-01,2.037558555603027344e-01,2.037452936172485241e-01,2.037347316741943415e-01,2.037241458892822266e-01,2.037135839462280162e-01,2.037030220031738337e-01,2.036924362182617188e-01,2.036818742752075084e-01,2.036713123321533259e-01,2.036607503890991155e-01,2.036501884460449330e-01,2.036396265029907227e-01,2.036290407180786077e-01,2.036185026168823298e-01,2.036079406738281194e-01,2.035973787307739369e-01,2.035868167877197266e-01,2.035762548446655162e-01,2.035657167434692383e-01,2.035551548004150280e-01,2.035446166992187500e-01,2.035340547561645397e-01,2.035234928131103571e-01,2.035129547119140514e-01,2.035023927688598688e-01,2.034918546676635631e-01,2.034813165664672852e-01,2.034707546234130748e-01,2.034602165222167969e-01,2.034496784210205189e-01,2.034391403198242132e-01,2.034286022186279352e-01,2.034180641174316295e-01,2.034075260162353516e-01,2.033969879150390736e-01,2.033864498138427679e-01,2.033759117126464899e-01
1.925059914588928278e-01,1.924965381622314453e-01,1.924871087074279674e-01,1.924776673316955511e-01,1.924682378768921009e-01,1.924587965011596569e-01,1.924493670463562067e-01,1.924399375915527288e-01,1.924305200576782171e-01,1.924210667610168346e-01,1.924116492271423229e-01,1.924022197723388727e-01,1.923927783966064564e-01,1.923833608627319447e-01,1.923739433288574330e-01,1.923645257949829213e-01,1.923550844192504772e-01,1.923456668853759655e-01,1.923362493515014537e-01,1.923268198966980036e-01,1.923174023628234919e-01,1.923079848289489802e-01,1.922985792160034069e-01,1.922891497611999567e-01,1.922797322273254450e-01,1.922703266143798717e-01,1.922609210014343262e-01,1.922514915466308483e-01,1.922420859336853027e-01,1.922326803207397572e-01,1.922232508659362793e-01,1.922138452529907338e-01,1.922044396400451605e-01,1.921950459480285534e-01,1.921856164932251032e-01,1.921762228012084961e-01,1.921668171882629506e-01,1.921574234962463434e-01,1.921480059623718317e-01,1.921386003494262584e-01,1.921292066574096791e-01,1.921197891235351674e-01,1.921103954315185602e-01,1.921010017395019531e-01,1.920916199684143122e-01,1.920822024345398005e-01,1.920728087425231934e-01,1.920634269714355524e-01,1.920540094375610407e-01,1.920446276664733998e-01,1.920352220535278265e-01,1.920258283615112194e-01,1.920164465904235784e-01,1.920070648193359375e-01,1.919976592063903920e-01,1.919882774353027233e-01,1.919788956642150823e-01,1.919695019721984752e-01,1.919601202011108343e-01,1.919507384300231934e-01,1.919413447380065862e-01,1.919319629669189453e-01,1.919225931167602428e-01,1.919131875038146973e-01,1.919038176536559948e-01,1.918944478034973200e-01,1.918850779533386175e-01,1.918756842613220104e-01,1.918663144111633356e-01,1.918569445610046331e-01,1.918475508689880260e-01,1.918381810188293513e-01,1.918288230895996149e-01,1.918194293975830078e-01,1.918100714683532715e-01,1.918007016181945690e-01,1.917913436889648326e-01,1.917819619178771917e-01,1.917725920677185170e-01,1.917632341384887806e-01
1.820696115493774525e-01,1.820611596107482855e-01,1.820527195930480846e-01,1.820442914962768499e-01,1.820358514785766491e-01,1.820273995399475098e-01,1.820189714431762751e-01,1.820105314254760742e-01,1.820020794868469349e-01,1.819936513900756725e-01,1.819852232933044378e-01,1.819767951965332031e-01,1.819683432579040638e-01,1.819599151611328014e-01,1.819514989852905329e-01,1.819430470466613659e-01,1.819346189498901312e-01,1.819262027740478627e-01,1.819177746772766002e-01,1.819093346595764271e-01,1.819009184837341309e-01,1.818924903869628962e-01,1.818840742111205999e-01,1.818756341934203991e-01,1.818672180175781306e-01,1.818588018417358343e-01,1.818503618240356334e-01,1.818419456481933649e-01,1.818335294723510687e-01,1.818251132965088002e-01,1.818166851997375377e-01,1.818082690238952692e-01,1.817998528480529730e-01,1.817914247512817383e-01,1.817830085754394420e-01,1.817746043205261119e-01,1.817661881446838434e-01,1.817577719688415472e-01,1.817493557929992787e-01,1.817409515380859486e-01,1.817325472831726185e-01,1.817241191864013561e-01,1.817157149314880260e-01,1.817073106765746959e-01,1.816988945007324274e-01,1.816904902458190973e-01,1.816820859909057673e-01,1.816736817359924372e-01,1.816652655601501409e-01,1.816568732261657770e-01,1.816484689712524470e-01,1.816400766372680553e-01,1.816316604614257868e-01,1.816232442855834905e-01,1.816148400306701605e-01,1.816064476966857966e-01,1.815980553627014049e-01,1.815896511077880748e-01,1.815812468528747448e-01,1.815728664398193470e-01,1.815644502639770508e-01,1.815560579299926869e-01,1.815476775169372614e-01,1.815392613410949652e-01,1.815308809280395397e-01,1.815224885940551758e-01,1.815141081809997503e-01,1.815057039260864202e-01,1.814973115921020563e-01,1.814889311790466309e-01,1.814805269241333008e-01,1.814721465110778753e-01,1.814637660980224498e-01,1.814553618431091198e-01,1.814469933509826605e-01,1.814386129379272350e-01,1.814302086830139049e-01,1.814218282699585072e-01,1.814134597778320201e-01,1.814050793647766224e-01
1.727066159248352162e-01,1.726990222930908092e-01,1.726914286613464300e-01,1.726838350296020508e-01,1.726762294769287054e-01,1.726686477661132924e-01,1.726610541343688854e-01,1.726534724235534723e-01,1.726458668708801270e-01,1.726382851600646862e-01,1.726306915283203069e-01,1.726230978965759277e-01,1.726155042648315485e-01,1.726079225540161077e-01,1.726003408432006947e-01,1.725927472114562877e-01,1.725851655006408747e-01,1.725775837898254339e-01,1.725700020790100209e-01,1.725624084472656139e-01,1.725548267364502009e-01,1.725472450256347601e-01,1.725396513938903809e-01,1.725320816040039062e-01,1.725244998931884655e-01,1.725169301033019909e-01,1.725093364715576116e-01,1.725017547607421986e-01,1.724941849708557240e-01,1.724866032600402832e-01,1.724790215492248424e-01,1.724714517593383678e-01,1.724638819694518932e-01,1.724563002586364802e-01,1.724487304687500056e-01,1.724411606788635309e-01,1.724335908889770563e-01,1.724260091781616155e-01,1.724184393882751409e-01,1.724108695983886663e-01,1.724032878875732533e-01,1.723957300186157171e-01,1.723881602287292425e-01,1.723806023597717341e-01,1.723730206489562933e-01,1.723654627799987848e-01,1.723578929901123102e-01,1.723503351211547741e-01,1.723427534103393610e-01,1.723351955413818248e-01,1.723276376724243164e-01,1.723200678825378418e-01,1.723125100135803334e-01,1.723049521446227972e-01,1.722973942756652888e-01,1.722898244857788141e-01,1.722822666168212780e-01,1.722746968269348034e-01,1.722671389579772949e-01,1.722595930099487249e-01,1.722520232200622503e-01,1.722444653511047419e-01,1.722369194030761719e-01,1.722293496131896973e-01,1.722218036651611273e-01,1.722142577171325573e-01,1.722066879272460826e-01,1.721991419792175404e-01,1.721915960311889704e-01,1.721840500831604004e-01,1.721764802932739258e-01,1.721689462661743220e-01,1.721614003181457520e-01,1.721538305282592773e-01,1.721462965011596735e-01,1.721387505531311035e-01,1.721311926841735951e-01,1.721236467361450251e-01,1.721161127090454213e-01,1.721085667610168513e-01
1.642595171928405706e-01,1.642526507377624623e-01,1.642457842826843262e-01,1.642389178276061901e-01,1.642320394515991155e-01,1.642251729965210072e-01,1.642183065414428711e-01,1.642114281654357966e-01,1.642045736312866266e-01,1.641977071762084905e-01,1.641908407211303822e-01,1.641839742660522461e-01,1.641771078109741100e-01,1.641702532768249401e-01,1.641633749008178655e-01,1.641565203666686956e-01,1.641496539115905873e-01,1.641427993774414174e-01,1.641359210014343151e-01,1.641290664672851451e-01,1.641222119331359752e-01,1.641153573989868053e-01,1.641084909439086970e-01,1.641016364097595270e-01,1.640947818756103571e-01,1.640879154205322210e-01,1.640810608863830511e-01,1.640742063522338812e-01,1.640673637390136774e-01,1.640604972839355413e-01,1.640536427497863714e-01,1.640467882156372015e-01,1.640399456024169977e-01,1.640330791473388616e-01,1.640262365341186579e-01,1.640193819999694880e-01,1.640125155448913519e-01,1.640056729316711481e-01,1.639988303184509166e-01,1.639919877052307129e-01,1.639851212501525768e-01,1.639782786369323730e-01,1.639714360237121693e-01,1.639645814895629994e-01,1.639577388763427679e-01,1.639508962631225641e-01,1.639440536499023326e-01,1.639371991157531627e-01,1.639303565025329590e-01,1.639235138893127552e-01,1.639166831970214899e-01,1.639098286628723200e-01,1.639029860496520885e-01,1.638961553573608509e-01,1.638893008232116810e-01,1.638824582099914495e-01,1.638756275177001842e-01,1.638687968254089466e-01,1.638619422912597767e-01,1.638551115989685114e-01,1.638482570648193415e-01,1.638414263725280762e-01,1.638345956802368109e-01,1.638277530670166071e-01,1.638209223747253418e-01,1.638140916824340765e-01,1.638072371482849066e-01,1.638004064559936412e-01,1.637935876846313421e-01,1.637867450714111384e-01,1.637799143791198730e-01,1.637730836868286077e-01,1.637662649154663086e-01,1.637594223022461049e-01,1.637525916099548395e-01,1.637457728385925404e-01,1.637389302253723089e-01,1.637320995330810436e-01,1.637252807617187444e-01,1.637184381484985407e-01
1.566001892089843861e-01,1.565939545631408747e-01,1.565877079963683971e-01,1.565814614295959473e-01,1.565752148628234974e-01,1.565689802169799860e-01,1.565627455711364746e-01,1.565564870834350586e-01,1.565502524375915472e-01,1.565440177917480358e-01,1.565377593040466198e-01,1.565315246582031361e-01,1.565252900123596247e-01,1.565190553665161133e-01,1.565128087997436634e-01,1.565065741539001520e-01,1.565003395080566406e-01,1.564941048622131292e-01,1.564878582954406794e-01,1.564816236495971680e-01,1.564753890037536566e-01,1.564691424369812067e-01,1.564629077911376953e-01,1.564566850662231501e-01,1.564504504203796387e-01,1.564442038536071888e-01,1.564379811286926159e-01,1.564317464828491322e-01,1.564255118370056208e-01,1.564192771911621094e-01,1.564130544662475641e-01,1.564068317413330189e-01,1.564005851745605413e-01,1.563943624496459961e-01,1.563881397247314509e-01,1.563819169998169056e-01,1.563756704330444280e-01,1.563694477081298828e-01,1.563632249832153376e-01,1.563569903373718262e-01,1.563507676124572809e-01,1.563445448875427357e-01,1.563383221626281627e-01,1.563320875167846791e-01,1.563258647918701061e-01,1.563196539878845270e-01,1.563134312629699818e-01,1.563071966171264704e-01,1.563009858131408636e-01,1.562947630882263184e-01,1.562885284423828069e-01,1.562823176383972279e-01,1.562760949134826549e-01,1.562698841094970759e-01,1.562636494636535645e-01,1.562574386596679576e-01,1.562512278556823786e-01,1.562449932098388672e-01,1.562387824058532604e-01,1.562325716018676813e-01,1.562263607978820745e-01,1.562201261520385631e-01,1.562139272689819225e-01,1.562077045440673773e-01,1.562014818191528320e-01,1.561952710151672252e-01,1.561890482902526800e-01,1.561828494071960394e-01,1.561766386032104603e-01,1.561704158782958873e-01,1.561642050743103083e-01,1.561579942703247015e-01,1.561517953872680609e-01,1.561455726623535156e-01,1.561393737792968750e-01,1.561331629753112682e-01,1.561269402503967230e-01,1.561207413673400823e-01,1.561145424842834417e-01,1.561083197593688965e-01
1.496233463287353627e-01,1.496176481246948298e-01,1.496119499206542969e-01,1.496062397956848256e-01,1.496005415916442927e-01,1.495948433876037598e-01,1.495891332626342884e-01,1.495834469795226940e-01,1.495777487754821888e-01,1.495720505714416559e-01,1.495663523674011230e-01,1.495606541633605902e-01,1.495549678802490234e-01,1.495492696762084905e-01,1.495435595512390192e-01,1.495378732681274525e-01,1.495321869850158580e-01,1.495264768600463867e-01,1.495207905769348200e-01,1.495150923728942871e-01,1.495094060897827204e-01,1.495037078857421875e-01,1.494980216026306208e-01,1.494923353195190541e-01,1.494866251945495550e-01,1.494809389114379883e-01,1.494752526283264216e-01,1.494695663452148549e-01,1.494638681411743220e-01,1.494581818580627552e-01,1.494524955749511608e-01,1.494468092918395941e-01,1.494411110877990612e-01,1.494354367256164606e-01,1.494297504425048939e-01,1.494240522384643610e-01,1.494183659553527943e-01,1.494126915931701660e-01,1.494070053100585993e-01,1.494013071060180664e-01,1.493956327438354381e-01,1.493899464607238714e-01,1.493842720985412709e-01,1.493785738945007380e-01,1.493728995323181097e-01,1.493672251701355091e-01,1.493615269660949763e-01,1.493558526039123480e-01,1.493501782417297474e-01,1.493445038795471191e-01,1.493388056755065862e-01,1.493331313133239857e-01,1.493274569511413574e-01,1.493217706680297907e-01,1.493160963058471624e-01,1.493104219436645619e-01,1.493047475814819336e-01,1.492990612983703669e-01,1.492933869361877386e-01,1.492877125740051381e-01,1.492820382118225098e-01,1.492763519287109431e-01,1.492706894874572809e-01,1.492650151252746527e-01,1.492593288421630859e-01,1.492536664009094238e-01,1.492479920387267955e-01,1.492423176765441950e-01,1.492366433143615667e-01,1.492309570312500000e-01,1.492252945899963379e-01,1.492196202278137096e-01,1.492139458656311091e-01,1.492082715034484808e-01,1.492026090621948187e-01,1.491969466209411566e-01,1.491912722587585560e-01,1.491855978965759277e-01,1.491799354553222656e-01,1.491742610931396373e-01
