6.196552276611327903e-01,6.353709697723388672e-01,6.519045829772949219e-01,6.693216800689697488e-01,6.876950263977050781e-01,7.071055412292480691e-01,7.276436328887939675e-01,7.494104862213134544e-01,7.725197792053222212e-01,7.970996379852295366e-01,8.232951164245605469e-01,8.512707710266113059e-01,8.812145233154297097e-01,1.000000000000000000e+00,1.000000000000000000e+00,1.000000000000000000e+00,1.000000000000000000e+00,1.000000000000000000e+00,1.000000000000000000e+00,1.000000000000000000e+00,1.000000000000000000e+00,1.000000000000000000e+00,1.000000000000000000e+00,1.000000000000000000e+00,1.000000000000000000e+00,1.000000000000000000e+00,1.000000000000000000e+00,1.000000000000000000e+00,1.000000000000000000e+00,1.000000000000000000e+00,1.000000000000000000e+00,1.000000000000000000e+00,1.000000000000000000e+00,1.000000000000000000e+00,1.000000000000000000e+00,1.000000000000000000e+00,1.000000000000000000e+00,1.000000000000000000e+00,1.000000000000000000e+00,1.000000000000000000e+00,1.000000000000000000e+00,1.000000000000000000e+00,1.000000000000000000e+00,1.000000000000000000e+00,1.000000000000000000e+00,1.000000000000000000e+00,1.000000000000000000e+00,1.000000000000000000e+00,1.000000000000000000e+00,1.000000000000000000e+00,1.000000000000000000e+00,1.000000000000000000e+00,1.000000000000000000e+00,1.000000000000000000e+00,1.000000000000000000e+00,1.000000000000000000e+00,1.000000000000000000e+00,1.000000000000000000e+00,1.000000000000000000e+00,1.000000000000000000e+00,1.000000000000000000e+00,1.000000000000000000e+00,1.000000000000000000e+00,1.000000000000000000e+00,2.436724901199340820e-01,2.323748826980590876e-01,2.284713029861450140e-01,2.244784832000732422e-01,2.228322744369506947e-01,2.395128726959228627e-01,2.379394054412841686e-01,2.363865137100219782e-01,2.348537445068359375e-01,2.373919486999511719e-01,2.383057832717895563e-01,2.376983404159545843e-01,2.379967451095580944e-01,2.377106189727783148e-01,2.347984552383422796e-01,2.315307617187500056e-01
6.196434497833251953e-01,6.353585720062255859e-01,6.518915653228759544e-01,6.693079471588134766e-01,6.876805305480957475e-01,7.070901870727539507e-01,7.276273727416991965e-01,7.493932723999023882e-01,7.725014686584472656e-01,7.970801353454589622e-01,8.232743263244628462e-01,8.512485504150391069e-01,8.811906814575195535e-01,9.133161544799804910e-01,1.000000000000000000e+00,1.000000000000000000e+00,1.000000000000000000e+00,1.000000000000000000e+00,1.000000000000000000e+00,1.000000000000000000e+00,1.000000000000000000e+00,1.000000000000000000e+00,1.000000000000000000e+00,1.000000000000000000e+00,1.000000000000000000e+00,1.000000000000000000e+00,1.000000000000000000e+00,1.000000000000000000e+00,1.000000000000000000e+00,1.000000000000000000e+00,1.000000000000000000e+00,1.000000000000000000e+00,1.000000000000000000e+00,1.000000000000000000e+00,1.000000000000000000e+00,1.000000000000000000e+00,1.000000000000000000e+00,1.000000000000000000e+00,1.000000000000000000e+00,1.000000000000000000e+00,1.000000000000000000e+00,1.000000000000000000e+00,1.000000000000000000e+00,1.000000000000000000e+00,1.000000000000000000e+00,1.000000000000000000e+00,1.000000000000000000e+00,1.000000000000000000e+00,1.000000000000000000e+00,1.000000000000000000e+00,1.000000000000000000e+00,1.000000000000000000e+00,1.000000000000000000e+00,1.000000000000000000e+00,1.000000000000000000e+00,1.000000000000000000e+00,1.000000000000000000e+00,1.000000000000000000e+00,1.000000000000000000e+00,1.000000000000000000e+00,1.000000000000000000e+00,1.000000000000000000e+00,1.000000000000000000e+00,1.000000000000000000e+00,1.000000000000000000e+00,2.316965341567993053e-01,2.266182661056518610e-01,2.248639345169067272e-01,2.257555484771728571e-01,2.390172243118286188e-01,2.376859426498413030e-01,2.362636089324951227e-01,2.348582029342651256e-01,2.369302034378051869e-01,2.404572963714599609e-01,2.414448738098144420e-01,2.394106388092041016e-01,2.342045068740844782e-01,2.302039146423339733e-01,2.276084661483764593e-01
6.196316719055176003e-01,6.353461742401123047e-01,6.518784999847412331e-01,6.692941665649414507e-01,6.876659870147705522e-01,7.070748329162597212e-01,7.276111602783202903e-01,7.493760108947753462e-01,7.724831581115723100e-01,7.970606327056884988e-01,8.232535362243652566e-01,8.512263298034667969e-01,8.811669349670410156e-01,9.132905006408691406e-01,9.478448867797851785e-01,1.000000000000000000e+00,1.000000000000000000e+00,1.000000000000000000e+00,1.000000000000000000e+00,1.000000000000000000e+00,1.000000000000000000e+00,1.000000000000000000e+00,1.000000000000000000e+00,1.000000000000000000e+00,1.000000000000000000e+00,1.000000000000000000e+00,1.000000000000000000e+00,1.000000000000000000e+00,1.000000000000000000e+00,1.000000000000000000e+00,1.000000000000000000e+00,1.000000000000000000e+00,1.000000000000000000e+00,1.000000000000000000e+00,1.000000000000000000e+00,1.000000000000000000e+00,1.000000000000000000e+00,1.000000000000000000e+00,1.000000000000000000e+00,1.000000000000000000e+00,1.000000000000000000e+00,1.000000000000000000e+00,1.000000000000000000e+00,1.000000000000000000e+00,1.000000000000000000e+00,1.000000000000000000e+00,1.000000000000000000e+00,1.000000000000000000e+00,1.000000000000000000e+00,1.000000000000000000e+00,1.000000000000000000e+00,1.000000000000000000e+00,1.000000000000000000e+00,1.000000000000000000e+00,1.000000000000000000e+00,1.000000000000000000e+00,1.000000000000000000e+00,1.000000000000000000e+00,1.000000000000000000e+00,1.000000000000000000e+00,1.000000000000000000e+00,1.000000000000000000e+00,1.000000000000000000e+00,1.000000000000000000e+00,1.000000000000000000e+00,2.318655014038085993e-01,2.263894796371460072e-01,2.219173192977905162e-01,2.187383413314819280e-01,2.166603803634643555e-01,2.156484842300415150e-01,2.358496427536010687e-01,2.344491243362426813e-01,2.362463951110839733e-01,2.402045488357544001e-01,2.432218790054321289e-01,2.380060434341430553e-01,2.332647085189819280e-01,2.290612936019897350e-01,2.262062549591064564e-01
6.196195125579834206e-01,6.353337764739990234e-01,6.518654823303222656e-01,6.692804336547851785e-01,6.876514911651611106e-01,7.070594787597656028e-01,7.275949001312256303e-01,7.493587970733642800e-01,7.724648475646972434e-01,7.970411300659179243e-01,8.232327461242675559e-01,8.512041091918944868e-01,8.811430931091308594e-01,9.132649421691894087e-01,9.478173255920410156e-01,9.850872039794922319e-01,1.000000000000000000e+00,1.000000000000000000e+00,1.000000000000000000e+00,1.000000000000000000e+00,1.000000000000000000e+00,1.000000000000000000e+00,1.000000000000000000e+00,1.000000000000000000e+00,1.000000000000000000e+00,1.000000000000000000e+00,1.000000000000000000e+00,1.000000000000000000e+00,1.000000000000000000e+00,1.000000000000000000e+00,1.000000000000000000e+00,1.000000000000000000e+00,1.000000000000000000e+00,1.000000000000000000e+00,1.000000000000000000e+00,1.000000000000000000e+00,1.000000000000000000e+00,1.000000000000000000e+00,1.000000000000000000e+00,1.000000000000000000e+00,1.000000000000000000e+00,1.000000000000000000e+00,1.000000000000000000e+00,1.000000000000000000e+00,1.000000000000000000e+00,1.000000000000000000e+00,1.000000000000000000e+00,1.000000000000000000e+00,1.000000000000000000e+00,1.000000000000000000e+00,1.000000000000000000e+00,1.000000000000000000e+00,1.000000000000000000e+00,1.000000000000000000e+00,1.000000000000000000e+00,1.000000000000000000e+00,1.000000000000000000e+00,1.000000000000000000e+00,1.000000000000000000e+00,1.000000000000000000e+00,1.000000000000000000e+00,1.000000000000000000e+00,1.000000000000000000e+00,1.000000000000000000e+00,1.000000000000000000e+00,2.333123445510864313e-01,2.245480060577392523e-01,2.193695783615112194e-01,2.140615463256835826e-01,2.117952108383178711e-01,2.137095689773559626e-01,2.103141307830810602e-01,2.340414762496948187e-01,2.351117134094238281e-01,2.393357992172241155e-01,2.416804552078247181e-01,2.370927572250366155e-01,2.327508926391601562e-01,2.288813114166259877e-01,2.251040935516357422e-01
6.196062088012694868e-01,6.353210926055907759e-01,6.518524169921875444e-01,6.692667007446289062e-01,6.876369953155517800e-01,7.070441722869873491e-01,7.275786399841308594e-01,7.493415355682373491e-01,7.724465370178222878e-01,7.970217227935790794e-01,8.232118606567382368e-01,8.511817932128906694e-01,8.811192512512207031e-01,9.132392883300781694e-01,9.477897644042968528e-01,9.850573539733886719e-01,1.000000000000000000e+00,1.000000000000000000e+00,1.000000000000000000e+00,1.000000000000000000e+00,1.000000000000000000e+00,1.000000000000000000e+00,1.000000000000000000e+00,1.000000000000000000e+00,1.000000000000000000e+00,1.000000000000000000e+00,1.000000000000000000e+00,1.000000000000000000e+00,1.000000000000000000e+00,1.000000000000000000e+00,1.000000000000000000e+00,1.000000000000000000e+00,1.000000000000000000e+00,1.000000000000000000e+00,1.000000000000000000e+00,1.000000000000000000e+00,1.000000000000000000e+00,1.000000000000000000e+00,1.000000000000000000e+00,1.000000000000000000e+00,1.000000000000000000e+00,1.000000000000000000e+00,1.000000000000000000e+00,1.000000000000000000e+00,1.000000000000000000e+00,1.000000000000000000e+00,1.000000000000000000e+00,1.000000000000000000e+00,1.000000000000000000e+00,1.000000000000000000e+00,1.000000000000000000e+00,1.000000000000000000e+00,1.000000000000000000e+00,1.000000000000000000e+00,1.000000000000000000e+00,1.000000000000000000e+00,1.000000000000000000e+00,1.000000000000000000e+00,1.000000000000000000e+00,1.000000000000000000e+00,1.000000000000000000e+00,1.000000000000000000e+00,1.000000000000000000e+00,1.000000000000000000e+00,1.000000000000000000e+00,2.624439954757690208e-01,2.231724500656127874e-01,2.169846534729003851e-01,2.133229017257690374e-01,2.089729070663452204e-01,2.165083169937133678e-01,2.083444595336914062e-01,2.083097696304321289e-01,2.341981410980224498e-01,2.386993169784545898e-01,2.408494234085082897e-01,2.365389108657836859e-01,2.326016187667846735e-01,2.286860227584838756e-01,2.248238086700439509e-01
6.195928096771240456e-01,6.353070259094237837e-01,6.518391132354736106e-01,6.692529678344726340e-01,6.876224517822265847e-01,7.070288181304931197e-01,7.275623798370360884e-01,7.493243217468261719e-01,7.724282264709472212e-01,7.970022201538086160e-01,8.231910705566406472e-01,8.511595726013183594e-01,8.810954093933105469e-01,9.132137298583984375e-01,9.477622032165526900e-01,9.850275993347168413e-01,1.000000000000000000e+00,1.000000000000000000e+00,1.000000000000000000e+00,1.000000000000000000e+00,1.000000000000000000e+00,1.000000000000000000e+00,1.000000000000000000e+00,1.000000000000000000e+00,1.000000000000000000e+00,1.000000000000000000e+00,1.000000000000000000e+00,1.000000000000000000e+00,1.000000000000000000e+00,1.000000000000000000e+00,1.000000000000000000e+00,1.000000000000000000e+00,1.000000000000000000e+00,1.000000000000000000e+00,1.000000000000000000e+00,1.000000000000000000e+00,1.000000000000000000e+00,1.000000000000000000e+00,1.000000000000000000e+00,1.000000000000000000e+00,1.000000000000000000e+00,1.000000000000000000e+00,1.000000000000000000e+00,1.000000000000000000e+00,1.000000000000000000e+00,1.000000000000000000e+00,1.000000000000000000e+00,1.000000000000000000e+00,1.000000000000000000e+00,1.000000000000000000e+00,1.000000000000000000e+00,1.000000000000000000e+00,1.000000000000000000e+00,1.000000000000000000e+00,1.000000000000000000e+00,1.000000000000000000e+00,1.000000000000000000e+00,1.000000000000000000e+00,1.000000000000000000e+00,1.000000000000000000e+00,1.000000000000000000e+00,1.000000000000000000e+00,1.000000000000000000e+00,1.000000000000000000e+00,1.000000000000000000e+00,2.624659776687622292e-01,2.219214439392089844e-01,2.158483743667602428e-01,2.126074314117431530e-01,2.081331253051757757e-01,2.036668777465820424e-01,2.354475975036621205e-01,2.340541601181030384e-01,2.345068216323852595e-01,2.382073640823364202e-01,2.422209501266479603e-01,2.364055395126342662e-01,2.323824167251586914e-01,2.284020900726318470e-01,2.245409011840820424e-01
6.195794105529784934e-01,6.352929592132567915e-01,6.518242835998535600e-01,6.692389488220215066e-01,6.876079559326171431e-01,7.070134639739990012e-01,7.275461673736571822e-01,7.493070602416992410e-01,7.724098682403564009e-01,7.969827175140380415e-01,8.231702804565429465e-01,8.511373519897460493e-01,8.810715675354003906e-01,9.131880760192870872e-01,9.477346420288086382e-01,9.849978446960448997e-01,1.000000000000000000e+00,1.000000000000000000e+00,1.000000000000000000e+00,1.000000000000000000e+00,1.000000000000000000e+00,1.000000000000000000e+00,1.000000000000000000e+00,1.000000000000000000e+00,1.000000000000000000e+00,1.000000000000000000e+00,1.000000000000000000e+00,1.000000000000000000e+00,1.000000000000000000e+00,1.000000000000000000e+00,1.000000000000000000e+00,1.000000000000000000e+00,1.000000000000000000e+00,1.000000000000000000e+00,1.000000000000000000e+00,1.000000000000000000e+00,1.000000000000000000e+00,1.000000000000000000e+00,1.000000000000000000e+00,1.000000000000000000e+00,1.000000000000000000e+00,1.000000000000000000e+00,1.000000000000000000e+00,1.000000000000000000e+00,1.000000000000000000e+00,1.000000000000000000e+00,1.000000000000000000e+00,1.000000000000000000e+00,1.000000000000000000e+00,1.000000000000000000e+00,1.000000000000000000e+00,1.000000000000000000e+00,1.000000000000000000e+00,1.000000000000000000e+00,1.000000000000000000e+00,1.000000000000000000e+00,1.000000000000000000e+00,1.000000000000000000e+00,1.000000000000000000e+00,1.000000000000000000e+00,1.000000000000000000e+00,1.000000000000000000e+00,1.000000000000000000e+00,1.000000000000000000e+00,1.000000000000000000e+00,2.621462106704711692e-01,2.218776226043701061e-01,2.168317556381225697e-01,2.098229408264160045e-01,2.386874914169311579e-01,2.020242452621459905e-01,2.357724666595459040e-01,2.343415021896362305e-01,2.348819017410278265e-01,2.388232469558715931e-01,2.433444738388061412e-01,2.368469715118408092e-01,2.320892333984375111e-01,2.281188726425170954e-01,2.242587327957153431e-01
6.195660114288330522e-01,6.352789402008056641e-01,6.518095016479492632e-01,6.692233085632324219e-01,6.875932216644287109e-01,7.069981098175048828e-01,7.275299072265625222e-01,7.492898464202880637e-01,7.723915576934814453e-01,7.969632148742675781e-01,8.231494903564453569e-01,8.511151313781738503e-01,8.810477256774902344e-01,9.131625175476074663e-01,9.477070808410644753e-01,9.849679946899414507e-01,1.000000000000000000e+00,1.000000000000000000e+00,1.000000000000000000e+00,1.000000000000000000e+00,1.000000000000000000e+00,1.000000000000000000e+00,1.000000000000000000e+00,1.000000000000000000e+00,1.000000000000000000e+00,1.000000000000000000e+00,1.000000000000000000e+00,1.000000000000000000e+00,1.000000000000000000e+00,1.000000000000000000e+00,1.000000000000000000e+00,1.000000000000000000e+00,1.000000000000000000e+00,1.000000000000000000e+00,1.000000000000000000e+00,1.000000000000000000e+00,1.000000000000000000e+00,1.000000000000000000e+00,1.000000000000000000e+00,1.000000000000000000e+00,1.000000000000000000e+00,1.000000000000000000e+00,1.000000000000000000e+00,1.000000000000000000e+00,1.000000000000000000e+00,1.000000000000000000e+00,1.000000000000000000e+00,1.000000000000000000e+00,1.000000000000000000e+00,1.000000000000000000e+00,1.000000000000000000e+00,1.000000000000000000e+00,1.000000000000000000e+00,1.000000000000000000e+00,1.000000000000000000e+00,1.000000000000000000e+00,1.000000000000000000e+00,1.000000000000000000e+00,1.000000000000000000e+00,1.000000000000000000e+00,1.000000000000000000e+00,1.000000000000000000e+00,1.000000000000000000e+00,1.000000000000000000e+00,1.000000000000000000e+00,2.619218587875365989e-01,2.227668285369873158e-01,2.147574186325073298e-01,2.083905458450317494e-01,2.060740470886230358e-01,2.377684593200683483e-01,2.362944602966308705e-01,2.348386049270629883e-01,2.359109878540039118e-01,2.397785425186157171e-01,2.438007116317749134e-01,2.372121572494506891e-01,2.317968130111694447e-01,2.278363704681396484e-01,2.239772558212280162e-01
6.195526599884033647e-01,6.352648735046386719e-01,6.517946720123291016e-01,6.692077636718749556e-01,6.875767230987548384e-01,7.069825649261474165e-01,7.275136470794677512e-01,7.492725849151611328e-01,7.723732471466064897e-01,7.969437599182128684e-01,8.231287002563476562e-01,8.510929107666015403e-01,8.810238838195800781e-01,9.131368637084961160e-01,9.476795196533203125e-01,9.849382400512695090e-01,1.000000000000000000e+00,1.000000000000000000e+00,1.000000000000000000e+00,1.000000000000000000e+00,1.000000000000000000e+00,1.000000000000000000e+00,1.000000000000000000e+00,1.000000000000000000e+00,1.000000000000000000e+00,1.000000000000000000e+00,1.000000000000000000e+00,1.000000000000000000e+00,1.000000000000000000e+00,1.000000000000000000e+00,1.000000000000000000e+00,1.000000000000000000e+00,1.000000000000000000e+00,1.000000000000000000e+00,1.000000000000000000e+00,1.000000000000000000e+00,1.000000000000000000e+00,1.000000000000000000e+00,1.000000000000000000e+00,1.000000000000000000e+00,1.000000000000000000e+00,1.000000000000000000e+00,1.000000000000000000e+00,1.000000000000000000e+00,1.000000000000000000e+00,1.000000000000000000e+00,1.000000000000000000e+00,1.000000000000000000e+00,1.000000000000000000e+00,1.000000000000000000e+00,1.000000000000000000e+00,1.000000000000000000e+00,1.000000000000000000e+00,1.000000000000000000e+00,1.000000000000000000e+00,1.000000000000000000e+00,1.000000000000000000e+00,1.000000000000000000e+00,1.000000000000000000e+00,1.000000000000000000e+00,1.000000000000000000e+00,1.000000000000000000e+00,1.000000000000000000e+00,1.000000000000000000e+00,1.000000000000000000e+00,2.623712539672851674e-01,2.218967914581298773e-01,2.132168292999267467e-01,2.415050506591796819e-01,2.039628744125366322e-01,2.383393287658691351e-01,2.368582487106323242e-01,2.353954792022704967e-01,2.372475147247314342e-01,2.410000085830688588e-01,2.441837549209594782e-01,2.375784397125244030e-01,2.315051078796386830e-01,2.275507926940917858e-01,2.236964941024780218e-01
6.195392608642578125e-01,6.352508068084716797e-01,6.517798423767089400e-01,6.691921710968017356e-01,6.875602722167968306e-01,7.069652080535888672e-01,7.274972438812256081e-01,7.492553710937499556e-01,7.723550319671630415e-01,7.969242572784424050e-01,8.231079101562499556e-01,8.510705947875976118e-01,8.810000419616699219e-01,9.131113052368163840e-01,9.476519584655761497e-01,9.849084854125976785e-01,1.000000000000000000e+00,1.000000000000000000e+00,1.000000000000000000e+00,1.000000000000000000e+00,1.000000000000000000e+00,1.000000000000000000e+00,1.000000000000000000e+00,1.000000000000000000e+00,1.000000000000000000e+00,1.000000000000000000e+00,1.000000000000000000e+00,1.000000000000000000e+00,1.000000000000000000e+00,1.000000000000000000e+00,1.000000000000000000e+00,1.000000000000000000e+00,1.000000000000000000e+00,1.000000000000000000e+00,1.000000000000000000e+00,1.000000000000000000e+00,1.000000000000000000e+00,1.000000000000000000e+00,1.000000000000000000e+00,1.000000000000000000e+00,1.000000000000000000e+00,1.000000000000000000e+00,1.000000000000000000e+00,1.000000000000000000e+00,1.000000000000000000e+00,1.000000000000000000e+00,1.000000000000000000e+00,1.000000000000000000e+00,1.000000000000000000e+00,1.000000000000000000e+00,1.000000000000000000e+00,1.000000000000000000e+00,1.000000000000000000e+00,1.000000000000000000e+00,1.000000000000000000e+00,1.000000000000000000e+00,1.000000000000000000e+00,1.000000000000000000e+00,1.000000000000000000e+00,1.000000000000000000e+00,1.000000000000000000e+00,1.000000000000000000e+00,1.000000000000000000e+00,1.000000000000000000e+00,1.000000000000000000e+00,2.639016866683959739e-01,2.532582283020019531e-01,2.473164796829223633e-01,2.421970844268798717e-01,2.405023336410522516e-01,2.389129400253295898e-01,2.374247550964355413e-01,2.359549760818481501e-01,2.385992288589477428e-01,2.420059680938720648e-01,2.449448108673095703e-01,2.379458904266357477e-01,2.316694021224975641e-01,2.272609949111938366e-01,2.233669281005859486e-01
6.195259571075439897e-01,6.352366924285888228e-01,6.517650604248046431e-01,6.691765308380126509e-01,6.875437736511230691e-01,7.069477558135985884e-01,7.274787902832031694e-01,7.492380619049072710e-01,7.723367214202880859e-01,7.969047546386718306e-01,8.230871200561523660e-01,8.510483741760254128e-01,8.809762954711913840e-01,9.130857467651367632e-01,9.476243972778319868e-01,9.848787307739257368e-01,1.000000000000000000e+00,1.000000000000000000e+00,1.000000000000000000e+00,1.000000000000000000e+00,1.000000000000000000e+00,1.000000000000000000e+00,1.000000000000000000e+00,1.000000000000000000e+00,1.000000000000000000e+00,1.000000000000000000e+00,1.000000000000000000e+00,1.000000000000000000e+00,1.000000000000000000e+00,1.000000000000000000e+00,1.000000000000000000e+00,1.000000000000000000e+00,1.000000000000000000e+00,1.000000000000000000e+00,1.000000000000000000e+00,1.000000000000000000e+00,1.000000000000000000e+00,1.000000000000000000e+00,1.000000000000000000e+00,1.000000000000000000e+00,1.000000000000000000e+00,1.000000000000000000e+00,1.000000000000000000e+00,1.000000000000000000e+00,1.000000000000000000e+00,1.000000000000000000e+00,1.000000000000000000e+00,1.000000000000000000e+00,1.000000000000000000e+00,1.000000000000000000e+00,1.000000000000000000e+00,1.000000000000000000e+00,1.000000000000000000e+00,1.000000000000000000e+00,1.000000000000000000e+00,1.000000000000000000e+00,1.000000000000000000e+00,1.000000000000000000e+00,1.000000000000000000e+00,1.000000000000000000e+00,1.000000000000000000e+00,1.000000000000000000e+00,1.000000000000000000e+00,1.000000000000000000e+00,1.000000000000000000e+00,2.652323007583617942e-01,2.546722412109375111e-01,2.482972860336303822e-01,2.428930282592773326e-01,2.411886215209960993e-01,2.395079135894775391e-01,2.379939556121826172e-01,2.365171670913696345e-01,2.399628400802612249e-01,8.537976264953612837e-01,8.290943145751953347e-01,2.389481782913208119e-01,2.322779655456543024e-01,2.268379688262939509e-01,2.228371381759643444e-01
6.195125579833984375e-01,6.352226257324218306e-01,6.517503261566162109e-01,6.691609382629394309e-01,6.875272750854491965e-01,7.069303512573241743e-01,7.274603366851806197e-01,7.492184638977050781e-01,7.723182201385497825e-01,7.968852519989013672e-01,8.230663299560546653e-01,8.510261535644531028e-01,8.809524536132812278e-01,9.130601882934570312e-01,9.475968360900879350e-01,9.848489761352539062e-01,1.000000000000000000e+00,1.000000000000000000e+00,1.000000000000000000e+00,1.000000000000000000e+00,1.000000000000000000e+00,1.000000000000000000e+00,1.000000000000000000e+00,1.000000000000000000e+00,1.000000000000000000e+00,1.000000000000000000e+00,1.000000000000000000e+00,1.000000000000000000e+00,1.000000000000000000e+00,1.000000000000000000e+00,1.000000000000000000e+00,1.000000000000000000e+00,1.000000000000000000e+00,1.000000000000000000e+00,1.000000000000000000e+00,1.000000000000000000e+00,1.000000000000000000e+00,1.000000000000000000e+00,1.000000000000000000e+00,1.000000000000000000e+00,1.000000000000000000e+00,1.000000000000000000e+00,1.000000000000000000e+00,1.000000000000000000e+00,1.000000000000000000e+00,1.000000000000000000e+00,1.000000000000000000e+00,1.000000000000000000e+00,1.000000000000000000e+00,1.000000000000000000e+00,1.000000000000000000e+00,1.000000000000000000e+00,1.000000000000000000e+00,1.000000000000000000e+00,1.000000000000000000e+00,1.000000000000000000e+00,1.000000000000000000e+00,1.000000000000000000e+00,1.000000000000000000e+00,1.000000000000000000e+00,1.000000000000000000e+00,1.000000000000000000e+00,1.000000000000000000e+00,1.000000000000000000e+00,1.000000000000000000e+00,1.000000000000000000e+00,2.561502695083618386e-01,2.492858648300170787e-01,2.435930490493774525e-01,2.418787956237792858e-01,2.401885271072387584e-01,2.385658979415893610e-01,2.375861406326293945e-01,2.409285545349121038e-01,8.538171768188476118e-01,8.291127204895019087e-01,2.399644374847412220e-01,2.331856012344360463e-01,2.265240192413330023e-01,2.223098516464233343e-01
6.194991588592528853e-01,6.352085590362548384e-01,6.517354965209960493e-01,6.691452980041503462e-01,6.875108718872070535e-01,7.069128990173340066e-01,7.274418830871581809e-01,7.491989135742187500e-01,7.722974300384521928e-01,7.968656539916991743e-01,8.230455398559570757e-01,8.510039329528809038e-01,8.809286117553710715e-01,9.130346298217772993e-01,9.475692749023437722e-01,9.848191261291503462e-01,1.000000000000000000e+00,1.000000000000000000e+00,1.000000000000000000e+00,1.000000000000000000e+00,1.000000000000000000e+00,1.000000000000000000e+00,1.000000000000000000e+00,1.000000000000000000e+00,1.000000000000000000e+00,1.000000000000000000e+00,1.000000000000000000e+00,1.000000000000000000e+00,1.000000000000000000e+00,1.000000000000000000e+00,1.000000000000000000e+00,1.000000000000000000e+00,1.000000000000000000e+00,1.000000000000000000e+00,1.000000000000000000e+00,1.000000000000000000e+00,1.000000000000000000e+00,1.000000000000000000e+00,1.000000000000000000e+00,1.000000000000000000e+00,1.000000000000000000e+00,1.000000000000000000e+00,1.000000000000000000e+00,1.000000000000000000e+00,1.000000000000000000e+00,1.000000000000000000e+00,1.000000000000000000e+00,1.000000000000000000e+00,1.000000000000000000e+00,1.000000000000000000e+00,1.000000000000000000e+00,1.000000000000000000e+00,1.000000000000000000e+00,1.000000000000000000e+00,1.000000000000000000e+00,1.000000000000000000e+00,1.000000000000000000e+00,1.000000000000000000e+00,1.000000000000000000e+00,1.000000000000000000e+00,1.000000000000000000e+00,1.000000000000000000e+00,1.000000000000000000e+00,1.000000000000000000e+00,1.000000000000000000e+00,1.000000000000000000e+00,2.576124191284179799e-01,2.502823829650878684e-01,2.442970991134643666e-01,2.425729513168334850e-01,2.408729791641235352e-01,2.391966819763183538e-01,2.389034986495971735e-01,2.419020652770996205e-01,8.538366317749023215e-01,8.291311264038085938e-01,8.058151245117187722e-01,2.339741468429565319e-01,2.272680997848510742e-01,2.217850685119628906e-01
6.194858074188231978e-01,6.351944923400878462e-01,6.517206668853759988e-01,6.691297054290771262e-01,6.874943733215331809e-01,7.068954944610595925e-01,7.274235248565673606e-01,7.491793155670165572e-01,7.722767353057861106e-01,7.968435287475585938e-01,8.230246543884277566e-01,8.509817123413085938e-01,8.809047698974609153e-01,9.130089759826660600e-01,9.475417137145996094e-01,9.847893714904785156e-01,1.000000000000000000e+00,1.000000000000000000e+00,1.000000000000000000e+00,1.000000000000000000e+00,1.000000000000000000e+00,1.000000000000000000e+00,1.000000000000000000e+00,1.000000000000000000e+00,1.000000000000000000e+00,1.000000000000000000e+00,1.000000000000000000e+00,1.000000000000000000e+00,1.000000000000000000e+00,1.000000000000000000e+00,1.000000000000000000e+00,1.000000000000000000e+00,1.000000000000000000e+00,1.000000000000000000e+00,1.000000000000000000e+00,1.000000000000000000e+00,1.000000000000000000e+00,1.000000000000000000e+00,1.000000000000000000e+00,1.000000000000000000e+00,1.000000000000000000e+00,1.000000000000000000e+00,1.000000000000000000e+00,1.000000000000000000e+00,1.000000000000000000e+00,1.000000000000000000e+00,1.000000000000000000e+00,1.000000000000000000e+00,1.000000000000000000e+00,1.000000000000000000e+00,1.000000000000000000e+00,1.000000000000000000e+00,1.000000000000000000e+00,1.000000000000000000e+00,1.000000000000000000e+00,1.000000000000000000e+00,1.000000000000000000e+00,1.000000000000000000e+00,1.000000000000000000e+00,1.000000000000000000e+00,1.000000000000000000e+00,1.000000000000000000e+00,1.000000000000000000e+00,1.000000000000000000e+00,1.000000000000000000e+00,1.000000000000000000e+00,2.589437723159789817e-01,2.513503313064575084e-01,2.449576854705810547e-01,2.430557489395141491e-01,2.413703918457031361e-01,2.397082328796386608e-01,2.398915290832519531e-01,2.428922891616821234e-01,8.538560867309570312e-01,8.291494369506835493e-01,8.058323860168457031e-01,2.357618093490600475e-01,2.280170679092407282e-01,2.216434955596923717e-01
6.194724082946777566e-01,6.351804733276367188e-01,6.517058849334717019e-01,6.691141128540039062e-01,6.874779224395751731e-01,7.068780899047851785e-01,7.274050712585449219e-01,7.491597652435302290e-01,7.722559452056885210e-01,7.968214035034180132e-01,8.230010986328124556e-01,8.509594917297362837e-01,8.808809280395507590e-01,9.129834175109863281e-01,9.475141525268554465e-01,9.847596168518066850e-01,1.000000000000000000e+00,1.000000000000000000e+00,1.000000000000000000e+00,1.000000000000000000e+00,1.000000000000000000e+00,1.000000000000000000e+00,1.000000000000000000e+00,1.000000000000000000e+00,1.000000000000000000e+00,1.000000000000000000e+00,1.000000000000000000e+00,1.000000000000000000e+00,1.000000000000000000e+00,1.000000000000000000e+00,1.000000000000000000e+00,1.000000000000000000e+00,1.000000000000000000e+00,1.000000000000000000e+00,1.000000000000000000e+00,1.000000000000000000e+00,1.000000000000000000e+00,1.000000000000000000e+00,1.000000000000000000e+00,1.000000000000000000e+00,1.000000000000000000e+00,1.000000000000000000e+00,1.000000000000000000e+00,1.000000000000000000e+00,1.000000000000000000e+00,1.000000000000000000e+00,1.000000000000000000e+00,1.000000000000000000e+00,1.000000000000000000e+00,1.000000000000000000e+00,1.000000000000000000e+00,1.000000000000000000e+00,1.000000000000000000e+00,1.000000000000000000e+00,1.000000000000000000e+00,1.000000000000000000e+00,1.000000000000000000e+00,1.000000000000000000e+00,1.000000000000000000e+00,1.000000000000000000e+00,1.000000000000000000e+00,1.000000000000000000e+00,1.000000000000000000e+00,1.000000000000000000e+00,1.000000000000000000e+00,1.000000000000000000e+00,2.606322050094604381e-01,2.524982213973999134e-01,2.459501743316650502e-01,2.434168338775634655e-01,2.417264938354492243e-01,2.400594472885131947e-01,2.409394502639770619e-01,2.439666271209716686e-01,8.538756370544433594e-01,8.291678428649902344e-01,8.058498382568359819e-01,7.838074207305908425e-01,2.303486108779907171e-01,2.229411125183105580e-01
6.194590091705322044e-01,6.351664066314697266e-01,6.516910552978515403e-01,6.690985679626464400e-01,6.874614238739014116e-01,7.068607330322265181e-01,7.273866176605224831e-01,7.491402149200439009e-01,7.722351551055908203e-01,7.967992305755615678e-01,8.229774475097656472e-01,8.509343147277832475e-01,8.808571815490722212e-01,9.129578590393065962e-01,9.474865913391112837e-01,9.847298622131347434e-01,1.000000000000000000e+00,1.000000000000000000e+00,1.000000000000000000e+00,1.000000000000000000e+00,1.000000000000000000e+00,1.000000000000000000e+00,1.000000000000000000e+00,1.000000000000000000e+00,1.000000000000000000e+00,1.000000000000000000e+00,1.000000000000000000e+00,1.000000000000000000e+00,1.000000000000000000e+00,1.000000000000000000e+00,1.000000000000000000e+00,1.000000000000000000e+00,1.000000000000000000e+00,1.000000000000000000e+00,1.000000000000000000e+00,1.000000000000000000e+00,1.000000000000000000e+00,1.000000000000000000e+00,1.000000000000000000e+00,1.000000000000000000e+00,1.000000000000000000e+00,1.000000000000000000e+00,1.000000000000000000e+00,1.000000000000000000e+00,1.000000000000000000e+00,1.000000000000000000e+00,1.000000000000000000e+00,1.000000000000000000e+00,1.000000000000000000e+00,1.000000000000000000e+00,1.000000000000000000e+00,1.000000000000000000e+00,1.000000000000000000e+00,1.000000000000000000e+00,1.000000000000000000e+00,1.000000000000000000e+00,1.000000000000000000e+00,1.000000000000000000e+00,1.000000000000000000e+00,1.000000000000000000e+00,1.000000000000000000e+00,1.000000000000000000e+00,1.000000000000000000e+00,1.000000000000000000e+00,1.000000000000000000e+00,1.000000000000000000e+00,2.623427629470825306e-01,2.536566972732544056e-01,2.469649791717529186e-01,2.437819957733154408e-01,2.420836448669433649e-01,2.404116868972778209e-01,2.419965744018554576e-01,2.446628808975219727e-01,8.538950920104980691e-01,8.291862487792969194e-01,8.058671951293945312e-01,7.838238239288329856e-01,2.327378273010253795e-01,2.251784086227416881e-01
6.194456577301025169e-01,6.351523399353027344e-01,6.516762733459472434e-01,6.690829277038574663e-01,6.874449729919434038e-01,7.068432807922363503e-01,7.273681640625000444e-01,7.491207122802734375e-01,7.722143650054931197e-01,7.967771053314208762e-01,8.229538917541503462e-01,8.509090423583984819e-01,8.808301925659179910e-01,9.129323005676269753e-01,9.474590301513672319e-01,9.847001075744629128e-01,1.000000000000000000e+00,1.000000000000000000e+00,1.000000000000000000e+00,1.000000000000000000e+00,1.000000000000000000e+00,1.000000000000000000e+00,1.000000000000000000e+00,1.000000000000000000e+00,1.000000000000000000e+00,1.000000000000000000e+00,1.000000000000000000e+00,1.000000000000000000e+00,1.000000000000000000e+00,1.000000000000000000e+00,1.000000000000000000e+00,1.000000000000000000e+00,1.000000000000000000e+00,1.000000000000000000e+00,1.000000000000000000e+00,1.000000000000000000e+00,1.000000000000000000e+00,1.000000000000000000e+00,1.000000000000000000e+00,1.000000000000000000e+00,1.000000000000000000e+00,1.000000000000000000e+00,1.000000000000000000e+00,1.000000000000000000e+00,1.000000000000000000e+00,1.000000000000000000e+00,1.000000000000000000e+00,1.000000000000000000e+00,1.000000000000000000e+00,1.000000000000000000e+00,1.000000000000000000e+00,1.000000000000000000e+00,1.000000000000000000e+00,1.000000000000000000e+00,1.000000000000000000e+00,1.000000000000000000e+00,1.000000000000000000e+00,1.000000000000000000e+00,1.000000000000000000e+00,1.000000000000000000e+00,1.000000000000000000e+00,1.000000000000000000e+00,1.000000000000000000e+00,1.000000000000000000e+00,1.000000000000000000e+00,1.000000000000000000e+00,2.636804819107055886e-01,2.548258066177367942e-01,2.479881763458252064e-01,2.444803953170776312e-01,2.424418687820434626e-01,2.407649755477905273e-01,2.430629968643188421e-01,2.452151298522949330e-01,8.539145469665527788e-01,8.292045593261718750e-01,8.058844566345214622e-01,7.838402271270752397e-01,7.629698276519775169e-01,2.274610519409179799e-01
6.194323062896728294e-01,6.351382732391357422e-01,6.516614913940429465e-01,6.690673351287841353e-01,6.874284744262695312e-01,7.068258762359619363e-01,7.273497104644774947e-01,7.491011619567871094e-01,7.721935749053955300e-01,7.967550754547119141e-01,8.229303359985351562e-01,8.508837699890137163e-01,8.808032035827636497e-01,9.129033088684082031e-01,9.474314689636230691e-01,9.846703529357909712e-01,1.000000000000000000e+00,1.000000000000000000e+00,1.000000000000000000e+00,1.000000000000000000e+00,1.000000000000000000e+00,1.000000000000000000e+00,1.000000000000000000e+00,1.000000000000000000e+00,1.000000000000000000e+00,1.000000000000000000e+00,1.000000000000000000e+00,1.000000000000000000e+00,1.000000000000000000e+00,1.000000000000000000e+00,1.000000000000000000e+00,1.000000000000000000e+00,1.000000000000000000e+00,1.000000000000000000e+00,1.000000000000000000e+00,1.000000000000000000e+00,1.000000000000000000e+00,1.000000000000000000e+00,1.000000000000000000e+00,1.000000000000000000e+00,1.000000000000000000e+00,1.000000000000000000e+00,1.000000000000000000e+00,1.000000000000000000e+00,1.000000000000000000e+00,1.000000000000000000e+00,1.000000000000000000e+00,1.000000000000000000e+00,1.000000000000000000e+00,1.000000000000000000e+00,1.000000000000000000e+00,1.000000000000000000e+00,1.000000000000000000e+00,1.000000000000000000e+00,1.000000000000000000e+00,1.000000000000000000e+00,1.000000000000000000e+00,1.000000000000000000e+00,1.000000000000000000e+00,1.000000000000000000e+00,1.000000000000000000e+00,1.000000000000000000e+00,1.000000000000000000e+00,1.000000000000000000e+00,1.000000000000000000e+00,1.000000000000000000e+00,2.648041248321533203e-01,2.560057401657104270e-01,2.490198850631713812e-01,2.451828002929687389e-01,2.428011417388916127e-01,2.411192893981933538e-01,2.438245773315429743e-01,2.457698822021484319e-01,8.539340972900391069e-01,8.292229652404785600e-01,8.059018135070801225e-01,7.838566780090332475e-01,7.629854679107666016e-01,7.431967735290527788e-01
6.194113254547118919e-01,6.351206302642822266e-01,6.516467094421386497e-01,6.690517425537109153e-01,6.874120712280273882e-01,7.068084716796875222e-01,7.273312568664550559e-01,7.490815639495849165e-01,7.721727848052978294e-01,7.967329502105713335e-01,8.229066848754882368e-01,8.508585929870605691e-01,8.807761192321776900e-01,9.128742218017578125e-01,9.474003791809082475e-01,9.846405982971191406e-01,1.000000000000000000e+00,1.000000000000000000e+00,1.000000000000000000e+00,1.000000000000000000e+00,1.000000000000000000e+00,1.000000000000000000e+00,1.000000000000000000e+00,1.000000000000000000e+00,1.000000000000000000e+00,1.000000000000000000e+00,1.000000000000000000e+00,1.000000000000000000e+00,1.000000000000000000e+00,1.000000000000000000e+00,1.000000000000000000e+00,1.000000000000000000e+00,1.000000000000000000e+00,1.000000000000000000e+00,1.000000000000000000e+00,1.000000000000000000e+00,1.000000000000000000e+00,1.000000000000000000e+00,1.000000000000000000e+00,1.000000000000000000e+00,1.000000000000000000e+00,1.000000000000000000e+00,1.000000000000000000e+00,1.000000000000000000e+00,1.000000000000000000e+00,1.000000000000000000e+00,1.000000000000000000e+00,1.000000000000000000e+00,1.000000000000000000e+00,1.000000000000000000e+00,1.000000000000000000e+00,1.000000000000000000e+00,1.000000000000000000e+00,1.000000000000000000e+00,1.000000000000000000e+00,1.000000000000000000e+00,1.000000000000000000e+00,1.000000000000000000e+00,1.000000000000000000e+00,1.000000000000000000e+00,1.000000000000000000e+00,1.000000000000000000e+00,1.000000000000000000e+00,1.000000000000000000e+00,1.000000000000000000e+00,1.000000000000000000e+00,2.659373760223388561e-01,2.575196266174316628e-01,2.500602245330810769e-01,2.458892822265625056e-01,2.433092355728149470e-01,2.421660423278808594e-01,2.443730592727661188e-01,8.801838874816894087e-01,8.539535522460937056e-01,8.292413711547851340e-01,8.059192657470702903e-01,7.838730812072753906e-01,7.630009651184082031e-01,2.289188861846923884e-01
6.193883419036865234e-01,6.350965023040771040e-01,6.516221523284911887e-01,6.690307140350342241e-01,6.873950481414794478e-01,7.067910194396972434e-01,7.273128986358642356e-01,7.490620136260985884e-01,7.721519947052002397e-01,7.967108249664306419e-01,8.228830337524414285e-01,8.508333206176758035e-01,8.807491302490234597e-01,9.128452301025390403e-01,9.473691940307616965e-01,9.846070289611816850e-01,1.000000000000000000e+00,1.000000000000000000e+00,1.000000000000000000e+00,1.000000000000000000e+00,1.000000000000000000e+00,1.000000000000000000e+00,1.000000000000000000e+00,1.000000000000000000e+00,1.000000000000000000e+00,1.000000000000000000e+00,1.000000000000000000e+00,1.000000000000000000e+00,1.000000000000000000e+00,1.000000000000000000e+00,1.000000000000000000e+00,1.000000000000000000e+00,1.000000000000000000e+00,1.000000000000000000e+00,1.000000000000000000e+00,1.000000000000000000e+00,1.000000000000000000e+00,1.000000000000000000e+00,1.000000000000000000e+00,1.000000000000000000e+00,1.000000000000000000e+00,1.000000000000000000e+00,1.000000000000000000e+00,1.000000000000000000e+00,1.000000000000000000e+00,1.000000000000000000e+00,1.000000000000000000e+00,1.000000000000000000e+00,1.000000000000000000e+00,1.000000000000000000e+00,1.000000000000000000e+00,1.000000000000000000e+00,1.000000000000000000e+00,1.000000000000000000e+00,1.000000000000000000e+00,1.000000000000000000e+00,1.000000000000000000e+00,1.000000000000000000e+00,1.000000000000000000e+00,1.000000000000000000e+00,1.000000000000000000e+00,1.000000000000000000e+00,1.000000000000000000e+00,1.000000000000000000e+00,1.000000000000000000e+00,1.000000000000000000e+00,1.000000000000000000e+00,2.587703943252563366e-01,2.511092901229858287e-01,2.465998411178588756e-01,2.440049409866333063e-01,2.429920196533203181e-01,2.449240207672119252e-01,8.802045822143554910e-01,8.539731025695800337e-01,8.292597770690918191e-01,8.059365272521972212e-01,7.838894844055175337e-01,7.630165100097656694e-01,2.268944025039672796e-01
6.193677902221679243e-01,6.350724220275878462e-01,6.515967369079589400e-01,6.690039634704589844e-01,6.873667240142822266e-01,7.067660331726074441e-01,7.272921562194823997e-01,7.490424633026122603e-01,7.721312999725341575e-01,7.966886520385741965e-01,8.228594779968261275e-01,8.508081436157226562e-01,8.807220458984375000e-01,9.128162384033202681e-01,9.473378181457519087e-01,9.845732688903808816e-01,1.000000000000000000e+00,1.000000000000000000e+00,1.000000000000000000e+00,1.000000000000000000e+00,1.000000000000000000e+00,1.000000000000000000e+00,1.000000000000000000e+00,1.000000000000000000e+00,1.000000000000000000e+00,1.000000000000000000e+00,1.000000000000000000e+00,1.000000000000000000e+00,1.000000000000000000e+00,1.000000000000000000e+00,1.000000000000000000e+00,1.000000000000000000e+00,1.000000000000000000e+00,1.000000000000000000e+00,1.000000000000000000e+00,1.000000000000000000e+00,1.000000000000000000e+00,1.000000000000000000e+00,1.000000000000000000e+00,1.000000000000000000e+00,1.000000000000000000e+00,1.000000000000000000e+00,1.000000000000000000e+00,1.000000000000000000e+00,1.000000000000000000e+00,1.000000000000000000e+00,1.000000000000000000e+00,1.000000000000000000e+00,1.000000000000000000e+00,1.000000000000000000e+00,1.000000000000000000e+00,1.000000000000000000e+00,1.000000000000000000e+00,1.000000000000000000e+00,1.000000000000000000e+00,1.000000000000000000e+00,1.000000000000000000e+00,1.000000000000000000e+00,1.000000000000000000e+00,1.000000000000000000e+00,1.000000000000000000e+00,1.000000000000000000e+00,1.000000000000000000e+00,1.000000000000000000e+00,1.000000000000000000e+00,1.000000000000000000e+00,2.677601337432861106e-01,2.600552558898925892e-01,2.523039579391479492e-01,2.475894212722778431e-01,2.448449611663818248e-01,2.446699380874633734e-01,2.465732097625732422e-01,8.802252769470214622e-01,8.539925575256347434e-01,8.292780876159667747e-01,8.059538841247558816e-01,7.839059352874755415e-01,7.630321025848388894e-01,2.249054193496703991e-01
6.193544864654541016e-01,6.350564479827880415e-01,6.515752792358397993e-01,6.689771652221679910e-01,6.873384952545166238e-01,7.067361831665038840e-01,7.272604942321777566e-01,7.490126132965088113e-01,7.721059799194336382e-01,7.966665267944336160e-01,8.228359222412109375e-01,8.507829666137695090e-01,8.806950569152831587e-01,9.127871513366698775e-01,9.473065376281738503e-01,9.845395088195800781e-01,1.000000000000000000e+00,1.000000000000000000e+00,1.000000000000000000e+00,1.000000000000000000e+00,1.000000000000000000e+00,1.000000000000000000e+00,1.000000000000000000e+00,1.000000000000000000e+00,1.000000000000000000e+00,1.000000000000000000e+00,1.000000000000000000e+00,1.000000000000000000e+00,1.000000000000000000e+00,1.000000000000000000e+00,1.000000000000000000e+00,1.000000000000000000e+00,1.000000000000000000e+00,1.000000000000000000e+00,1.000000000000000000e+00,1.000000000000000000e+00,1.000000000000000000e+00,1.000000000000000000e+00,1.000000000000000000e+00,1.000000000000000000e+00,1.000000000000000000e+00,1.000000000000000000e+00,1.000000000000000000e+00,1.000000000000000000e+00,1.000000000000000000e+00,1.000000000000000000e+00,1.000000000000000000e+00,1.000000000000000000e+00,1.000000000000000000e+00,1.000000000000000000e+00,1.000000000000000000e+00,1.000000000000000000e+00,1.000000000000000000e+00,1.000000000000000000e+00,1.000000000000000000e+00,1.000000000000000000e+00,1.000000000000000000e+00,1.000000000000000000e+00,1.000000000000000000e+00,1.000000000000000000e+00,1.000000000000000000e+00,1.000000000000000000e+00,1.000000000000000000e+00,1.000000000000000000e+00,1.000000000000000000e+00,2.747379302978515403e-01,2.667659997940063366e-01,2.595690250396728294e-01,2.531224250793456809e-01,2.490188598632812611e-01,2.457215547561645563e-01,2.465726613998412975e-01,2.482159852981567494e-01,8.802459716796875444e-01,8.540120124816894531e-01,8.292964935302734597e-01,8.059713363647460493e-01,7.839223384857177956e-01,7.630476474761962447e-01,2.235445499420166127e-01
6.193411350250244141e-01,6.350424289703369141e-01,6.515605449676513672e-01,6.689609050750732200e-01,6.873160362243652122e-01,7.067069530487060103e-01,7.272288799285888672e-01,7.489789962768554910e-01,7.720703601837157759e-01,7.966307163238525169e-01,8.228051185607909712e-01,8.507576942443847434e-01,8.806680679321289285e-01,9.127581596374512163e-01,9.472753524780272993e-01,9.845057487487792747e-01,1.000000000000000000e+00,1.000000000000000000e+00,1.000000000000000000e+00,1.000000000000000000e+00,1.000000000000000000e+00,1.000000000000000000e+00,1.000000000000000000e+00,1.000000000000000000e+00,1.000000000000000000e+00,1.000000000000000000e+00,1.000000000000000000e+00,1.000000000000000000e+00,1.000000000000000000e+00,1.000000000000000000e+00,1.000000000000000000e+00,1.000000000000000000e+00,1.000000000000000000e+00,1.000000000000000000e+00,1.000000000000000000e+00,1.000000000000000000e+00,1.000000000000000000e+00,1.000000000000000000e+00,1.000000000000000000e+00,1.000000000000000000e+00,1.000000000000000000e+00,1.000000000000000000e+00,1.000000000000000000e+00,1.000000000000000000e+00,1.000000000000000000e+00,1.000000000000000000e+00,1.000000000000000000e+00,1.000000000000000000e+00,1.000000000000000000e+00,1.000000000000000000e+00,1.000000000000000000e+00,1.000000000000000000e+00,1.000000000000000000e+00,1.000000000000000000e+00,1.000000000000000000e+00,1.000000000000000000e+00,1.000000000000000000e+00,1.000000000000000000e+00,1.000000000000000000e+00,1.000000000000000000e+00,1.000000000000000000e+00,1.000000000000000000e+00,1.000000000000000000e+00,1.000000000000000000e+00,2.840434789657592662e-01,2.733203649520873912e-01,2.663556575775146706e-01,2.602917671203613392e-01,2.549948215484619252e-01,2.508509874343872181e-01,2.486977577209472656e-01,2.508533477783203014e-01,9.081648826599121316e-01,8.802667617797851340e-01,8.540315628051757812e-01,8.293148994445800337e-01,8.059886932373047097e-01,7.839387416839599387e-01,2.328607320785522350e-01,2.243656873703002985e-01
6.193278312683105913e-01,6.350284099578857866e-01,6.515458106994629350e-01,6.689453601837158647e-01,6.872996330261230691e-01,7.066895961761474609e-01,7.272054195404052956e-01,7.489479064941406694e-01,7.720346450805664062e-01,7.965927600860596147e-01,8.227645874023437056e-01,8.507145881652832253e-01,8.806302070617675337e-01,9.127265930175780806e-01,9.472440719604492410e-01,9.844719886779784712e-01,1.000000000000000000e+00,1.000000000000000000e+00,1.000000000000000000e+00,1.000000000000000000e+00,1.000000000000000000e+00,1.000000000000000000e+00,1.000000000000000000e+00,1.000000000000000000e+00,1.000000000000000000e+00,1.000000000000000000e+00,1.000000000000000000e+00,1.000000000000000000e+00,1.000000000000000000e+00,1.000000000000000000e+00,1.000000000000000000e+00,1.000000000000000000e+00,1.000000000000000000e+00,1.000000000000000000e+00,1.000000000000000000e+00,1.000000000000000000e+00,1.000000000000000000e+00,1.000000000000000000e+00,1.000000000000000000e+00,1.000000000000000000e+00,1.000000000000000000e+00,1.000000000000000000e+00,1.000000000000000000e+00,1.000000000000000000e+00,1.000000000000000000e+00,1.000000000000000000e+00,1.000000000000000000e+00,1.000000000000000000e+00,1.000000000000000000e+00,1.000000000000000000e+00,1.000000000000000000e+00,1.000000000000000000e+00,1.000000000000000000e+00,1.000000000000000000e+00,1.000000000000000000e+00,1.000000000000000000e+00,1.000000000000000000e+00,1.000000000000000000e+00,1.000000000000000000e+00,1.000000000000000000e+00,1.000000000000000000e+00,1.000000000000000000e+00,1.000000000000000000e+00,1.000000000000000000e+00,2.802049398422241100e-01,2.737892389297485463e-01,2.679411411285400613e-01,2.630281925201415905e-01,2.588930368423462136e-01,2.537310600280761608e-01,2.563613176345825306e-01,9.379126548767089400e-01,9.081869125366210938e-01,8.802873611450194868e-01,8.540510177612304910e-01,8.293332099914551003e-01,8.060060501098632590e-01,7.839552402496338113e-01,2.318764209747314342e-01,2.243901252746582087e-01
6.193145751953125222e-01,6.350144386291504128e-01,6.515310764312743919e-01,6.689298152923583984e-01,6.872832298278808150e-01,7.066722393035889116e-01,7.271870613098144753e-01,7.489284515380859597e-01,7.720100402832030806e-01,7.965595722198486328e-01,8.227240562438964400e-01,8.506712913513183594e-01,8.805838584899902122e-01,9.126769065856933372e-01,9.471975326538085715e-01,9.844322204589843750e-01,1.000000000000000000e+00,1.000000000000000000e+00,1.000000000000000000e+00,1.000000000000000000e+00,1.000000000000000000e+00,1.000000000000000000e+00,1.000000000000000000e+00,1.000000000000000000e+00,1.000000000000000000e+00,1.000000000000000000e+00,1.000000000000000000e+00,1.000000000000000000e+00,1.000000000000000000e+00,1.000000000000000000e+00,1.000000000000000000e+00,1.000000000000000000e+00,1.000000000000000000e+00,1.000000000000000000e+00,1.000000000000000000e+00,1.000000000000000000e+00,1.000000000000000000e+00,1.000000000000000000e+00,1.000000000000000000e+00,1.000000000000000000e+00,1.000000000000000000e+00,1.000000000000000000e+00,1.000000000000000000e+00,1.000000000000000000e+00,1.000000000000000000e+00,1.000000000000000000e+00,1.000000000000000000e+00,1.000000000000000000e+00,1.000000000000000000e+00,1.000000000000000000e+00,1.000000000000000000e+00,1.000000000000000000e+00,1.000000000000000000e+00,1.000000000000000000e+00,1.000000000000000000e+00,1.000000000000000000e+00,1.000000000000000000e+00,1.000000000000000000e+00,1.000000000000000000e+00,1.000000000000000000e+00,1.000000000000000000e+00,1.000000000000000000e+00,1.000000000000000000e+00,2.963087320327758567e-01,2.825088977813720592e-01,2.763251066207885742e-01,2.710333824157714622e-01,2.676363229751587136e-01,2.629505634307861550e-01,2.646952152252197155e-01,9.696753501892090288e-01,9.379362106323242410e-01,9.082089424133300559e-01,8.803081512451171875e-01,8.540704727172852007e-01,8.293516159057616743e-01,8.060241699218749778e-01,7.839732646942139116e-01,2.320217847824096735e-01,2.242514610290527455e-01
6.193012714385985884e-01,6.350004196166991743e-01,6.515163421630859597e-01,6.689142704010009322e-01,6.872668266296386719e-01,7.066549301147461160e-01,7.271687030792236550e-01,7.489089488983153853e-01,7.719893455505371094e-01,7.965375423431396706e-01,8.226982116699218528e-01,8.506356239318847434e-01,8.805375099182128906e-01,9.126270294189453569e-01,9.471438407897949663e-01,9.843742370605468306e-01,1.000000000000000000e+00,1.000000000000000000e+00,1.000000000000000000e+00,1.000000000000000000e+00,1.000000000000000000e+00,1.000000000000000000e+00,1.000000000000000000e+00,1.000000000000000000e+00,1.000000000000000000e+00,1.000000000000000000e+00,1.000000000000000000e+00,1.000000000000000000e+00,1.000000000000000000e+00,1.000000000000000000e+00,1.000000000000000000e+00,1.000000000000000000e+00,1.000000000000000000e+00,1.000000000000000000e+00,1.000000000000000000e+00,1.000000000000000000e+00,1.000000000000000000e+00,1.000000000000000000e+00,1.000000000000000000e+00,1.000000000000000000e+00,1.000000000000000000e+00,1.000000000000000000e+00,1.000000000000000000e+00,1.000000000000000000e+00,1.000000000000000000e+00,1.000000000000000000e+00,1.000000000000000000e+00,1.000000000000000000e+00,1.000000000000000000e+00,1.000000000000000000e+00,1.000000000000000000e+00,1.000000000000000000e+00,1.000000000000000000e+00,1.000000000000000000e+00,1.000000000000000000e+00,1.000000000000000000e+00,1.000000000000000000e+00,1.000000000000000000e+00,1.000000000000000000e+00,1.000000000000000000e+00,1.000000000000000000e+00,1.000000000000000000e+00,1.000000000000000000e+00,2.916857719421386830e-01,2.851231098175048828e-01,2.788821935653686412e-01,2.755641937255859375e-01,2.724087953567504994e-01,2.787701129913330300e-01,1.000000000000000000e+00,9.697005271911620650e-01,9.379596710205078125e-01,9.082309722900390181e-01,8.803293228149413618e-01,8.540914535522461382e-01,8.293724060058593750e-01,8.060439109802246538e-01,7.839919567108154519e-01,2.321742057800292858e-01,2.241129636764526423e-01
6.192879199981689009e-01,6.349864482879639116e-01,6.515015602111816628e-01,6.688987255096435769e-01,6.872504711151122825e-01,7.066375732421874556e-01,7.271503448486328347e-01,7.488894939422607866e-01,7.719686508178711382e-01,7.965155124664307085e-01,8.226746559143066628e-01,8.506105422973633257e-01,8.805102348327636941e-01,9.125885009765625222e-01,9.470925331115722656e-01,9.843162536621093972e-01,1.000000000000000000e+00,1.000000000000000000e+00,1.000000000000000000e+00,1.000000000000000000e+00,1.000000000000000000e+00,1.000000000000000000e+00,1.000000000000000000e+00,1.000000000000000000e+00,1.000000000000000000e+00,1.000000000000000000e+00,1.000000000000000000e+00,1.000000000000000000e+00,1.000000000000000000e+00,1.000000000000000000e+00,1.000000000000000000e+00,1.000000000000000000e+00,1.000000000000000000e+00,1.000000000000000000e+00,1.000000000000000000e+00,1.000000000000000000e+00,1.000000000000000000e+00,1.000000000000000000e+00,1.000000000000000000e+00,1.000000000000000000e+00,1.000000000000000000e+00,1.000000000000000000e+00,1.000000000000000000e+00,1.000000000000000000e+00,1.000000000000000000e+00,1.000000000000000000e+00,1.000000000000000000e+00,1.000000000000000000e+00,1.000000000000000000e+00,1.000000000000000000e+00,1.000000000000000000e+00,1.000000000000000000e+00,1.000000000000000000e+00,1.000000000000000000e+00,1.000000000000000000e+00,1.000000000000000000e+00,1.000000000000000000e+00,1.000000000000000000e+00,1.000000000000000000e+00,1.000000000000000000e+00,1.000000000000000000e+00,1.000000000000000000e+00,3.104937076568603516e-01,2.944734334945678933e-01,2.878410339355468861e-01,2.821717500686645730e-01,2.789847850799560547e-01,2.801587581634521484e-01,1.000000000000000000e+00,1.000000000000000000e+00,9.697256088256835938e-01,9.379844665527343750e-01,9.082552909851073775e-01,8.803527832031250444e-01,8.541135787963867188e-01,8.293931961059570757e-01,8.060635566711426003e-01,7.840105533599853738e-01,2.323329687118530218e-01,2.239746570587158314e-01
6.192746162414550781e-01,6.349724292755126731e-01,6.514868259429931197e-01,6.688832283020019753e-01,6.872340202331542747e-01,7.066202640533447710e-01,7.271319866180420144e-01,7.488699913024902122e-01,7.719479560852050559e-01,7.964934825897216353e-01,8.226511955261230913e-01,8.505853652954101785e-01,8.804832458496093528e-01,9.125596046447753684e-01,9.470613479614258257e-01,9.842744827270507590e-01,1.000000000000000000e+00,1.000000000000000000e+00,1.000000000000000000e+00,1.000000000000000000e+00,1.000000000000000000e+00,1.000000000000000000e+00,1.000000000000000000e+00,1.000000000000000000e+00,1.000000000000000000e+00,1.000000000000000000e+00,1.000000000000000000e+00,1.000000000000000000e+00,1.000000000000000000e+00,1.000000000000000000e+00,1.000000000000000000e+00,1.000000000000000000e+00,1.000000000000000000e+00,1.000000000000000000e+00,1.000000000000000000e+00,1.000000000000000000e+00,1.000000000000000000e+00,1.000000000000000000e+00,1.000000000000000000e+00,1.000000000000000000e+00,1.000000000000000000e+00,1.000000000000000000e+00,1.000000000000000000e+00,1.000000000000000000e+00,1.000000000000000000e+00,1.000000000000000000e+00,1.000000000000000000e+00,1.000000000000000000e+00,1.000000000000000000e+00,1.000000000000000000e+00,1.000000000000000000e+00,1.000000000000000000e+00,1.000000000000000000e+00,1.000000000000000000e+00,1.000000000000000000e+00,1.000000000000000000e+00,1.000000000000000000e+00,1.000000000000000000e+00,1.000000000000000000e+00,1.000000000000000000e+00,1.000000000000000000e+00,1.000000000000000000e+00,3.071053504943847545e-01,2.973945856094360463e-01,2.906723737716674916e-01,2.856790781021117942e-01,2.824913978576660267e-01,2.907875299453735463e-01,1.000000000000000000e+00,1.000000000000000000e+00,9.697541236877441628e-01,9.380110740661621316e-01,9.082802772521972878e-01,8.803762435913086160e-01,8.541357040405272993e-01,8.294140815734862837e-01,8.060832977294921653e-01,7.840291500091552956e-01,2.324919700622558594e-01,2.238364934921264759e-01
6.192613124847412553e-01,6.349584102630615456e-01,6.514720916748046875e-01,6.688676834106445090e-01,6.872176170349121316e-01,7.066029071807861106e-01,7.271136283874511941e-01,7.488505363464355025e-01,7.719272613525390847e-01,7.964715003967285378e-01,8.226276397705077903e-01,8.505602836608886497e-01,8.804563522338867410e-01,9.125307083129883257e-01,9.470302581787108931e-01,9.842408180236816850e-01,1.000000000000000000e+00,1.000000000000000000e+00,1.000000000000000000e+00,1.000000000000000000e+00,1.000000000000000000e+00,1.000000000000000000e+00,1.000000000000000000e+00,1.000000000000000000e+00,1.000000000000000000e+00,1.000000000000000000e+00,1.000000000000000000e+00,1.000000000000000000e+00,1.000000000000000000e+00,1.000000000000000000e+00,1.000000000000000000e+00,1.000000000000000000e+00,1.000000000000000000e+00,1.000000000000000000e+00,1.000000000000000000e+00,1.000000000000000000e+00,1.000000000000000000e+00,1.000000000000000000e+00,1.000000000000000000e+00,1.000000000000000000e+00,1.000000000000000000e+00,1.000000000000000000e+00,1.000000000000000000e+00,1.000000000000000000e+00,1.000000000000000000e+00,1.000000000000000000e+00,1.000000000000000000e+00,1.000000000000000000e+00,1.000000000000000000e+00,1.000000000000000000e+00,1.000000000000000000e+00,1.000000000000000000e+00,1.000000000000000000e+00,1.000000000000000000e+00,1.000000000000000000e+00,1.000000000000000000e+00,1.000000000000000000e+00,1.000000000000000000e+00,1.000000000000000000e+00,1.000000000000000000e+00,1.000000000000000000e+00,1.000000000000000000e+00,3.078966617584228405e-01,3.005036830902099720e-01,2.936628341674804576e-01,2.892832994461059792e-01,2.927613258361816406e-01,1.000000000000000000e+00,1.000000000000000000e+00,1.000000000000000000e+00,9.697825431823730025e-01,9.380376815795898882e-01,9.083052635192870872e-01,8.803997993469238059e-01,8.541578292846679910e-01,8.294349670410156028e-01,8.061029434204101118e-01,7.840477466583252175e-01,2.326511621475219616e-01,2.236985206604003851e-01
6.192480087280273215e-01,6.349444389343261719e-01,6.514573574066162553e-01,6.688521385192871538e-01,6.872012138366698775e-01,7.065855503082275613e-01,7.270952701568603738e-01,7.488310813903809038e-01,7.719065666198730025e-01,7.964494705200195757e-01,8.226042747497558372e-01,8.505351066589355025e-01,8.804294586181640181e-01,9.125018119812011719e-01,9.469990730285644531e-01,9.842072486877441184e-01,1.000000000000000000e+00,1.000000000000000000e+00,1.000000000000000000e+00,1.000000000000000000e+00,1.000000000000000000e+00,1.000000000000000000e+00,1.000000000000000000e+00,1.000000000000000000e+00,1.000000000000000000e+00,1.000000000000000000e+00,1.000000000000000000e+00,1.000000000000000000e+00,1.000000000000000000e+00,1.000000000000000000e+00,1.000000000000000000e+00,1.000000000000000000e+00,1.000000000000000000e+00,1.000000000000000000e+00,1.000000000000000000e+00,1.000000000000000000e+00,1.000000000000000000e+00,1.000000000000000000e+00,1.000000000000000000e+00,1.000000000000000000e+00,1.000000000000000000e+00,1.000000000000000000e+00,1.000000000000000000e+00,1.000000000000000000e+00,1.000000000000000000e+00,1.000000000000000000e+00,1.000000000000000000e+00,1.000000000000000000e+00,1.000000000000000000e+00,1.000000000000000000e+00,1.000000000000000000e+00,1.000000000000000000e+00,1.000000000000000000e+00,1.000000000000000000e+00,1.000000000000000000e+00,1.000000000000000000e+00,1.000000000000000000e+00,1.000000000000000000e+00,1.000000000000000000e+00,1.000000000000000000e+00,1.000000000000000000e+00,3.260953187942504661e-01,3.114433288574218750e-01,3.039016008377075084e-01,2.983972549438476674e-01,2.950143337249755970e-01,1.000000000000000000e+00,1.000000000000000000e+00,1.000000000000000000e+00,1.000000000000000000e+00,9.698110580444335715e-01,9.380643844604492632e-01,9.083303451538086160e-01,8.804231643676757590e-01,8.541798591613769531e-01,8.294557571411133035e-01,8.061225891113281694e-01,7.840663909912108931e-01,2.328105688095092884e-01,2.236909627914428766e-01
6.192346572875976340e-01,6.349304199218750444e-01,6.514426231384277122e-01,6.688365936279296875e-01,6.871848583221435991e-01,7.065682411193847656e-01,7.270769119262695535e-01,7.488116264343261941e-01,7.718858718872070312e-01,7.964274406433105025e-01,8.225807189941406472e-01,8.505100250244140847e-01,8.804025650024414062e-01,9.124729156494140181e-01,9.469679832458496316e-01,9.841735839843750444e-01,1.000000000000000000e+00,1.000000000000000000e+00,1.000000000000000000e+00,1.000000000000000000e+00,1.000000000000000000e+00,1.000000000000000000e+00,1.000000000000000000e+00,1.000000000000000000e+00,1.000000000000000000e+00,1.000000000000000000e+00,1.000000000000000000e+00,1.000000000000000000e+00,1.000000000000000000e+00,1.000000000000000000e+00,1.000000000000000000e+00,1.000000000000000000e+00,1.000000000000000000e+00,1.000000000000000000e+00,1.000000000000000000e+00,1.000000000000000000e+00,1.000000000000000000e+00,1.000000000000000000e+00,1.000000000000000000e+00,1.000000000000000000e+00,1.000000000000000000e+00,1.000000000000000000e+00,1.000000000000000000e+00,1.000000000000000000e+00,1.000000000000000000e+00,1.000000000000000000e+00,1.000000000000000000e+00,1.000000000000000000e+00,1.000000000000000000e+00,1.000000000000000000e+00,1.000000000000000000e+00,1.000000000000000000e+00,1.000000000000000000e+00,1.000000000000000000e+00,1.000000000000000000e+00,1.000000000000000000e+00,1.000000000000000000e+00,1.000000000000000000e+00,1.000000000000000000e+00,1.000000000000000000e+00,1.000000000000000000e+00,3.240265130996703991e-01,3.151407718658447155e-01,3.074843406677246205e-01,3.038331031799316184e-01,1.000000000000000000e+00,1.000000000000000000e+00,1.000000000000000000e+00,1.000000000000000000e+00,1.000000000000000000e+00,9.698395729064941406e-01,9.380909919738769087e-01,9.083552360534667969e-01,8.804467201232910600e-01,8.542019844055175337e-01,8.294766426086426225e-01,8.061423301696777344e-01,7.840849876403808150e-01,2.331001281738281361e-01,2.238851070404052623e-01
6.192213535308838113e-01,6.349164485931396706e-01,6.514278888702392800e-01,6.688210964202880859e-01,6.871684551239013450e-01,7.065508842468262163e-01,7.270585536956787331e-01,7.487921237945556197e-01,7.718652248382568137e-01,7.964054107666015403e-01,8.225572586059570757e-01,8.504849433898925559e-01,8.803756713867187944e-01,9.124440193176269753e-01,9.469367980957030806e-01,9.841400146484374778e-01,1.000000000000000000e+00,1.000000000000000000e+00,1.000000000000000000e+00,1.000000000000000000e+00,1.000000000000000000e+00,1.000000000000000000e+00,1.000000000000000000e+00,1.000000000000000000e+00,1.000000000000000000e+00,1.000000000000000000e+00,1.000000000000000000e+00,1.000000000000000000e+00,1.000000000000000000e+00,1.000000000000000000e+00,1.000000000000000000e+00,1.000000000000000000e+00,1.000000000000000000e+00,1.000000000000000000e+00,1.000000000000000000e+00,1.000000000000000000e+00,1.000000000000000000e+00,1.000000000000000000e+00,1.000000000000000000e+00,1.000000000000000000e+00,1.000000000000000000e+00,1.000000000000000000e+00,1.000000000000000000e+00,1.000000000000000000e+00,1.000000000000000000e+00,1.000000000000000000e+00,1.000000000000000000e+00,1.000000000000000000e+00,1.000000000000000000e+00,1.000000000000000000e+00,1.000000000000000000e+00,1.000000000000000000e+00,1.000000000000000000e+00,1.000000000000000000e+00,1.000000000000000000e+00,1.000000000000000000e+00,1.000000000000000000e+00,1.000000000000000000e+00,1.000000000000000000e+00,1.000000000000000000e+00,1.000000000000000000e+00,3.311851978302001731e-01,3.189951181411743164e-01,3.126533508300781139e-01,3.105456113815307506e-01,1.000000000000000000e+00,1.000000000000000000e+00,1.000000000000000000e+00,1.000000000000000000e+00,1.000000000000000000e+00,9.698680877685547097e-01,9.381176948547362837e-01,9.083803176879883257e-01,8.804701805114746316e-01,8.542241096496582253e-01,8.294974327087402122e-01,8.061619758605956809e-01,7.841036319732666016e-01,2.338588476181030218e-01,2.240796089172363281e-01
6.192080497741698775e-01,6.349024295806884322e-01,6.514131546020507368e-01,6.688055515289306197e-01,6.871520519256592019e-01,7.065335750579834206e-01,7.270401954650879128e-01,7.487727642059326394e-01,7.718445301055908425e-01,7.963833808898925781e-01,8.225337982177733931e-01,8.504597663879394087e-01,8.803486824035644531e-01,9.124151229858398215e-01,9.469057083129882590e-01,9.709944725036621094e-01,9.707519531249999556e-01,9.705096244812011497e-01,9.702673912048339622e-01,9.700252532958983931e-01,9.697833061218261719e-01,9.695413589477539507e-01,9.692996025085449663e-01,9.690580368041992188e-01,9.688164710998534712e-01,9.685750961303710715e-01,9.683337211608886719e-01,9.680926322937011275e-01,9.678515434265136941e-01,9.676106452941894975e-01,9.673698425292969194e-01,9.671291351318359597e-01,9.668886184692382368e-01,9.666481018066406250e-01,9.664078712463378684e-01,9.661676406860351118e-01,9.659275054931640847e-01,9.656875610351562944e-01,9.654477119445801225e-01,9.652080535888671875e-01,9.649683952331542525e-01,9.647289276123046653e-01,9.644895553588866965e-01,9.642502784729003462e-01,9.640111923217773438e-01,9.637722015380859597e-01,9.635333061218261941e-01,9.632945060729980469e-01,9.630558013916015181e-01,9.628173828124999556e-01,9.625788688659667747e-01,9.623405456542968306e-01,9.621024131774902344e-01,9.618642807006836382e-01,9.616263389587402788e-01,9.613885879516601562e-01,9.611508369445800337e-01,9.609131813049316406e-01,9.606757164001464844e-01,9.604383468627929465e-01,9.602011680603027566e-01,3.305146455764770286e-01,3.249386072158813588e-01,3.213795661926269753e-01,9.592533111572265625e-01,9.590167045593261941e-01,9.587801933288574441e-01,9.585436820983886941e-01,9.583074569702147993e-01,9.580712318420410156e-01,9.578351020812988503e-01,9.381443023681640403e-01,9.084053039550781250e-01,8.804936408996582031e-01,8.542462348937988059e-01,8.295183181762695312e-01,8.061817169189453569e-01,7.841222763061523882e-01,2.347432374954223633e-01,2.242744445800781139e-01
6.191947460174560547e-01,6.348884582519531694e-01,6.513984203338623047e-01,6.687900066375732644e-01,6.871356487274169478e-01,7.065162181854247603e-01,7.270218372344970925e-01,7.487533092498779297e-01,7.542439460754394309e-01,7.540976524353026900e-01,7.539513587951660600e-01,7.538051605224609375e-01,7.536589622497558150e-01,7.535129070281982866e-01,7.533669471740722656e-01,7.532208919525146262e-01,7.530750274658203347e-01,7.529290676116943137e-01,7.527832984924316406e-01,7.526375770568847212e-01,7.524918556213379128e-01,7.523462295532226118e-01,7.522006034851074219e-01,7.520551204681396040e-01,7.519096851348876509e-01,7.517642021179199441e-01,7.516189098358154741e-01,7.514735221862792747e-01,7.513283252716064231e-01,7.511831760406494363e-01,7.510379791259765847e-01,7.508929252624512163e-01,7.507478713989257368e-01,7.506029129028319868e-01,7.504580497741699663e-01,7.503131389617919700e-01,7.501683712005615678e-01,7.500236034393310547e-01,7.498789310455322710e-01,7.497343540191649947e-01,7.495897293090820757e-01,7.494452476501465288e-01,7.493007183074951172e-01,7.491563320159911887e-01,7.490120410919189897e-01,7.488676548004150613e-01,7.487234592437743697e-01,7.485792160034179243e-01,7.484351158142089622e-01,7.482911109924316184e-01,7.481470108032226562e-01,7.480031013488769309e-01,7.478591442108154519e-01,7.477153301239013450e-01,7.475715160369873491e-01,7.474277496337891069e-01,7.472841262817382368e-01,7.471404552459717241e-01,7.469968795776367188e-01,7.468533039093017134e-01,7.467099189758300559e-01,3.303900718688964622e-01,3.255210161209106667e-01,3.235379219055175559e-01,7.461365699768066628e-01,7.459933757781982422e-01,7.458502769470214400e-01,7.457071781158447488e-01,7.455641746520995650e-01,7.454211235046386275e-01,7.452782630920410378e-01,7.451354503631592019e-01,7.449925899505615012e-01,7.448498725891112837e-01,7.447071075439453125e-01,7.445644855499267134e-01,7.444219112396239790e-01,7.442793369293212447e-01,2.356343269348144531e-01,2.244696140289306752e-01
6.167004585266113725e-01,6.166026115417480025e-01,6.165048599243163618e-01,6.164071083068847212e-01,6.163094043731689453e-01,6.162116527557373047e-01,6.161140441894531472e-01,6.160163402557372603e-01,6.159187793731689675e-01,6.158212184906005637e-01,6.157236576080322710e-01,6.156261444091797319e-01,6.155286312103271928e-01,6.154312133789062722e-01,6.153337955474853516e-01,6.152363777160644309e-01,6.151390552520752397e-01,6.150416851043700728e-01,6.149444103240966353e-01,6.148471355438231978e-01,6.147499084472656250e-01,6.146527290344238059e-01,6.145555019378662331e-01,6.144583702087402788e-01,6.143612861633300781e-01,6.142641544342041238e-01,6.141671180725097878e-01,6.140700817108154519e-01,6.139730930328368697e-01,6.138761520385742632e-01,6.137792110443115456e-01,6.136823177337646928e-01,6.135854244232177290e-01,6.134886264801024947e-01,6.133918285369872603e-01,6.132950305938720259e-01,6.131983280181885210e-01,6.131015777587890403e-01,6.130049228668212891e-01,6.129082679748535378e-01,6.128116130828857866e-01,6.127150535583496538e-01,6.126184463500976562e-01,6.125219345092773882e-01,6.124254703521728738e-01,6.123289585113524947e-01,6.122325420379638450e-01,6.121360778808593306e-01,6.120397567749022993e-01,6.119433879852295144e-01,6.118470668792724831e-01,6.117507934570312056e-01,6.116544723510741743e-01,6.115582942962646262e-01,6.114620685577392134e-01,6.113658905029296653e-01,6.112698078155517356e-01,6.111736297607421875e-01,6.110775947570801225e-01,6.109815120697021928e-01,6.108855247497558816e-01,3.296575307846069114e-01,3.259235858917236550e-01,3.241532087326050027e-01,6.105017185211181197e-01,6.104058742523192915e-01,6.103100776672363281e-01,6.102142333984375000e-01,6.101184844970702903e-01,6.100226879119873269e-01,6.099269866943359819e-01,6.098313331604003906e-01,6.097356319427490456e-01,6.096400260925293191e-01,6.095444202423095925e-01,6.094488620758056197e-01,6.093533515930176225e-01,6.092577934265136497e-01,6.091623783111572710e-01,2.246651172637939564e-01
5.210252761840820090e-01,5.209554672241211160e-01,5.208857059478759766e-01,5.208158493041992188e-01,5.207461357116699441e-01,5.206763744354248047e-01,5.206066608428955300e-01,5.205368995666503906e-01,5.204672336578368697e-01,5.203975677490234597e-01,5.203279018402099387e-01,5.202582836151122825e-01,5.201886177062988725e-01,5.201190471649169700e-01,5.200494766235351785e-01,5.199799060821532759e-01,5.199103355407714844e-01,5.198408126831054465e-01,5.197712898254394087e-01,5.197018146514892356e-01,5.196323394775390625e-01,5.195629119873046431e-01,5.194934368133544700e-01,5.194240570068359153e-01,5.193546295166016069e-01,5.192852497100830522e-01,5.192159175872802512e-01,5.191465377807616965e-01,5.190772533416747603e-01,5.190079212188720703e-01,5.189386367797851340e-01,5.188694000244140625e-01,5.188001155853271262e-01,5.187308788299560547e-01,5.186616897583007368e-01,5.185924530029296653e-01,5.185233116149902122e-01,5.184541225433350053e-01,5.183850288391113059e-01,5.183158874511718528e-01,5.182467937469482644e-01,5.181777000427245650e-01,5.181086063385009766e-01,5.180396080017090066e-01,5.179705619812011719e-01,5.179015159606933372e-01,5.178325653076172319e-01,5.177635669708251509e-01,5.176946163177490456e-01,5.176257133483886941e-01,5.175567626953124778e-01,5.174878597259521262e-01,5.174189567565917747e-01,5.173501491546630415e-01,5.172812461853026900e-01,5.172124385833740678e-01,5.171436786651610884e-01,5.170748710632324663e-01,5.170061111450194868e-01,5.169373035430908647e-01,5.168685913085937500e-01,3.281910657882690652e-01,3.260261774063110130e-01,3.244009494781494030e-01,5.165938377380371316e-01,5.165252208709716353e-01,5.164566040039062500e-01,5.163879394531250000e-01,5.163193702697753684e-01,5.162508010864257368e-01,5.161822319030762163e-01,5.161137104034423384e-01,5.160451889038085715e-01,5.159767150878906694e-01,5.159081935882567915e-01,5.158397674560546431e-01,5.157713413238524947e-01,5.157028675079345925e-01,5.156344890594481978e-01,2.248609781265258900e-01
4.510493278503417969e-01,4.509969711303710715e-01,4.509446620941162109e-01,4.508923530578613503e-01,4.508400917053222434e-01,4.507877826690673828e-01,4.507355213165283314e-01,4.506833076477050892e-01,4.506310462951660378e-01,4.505787849426269309e-01,4.505266189575195535e-01,4.504744052886963113e-01,4.504221916198730691e-01,4.503700256347656361e-01,4.503178596496582031e-01,4.502656936645507701e-01,4.502135276794433372e-01,4.501613616943359597e-01,4.501092910766601451e-01,4.500571727752685769e-01,4.500050544738769531e-01,4.499529838562011941e-01,4.499008655548095703e-01,4.498488426208496205e-01,4.497967720031738059e-01,4.497447013854980469e-01,4.496927261352539062e-01,4.496406555175781472e-01,4.495886802673340066e-01,4.495367050170898660e-01,4.494846820831298606e-01,4.494327545166015847e-01,4.493807792663574441e-01,4.493288516998291127e-01,4.492769241333007812e-01,4.492249965667724498e-01,4.491730690002441184e-01,4.491211414337158425e-01,4.490693092346191295e-01,4.490174293518066628e-01,4.489655494689941406e-01,4.489137172698974831e-01,4.488618373870849609e-01,4.488100528717041127e-01,4.487582683563232644e-01,4.487064361572265514e-01,4.486546516418457031e-01,4.486028671264648549e-01,4.485510826110840066e-01,4.484993457794189675e-01,4.484476089477539285e-01,4.483958721160888894e-01,4.483441352844238503e-01,4.482924461364746205e-01,4.482407569885253906e-01,4.481890678405761608e-01,4.481374263763427956e-01,4.480857372283935658e-01,4.480340957641601451e-01,4.479824542999267800e-01,4.479308605194091686e-01,3.279926776885986328e-01,3.250961780548095592e-01,3.243797779083251731e-01,3.240474224090575950e-01,4.476729393005370872e-01,4.476213932037353405e-01,4.475697994232177845e-01,4.475183010101318470e-01,4.474667549133301003e-01,4.474153041839599720e-01,4.473638057708740345e-01,4.473123073577880970e-01,4.472608566284179688e-01,4.472093582153320312e-01,4.471579551696777122e-01,4.471065044403076394e-01,4.470550537109375111e-01,4.470036983489990012e-01,2.250571727752685436e-01
3.976439714431762584e-01,3.976033210754394420e-01,3.975626468658447488e-01,3.975220203399658092e-01,3.974813699722289928e-01,3.974407434463501088e-01,3.974001169204711692e-01,3.973594665527343528e-01,3.973188638687134011e-01,3.972782611846923939e-01,3.972376823425293191e-01,3.971971035003661887e-01,3.971565246582031139e-01,3.971159696578979714e-01,3.970753669738769642e-01,3.970348119735717662e-01,3.969942808151245006e-01,3.969537496566772350e-01,3.969132184982299694e-01,3.968727111816406361e-01,3.968321561813354381e-01,3.967916488647461049e-01,3.967511653900146484e-01,3.967106819152831920e-01,3.966702222824096680e-01,3.966296911239624023e-01,3.965892553329467551e-01,3.965487957000732311e-01,3.965083599090576394e-01,3.964679241180419922e-01,3.964274644851684681e-01,3.963870525360107533e-01,3.963466405868530384e-01,3.963062286376953236e-01,3.962658405303954856e-01,3.962254285812377708e-01,3.961850404739379883e-01,3.961446762084960826e-01,3.961043119430541770e-01,3.960639715194702037e-01,3.960235834121704213e-01,3.959832429885864480e-01,3.959429264068603516e-01,3.959026098251342551e-01,3.958622932434082142e-01,3.958219528198242410e-01,3.957816600799560769e-01,3.957413673400879128e-01,3.957010984420776256e-01,3.956608295440673939e-01,3.956205129623412975e-01,3.955802679061889426e-01,3.955400228500366433e-01,3.954998016357421653e-01,3.954595327377319336e-01,3.954193115234375111e-01,3.953790903091430886e-01,3.953388929367065430e-01,3.952986955642699973e-01,3.952584743499755748e-01,3.952182769775390847e-01,3.951781272888183483e-01,3.243232488632202259e-01,3.237171649932861217e-01,3.225610494613647683e-01,3.950174808502197044e-01,3.949773550033569558e-01,3.949372291564941517e-01,3.948971033096313477e-01,3.948569536209106667e-01,3.948168754577636719e-01,3.947767734527588002e-01,3.947366952896118053e-01,3.946966171264648660e-01,3.946565151214599387e-01,3.946164608001708762e-01,3.945764064788818137e-01,3.945363759994506836e-01,3.944963455200195535e-01,2.303642511367797741e-01
3.555464267730713002e-01,3.555139303207397461e-01,3.554814338684081920e-01,3.554489374160766380e-01,3.554164409637451394e-01,3.553839206695556530e-01,3.553514242172240989e-01,3.553189516067504772e-01,3.552864789962768555e-01,3.552540302276611106e-01,3.552215814590454213e-01,3.551891326904296764e-01,3.551566839218139870e-01,3.551242113113403098e-01,3.550917625427246205e-01,3.550593376159668080e-01,3.550269126892089955e-01,3.549945116043090598e-01,3.549621105194091797e-01,3.549297094345092995e-01,3.548972606658935547e-01,3.548648834228515514e-01,3.548324823379516713e-01,3.548001050949096680e-01,3.547677278518676647e-01,3.547353267669677845e-01,3.547029733657837136e-01,3.546706199645995872e-01,3.546382665634155162e-01,3.546059131622314453e-01,3.545735359191894420e-01,3.545412063598633035e-01,3.545088768005371094e-01,3.544765710830688477e-01,3.544442415237426536e-01,3.544118881225585826e-01,3.543796062469482533e-01,3.543473005294799916e-01,3.543150186538696067e-01,3.542827129364013450e-01,3.542504072189330833e-01,3.542181253433227539e-01,3.541858673095703014e-01,3.541536092758178489e-01,3.541213512420654519e-01,3.540890693664550670e-01,3.540568113327026145e-01,3.540245771408080944e-01,3.539923429489135742e-01,3.539601087570190541e-01,3.539278507232666016e-01,3.538956403732299583e-01,3.538634300231933705e-01,3.538312196731567272e-01,3.537989854812622070e-01,3.537667989730834961e-01,3.537346124649047852e-01,3.537024497985840066e-01,3.536702632904052956e-01,3.536380529403686523e-01,3.536058902740478738e-01,3.535737514495849720e-01,3.535415887832641380e-01,3.535094499588012917e-01,3.216737031936645619e-01,3.534451484680175559e-01,3.534130096435547097e-01,3.533808946609496848e-01,3.533487796783447155e-01,3.533166408538818137e-01,3.532845258712768444e-01,3.532524347305298074e-01,3.532203435897827148e-01,3.531882524490356223e-01,3.531561374664306530e-01,3.531240701675414928e-01,3.530920028686523326e-01,3.530599355697631725e-01,3.530278921127319447e-01,2.280480384826660267e-01
3.215090990066528098e-01,3.214825153350829856e-01,3.214559316635131614e-01,3.214293241500854603e-01,3.214027643203735130e-01,3.213762044906616211e-01,3.213496446609497292e-01,3.213230848312377819e-01,3.212965250015258900e-01,3.212699890136718750e-01,3.212434291839599831e-01,3.212168693542480358e-01,3.211903333663940208e-01,3.211637973785400613e-01,3.211372613906860463e-01,3.211107492446899636e-01,3.210842370986938255e-01,3.210577249526977428e-01,3.210311889648437278e-01,3.210046768188476451e-01,3.209781646728515625e-01,3.209516763687133567e-01,3.209251880645752064e-01,3.208986997604370006e-01,3.208722114562988503e-01,3.208456993103027122e-01,3.208192348480224387e-01,3.207927703857421653e-01,3.207663059234618919e-01,3.207398414611816184e-01,3.207133531570434681e-01,3.206869125366210715e-01,3.206604480743407981e-01,3.206340074539184570e-01,3.206075668334961160e-01,3.205811023712158425e-01,3.205546855926513783e-01,3.205282449722289817e-01,3.205018281936645730e-01,3.204754114151001088e-01,3.204489707946777122e-01,3.204225540161133035e-01,3.203961610794067161e-01,3.203697681427001842e-01,3.203433513641357200e-01,3.203169345855713113e-01,3.202905416488647239e-01,3.202641725540161244e-01,3.202378034591674694e-01,3.202114105224609375e-01,3.201850175857544056e-01,3.201586484909057506e-01,3.201323032379150280e-01,3.201059341430664285e-01,3.200795650482177734e-01,3.200532197952270508e-01,3.200268745422363281e-01,3.200005292892456055e-01,3.199741840362548828e-01,3.199478149414062278e-01,3.199214935302734375e-01,3.198951721191406472e-01,3.198688507080078014e-01,3.198425531387328880e-01,3.198162078857421653e-01,3.197899103164673074e-01,3.197636127471923939e-01,3.197373151779174805e-01,3.197110176086425670e-01,3.196846961975097767e-01,3.196584224700927956e-01,3.196321487426757590e-01,3.196058750152587780e-01,3.195796012878417969e-01,3.195533037185668834e-01,3.195270538330078347e-01,3.195007801055907981e-01,3.194745302200317494e-01,3.194482803344726451e-01,2.283915281295776367e-01
2.934193372726440208e-01,2.933971881866455078e-01,2.933750391006469949e-01,2.933529138565063588e-01,2.933307647705077903e-01,2.933086395263672097e-01,2.932865142822265736e-01,2.932643890380859375e-01,2.932422876358032338e-01,2.932201385498046653e-01,2.931980371475219616e-01,2.931759119033813255e-01,2.931538105010986217e-01,2.931317090988159180e-01,2.931096076965332142e-01,2.930875062942505105e-01,2.930654048919677512e-01,2.930433034896850475e-01,2.930212259292602761e-01,2.929991483688354492e-01,2.929770708084106223e-01,2.929549932479858509e-01,2.929329156875610241e-01,2.929108619689941295e-01,2.928887605667114258e-01,2.928667068481445312e-01,2.928446531295776367e-01,2.928225755691528098e-01,2.928005456924438477e-01,2.927784919738769531e-01,2.927564144134521262e-01,2.927343845367431641e-01,2.927123308181762695e-01,2.926903009414673074e-01,2.926682710647582897e-01,2.926462173461913951e-01,2.926241874694824330e-01,2.926021575927734153e-01,2.925801515579223855e-01,2.925581455230713002e-01,2.925360918045044056e-01,2.925140857696533203e-01,2.924920797348022350e-01,2.924700975418090820e-01,2.924480915069579967e-01,2.924260616302490345e-01,2.924040794372558816e-01,2.923820972442626731e-01,2.923601150512695201e-01,2.923381328582763672e-01,2.923161268234252819e-01,2.922941446304321289e-01,2.922721624374389759e-01,2.922502040863036998e-01,2.922282218933105469e-01,2.922062397003173939e-01,2.921842813491821178e-01,2.921623468399047741e-01,2.921403884887695535e-01,2.921184062957763450e-01,2.920964717864990012e-01,2.920745134353637806e-01,2.920525789260864369e-01,2.920306444168090931e-01,2.920086860656738170e-01,2.919867515563964733e-01,2.919648408889770619e-01,2.919429063796997181e-01,2.919209957122802512e-01,2.918990612030029075e-01,2.918771505355834961e-01,2.918552398681640847e-01,2.918333292007446178e-01,2.918114185333252064e-01,2.917895078659057395e-01,2.917675971984863281e-01,2.917457103729247936e-01,2.917238235473632590e-01,2.347970008850097656e-01,2.272644042968750000e-01
2.698435068130493053e-01,2.698247671127319558e-01,2.698060512542724831e-01,2.697873353958130105e-01,2.697685956954956055e-01,2.697498798370361328e-01,2.697311878204345925e-01,2.697124481201171875e-01,2.696937322616577148e-01,2.696750402450561745e-01,2.696563243865967019e-01,2.696376323699951061e-01,2.696189403533935658e-01,2.696002244949340931e-01,2.695815324783324973e-01,2.695628404617309570e-01,2.695441484451294167e-01,2.695254564285278209e-01,2.695067882537841575e-01,2.694880962371826172e-01,2.694694280624389537e-01,2.694507598876952903e-01,2.694320678710937500e-01,2.694133996963500866e-01,2.693947315216064231e-01,2.693760633468628152e-01,2.693573951721191517e-01,2.693387508392334206e-01,2.693200826644897572e-01,2.693014383316040261e-01,2.692827463150024303e-01,2.692641019821166992e-01,2.692454576492309681e-01,2.692268133163452370e-01,2.692081689834594505e-01,2.691895246505737194e-01,2.691708803176879883e-01,2.691522598266601340e-01,2.691336154937744030e-01,2.691149950027466042e-01,2.690963506698608176e-01,2.690777301788330189e-01,2.690591096878051647e-01,2.690404891967773660e-01,2.690218687057495117e-01,2.690032243728637806e-01,2.689846277236938588e-01,2.689660072326660045e-01,2.689474105834960826e-01,2.689288139343261608e-01,2.689101934432983620e-01,2.688915967941284402e-01,2.688730001449585183e-01,2.688544034957885964e-01,2.688357830047607422e-01,2.688172101974487527e-01,2.687986135482788308e-01,2.687800407409667858e-01,2.687614679336547963e-01,2.687428712844848744e-01,2.687242746353149525e-01,2.687057256698608398e-01,2.686871528625488503e-01,2.686685800552368053e-01,2.686499834060668834e-01,2.686314344406127708e-01,2.686128616333007812e-01,2.685943126678466686e-01,2.685757637023925559e-01,2.685571908950805664e-01,2.685386419296264537e-01,2.685200929641723411e-01,2.685015439987182839e-01,2.684830188751220481e-01,2.684644460678100586e-01,2.684459209442138783e-01,2.684273719787597656e-01,2.684088468551635853e-01,2.683903217315674050e-01,2.273105144500732477e-01
2.497744798660278265e-01,2.497584342956543080e-01,2.497423887252807617e-01,2.497263669967651478e-01,2.497103214263916016e-01,2.496942758560180553e-01,2.496782302856445368e-01,2.496622085571288951e-01,2.496461629867553766e-01,2.496301412582397350e-01,2.496141195297241211e-01,2.495980978012085072e-01,2.495820760726928655e-01,2.495660305023193470e-01,2.495500087738037054e-01,2.495339870452880915e-01,2.495179891586303822e-01,2.495019674301147405e-01,2.494859695434570312e-01,2.494699478149414174e-01,2.494539260864257757e-01,2.494379281997680664e-01,2.494219303131103571e-01,2.494059324264526478e-01,2.493899345397949108e-01,2.493739366531372015e-01,2.493579387664794922e-01,2.493419408798217829e-01,2.493259429931640736e-01,2.493099451065063366e-01,2.492939710617065319e-01,2.492779731750488226e-01,2.492619991302490179e-01,2.492460250854492132e-01,2.492300510406494085e-01,2.492140531539916992e-01,2.491980791091918945e-01,2.491821050643920898e-01,2.491661310195922852e-01,2.491501808166503851e-01,2.491341829299926758e-01,2.491182327270507757e-01,2.491022586822509710e-01,2.490863084793090709e-01,2.490703582763671986e-01,2.490543842315673939e-01,2.490384340286254938e-01,2.490224838256835938e-01,2.490065336227416937e-01,2.489905834197997936e-01,2.489746332168579213e-01,2.489586830139160212e-01,2.489427328109741211e-01,2.489268064498901256e-01,2.489108562469482533e-01,2.488949060440063532e-01,2.488789796829223577e-01,2.488630533218383900e-01,2.488471269607543945e-01,2.488311767578124944e-01,2.488152503967285267e-01,2.487993478775024359e-01,2.487834215164184681e-01,2.487674951553344727e-01,2.487515687942504772e-01,2.487356424331665095e-01,2.487197399139404186e-01,2.487038373947143555e-01,2.486879348754882924e-01,2.486720085144042969e-01,2.486561059951782338e-01,2.486402034759521429e-01,2.486243009567260798e-01,2.486083984374999889e-01,2.485924959182739258e-01,2.485765933990478627e-01,2.485607147216796764e-01,2.485448122024536133e-01,2.485289335250854548e-01,2.485130310058593639e-01
2.324840068817138616e-01,2.324701070785522572e-01,2.324562072753906250e-01,2.324422836303710882e-01,2.324284076690673884e-01,2.324145078659057562e-01,2.324006080627441517e-01,2.323867321014404241e-01,2.323728322982788197e-01,2.323589563369750921e-01,2.323450565338134877e-01,2.323311567306518555e-01,2.323172807693481556e-01,2.323034048080444280e-01,2.322895288467407282e-01,2.322756528854370006e-01,2.322617769241333008e-01,2.322479009628296009e-01,2.322340011596679688e-01,2.322201251983642689e-01,2.322062730789184459e-01,2.321923971176147461e-01,2.321785449981689509e-01,2.321646690368652233e-01,2.321508169174194280e-01,2.321369409561157282e-01,2.321230649948120006e-01,2.321092128753662054e-01,2.320953607559204102e-01,2.320815086364746149e-01,2.320676565170288197e-01,2.320538043975829967e-01,2.320399522781372015e-01,2.320261001586914062e-01,2.320122480392456110e-01,2.319983959197998158e-01,2.319845676422119252e-01,2.319707155227661022e-01,2.319568872451782116e-01,2.319430351257324163e-01,2.319291830062866211e-01,2.319153547286987305e-01,2.319015264511108398e-01,2.318876981735229492e-01,2.318738698959350586e-01,2.318600177764892634e-01,2.318461894989013727e-01,2.318323612213134821e-01,2.318185567855834961e-01,2.318047285079956055e-01,2.317909002304077148e-01,2.317770719528198242e-01,2.317632436752319336e-01,2.317494392395019476e-01,2.317356109619140569e-01,2.317218065261840709e-01,2.317080020904541127e-01,2.316941738128662220e-01,2.316803693771362360e-01,2.316665649414062500e-01,2.316527605056762640e-01,2.316389560699462780e-01,2.316251516342163197e-01,2.316113710403442383e-01,2.315975427627563477e-01,2.315837621688842662e-01,2.315699577331543080e-01,2.315561771392822266e-01,2.315423727035522405e-01,2.315285682678222545e-01,2.315147876739502009e-01,2.315010070800781194e-01,2.314872264862060658e-01,2.314734458923339844e-01,2.314596414566039984e-01,2.314458608627319447e-01,2.314321041107177679e-01,2.314183235168457142e-01,2.314045429229736328e-01,2.313907623291015514e-01
2.174323797225952148e-01,2.174201965332031306e-01,2.174080371856689509e-01,2.173959016799926758e-01,2.173837423324584961e-01,2.173715829849243164e-01,2.173594236373901367e-01,2.173472881317138616e-01,2.173351287841796819e-01,2.173229694366455023e-01,2.173108339309692272e-01,2.172986745834350475e-01,2.172865390777588002e-01,2.172744035720825251e-01,2.172622442245483454e-01,2.172501087188720703e-01,2.172379732131957952e-01,2.172258138656616155e-01,2.172136783599853405e-01,2.172015666961669977e-01,2.171894311904907227e-01,2.171772956848144476e-01,2.171651601791381725e-01,2.171530246734619252e-01,2.171408891677856501e-01,2.171287775039672796e-01,2.171166419982910045e-01,2.171045303344726618e-01,2.170923948287963867e-01,2.170802831649780162e-01,2.170681476593017689e-01,2.170560359954833984e-01,2.170439004898071234e-01,2.170317888259887806e-01,2.170196771621704102e-01,2.170075654983520397e-01,2.169954538345336970e-01,2.169833421707153265e-01,2.169712305068969838e-01,2.169591426849365179e-01,2.169470071792602428e-01,2.169348955154419001e-01,2.169228076934814342e-01,2.169106960296630915e-01,2.168986082077026256e-01,2.168864965438842829e-01,2.168743848800659124e-01,2.168622970581054743e-01,2.168502092361450084e-01,2.168380975723266657e-01,2.168260097503661998e-01,2.168138980865478571e-01,2.168018102645873912e-01,2.167897224426269531e-01,2.167776346206665150e-01,2.167655467987060491e-01,2.167534589767456110e-01,2.167413711547851451e-01,2.167293071746826116e-01,2.167171955108642689e-01,2.167051315307617076e-01,2.166930437088012695e-01,2.166809797286987360e-01,2.166688919067382701e-01,2.166568040847778320e-01,2.166447401046752985e-01,2.166326761245727650e-01,2.166205883026122991e-01,2.166085243225097656e-01,2.165964365005493275e-01,2.165843725204467662e-01,2.165723085403442327e-01,2.165602445602416992e-01,2.165482044219970703e-01,2.165361166000366322e-01,2.165240526199340709e-01,2.165120124816894420e-01,2.164999485015869085e-01,2.164878845214843750e-01,2.164758205413818415e-01
2.042111873626709095e-01,2.042004823684692438e-01,2.041897535324096735e-01,2.041790246963501032e-01,2.041682958602905329e-01,2.041575908660888672e-01,2.041468620300292969e-01,2.041361331939697266e-01,2.041254281997680609e-01,2.041146993637084905e-01,2.041039943695068248e-01,2.040932655334472545e-01,2.040825605392456166e-01,2.040718555450439509e-01,2.040611267089843806e-01,2.040504217147827148e-01,2.040397167205810491e-01,2.040290117263793834e-01,2.040183067321777455e-01,2.040076017379760798e-01,2.039968967437744141e-01,2.039861917495727484e-01,2.039754629135131780e-01,2.039647817611694447e-01,2.039540767669677790e-01,2.039433717727661133e-01,2.039326667785644476e-01,2.039219856262207142e-01,2.039112806320190485e-01,2.039005994796752874e-01,2.038898944854736217e-01,2.038791894912719838e-01,2.038685083389282227e-01,2.038578271865844616e-01,2.038471221923828236e-01,2.038364410400390625e-01,2.038257598876953014e-01,2.038150787353515681e-01,2.038043737411499023e-01,2.037936925888061412e-01,2.037830114364624079e-01,2.037723302841186468e-01,2.037616491317749134e-01,2.037509679794311523e-01,2.037403106689453236e-01,2.037296056747436579e-01,2.037189483642578014e-01,2.037082672119140681e-01,2.036975860595703069e-01,2.036869287490844782e-01,2.036762475967407171e-01,2.036655664443969838e-01,2.036549091339111273e-01,2.036442279815673939e-01,2.036335706710815374e-01,2.036228895187378041e-01,2.036122322082519476e-01,2.036015748977661188e-01,2.035909175872802623e-01,2.035802364349365290e-01,2.035695791244506725e-01,2.035589218139648438e-01,2.035482645034790150e-01,2.035376071929931585e-01,2.035269498825073298e-01,2.035162925720214733e-01,2.035056352615356445e-01,2.034949779510498158e-01,2.034843444824218639e-01,2.034736633300781306e-01,2.034630298614502064e-01,2.034523725509643499e-01,2.034417390823364258e-01,2.034310817718505970e-01,2.034204244613647405e-01,2.034097909927368164e-01,2.033991575241088923e-01,2.033885240554809681e-01,2.033778667449951116e-01,2.033672332763671875e-01
1.925057172775268555e-01,1.924962043762206976e-01,1.924866676330566351e-01,1.924771428108215388e-01,1.924676060676574763e-01,1.924580574035644476e-01,1.924485445022582897e-01,1.924390077590942272e-01,1.924294948577880970e-01,1.924199700355529730e-01,1.924104571342468151e-01,1.924009203910827526e-01,1.923914074897766224e-01,1.923818826675414984e-01,1.923723578453064020e-01,1.923628449440002441e-01,1.923533201217651478e-01,1.923438191413879284e-01,1.923342943191528320e-01,1.923247814178466741e-01,1.923152685165405162e-01,1.923057436943054199e-01,1.922962427139282282e-01,1.922867178916931041e-01,1.922772169113159124e-01,1.922677040100097545e-01,1.922582030296325628e-01,1.922486901283264049e-01,1.922391772270202748e-01,1.922296762466430553e-01,1.922201633453369252e-01,1.922106742858886719e-01,1.922011613845825140e-01,1.921916723251342884e-01,1.921821594238281306e-01,1.921726703643798773e-01,1.921631693840026855e-01,1.921536564826965277e-01,1.921441674232483021e-01,1.921346664428710826e-01,1.921251893043517955e-01,1.921156764030456654e-01,1.921061992645263783e-01,1.920966982841491588e-01,1.920871973037719671e-01,1.920777201652526800e-01,1.920682191848754883e-01,1.920587420463562012e-01,1.920492410659790095e-01,1.920397639274597223e-01,1.920302748680114691e-01,1.920207738876342773e-01,1.920113086700439564e-01,1.920018196105957031e-01,1.919923186302185114e-01,1.919828534126281627e-01,1.919733643531799372e-01,1.919638991355895885e-01,1.919544100761413630e-01,1.919449210166931097e-01,1.919354557991027888e-01,1.919259667396545355e-01,1.919165015220642145e-01,1.919070243835449274e-01,1.918975353240966741e-01,1.918880820274352916e-01,1.918786048889160045e-01,1.918691396713256836e-01,1.918596625328063965e-01,1.918501853942871094e-01,1.918407320976257269e-01,1.918312549591064398e-01,1.918218016624450573e-01,1.918123245239257701e-01,1.918028593063354492e-01,1.917934060096740667e-01,1.917839288711547796e-01,1.917744874954223633e-01,1.917650103569030762e-01,1.917555451393127552e-01
