6.195734500885009544e-01,6.352892875671386497e-01,6.518231868743896706e-01,6.692406177520752175e-01,6.876144409179687500e-01,7.070256710052490456e-01,7.275646686553954856e-01,7.493327617645263450e-01,7.724434852600097212e-01,7.970251560211181197e-01,8.232228279113769087e-01,8.512012481689452681e-01,8.811482429504394753e-01,9.132793426513672319e-01,9.478424072265625444e-01,1.000000000000000000e+00,1.000000000000000000e+00,1.000000000000000000e+00,1.000000000000000000e+00,1.000000000000000000e+00,1.000000000000000000e+00,1.000000000000000000e+00,1.000000000000000000e+00,1.000000000000000000e+00,1.000000000000000000e+00,1.000000000000000000e+00,1.000000000000000000e+00,1.000000000000000000e+00,1.000000000000000000e+00,1.000000000000000000e+00,1.000000000000000000e+00,1.000000000000000000e+00,1.000000000000000000e+00,1.000000000000000000e+00,1.000000000000000000e+00,1.000000000000000000e+00,1.000000000000000000e+00,1.000000000000000000e+00,1.000000000000000000e+00,1.000000000000000000e+00,1.000000000000000000e+00,1.000000000000000000e+00,1.000000000000000000e+00,1.000000000000000000e+00,1.000000000000000000e+00,1.000000000000000000e+00,1.000000000000000000e+00,1.000000000000000000e+00,1.000000000000000000e+00,1.000000000000000000e+00,1.000000000000000000e+00,1.000000000000000000e+00,1.000000000000000000e+00,1.000000000000000000e+00,1.000000000000000000e+00,3.961543083190918191e-01,3.928989648818969616e-01,3.924068689346313366e-01,3.831023931503295676e-01,3.775437593460083119e-01,3.734845876693725364e-01,3.699610948562622181e-01,3.683791637420654186e-01,3.677018404006958119e-01,3.679734706878662331e-01,3.706637859344482644e-01,3.779520511627197377e-01,3.888646602630615456e-01,3.854238748550414817e-01,3.867200136184692494e-01,1.000000000000000000e+00,9.373520851135254128e-01,9.076795578002929688e-01,8.798278808593750222e-01,8.536257743835449219e-01,8.289333343505859153e-01,8.056292533874511719e-01,7.835996627807617632e-01,7.627428054809570757e-01,7.429673671722412109e-01
6.195581912994384544e-01,6.352727890014648882e-01,6.518057346343993919e-01,6.692223072052001509e-01,6.875951290130615234e-01,7.070052146911620650e-01,7.275430679321288618e-01,7.493097305297851118e-01,7.724190711975097434e-01,7.969992160797119141e-01,8.231950759887695090e-01,8.511715888977050559e-01,8.811164855957031028e-01,9.132452011108398438e-01,9.478056907653809038e-01,9.850848197937012163e-01,1.000000000000000000e+00,1.000000000000000000e+00,1.000000000000000000e+00,1.000000000000000000e+00,1.000000000000000000e+00,1.000000000000000000e+00,1.000000000000000000e+00,1.000000000000000000e+00,1.000000000000000000e+00,1.000000000000000000e+00,1.000000000000000000e+00,1.000000000000000000e+00,1.000000000000000000e+00,1.000000000000000000e+00,1.000000000000000000e+00,1.000000000000000000e+00,1.000000000000000000e+00,1.000000000000000000e+00,1.000000000000000000e+00,1.000000000000000000e+00,1.000000000000000000e+00,1.000000000000000000e+00,1.000000000000000000e+00,1.000000000000000000e+00,1.000000000000000000e+00,1.000000000000000000e+00,1.000000000000000000e+00,1.000000000000000000e+00,1.000000000000000000e+00,1.000000000000000000e+00,1.000000000000000000e+00,1.000000000000000000e+00,1.000000000000000000e+00,1.000000000000000000e+00,1.000000000000000000e+00,1.000000000000000000e+00,1.000000000000000000e+00,1.000000000000000000e+00,1.000000000000000000e+00,3.989953994750976562e-01,3.943192481994629017e-01,3.924628496170043945e-01,3.845883369445800559e-01,3.774710893630981445e-01,3.727959871292114147e-01,3.697751998901367410e-01,3.683196306228637695e-01,3.679054975509643555e-01,3.683342218399047741e-01,3.703496456146240234e-01,3.763869285583495983e-01,3.891876935958862305e-01,3.851502656936645619e-01,3.866175413131713867e-01,9.690806388854980025e-01,9.373991966247559038e-01,9.077237129211426225e-01,8.798578262329102007e-01,8.536477088928222656e-01,8.289540290832519975e-01,8.056488037109375000e-01,7.836181640624999556e-01,7.627604007720947266e-01,7.429841041564941850e-01
6.195449829101562500e-01,6.352567195892333540e-01,6.517884254455565962e-01,6.692039489746093306e-01,6.875758171081542969e-01,7.069848060607910600e-01,7.275213718414306197e-01,7.492868423461913618e-01,7.723947048187256303e-01,7.969732761383057085e-01,8.231673240661621094e-01,8.511419296264648438e-01,8.810847282409668413e-01,9.132111549377441850e-01,9.477689743041992632e-01,9.850451469421386275e-01,1.000000000000000000e+00,1.000000000000000000e+00,1.000000000000000000e+00,1.000000000000000000e+00,1.000000000000000000e+00,1.000000000000000000e+00,1.000000000000000000e+00,1.000000000000000000e+00,1.000000000000000000e+00,1.000000000000000000e+00,1.000000000000000000e+00,1.000000000000000000e+00,1.000000000000000000e+00,1.000000000000000000e+00,1.000000000000000000e+00,1.000000000000000000e+00,1.000000000000000000e+00,1.000000000000000000e+00,1.000000000000000000e+00,1.000000000000000000e+00,1.000000000000000000e+00,1.000000000000000000e+00,1.000000000000000000e+00,1.000000000000000000e+00,1.000000000000000000e+00,1.000000000000000000e+00,1.000000000000000000e+00,1.000000000000000000e+00,1.000000000000000000e+00,1.000000000000000000e+00,1.000000000000000000e+00,1.000000000000000000e+00,1.000000000000000000e+00,1.000000000000000000e+00,1.000000000000000000e+00,1.000000000000000000e+00,1.000000000000000000e+00,1.000000000000000000e+00,1.000000000000000000e+00,4.005689144134521595e-01,3.954004049301147461e-01,3.924959182739257701e-01,3.859922885894775391e-01,3.786612033843994030e-01,3.727325677871703991e-01,3.696217775344848855e-01,3.685526371002197377e-01,3.682807683944702148e-01,3.690024375915527122e-01,3.713859319686889648e-01,3.824272871017456166e-01,3.910093545913696511e-01,3.867333412170410045e-01,3.869555234909057839e-01,9.691308975219726785e-01,9.374462127685546653e-01,9.077532768249512163e-01,8.798811912536621538e-01,8.536697387695312278e-01,8.289748191833495872e-01,8.056683540344238281e-01,7.836367130279541238e-01,7.627779006958007590e-01,7.430006980895995650e-01
6.195317268371581809e-01,6.352427959442138450e-01,6.517714500427246316e-01,6.691856861114502397e-01,6.875564575195312056e-01,7.069643974304199441e-01,7.274997711181641069e-01,7.492638111114502397e-01,7.723703384399414062e-01,7.969472408294677734e-01,8.231396675109863281e-01,8.511122703552246316e-01,8.810529708862304688e-01,9.131770133972167969e-01,9.477322578430176225e-01,9.850054740905761497e-01,1.000000000000000000e+00,1.000000000000000000e+00,1.000000000000000000e+00,1.000000000000000000e+00,1.000000000000000000e+00,1.000000000000000000e+00,1.000000000000000000e+00,1.000000000000000000e+00,1.000000000000000000e+00,1.000000000000000000e+00,1.000000000000000000e+00,1.000000000000000000e+00,1.000000000000000000e+00,1.000000000000000000e+00,1.000000000000000000e+00,1.000000000000000000e+00,1.000000000000000000e+00,1.000000000000000000e+00,1.000000000000000000e+00,1.000000000000000000e+00,1.000000000000000000e+00,1.000000000000000000e+00,1.000000000000000000e+00,1.000000000000000000e+00,1.000000000000000000e+00,1.000000000000000000e+00,1.000000000000000000e+00,1.000000000000000000e+00,1.000000000000000000e+00,1.000000000000000000e+00,1.000000000000000000e+00,1.000000000000000000e+00,1.000000000000000000e+00,1.000000000000000000e+00,1.000000000000000000e+00,1.000000000000000000e+00,1.000000000000000000e+00,1.000000000000000000e+00,1.000000000000000000e+00,4.022090911865234264e-01,3.957766294479370117e-01,3.931981801986694225e-01,3.854108572006225697e-01,3.764082670211791881e-01,3.707732915878295676e-01,3.676461458206176647e-01,3.667258501052856334e-01,3.683375597000121959e-01,3.683226108551025391e-01,3.692312717437744030e-01,1.000000000000000000e+00,3.927592992782592551e-01,3.885234117507934681e-01,3.877382755279540905e-01,9.691812515258788618e-01,9.374753952026366743e-01,9.077781677246093972e-01,8.799045562744141069e-01,8.536916732788085715e-01,8.289955139160156694e-01,8.056879997253417747e-01,7.836552143096924272e-01,7.627954959869385210e-01,7.430173873901366743e-01
6.195184707641601118e-01,6.352288246154784712e-01,6.517567634582519531e-01,6.691677570343017578e-01,6.875371456146239790e-01,7.069438934326172097e-01,7.274781703948974831e-01,7.492408752441406250e-01,7.723458766937255637e-01,7.969213008880615678e-01,8.231120109558105469e-01,8.510827064514160378e-01,8.810212135314940962e-01,9.131429672241211382e-01,9.476955413818359819e-01,9.849658966064452903e-01,1.000000000000000000e+00,1.000000000000000000e+00,1.000000000000000000e+00,1.000000000000000000e+00,1.000000000000000000e+00,1.000000000000000000e+00,1.000000000000000000e+00,1.000000000000000000e+00,1.000000000000000000e+00,1.000000000000000000e+00,1.000000000000000000e+00,1.000000000000000000e+00,1.000000000000000000e+00,1.000000000000000000e+00,1.000000000000000000e+00,1.000000000000000000e+00,1.000000000000000000e+00,1.000000000000000000e+00,1.000000000000000000e+00,1.000000000000000000e+00,1.000000000000000000e+00,1.000000000000000000e+00,1.000000000000000000e+00,1.000000000000000000e+00,1.000000000000000000e+00,1.000000000000000000e+00,1.000000000000000000e+00,1.000000000000000000e+00,1.000000000000000000e+00,1.000000000000000000e+00,1.000000000000000000e+00,1.000000000000000000e+00,1.000000000000000000e+00,1.000000000000000000e+00,1.000000000000000000e+00,1.000000000000000000e+00,1.000000000000000000e+00,1.000000000000000000e+00,1.000000000000000000e+00,4.041048049926757590e-01,3.973161697387695424e-01,3.954548358917236439e-01,3.817943334579467773e-01,3.753233194351196511e-01,3.700769424438476451e-01,3.667686223983764870e-01,3.662129163742065541e-01,3.663702726364135853e-01,3.668543338775634988e-01,3.684046745300292858e-01,3.736526727676391380e-01,3.945249080657958762e-01,3.905858516693115345e-01,3.872758150100708008e-01,9.692097663879394309e-01,9.375019073486328125e-01,9.078029632568359597e-01,8.799279212951660600e-01,8.537137031555175337e-01,8.290163040161132590e-01,8.057075500488281028e-01,7.836738109588623491e-01,7.628130435943603072e-01,7.430340290069580300e-01
6.195052146911621538e-01,6.352149486541748269e-01,6.517421245574951394e-01,6.691522598266601562e-01,6.875181198120117188e-01,7.069234848022460938e-01,7.274564743041992410e-01,7.492179870605468750e-01,7.723215103149414507e-01,7.968952655792236328e-01,8.230842590332031472e-01,8.510531425476074441e-01,8.809895515441894531e-01,9.131088256835937500e-01,9.476588249206543413e-01,9.849262237548828125e-01,1.000000000000000000e+00,1.000000000000000000e+00,1.000000000000000000e+00,1.000000000000000000e+00,1.000000000000000000e+00,1.000000000000000000e+00,1.000000000000000000e+00,1.000000000000000000e+00,1.000000000000000000e+00,1.000000000000000000e+00,1.000000000000000000e+00,1.000000000000000000e+00,1.000000000000000000e+00,1.000000000000000000e+00,1.000000000000000000e+00,1.000000000000000000e+00,1.000000000000000000e+00,1.000000000000000000e+00,1.000000000000000000e+00,1.000000000000000000e+00,1.000000000000000000e+00,1.000000000000000000e+00,1.000000000000000000e+00,1.000000000000000000e+00,1.000000000000000000e+00,1.000000000000000000e+00,1.000000000000000000e+00,1.000000000000000000e+00,1.000000000000000000e+00,1.000000000000000000e+00,1.000000000000000000e+00,1.000000000000000000e+00,1.000000000000000000e+00,1.000000000000000000e+00,1.000000000000000000e+00,1.000000000000000000e+00,1.000000000000000000e+00,1.000000000000000000e+00,1.000000000000000000e+00,4.063210487365722656e-01,3.989829063415527566e-01,3.912982702255248801e-01,3.817545652389526256e-01,3.750745773315429799e-01,3.729248046875000000e-01,3.701323986053466908e-01,3.684634208679199441e-01,3.674427509307861550e-01,3.684228658676147461e-01,3.716468572616576926e-01,3.766742467880249134e-01,3.941391229629516713e-01,3.877111673355102539e-01,3.824576854705810658e-01,3.808522701263427623e-01,9.375284194946289507e-01,9.078278541564941406e-01,8.799512863159180132e-01,8.537357330322266069e-01,8.290369987487793413e-01,8.057271957397460493e-01,7.836922645568847878e-01,7.628306388854980691e-01,7.430507183074951394e-01
6.194919586181640847e-01,6.352009773254394531e-01,6.517274379730224609e-01,6.691368579864501731e-01,6.875018596649169478e-01,7.069033622741699441e-01,7.274348735809326172e-01,7.491949558258056419e-01,7.722971916198730913e-01,7.968693733215331809e-01,8.230566024780273660e-01,8.510234832763672319e-01,8.809577941894530806e-01,9.130747795104980913e-01,9.476220130920409712e-01,9.848865509033203347e-01,1.000000000000000000e+00,1.000000000000000000e+00,1.000000000000000000e+00,1.000000000000000000e+00,1.000000000000000000e+00,1.000000000000000000e+00,1.000000000000000000e+00,1.000000000000000000e+00,1.000000000000000000e+00,1.000000000000000000e+00,1.000000000000000000e+00,1.000000000000000000e+00,1.000000000000000000e+00,1.000000000000000000e+00,1.000000000000000000e+00,1.000000000000000000e+00,1.000000000000000000e+00,1.000000000000000000e+00,1.000000000000000000e+00,1.000000000000000000e+00,1.000000000000000000e+00,1.000000000000000000e+00,1.000000000000000000e+00,1.000000000000000000e+00,1.000000000000000000e+00,1.000000000000000000e+00,1.000000000000000000e+00,1.000000000000000000e+00,1.000000000000000000e+00,1.000000000000000000e+00,1.000000000000000000e+00,1.000000000000000000e+00,1.000000000000000000e+00,1.000000000000000000e+00,1.000000000000000000e+00,1.000000000000000000e+00,1.000000000000000000e+00,1.000000000000000000e+00,1.000000000000000000e+00,4.085617542266845592e-01,4.015211105346679910e-01,3.909968852996826283e-01,3.833776712417602539e-01,3.758928060531616100e-01,3.726474523544311412e-01,3.695085525512695201e-01,3.688705205917358620e-01,3.676484823226928711e-01,3.688864946365356667e-01,3.710484743118286355e-01,3.776771783828735130e-01,3.980783939361572377e-01,3.861777782440185547e-01,3.806898593902587891e-01,3.772376775741577148e-01,3.805968761444091797e-01,9.078527450561523215e-01,8.799746513366699663e-01,8.537576675415039507e-01,8.290576934814453125e-01,8.057467460632323775e-01,7.837108612060547097e-01,7.628476142883300337e-01,7.430661201477051225e-01
6.194787502288818803e-01,6.351870536804199441e-01,6.517127513885497825e-01,6.691213607788085715e-01,6.874855041503906694e-01,7.068861007690430132e-01,7.274135112762450950e-01,7.491720676422118919e-01,7.722727298736572488e-01,7.968434333801269753e-01,8.230289459228515847e-01,8.509938240051269087e-01,8.809260368347168191e-01,9.130407333374023215e-01,9.475853919982910600e-01,9.848468780517578569e-01,1.000000000000000000e+00,1.000000000000000000e+00,1.000000000000000000e+00,1.000000000000000000e+00,1.000000000000000000e+00,1.000000000000000000e+00,1.000000000000000000e+00,1.000000000000000000e+00,1.000000000000000000e+00,1.000000000000000000e+00,1.000000000000000000e+00,1.000000000000000000e+00,1.000000000000000000e+00,1.000000000000000000e+00,1.000000000000000000e+00,1.000000000000000000e+00,1.000000000000000000e+00,1.000000000000000000e+00,1.000000000000000000e+00,1.000000000000000000e+00,1.000000000000000000e+00,1.000000000000000000e+00,1.000000000000000000e+00,1.000000000000000000e+00,1.000000000000000000e+00,1.000000000000000000e+00,1.000000000000000000e+00,1.000000000000000000e+00,1.000000000000000000e+00,1.000000000000000000e+00,1.000000000000000000e+00,1.000000000000000000e+00,1.000000000000000000e+00,1.000000000000000000e+00,1.000000000000000000e+00,1.000000000000000000e+00,1.000000000000000000e+00,1.000000000000000000e+00,1.000000000000000000e+00,4.090267658233642800e-01,4.009132862091064342e-01,3.994674682617187500e-01,3.821791172027587669e-01,3.759247779846191517e-01,3.728724241256713978e-01,3.710103988647460715e-01,3.702954769134521595e-01,3.695832729339599831e-01,3.699518442153930664e-01,3.720227718353271706e-01,3.769562244415283203e-01,1.000000000000000000e+00,3.893496036529541238e-01,3.801555395126342551e-01,3.737751245498657227e-01,3.711471796035766824e-01,9.078776359558105025e-01,8.799980163574219194e-01,8.537796974182129128e-01,8.290781974792480469e-01,8.057652473449706809e-01,7.837275028228759544e-01,7.628631591796875000e-01,7.430808067321776900e-01
6.194654941558838113e-01,6.351731777191161887e-01,6.516981601715088335e-01,6.691059589385985884e-01,6.874692440032958984e-01,7.068688392639159712e-01,7.273952007293701394e-01,7.491493225097656250e-01,7.722483634948730247e-01,7.968173980712890403e-01,8.230011940002441850e-01,8.509642601013183150e-01,8.808942794799804465e-01,9.130065917968750444e-01,9.475486755371094194e-01,9.848072052001952681e-01,1.000000000000000000e+00,1.000000000000000000e+00,1.000000000000000000e+00,1.000000000000000000e+00,1.000000000000000000e+00,1.000000000000000000e+00,1.000000000000000000e+00,1.000000000000000000e+00,1.000000000000000000e+00,1.000000000000000000e+00,1.000000000000000000e+00,1.000000000000000000e+00,1.000000000000000000e+00,1.000000000000000000e+00,1.000000000000000000e+00,1.000000000000000000e+00,1.000000000000000000e+00,1.000000000000000000e+00,1.000000000000000000e+00,1.000000000000000000e+00,1.000000000000000000e+00,1.000000000000000000e+00,1.000000000000000000e+00,1.000000000000000000e+00,1.000000000000000000e+00,1.000000000000000000e+00,1.000000000000000000e+00,1.000000000000000000e+00,1.000000000000000000e+00,1.000000000000000000e+00,1.000000000000000000e+00,1.000000000000000000e+00,1.000000000000000000e+00,1.000000000000000000e+00,1.000000000000000000e+00,1.000000000000000000e+00,1.000000000000000000e+00,1.000000000000000000e+00,1.000000000000000000e+00,4.070417404174804799e-01,3.990125179290771595e-01,3.959218263626098633e-01,3.799293756484985463e-01,3.718581676483154186e-01,3.690183401107788308e-01,3.685316562652588002e-01,3.735609769821167103e-01,3.705233573913574441e-01,3.738584518432617188e-01,3.742292165756225808e-01,3.772292375564575417e-01,1.000000000000000000e+00,1.000000000000000000e+00,3.819195508956909069e-01,3.733460664749145286e-01,3.680853843688964844e-01,3.701929092407226785e-01,8.800204277038574663e-01,8.537999153137206809e-01,8.290966033935547319e-01,8.057826042175293413e-01,7.837439060211182085e-01,7.628786563873291016e-01,7.430956363677978516e-01
6.194522380828857422e-01,6.351592063903808150e-01,6.516834735870361550e-01,6.690904617309569868e-01,6.874529361724853738e-01,7.068516254425049050e-01,7.273769855499268022e-01,7.491300106048583984e-01,7.722242355346680132e-01,7.967915058135985884e-01,8.229735374450684038e-01,8.509346961975097212e-01,8.808626174926758035e-01,9.129724502563476562e-01,9.475119590759277788e-01,9.847675323486327903e-01,1.000000000000000000e+00,1.000000000000000000e+00,1.000000000000000000e+00,1.000000000000000000e+00,1.000000000000000000e+00,1.000000000000000000e+00,1.000000000000000000e+00,1.000000000000000000e+00,1.000000000000000000e+00,1.000000000000000000e+00,1.000000000000000000e+00,1.000000000000000000e+00,1.000000000000000000e+00,1.000000000000000000e+00,1.000000000000000000e+00,1.000000000000000000e+00,1.000000000000000000e+00,1.000000000000000000e+00,1.000000000000000000e+00,1.000000000000000000e+00,1.000000000000000000e+00,1.000000000000000000e+00,1.000000000000000000e+00,1.000000000000000000e+00,1.000000000000000000e+00,1.000000000000000000e+00,1.000000000000000000e+00,1.000000000000000000e+00,1.000000000000000000e+00,1.000000000000000000e+00,1.000000000000000000e+00,1.000000000000000000e+00,1.000000000000000000e+00,1.000000000000000000e+00,1.000000000000000000e+00,1.000000000000000000e+00,1.000000000000000000e+00,1.000000000000000000e+00,1.000000000000000000e+00,4.056368827819823997e-01,3.980604171752929465e-01,3.934491395950317494e-01,3.767431020736694558e-01,3.663439750671386719e-01,3.631570577621460183e-01,3.600406408309936301e-01,3.615878820419311523e-01,3.765834569931030273e-01,3.773793458938598522e-01,3.749581575393676758e-01,3.776611566543578991e-01,1.000000000000000000e+00,1.000000000000000000e+00,1.000000000000000000e+00,3.768748760223388783e-01,3.659034013748169167e-01,3.638304710388183816e-01,8.800411224365234375e-01,8.538193702697753906e-01,8.291149139404296875e-01,8.057999610900878906e-01,7.837603092193603516e-01,7.628942966461181863e-01,7.431103706359862837e-01
6.194390296936035378e-01,6.351453304290771706e-01,6.516688346862793413e-01,6.690750122070312500e-01,6.874365806579589844e-01,7.068343639373779741e-01,7.273587226867676003e-01,7.491106033325195535e-01,7.722035884857177956e-01,7.967656612396240012e-01,8.229457855224608931e-01,8.509050369262695090e-01,8.808308601379394309e-01,9.129384994506836160e-01,9.474752426147461382e-01,9.847278594970703125e-01,1.000000000000000000e+00,1.000000000000000000e+00,1.000000000000000000e+00,1.000000000000000000e+00,1.000000000000000000e+00,1.000000000000000000e+00,1.000000000000000000e+00,1.000000000000000000e+00,1.000000000000000000e+00,1.000000000000000000e+00,1.000000000000000000e+00,1.000000000000000000e+00,1.000000000000000000e+00,1.000000000000000000e+00,1.000000000000000000e+00,1.000000000000000000e+00,1.000000000000000000e+00,1.000000000000000000e+00,1.000000000000000000e+00,1.000000000000000000e+00,1.000000000000000000e+00,1.000000000000000000e+00,1.000000000000000000e+00,1.000000000000000000e+00,1.000000000000000000e+00,1.000000000000000000e+00,1.000000000000000000e+00,1.000000000000000000e+00,1.000000000000000000e+00,1.000000000000000000e+00,1.000000000000000000e+00,1.000000000000000000e+00,1.000000000000000000e+00,1.000000000000000000e+00,1.000000000000000000e+00,1.000000000000000000e+00,1.000000000000000000e+00,1.000000000000000000e+00,1.000000000000000000e+00,4.048942565917968972e-01,3.969814777374267578e-01,3.933907032012939342e-01,3.740109205245971680e-01,3.640500783920287975e-01,3.608729600906371848e-01,3.577830791473388672e-01,3.567046880722045676e-01,3.629233121871948131e-01,3.772784471511840820e-01,3.748421669006347656e-01,3.779673814773559792e-01,1.000000000000000000e+00,1.000000000000000000e+00,1.000000000000000000e+00,9.693760871887207031e-01,3.589856863021850808e-01,3.595655679702758900e-01,3.565796375274657981e-01,8.538388252258301003e-01,8.291333198547363725e-01,8.058172225952148215e-01,7.837767601013183594e-01,7.629097938537597878e-01,7.431251049041748269e-01
6.194257736206054688e-01,6.351313591003417969e-01,6.516541957855224165e-01,6.690596103668212669e-01,6.874203205108642134e-01,7.068171501159667969e-01,7.273405075073242632e-01,7.490911960601807085e-01,7.721829891204834428e-01,7.967437267303466575e-01,8.229182243347168413e-01,8.508754730224609153e-01,8.807991981506347878e-01,9.129043579101562278e-01,9.474385261535644975e-01,9.846882820129394531e-01,1.000000000000000000e+00,1.000000000000000000e+00,1.000000000000000000e+00,1.000000000000000000e+00,1.000000000000000000e+00,1.000000000000000000e+00,1.000000000000000000e+00,1.000000000000000000e+00,1.000000000000000000e+00,1.000000000000000000e+00,1.000000000000000000e+00,1.000000000000000000e+00,1.000000000000000000e+00,1.000000000000000000e+00,1.000000000000000000e+00,1.000000000000000000e+00,1.000000000000000000e+00,1.000000000000000000e+00,1.000000000000000000e+00,1.000000000000000000e+00,1.000000000000000000e+00,1.000000000000000000e+00,1.000000000000000000e+00,1.000000000000000000e+00,1.000000000000000000e+00,1.000000000000000000e+00,1.000000000000000000e+00,1.000000000000000000e+00,1.000000000000000000e+00,1.000000000000000000e+00,1.000000000000000000e+00,1.000000000000000000e+00,1.000000000000000000e+00,1.000000000000000000e+00,1.000000000000000000e+00,1.000000000000000000e+00,1.000000000000000000e+00,1.000000000000000000e+00,1.000000000000000000e+00,4.029736995697021373e-01,3.950184583663940430e-01,3.947550058364868164e-01,3.727051734924316517e-01,3.622934103012084850e-01,3.591383695602416992e-01,3.561331748962402455e-01,3.537962675094604714e-01,3.592501401901245228e-01,3.768674135208129883e-01,3.744004487991333119e-01,3.774243831634521706e-01,1.000000000000000000e+00,1.000000000000000000e+00,1.000000000000000000e+00,9.694010734558105025e-01,9.376797676086425781e-01,3.531060457229614480e-01,3.521398782730102428e-01,8.538582801818848100e-01,8.291516304016113281e-01,8.058345794677734819e-01,7.837931632995605025e-01,7.629253387451171431e-01,7.431398391723632590e-01
6.194124698638916460e-01,6.351174354553222878e-01,6.516395092010498491e-01,6.690441131591796653e-01,6.874039649963379350e-01,7.067998886108398660e-01,7.273221969604491965e-01,7.490718841552734819e-01,7.721624851226807085e-01,7.967218875885009322e-01,8.228948593139648882e-01,8.508459091186523215e-01,8.807674407958984153e-01,9.128703117370605691e-01,9.474018096923828569e-01,9.846486091613769753e-01,1.000000000000000000e+00,1.000000000000000000e+00,1.000000000000000000e+00,1.000000000000000000e+00,1.000000000000000000e+00,1.000000000000000000e+00,1.000000000000000000e+00,1.000000000000000000e+00,1.000000000000000000e+00,1.000000000000000000e+00,1.000000000000000000e+00,1.000000000000000000e+00,1.000000000000000000e+00,1.000000000000000000e+00,1.000000000000000000e+00,1.000000000000000000e+00,1.000000000000000000e+00,1.000000000000000000e+00,1.000000000000000000e+00,1.000000000000000000e+00,1.000000000000000000e+00,1.000000000000000000e+00,1.000000000000000000e+00,1.000000000000000000e+00,1.000000000000000000e+00,1.000000000000000000e+00,1.000000000000000000e+00,1.000000000000000000e+00,1.000000000000000000e+00,1.000000000000000000e+00,1.000000000000000000e+00,1.000000000000000000e+00,1.000000000000000000e+00,1.000000000000000000e+00,1.000000000000000000e+00,1.000000000000000000e+00,1.000000000000000000e+00,1.000000000000000000e+00,1.000000000000000000e+00,4.018486022949218639e-01,3.933879375457763894e-01,4.010363101959228405e-01,3.731586933135986328e-01,3.624131917953491433e-01,3.576276540756225808e-01,3.544984102249145730e-01,3.515700578689575084e-01,3.561356544494628795e-01,3.771030664443969505e-01,3.745245218276977428e-01,3.785781383514404408e-01,1.000000000000000000e+00,1.000000000000000000e+00,1.000000000000000000e+00,9.694262504577636497e-01,9.377032279968261497e-01,9.079906463623046431e-01,3.665109872817993164e-01,3.461284399032592551e-01,8.291700363159180132e-01,8.058519363403320312e-01,7.838095188140868919e-01,7.629408359527587447e-01,7.431545734405518022e-01
6.193992614746093306e-01,6.351035594940185325e-01,6.516248703002929243e-01,6.690287113189696822e-01,6.873877048492431641e-01,7.067826271057129350e-01,7.273039340972899947e-01,7.490524768829345259e-01,7.721418380737304910e-01,7.966999053955078347e-01,8.228713989257812056e-01,8.508208274841309038e-01,8.807357788085937722e-01,9.128361701965331809e-01,9.473651885986328347e-01,9.846089363098144975e-01,1.000000000000000000e+00,1.000000000000000000e+00,1.000000000000000000e+00,1.000000000000000000e+00,1.000000000000000000e+00,1.000000000000000000e+00,1.000000000000000000e+00,1.000000000000000000e+00,1.000000000000000000e+00,1.000000000000000000e+00,1.000000000000000000e+00,1.000000000000000000e+00,1.000000000000000000e+00,1.000000000000000000e+00,1.000000000000000000e+00,1.000000000000000000e+00,1.000000000000000000e+00,1.000000000000000000e+00,1.000000000000000000e+00,1.000000000000000000e+00,1.000000000000000000e+00,1.000000000000000000e+00,1.000000000000000000e+00,1.000000000000000000e+00,1.000000000000000000e+00,1.000000000000000000e+00,1.000000000000000000e+00,1.000000000000000000e+00,1.000000000000000000e+00,1.000000000000000000e+00,1.000000000000000000e+00,1.000000000000000000e+00,1.000000000000000000e+00,1.000000000000000000e+00,1.000000000000000000e+00,1.000000000000000000e+00,1.000000000000000000e+00,1.000000000000000000e+00,1.000000000000000000e+00,1.000000000000000000e+00,3.957460403442382701e-01,1.000000000000000000e+00,3.773052453994750755e-01,3.639306068420410378e-01,3.562723636627197488e-01,3.530805110931396484e-01,3.499768257141113170e-01,3.528316259384155495e-01,3.779329538345336803e-01,3.753649473190307506e-01,3.803965806961059348e-01,1.000000000000000000e+00,1.000000000000000000e+00,1.000000000000000000e+00,9.694513320922851785e-01,9.377267837524414507e-01,9.080126762390137163e-01,8.801239013671875444e-01,3.561767101287841575e-01,8.291883468627929688e-01,8.058692932128905806e-01,7.838259220123291460e-01,7.629563808441162109e-01,7.431693553924560991e-01
6.193860054016113725e-01,6.350895881652831587e-01,6.516101837158203569e-01,6.690132617950439453e-01,6.873713970184326394e-01,7.067654132843017578e-01,7.272857189178466575e-01,7.490331649780272993e-01,7.721213340759277566e-01,7.966779708862304910e-01,8.228480339050292525e-01,8.507958412170409934e-01,8.807088851928710493e-01,9.128022193908691406e-01,9.473284721374511941e-01,9.845692634582519087e-01,1.000000000000000000e+00,1.000000000000000000e+00,1.000000000000000000e+00,1.000000000000000000e+00,1.000000000000000000e+00,1.000000000000000000e+00,1.000000000000000000e+00,1.000000000000000000e+00,1.000000000000000000e+00,1.000000000000000000e+00,1.000000000000000000e+00,1.000000000000000000e+00,1.000000000000000000e+00,1.000000000000000000e+00,1.000000000000000000e+00,1.000000000000000000e+00,1.000000000000000000e+00,1.000000000000000000e+00,1.000000000000000000e+00,1.000000000000000000e+00,1.000000000000000000e+00,1.000000000000000000e+00,1.000000000000000000e+00,1.000000000000000000e+00,1.000000000000000000e+00,1.000000000000000000e+00,1.000000000000000000e+00,1.000000000000000000e+00,1.000000000000000000e+00,1.000000000000000000e+00,1.000000000000000000e+00,1.000000000000000000e+00,1.000000000000000000e+00,1.000000000000000000e+00,1.000000000000000000e+00,1.000000000000000000e+00,1.000000000000000000e+00,1.000000000000000000e+00,1.000000000000000000e+00,4.019694805145263561e-01,3.921737432479858176e-01,3.898459672927856445e-01,3.814540386199951061e-01,3.654608011245727428e-01,3.548005342483520619e-01,3.514454126358032005e-01,3.481861591339111550e-01,3.496155738830566406e-01,3.793320894241333230e-01,3.776595115661621205e-01,3.827733755111694114e-01,1.000000000000000000e+00,1.000000000000000000e+00,1.000000000000000000e+00,9.694764137268065962e-01,9.377502441406250222e-01,9.080347061157226785e-01,8.801445960998535156e-01,8.539166450500488281e-01,8.292067527770996538e-01,8.058866500854492410e-01,7.838423252105712891e-01,7.629720211029052956e-01,7.431840896606445312e-01
6.193727970123290572e-01,6.350757122039795144e-01,6.515955448150634322e-01,6.689977645874023438e-01,6.873550415039062500e-01,7.067481517791748269e-01,7.272674083709717019e-01,7.490137577056884544e-01,7.721007347106934038e-01,7.966561317443847656e-01,8.228246688842772993e-01,8.507709503173828125e-01,8.806821823120116743e-01,9.127732276916503684e-01,9.472917556762695535e-01,9.845296859741210493e-01,1.000000000000000000e+00,1.000000000000000000e+00,1.000000000000000000e+00,1.000000000000000000e+00,1.000000000000000000e+00,1.000000000000000000e+00,1.000000000000000000e+00,1.000000000000000000e+00,1.000000000000000000e+00,1.000000000000000000e+00,1.000000000000000000e+00,1.000000000000000000e+00,1.000000000000000000e+00,1.000000000000000000e+00,1.000000000000000000e+00,1.000000000000000000e+00,1.000000000000000000e+00,1.000000000000000000e+00,1.000000000000000000e+00,1.000000000000000000e+00,1.000000000000000000e+00,1.000000000000000000e+00,1.000000000000000000e+00,1.000000000000000000e+00,1.000000000000000000e+00,1.000000000000000000e+00,1.000000000000000000e+00,1.000000000000000000e+00,1.000000000000000000e+00,1.000000000000000000e+00,1.000000000000000000e+00,1.000000000000000000e+00,1.000000000000000000e+00,1.000000000000000000e+00,1.000000000000000000e+00,1.000000000000000000e+00,1.000000000000000000e+00,1.000000000000000000e+00,1.000000000000000000e+00,3.983471155166625755e-01,3.903147697448730580e-01,3.871892452239990012e-01,1.000000000000000000e+00,3.676089763641357533e-01,3.561338424682617410e-01,3.493665933609008678e-01,3.461455821990966908e-01,3.464983463287353294e-01,3.500583171844482422e-01,3.800021409988403320e-01,3.857184171676635853e-01,1.000000000000000000e+00,1.000000000000000000e+00,1.000000000000000000e+00,9.695014953613281250e-01,9.377737045288085938e-01,9.080567359924316406e-01,8.801652908325194868e-01,8.539361953735351562e-01,8.292250633239746094e-01,8.059039115905761719e-01,7.838587760925292969e-01,7.629875183105468972e-01,7.431988239288329634e-01
6.193700790405273215e-01,6.350667476654052734e-01,6.515809059143066184e-01,6.689823627471923606e-01,6.873387813568114790e-01,7.067309856414795144e-01,7.272491455078125000e-01,7.489943981170654741e-01,7.720801353454589400e-01,7.966341972351074219e-01,8.228013992309570757e-01,8.507459640502930132e-01,8.806552886962890625e-01,9.127444267272949441e-01,9.472604751586913840e-01,9.844901084899901900e-01,1.000000000000000000e+00,1.000000000000000000e+00,1.000000000000000000e+00,1.000000000000000000e+00,1.000000000000000000e+00,1.000000000000000000e+00,1.000000000000000000e+00,1.000000000000000000e+00,1.000000000000000000e+00,1.000000000000000000e+00,1.000000000000000000e+00,1.000000000000000000e+00,1.000000000000000000e+00,1.000000000000000000e+00,1.000000000000000000e+00,1.000000000000000000e+00,1.000000000000000000e+00,1.000000000000000000e+00,1.000000000000000000e+00,1.000000000000000000e+00,1.000000000000000000e+00,1.000000000000000000e+00,1.000000000000000000e+00,1.000000000000000000e+00,1.000000000000000000e+00,1.000000000000000000e+00,1.000000000000000000e+00,1.000000000000000000e+00,1.000000000000000000e+00,1.000000000000000000e+00,1.000000000000000000e+00,1.000000000000000000e+00,1.000000000000000000e+00,1.000000000000000000e+00,1.000000000000000000e+00,1.000000000000000000e+00,1.000000000000000000e+00,1.000000000000000000e+00,1.000000000000000000e+00,4.001008033752441184e-01,3.884270906448364369e-01,3.863628387451171764e-01,1.000000000000000000e+00,3.715720176696777344e-01,3.578240633010864036e-01,3.484822988510131725e-01,3.441287755966186412e-01,3.434362411499023438e-01,3.464514493942260631e-01,3.823740482330322266e-01,1.000000000000000000e+00,1.000000000000000000e+00,1.000000000000000000e+00,1.000000000000000000e+00,9.695265769958496538e-01,9.377971649169921653e-01,9.080787658691406028e-01,8.801859855651855691e-01,8.539556503295898660e-01,8.292433738708495650e-01,8.059212684631347212e-01,7.838751792907714400e-01,7.630030632019042525e-01,7.432135581970215066e-01
6.193700790405273215e-01,6.350667476654052734e-01,6.515797138214111106e-01,6.689743518829345259e-01,6.873232364654541238e-01,7.067137241363525835e-01,7.272309303283691628e-01,7.489750862121582475e-01,7.720595836639404519e-01,7.966123580932616965e-01,8.227780342102051225e-01,8.507208824157714844e-01,8.806285858154296875e-01,9.127157211303711382e-01,9.472295761108397993e-01,9.844562530517577681e-01,1.000000000000000000e+00,1.000000000000000000e+00,1.000000000000000000e+00,1.000000000000000000e+00,1.000000000000000000e+00,1.000000000000000000e+00,1.000000000000000000e+00,1.000000000000000000e+00,1.000000000000000000e+00,1.000000000000000000e+00,1.000000000000000000e+00,1.000000000000000000e+00,1.000000000000000000e+00,1.000000000000000000e+00,1.000000000000000000e+00,1.000000000000000000e+00,1.000000000000000000e+00,1.000000000000000000e+00,1.000000000000000000e+00,1.000000000000000000e+00,1.000000000000000000e+00,1.000000000000000000e+00,1.000000000000000000e+00,1.000000000000000000e+00,1.000000000000000000e+00,1.000000000000000000e+00,1.000000000000000000e+00,1.000000000000000000e+00,1.000000000000000000e+00,1.000000000000000000e+00,1.000000000000000000e+00,1.000000000000000000e+00,1.000000000000000000e+00,1.000000000000000000e+00,1.000000000000000000e+00,1.000000000000000000e+00,1.000000000000000000e+00,1.000000000000000000e+00,1.000000000000000000e+00,3.990395545959472545e-01,3.863962173461913951e-01,1.000000000000000000e+00,1.000000000000000000e+00,1.000000000000000000e+00,3.599422216415405495e-01,3.483667612075805886e-01,3.431559085845947155e-01,3.402005434036254883e-01,3.429180860519409069e-01,3.850724220275879017e-01,1.000000000000000000e+00,1.000000000000000000e+00,1.000000000000000000e+00,1.000000000000000000e+00,9.695517539978026900e-01,9.378206253051757368e-01,9.081007957458495650e-01,8.802066802978515403e-01,8.539751052856445757e-01,8.292617797851562500e-01,8.059386253356933816e-01,7.838915824890136941e-01,7.630186080932617188e-01,7.432283878326415572e-01
6.193668842315673828e-01,6.350667476654052734e-01,6.515797138214111106e-01,6.689743518829345259e-01,6.873232364654541238e-01,7.067070007324218750e-01,7.272159099578857644e-01,7.489556789398192915e-01,7.720389842987060991e-01,7.965904235839843528e-01,8.227545738220214400e-01,8.506959915161133035e-01,8.806017875671386941e-01,9.126870155334472212e-01,9.471985816955565962e-01,9.844226837158203125e-01,1.000000000000000000e+00,1.000000000000000000e+00,1.000000000000000000e+00,1.000000000000000000e+00,1.000000000000000000e+00,1.000000000000000000e+00,1.000000000000000000e+00,1.000000000000000000e+00,1.000000000000000000e+00,1.000000000000000000e+00,1.000000000000000000e+00,1.000000000000000000e+00,1.000000000000000000e+00,1.000000000000000000e+00,1.000000000000000000e+00,1.000000000000000000e+00,1.000000000000000000e+00,1.000000000000000000e+00,1.000000000000000000e+00,1.000000000000000000e+00,1.000000000000000000e+00,1.000000000000000000e+00,1.000000000000000000e+00,1.000000000000000000e+00,1.000000000000000000e+00,1.000000000000000000e+00,1.000000000000000000e+00,1.000000000000000000e+00,1.000000000000000000e+00,1.000000000000000000e+00,1.000000000000000000e+00,1.000000000000000000e+00,1.000000000000000000e+00,1.000000000000000000e+00,1.000000000000000000e+00,1.000000000000000000e+00,1.000000000000000000e+00,1.000000000000000000e+00,1.000000000000000000e+00,3.984012365341186301e-01,1.000000000000000000e+00,1.000000000000000000e+00,1.000000000000000000e+00,1.000000000000000000e+00,3.627836942672729714e-01,3.502732038497924916e-01,3.424304723739624023e-01,3.383576393127441517e-01,3.405483722686767356e-01,3.869048595428467019e-01,1.000000000000000000e+00,1.000000000000000000e+00,1.000000000000000000e+00,1.000000000000000000e+00,9.695768356323242188e-01,9.378441810607910378e-01,9.081227302551269087e-01,8.802272796630858931e-01,8.539945602416991743e-01,8.292801856994629350e-01,8.059559822082519309e-01,7.839079856872558372e-01,7.630342006683349387e-01,7.432431221008301003e-01
6.193537235260009322e-01,6.350555896759033647e-01,6.515743732452392578e-01,6.689743518829345259e-01,6.873232364654541238e-01,7.067070007324218750e-01,7.272159099578857644e-01,7.489505767822265403e-01,7.720245838165282759e-01,7.965684890747070090e-01,8.227312088012694868e-01,8.506710052490233931e-01,8.805750846862793191e-01,9.126582145690917969e-01,9.471675872802733931e-01,9.843893051147460938e-01,1.000000000000000000e+00,1.000000000000000000e+00,1.000000000000000000e+00,1.000000000000000000e+00,1.000000000000000000e+00,1.000000000000000000e+00,1.000000000000000000e+00,1.000000000000000000e+00,1.000000000000000000e+00,1.000000000000000000e+00,1.000000000000000000e+00,1.000000000000000000e+00,1.000000000000000000e+00,1.000000000000000000e+00,1.000000000000000000e+00,1.000000000000000000e+00,1.000000000000000000e+00,1.000000000000000000e+00,1.000000000000000000e+00,1.000000000000000000e+00,1.000000000000000000e+00,1.000000000000000000e+00,1.000000000000000000e+00,1.000000000000000000e+00,1.000000000000000000e+00,1.000000000000000000e+00,1.000000000000000000e+00,1.000000000000000000e+00,1.000000000000000000e+00,1.000000000000000000e+00,1.000000000000000000e+00,1.000000000000000000e+00,1.000000000000000000e+00,1.000000000000000000e+00,1.000000000000000000e+00,1.000000000000000000e+00,1.000000000000000000e+00,1.000000000000000000e+00,1.000000000000000000e+00,1.000000000000000000e+00,1.000000000000000000e+00,1.000000000000000000e+00,1.000000000000000000e+00,1.000000000000000000e+00,3.648188114166259766e-01,3.523904561996459850e-01,3.429468393325805775e-01,3.386153936386108176e-01,3.407509326934814453e-01,3.888433456420898326e-01,1.000000000000000000e+00,1.000000000000000000e+00,1.000000000000000000e+00,1.000000000000000000e+00,9.696019172668457475e-01,9.378676414489746094e-01,9.081448554992676003e-01,8.802480697631835938e-01,8.540140151977538840e-01,8.292985916137695090e-01,8.059733390808105913e-01,7.839244365692138450e-01,7.630497455596924050e-01,7.432578563690185325e-01
6.193405628204345925e-01,6.350417613983154741e-01,6.515598297119140625e-01,6.689601421356201616e-01,6.873153686523437722e-01,7.067060947418213335e-01,7.272159099578857644e-01,7.489505767822265403e-01,7.720245838165282759e-01,7.965655326843261719e-01,8.227178573608397993e-01,8.506460189819335938e-01,8.805482864379883257e-01,9.126294136047363725e-01,9.471365928649901900e-01,9.843558311462402566e-01,1.000000000000000000e+00,1.000000000000000000e+00,1.000000000000000000e+00,1.000000000000000000e+00,1.000000000000000000e+00,1.000000000000000000e+00,1.000000000000000000e+00,1.000000000000000000e+00,1.000000000000000000e+00,1.000000000000000000e+00,1.000000000000000000e+00,1.000000000000000000e+00,1.000000000000000000e+00,1.000000000000000000e+00,1.000000000000000000e+00,1.000000000000000000e+00,1.000000000000000000e+00,1.000000000000000000e+00,1.000000000000000000e+00,1.000000000000000000e+00,1.000000000000000000e+00,1.000000000000000000e+00,1.000000000000000000e+00,1.000000000000000000e+00,1.000000000000000000e+00,1.000000000000000000e+00,1.000000000000000000e+00,1.000000000000000000e+00,1.000000000000000000e+00,1.000000000000000000e+00,1.000000000000000000e+00,1.000000000000000000e+00,1.000000000000000000e+00,1.000000000000000000e+00,1.000000000000000000e+00,1.000000000000000000e+00,1.000000000000000000e+00,1.000000000000000000e+00,1.000000000000000000e+00,1.000000000000000000e+00,1.000000000000000000e+00,1.000000000000000000e+00,1.000000000000000000e+00,1.000000000000000000e+00,1.000000000000000000e+00,3.519446372985839955e-01,3.446407794952392467e-01,3.403157949447631614e-01,3.426076650619506725e-01,1.000000000000000000e+00,1.000000000000000000e+00,1.000000000000000000e+00,1.000000000000000000e+00,1.000000000000000000e+00,9.696269989013671653e-01,9.378911972045897993e-01,9.081667900085449441e-01,8.802686691284179465e-01,8.540335655212402122e-01,8.293169021606445757e-01,8.059906959533691406e-01,7.839408397674560991e-01,7.630652427673340066e-01,7.432725906372070757e-01
6.193274497985840066e-01,6.350279331207275835e-01,6.515452861785888672e-01,6.689448356628417969e-01,6.872991561889648660e-01,7.066889762878417747e-01,7.272047996520996094e-01,7.489473342895507368e-01,7.720245838165282759e-01,7.965655326843261719e-01,8.227178573608397993e-01,8.506457328796386275e-01,8.805363655090332475e-01,9.126041412353516069e-01,9.471056938171387163e-01,9.843224525451660378e-01,1.000000000000000000e+00,1.000000000000000000e+00,1.000000000000000000e+00,1.000000000000000000e+00,1.000000000000000000e+00,1.000000000000000000e+00,1.000000000000000000e+00,1.000000000000000000e+00,1.000000000000000000e+00,1.000000000000000000e+00,1.000000000000000000e+00,1.000000000000000000e+00,1.000000000000000000e+00,1.000000000000000000e+00,1.000000000000000000e+00,1.000000000000000000e+00,1.000000000000000000e+00,1.000000000000000000e+00,1.000000000000000000e+00,1.000000000000000000e+00,1.000000000000000000e+00,1.000000000000000000e+00,1.000000000000000000e+00,1.000000000000000000e+00,1.000000000000000000e+00,1.000000000000000000e+00,1.000000000000000000e+00,1.000000000000000000e+00,1.000000000000000000e+00,1.000000000000000000e+00,1.000000000000000000e+00,1.000000000000000000e+00,1.000000000000000000e+00,1.000000000000000000e+00,1.000000000000000000e+00,1.000000000000000000e+00,1.000000000000000000e+00,1.000000000000000000e+00,1.000000000000000000e+00,1.000000000000000000e+00,1.000000000000000000e+00,1.000000000000000000e+00,1.000000000000000000e+00,1.000000000000000000e+00,1.000000000000000000e+00,3.517314672470092662e-01,3.464339017868042214e-01,3.424142599105834961e-01,3.455275297164916992e-01,1.000000000000000000e+00,1.000000000000000000e+00,1.000000000000000000e+00,1.000000000000000000e+00,1.000000000000000000e+00,9.696521759033203125e-01,9.379146575927734819e-01,9.081888198852539062e-01,8.802894592285156472e-01,8.540530204772949219e-01,8.293353080749511497e-01,8.060080528259276900e-01,7.839572429656982422e-01,7.630810737609863281e-01,7.432883262634277788e-01
6.193142890930175559e-01,6.350141048431396928e-01,6.515307426452636719e-01,6.689294815063476785e-01,6.872828960418700950e-01,7.066719055175780806e-01,7.271866321563720259e-01,7.489281177520752397e-01,7.720096111297607422e-01,7.965590953826904297e-01,8.227178573608397993e-01,8.506457328796386275e-01,8.805363655090332475e-01,9.126041412353516069e-01,9.470957756042480691e-01,9.842971801757812722e-01,1.000000000000000000e+00,1.000000000000000000e+00,1.000000000000000000e+00,1.000000000000000000e+00,1.000000000000000000e+00,1.000000000000000000e+00,1.000000000000000000e+00,1.000000000000000000e+00,1.000000000000000000e+00,1.000000000000000000e+00,1.000000000000000000e+00,1.000000000000000000e+00,1.000000000000000000e+00,1.000000000000000000e+00,1.000000000000000000e+00,1.000000000000000000e+00,1.000000000000000000e+00,1.000000000000000000e+00,1.000000000000000000e+00,1.000000000000000000e+00,1.000000000000000000e+00,1.000000000000000000e+00,1.000000000000000000e+00,1.000000000000000000e+00,1.000000000000000000e+00,1.000000000000000000e+00,1.000000000000000000e+00,1.000000000000000000e+00,1.000000000000000000e+00,1.000000000000000000e+00,1.000000000000000000e+00,1.000000000000000000e+00,1.000000000000000000e+00,1.000000000000000000e+00,1.000000000000000000e+00,1.000000000000000000e+00,1.000000000000000000e+00,1.000000000000000000e+00,1.000000000000000000e+00,1.000000000000000000e+00,1.000000000000000000e+00,1.000000000000000000e+00,1.000000000000000000e+00,1.000000000000000000e+00,1.000000000000000000e+00,3.525405883789062278e-01,3.478313446044921653e-01,3.445387601852417103e-01,3.496659517288208119e-01,1.000000000000000000e+00,1.000000000000000000e+00,1.000000000000000000e+00,1.000000000000000000e+00,1.000000000000000000e+00,9.696772575378418413e-01,9.379381179809570535e-01,9.082108497619628684e-01,8.803100585937500000e-01,8.540725708007812500e-01,8.293536186218262163e-01,8.060261726379394087e-01,7.839750766754149947e-01,7.630984783172607422e-01,7.433048725128174050e-01
6.193011283874512163e-01,6.350003242492675559e-01,6.515161991119384766e-01,6.689141273498535600e-01,6.872666835784911887e-01,7.066547870635986328e-01,7.271685123443603072e-01,7.489088535308837669e-01,7.719891548156738725e-01,7.965373516082763228e-01,8.226980209350586160e-01,8.506354331970215066e-01,8.805363655090332475e-01,9.126041412353516069e-01,9.470957756042480691e-01,9.842971801757812722e-01,1.000000000000000000e+00,1.000000000000000000e+00,1.000000000000000000e+00,1.000000000000000000e+00,1.000000000000000000e+00,1.000000000000000000e+00,1.000000000000000000e+00,1.000000000000000000e+00,1.000000000000000000e+00,1.000000000000000000e+00,1.000000000000000000e+00,1.000000000000000000e+00,1.000000000000000000e+00,1.000000000000000000e+00,1.000000000000000000e+00,1.000000000000000000e+00,1.000000000000000000e+00,1.000000000000000000e+00,1.000000000000000000e+00,1.000000000000000000e+00,1.000000000000000000e+00,1.000000000000000000e+00,1.000000000000000000e+00,1.000000000000000000e+00,1.000000000000000000e+00,1.000000000000000000e+00,1.000000000000000000e+00,1.000000000000000000e+00,1.000000000000000000e+00,1.000000000000000000e+00,1.000000000000000000e+00,1.000000000000000000e+00,1.000000000000000000e+00,1.000000000000000000e+00,1.000000000000000000e+00,1.000000000000000000e+00,1.000000000000000000e+00,1.000000000000000000e+00,1.000000000000000000e+00,1.000000000000000000e+00,1.000000000000000000e+00,1.000000000000000000e+00,1.000000000000000000e+00,1.000000000000000000e+00,4.252730846405029519e-01,3.536443471908569114e-01,3.492401361465454213e-01,3.469650506973266380e-01,3.526984214782714622e-01,1.000000000000000000e+00,1.000000000000000000e+00,1.000000000000000000e+00,1.000000000000000000e+00,1.000000000000000000e+00,9.697023391723632590e-01,9.379615783691406250e-01,9.082328796386718306e-01,8.803312301635741743e-01,8.540933609008789507e-01,8.293741226196289507e-01,8.060456275939941184e-01,7.839935779571532981e-01,7.631159305572510210e-01,7.433214187622070312e-01
6.192880153656006303e-01,6.349864959716796653e-01,6.515016555786132812e-01,6.688988208770751953e-01,6.872505187988281472e-01,7.066376686096191850e-01,7.271503925323485884e-01,7.488895893096924050e-01,7.719687461853027566e-01,7.965156078338623269e-01,8.226748466491698997e-01,8.506106376647949441e-01,8.805103302001953125e-01,9.125886917114257590e-01,9.470926284790038840e-01,9.842971801757812722e-01,1.000000000000000000e+00,1.000000000000000000e+00,1.000000000000000000e+00,1.000000000000000000e+00,1.000000000000000000e+00,1.000000000000000000e+00,1.000000000000000000e+00,1.000000000000000000e+00,1.000000000000000000e+00,1.000000000000000000e+00,1.000000000000000000e+00,1.000000000000000000e+00,1.000000000000000000e+00,1.000000000000000000e+00,1.000000000000000000e+00,1.000000000000000000e+00,1.000000000000000000e+00,1.000000000000000000e+00,1.000000000000000000e+00,1.000000000000000000e+00,1.000000000000000000e+00,1.000000000000000000e+00,1.000000000000000000e+00,1.000000000000000000e+00,1.000000000000000000e+00,1.000000000000000000e+00,1.000000000000000000e+00,1.000000000000000000e+00,1.000000000000000000e+00,1.000000000000000000e+00,1.000000000000000000e+00,1.000000000000000000e+00,1.000000000000000000e+00,1.000000000000000000e+00,1.000000000000000000e+00,1.000000000000000000e+00,1.000000000000000000e+00,1.000000000000000000e+00,1.000000000000000000e+00,1.000000000000000000e+00,1.000000000000000000e+00,1.000000000000000000e+00,1.000000000000000000e+00,1.000000000000000000e+00,4.272081375122070424e-01,3.546328783035278542e-01,3.494623422622680775e-01,3.466120481491088978e-01,3.521772384643554465e-01,1.000000000000000000e+00,1.000000000000000000e+00,1.000000000000000000e+00,1.000000000000000000e+00,1.000000000000000000e+00,9.697275161743164062e-01,9.379861831665039507e-01,9.082570075988769531e-01,8.803544044494628906e-01,8.541152000427245650e-01,8.293947219848633035e-01,8.060650825500488281e-01,7.840119838714599831e-01,7.631333827972411887e-01,7.433379650115966575e-01
6.192748546600341797e-01,6.349726676940917747e-01,6.514871120452880859e-01,6.688834667205810769e-01,6.872343063354492410e-01,7.066205501556396262e-01,7.271322727203368697e-01,7.488703727722167969e-01,7.719483375549316406e-01,7.964938640594482200e-01,8.226516723632812944e-01,8.505858421325683816e-01,8.804837226867675559e-01,9.125601768493651900e-01,9.470619201660156472e-01,9.842750549316405806e-01,1.000000000000000000e+00,1.000000000000000000e+00,1.000000000000000000e+00,1.000000000000000000e+00,1.000000000000000000e+00,1.000000000000000000e+00,1.000000000000000000e+00,1.000000000000000000e+00,1.000000000000000000e+00,1.000000000000000000e+00,1.000000000000000000e+00,1.000000000000000000e+00,1.000000000000000000e+00,1.000000000000000000e+00,1.000000000000000000e+00,1.000000000000000000e+00,1.000000000000000000e+00,1.000000000000000000e+00,1.000000000000000000e+00,1.000000000000000000e+00,1.000000000000000000e+00,1.000000000000000000e+00,1.000000000000000000e+00,1.000000000000000000e+00,1.000000000000000000e+00,1.000000000000000000e+00,1.000000000000000000e+00,1.000000000000000000e+00,1.000000000000000000e+00,1.000000000000000000e+00,1.000000000000000000e+00,1.000000000000000000e+00,1.000000000000000000e+00,1.000000000000000000e+00,1.000000000000000000e+00,1.000000000000000000e+00,1.000000000000000000e+00,1.000000000000000000e+00,1.000000000000000000e+00,1.000000000000000000e+00,1.000000000000000000e+00,1.000000000000000000e+00,1.000000000000000000e+00,1.000000000000000000e+00,4.293303966522216686e-01,3.555844783782958762e-01,3.496720790863037109e-01,3.464450120925903209e-01,3.516567230224609264e-01,1.000000000000000000e+00,1.000000000000000000e+00,1.000000000000000000e+00,1.000000000000000000e+00,1.000000000000000000e+00,9.697555541992187722e-01,9.380125045776367410e-01,9.082818031311035156e-01,8.803776741027832253e-01,8.541370391845702903e-01,8.294154167175292747e-01,8.060845375061035378e-01,7.840303897857665572e-01,7.631508350372314675e-01,7.433545112609862837e-01
6.192616939544677290e-01,6.349588394165038840e-01,6.514725685119628906e-01,6.688681602478027122e-01,6.872181415557860884e-01,7.066034317016601785e-01,7.271141529083251509e-01,7.488511085510254350e-01,7.719278812408447710e-01,7.964721202850342241e-01,8.226284027099609597e-01,8.505610466003418191e-01,8.804572105407715288e-01,9.125315666198730025e-01,9.470312118530272993e-01,9.842418670654297097e-01,1.000000000000000000e+00,1.000000000000000000e+00,1.000000000000000000e+00,1.000000000000000000e+00,1.000000000000000000e+00,1.000000000000000000e+00,1.000000000000000000e+00,1.000000000000000000e+00,1.000000000000000000e+00,1.000000000000000000e+00,1.000000000000000000e+00,1.000000000000000000e+00,1.000000000000000000e+00,1.000000000000000000e+00,1.000000000000000000e+00,1.000000000000000000e+00,1.000000000000000000e+00,1.000000000000000000e+00,1.000000000000000000e+00,1.000000000000000000e+00,1.000000000000000000e+00,1.000000000000000000e+00,1.000000000000000000e+00,1.000000000000000000e+00,1.000000000000000000e+00,1.000000000000000000e+00,1.000000000000000000e+00,1.000000000000000000e+00,1.000000000000000000e+00,1.000000000000000000e+00,1.000000000000000000e+00,1.000000000000000000e+00,1.000000000000000000e+00,1.000000000000000000e+00,1.000000000000000000e+00,1.000000000000000000e+00,1.000000000000000000e+00,1.000000000000000000e+00,1.000000000000000000e+00,1.000000000000000000e+00,1.000000000000000000e+00,1.000000000000000000e+00,1.000000000000000000e+00,4.439649105072021595e-01,4.338877677917480358e-01,3.565525770187377708e-01,3.501713275909423828e-01,3.465267658233642800e-01,3.511377334594726340e-01,1.000000000000000000e+00,1.000000000000000000e+00,1.000000000000000000e+00,1.000000000000000000e+00,1.000000000000000000e+00,9.697837829589843750e-01,9.380389213562011497e-01,9.083065032958984597e-01,8.804008483886718306e-01,8.541588783264160156e-01,8.294360160827636275e-01,8.061039924621582475e-01,7.840488433837891069e-01,7.631683349609375000e-01,7.433710575103760210e-01
6.192485809326171431e-01,6.349450111389159934e-01,6.514580249786376953e-01,6.688528060913085938e-01,6.872019290924071822e-01,7.065863132476806197e-01,7.270960330963134322e-01,7.488318920135498269e-01,7.719074726104736550e-01,7.964503765106201172e-01,8.226052284240722434e-01,8.505362510681152566e-01,8.804306030273437722e-01,9.125030517578125444e-01,9.470004081726074441e-01,9.842086791992187278e-01,1.000000000000000000e+00,1.000000000000000000e+00,1.000000000000000000e+00,1.000000000000000000e+00,1.000000000000000000e+00,1.000000000000000000e+00,1.000000000000000000e+00,1.000000000000000000e+00,1.000000000000000000e+00,1.000000000000000000e+00,1.000000000000000000e+00,1.000000000000000000e+00,1.000000000000000000e+00,1.000000000000000000e+00,1.000000000000000000e+00,1.000000000000000000e+00,1.000000000000000000e+00,1.000000000000000000e+00,1.000000000000000000e+00,1.000000000000000000e+00,1.000000000000000000e+00,1.000000000000000000e+00,1.000000000000000000e+00,1.000000000000000000e+00,1.000000000000000000e+00,1.000000000000000000e+00,1.000000000000000000e+00,1.000000000000000000e+00,1.000000000000000000e+00,1.000000000000000000e+00,1.000000000000000000e+00,1.000000000000000000e+00,1.000000000000000000e+00,1.000000000000000000e+00,1.000000000000000000e+00,1.000000000000000000e+00,1.000000000000000000e+00,1.000000000000000000e+00,1.000000000000000000e+00,1.000000000000000000e+00,1.000000000000000000e+00,1.000000000000000000e+00,1.000000000000000000e+00,4.473239421844482644e-01,4.391386508941650391e-01,3.575439691543579324e-01,3.508488416671752819e-01,3.466085672378539928e-01,3.506202697753906250e-01,1.000000000000000000e+00,1.000000000000000000e+00,1.000000000000000000e+00,1.000000000000000000e+00,1.000000000000000000e+00,9.698120117187499778e-01,9.380652427673339400e-01,9.083312034606934038e-01,8.804241180419921653e-01,8.541807174682617410e-01,8.294566154479980913e-01,8.061234474182128462e-01,7.840672492980956809e-01,7.631857872009277788e-01,7.433876037597656472e-01
6.192354202270508035e-01,6.349312305450439675e-01,6.514434814453125000e-01,6.688374996185302290e-01,6.871857643127441406e-01,7.065691947937011719e-01,7.270779132843017134e-01,7.488126754760742188e-01,7.718870639801025391e-01,7.964286804199218750e-01,8.225819587707519087e-01,8.505114555358886941e-01,8.804039955139160156e-01,9.124745368957519753e-01,9.469696998596190962e-01,9.841754913330078569e-01,1.000000000000000000e+00,1.000000000000000000e+00,1.000000000000000000e+00,1.000000000000000000e+00,1.000000000000000000e+00,1.000000000000000000e+00,1.000000000000000000e+00,1.000000000000000000e+00,1.000000000000000000e+00,1.000000000000000000e+00,1.000000000000000000e+00,1.000000000000000000e+00,1.000000000000000000e+00,1.000000000000000000e+00,1.000000000000000000e+00,1.000000000000000000e+00,1.000000000000000000e+00,1.000000000000000000e+00,1.000000000000000000e+00,1.000000000000000000e+00,1.000000000000000000e+00,1.000000000000000000e+00,1.000000000000000000e+00,1.000000000000000000e+00,1.000000000000000000e+00,1.000000000000000000e+00,1.000000000000000000e+00,1.000000000000000000e+00,1.000000000000000000e+00,1.000000000000000000e+00,1.000000000000000000e+00,1.000000000000000000e+00,1.000000000000000000e+00,1.000000000000000000e+00,1.000000000000000000e+00,1.000000000000000000e+00,1.000000000000000000e+00,1.000000000000000000e+00,1.000000000000000000e+00,1.000000000000000000e+00,1.000000000000000000e+00,1.000000000000000000e+00,1.000000000000000000e+00,4.505817413330078236e-01,4.446962833404540794e-01,3.585884332656860130e-01,3.519185304641723744e-01,3.476289510726928711e-01,3.503978490829467995e-01,1.000000000000000000e+00,1.000000000000000000e+00,1.000000000000000000e+00,1.000000000000000000e+00,1.000000000000000000e+00,9.698401451110839622e-01,9.380916595458984597e-01,9.083559036254882368e-01,8.804473876953125000e-01,8.542026519775390847e-01,8.294772148132324441e-01,8.061429977416991743e-01,7.840856552124023660e-01,7.632032394409179465e-01,7.434042453765868919e-01
6.192222595214843528e-01,6.349174022674560769e-01,6.514289379119873047e-01,6.688221454620361106e-01,6.871695518493652344e-01,7.065520763397217241e-01,7.270597934722899947e-01,7.487934589385986106e-01,7.718666076660156694e-01,7.964069366455077681e-01,8.225587844848633035e-01,8.504866600036621316e-01,8.803774833679198775e-01,9.124460220336914062e-01,9.469389915466308594e-01,9.841423034667968750e-01,1.000000000000000000e+00,1.000000000000000000e+00,1.000000000000000000e+00,1.000000000000000000e+00,1.000000000000000000e+00,1.000000000000000000e+00,1.000000000000000000e+00,1.000000000000000000e+00,1.000000000000000000e+00,1.000000000000000000e+00,1.000000000000000000e+00,1.000000000000000000e+00,1.000000000000000000e+00,1.000000000000000000e+00,1.000000000000000000e+00,1.000000000000000000e+00,1.000000000000000000e+00,1.000000000000000000e+00,1.000000000000000000e+00,1.000000000000000000e+00,1.000000000000000000e+00,1.000000000000000000e+00,1.000000000000000000e+00,1.000000000000000000e+00,1.000000000000000000e+00,1.000000000000000000e+00,1.000000000000000000e+00,1.000000000000000000e+00,1.000000000000000000e+00,1.000000000000000000e+00,1.000000000000000000e+00,1.000000000000000000e+00,1.000000000000000000e+00,1.000000000000000000e+00,1.000000000000000000e+00,1.000000000000000000e+00,1.000000000000000000e+00,1.000000000000000000e+00,1.000000000000000000e+00,1.000000000000000000e+00,1.000000000000000000e+00,1.000000000000000000e+00,4.771103382110595814e-01,4.557085037231445312e-01,4.549542903900146706e-01,3.598168134689331277e-01,3.531165122985839844e-01,3.490494012832641713e-01,3.502091884613037220e-01,1.000000000000000000e+00,1.000000000000000000e+00,1.000000000000000000e+00,1.000000000000000000e+00,1.000000000000000000e+00,9.698683738708495650e-01,9.381179809570312500e-01,9.083806037902831809e-01,8.804705619812012163e-01,8.542244911193848100e-01,8.294978141784667969e-01,8.061624526977538840e-01,7.841040611267089400e-01,7.632206916809082253e-01,7.434207916259765181e-01
6.192091464996337669e-01,6.349035739898681863e-01,6.514143943786621094e-01,6.688068389892578569e-01,6.871533870697021928e-01,7.065350055694580300e-01,7.270417213439941406e-01,7.487742424011230025e-01,7.718461990356445535e-01,7.963851928710937722e-01,8.225356101989745872e-01,8.504618644714355691e-01,8.803508758544922319e-01,9.124174118041992188e-01,9.469082832336426225e-01,9.710383415222167969e-01,9.707981109619140403e-01,9.705579757690430132e-01,9.703179359436034934e-01,9.700780868530273215e-01,9.698382377624511497e-01,9.695986747741699441e-01,9.693591117858886275e-01,9.691196441650390403e-01,9.688803672790526900e-01,9.686411857604980691e-01,9.684020996093749556e-01,9.681632041931151900e-01,9.679243087768554243e-01,9.676856040954590066e-01,9.674470901489258257e-01,9.672085762023925337e-01,9.669701576232909712e-01,9.667319297790527566e-01,9.664937973022460493e-01,9.662557601928710715e-01,9.660179138183593306e-01,9.657801628112793191e-01,9.655425071716308150e-01,9.653049468994140403e-01,9.650674819946288840e-01,9.648303031921386941e-01,9.645930290222167747e-01,9.643559455871582031e-01,9.641190528869628684e-01,9.638821601867675337e-01,9.636454582214355469e-01,9.634088516235351785e-01,9.631723403930664285e-01,9.629359245300292969e-01,9.626996994018555132e-01,9.624635696411132368e-01,9.622275352478026900e-01,9.619915962219238725e-01,9.617558479309081809e-01,9.615201950073242188e-01,9.612846374511718750e-01,9.610490798950195312e-01,4.679787635803222545e-01,4.620499134063720814e-01,9.603434562683105247e-01,3.624504327774047963e-01,3.543306112289428822e-01,3.499927043914795033e-01,3.500206708908081277e-01,9.591696739196777788e-01,9.589352607727050781e-01,9.587010383605957253e-01,9.584668159484863725e-01,9.582327842712402566e-01,9.579987525939941406e-01,9.381443977355956587e-01,9.084053039550781250e-01,8.804938316345214400e-01,8.542463302612304243e-01,8.295184135437011497e-01,8.061819076538085938e-01,7.841224670410156250e-01,7.632381439208983931e-01,7.434373378753662553e-01
6.191959857940674272e-01,6.348897457122802956e-01,6.513998508453369141e-01,6.687914848327636275e-01,6.871372222900390403e-01,7.065178871154784712e-01,7.270236015319824219e-01,7.487550258636475053e-01,7.542572498321533647e-01,7.541123390197753684e-01,7.539674282073974831e-01,7.538225173950194868e-01,7.536777496337890847e-01,7.535330772399901900e-01,7.533883094787597878e-01,7.532437324523926225e-01,7.530992031097412109e-01,7.529546260833740456e-01,7.528101444244384988e-01,7.526657581329345703e-01,7.525213718414306419e-01,7.523771286010741965e-01,7.522328853607177512e-01,7.520886421203613059e-01,7.519445419311523438e-01,7.518004894256591353e-01,7.516565322875976562e-01,7.515124797821044478e-01,7.513686180114745872e-01,7.512248039245605913e-01,7.510809421539306197e-01,7.509372234344482422e-01,7.507935523986816184e-01,7.506498813629149947e-01,7.505063056945801003e-01,7.503628253936767134e-01,7.502192974090575728e-01,7.500759124755859153e-01,7.499325752258301225e-01,7.497891902923583540e-01,7.496459960937500444e-01,7.495028018951416238e-01,7.493596076965332031e-01,7.492165565490722656e-01,7.490735530853271928e-01,7.489305019378662553e-01,7.487876415252685547e-01,7.486447811126708540e-01,7.485019207000732644e-01,7.483592033386230469e-01,7.482165336608886941e-01,7.480738162994384766e-01,7.479312419891357422e-01,7.477887153625488725e-01,7.476461887359618919e-01,7.475038051605225053e-01,7.473614215850830078e-01,7.472191333770752397e-01,4.631734371185302623e-01,4.611923217773437611e-01,7.467925071716308150e-01,3.679769515991210826e-01,3.555531024932861439e-01,3.502740621566772239e-01,3.498324155807495117e-01,7.460824489593506081e-01,7.459406375885009322e-01,7.457988262176513672e-01,7.456571102142334206e-01,7.455154418945312278e-01,7.453737735748291460e-01,7.452322483062744363e-01,7.450907707214355913e-01,7.449492454528808816e-01,7.448078632354736550e-01,7.446665287017821822e-01,7.445251941680908203e-01,7.443839550018310769e-01,7.442427635192870872e-01,7.434538841247558816e-01
6.166997909545898215e-01,6.166028499603271040e-01,6.165060043334961160e-01,6.164091110229492632e-01,6.163122177124022993e-01,6.162154674530029297e-01,6.161187171936035600e-01,6.160219669342040794e-01,6.159252643585204634e-01,6.158286094665527122e-01,6.157319545745849609e-01,6.156353473663329634e-01,6.155387878417968306e-01,6.154422283172606978e-01,6.153457164764404297e-01,6.152492523193359153e-01,6.151527404785156472e-01,6.150563240051269975e-01,6.149599552154541016e-01,6.148635387420654519e-01,6.147672176361084206e-01,6.146709442138671431e-01,6.145746231079101118e-01,6.144783973693848100e-01,6.143822193145751509e-01,6.142859935760498491e-01,6.141898632049560547e-01,6.140937328338622603e-01,6.139976024627685769e-01,6.139015674591064009e-01,6.138055324554443359e-01,6.137095451354980247e-01,6.136135578155517134e-01,6.135176181793212669e-01,6.134217262268066850e-01,6.133257865905761275e-01,6.132299423217772993e-01,6.131341934204102007e-01,6.130383491516113725e-01,6.129426002502441628e-01,6.128468990325928178e-01,6.127511501312256081e-01,6.126554965972900169e-01,6.125598430633545366e-01,6.124641895294189453e-01,6.123686313629150835e-01,6.122730731964111106e-01,6.121775150299072488e-01,6.120820522308350053e-01,6.119865894317626509e-01,6.118911266326904075e-01,6.117957592010497825e-01,6.117003917694091575e-01,6.116049766540527788e-01,6.115097045898437722e-01,6.114144325256347656e-01,6.113191127777100053e-01,6.112238883972167525e-01,4.591341018676757812e-01,4.595960617065429910e-01,6.109384059906005637e-01,6.108433246612549050e-01,3.587752342224120872e-01,3.536711931228637695e-01,6.105581283569335715e-01,6.104631900787353960e-01,6.103681564331054910e-01,6.102732658386230691e-01,6.101783752441406472e-01,6.100834846496582253e-01,6.099886417388915572e-01,6.098938465118408647e-01,6.097990036010741965e-01,6.097043037414551225e-01,6.096095561981200728e-01,6.095148563385009988e-01,6.094202041625976785e-01,6.093255519866943581e-01,6.092309474945067915e-01,6.091363906860352007e-01
5.210231781005859597e-01,5.209539890289306419e-01,5.208848476409911887e-01,5.208156585693359819e-01,5.207465171813965288e-01,5.206774234771728294e-01,5.206083297729492410e-01,5.205392360687255415e-01,5.204701900482178178e-01,5.204011440277099831e-01,5.203321456909180132e-01,5.202631473541259322e-01,5.201941490173339622e-01,5.201251983642578569e-01,5.200562953948975053e-01,5.199873447418212891e-01,5.199184417724609375e-01,5.198495864868164507e-01,5.197806835174560991e-01,5.197118282318115012e-01,5.196430206298827681e-01,5.195742130279541460e-01,5.195054054260254128e-01,5.194366455078125444e-01,5.193678855895995650e-01,5.192991733551025613e-01,5.192304611206054465e-01,5.191617012023925781e-01,5.190930366516113281e-01,5.190244197845459428e-01,5.189557075500488281e-01,5.188870906829834428e-01,5.188185214996338113e-01,5.187499523162841797e-01,5.186813354492187944e-01,5.186127662658691628e-01,5.185442447662353960e-01,5.184757232666015181e-01,5.184072494506836160e-01,5.183387756347656028e-01,5.182702541351318359e-01,5.182018280029296875e-01,5.181334018707275391e-01,5.180649757385253906e-01,5.179965972900391069e-01,5.179282188415527122e-01,5.178598403930664285e-01,5.177915096282958984e-01,5.177232265472412331e-01,5.176548957824707031e-01,5.175866127014160378e-01,5.175183773040771262e-01,5.174500942230224609e-01,5.173818588256835493e-01,5.173136711120605025e-01,5.172454833984374556e-01,5.171772956848144087e-01,5.171091556549072266e-01,4.517928600311279519e-01,4.541440963745116965e-01,5.169047832489013228e-01,5.168366909027100053e-01,3.598285436630249134e-01,3.535781860351562278e-01,3.508553266525268333e-01,5.165645122528076394e-01,5.164965152740478294e-01,5.164285659790038840e-01,5.163605690002441850e-01,5.162926673889159934e-01,5.162247180938720481e-01,5.161568164825439675e-01,5.160889148712157759e-01,5.160210609436035600e-01,5.159532070159912331e-01,5.158853530883789062e-01,5.158175468444824441e-01,5.157497406005859819e-01,5.156819343566894087e-01,5.156142234802245650e-01
4.510465145111083873e-01,4.509946346282959206e-01,4.509428024291992076e-01,4.508909702301025502e-01,4.508391380310058372e-01,4.507873535156249889e-01,4.507355690002441406e-01,4.506837844848632924e-01,4.506320476531982533e-01,4.505802631378174050e-01,4.505285263061523660e-01,4.504767894744873269e-01,4.504250526428222878e-01,4.503733634948730580e-01,4.503216743469238281e-01,4.502699851989745983e-01,4.502183437347412331e-01,4.501666545867920033e-01,4.501150131225585826e-01,4.500634193420410267e-01,4.500117778778076061e-01,4.499601840972900502e-01,4.499085903167724387e-01,4.498569965362548828e-01,4.498054504394531361e-01,4.497539043426513894e-01,4.497023105621337780e-01,4.496508121490478405e-01,4.495992660522460938e-01,4.495477676391601562e-01,4.494962692260742188e-01,4.494447708129882812e-01,4.493932723999023438e-01,4.493418216705322155e-01,4.492903709411620872e-01,4.492389202117920144e-01,4.491875171661376953e-01,4.491361141204833762e-01,4.490847110748291127e-01,4.490333080291747936e-01,4.489819049835205300e-01,4.489305496215820201e-01,4.488791942596435658e-01,4.488278388977050559e-01,4.487765312194824108e-01,4.487251758575439564e-01,4.486738681793213113e-01,4.486226081848144753e-01,4.485713005065917747e-01,4.485199928283691295e-01,4.484687805175781028e-01,4.484174728393554576e-01,4.483662605285644309e-01,4.483150482177734597e-01,4.482637882232666238e-01,4.482126235961914062e-01,4.481614112854003795e-01,4.481101989746093528e-01,4.480590343475341908e-01,4.480079174041747825e-01,4.479567527770996205e-01,4.479056358337402122e-01,3.606439113616943248e-01,3.503772020339965820e-01,3.453563690185547097e-01,3.451841831207275169e-01,4.476500988006592019e-01,4.475990295410156028e-01,4.475480079650878684e-01,4.474969863891601340e-01,4.474459171295165905e-01,4.473948955535888561e-01,4.473439216613769309e-01,4.472929000854491965e-01,4.472419261932373269e-01,4.471909523010254017e-01,4.471399784088134766e-01,4.470890522003173606e-01,4.470381259918213002e-01,4.469871520996093750e-01
3.976408720016479381e-01,3.976005315780639648e-01,3.975602626800537331e-01,3.975199937820434459e-01,3.974796772003174050e-01,3.974394321441650502e-01,3.973991870880126953e-01,3.973588943481445312e-01,3.973186731338501088e-01,3.972784519195556863e-01,3.972381830215453991e-01,3.971979856491089089e-01,3.971577882766723633e-01,3.971175670623779408e-01,3.970773696899413951e-01,3.970372200012207142e-01,3.969969987869262917e-01,3.969568490982055553e-01,3.969166994094848744e-01,3.968765497207641380e-01,3.968364238739013894e-01,3.967962980270385853e-01,3.967561244964599720e-01,3.967160224914551003e-01,3.966759443283081055e-01,3.966358423233032338e-01,3.965957641601562389e-01,3.965556859970092995e-01,3.965155601501464955e-01,3.964755058288574330e-01,3.964354753494262473e-01,3.963954210281371848e-01,3.963553905487060547e-01,3.963153600692749245e-01,3.962753057479858620e-01,3.962352991104126088e-01,3.961952924728393555e-01,3.961552858352661022e-01,3.961153030395507812e-01,3.960753202438354603e-01,3.960353136062622070e-01,3.959953546524047630e-01,3.959553956985473744e-01,3.959154605865478627e-01,3.958755254745483509e-01,3.958355903625488392e-01,3.957956552505493275e-01,3.957556962966918834e-01,3.957158088684081809e-01,3.956758975982666016e-01,3.956360101699828991e-01,3.955961227416991965e-01,3.955562591552734264e-01,3.955163478851318470e-01,3.954764842987060769e-01,3.954366445541381836e-01,3.953968048095702903e-01,3.953569650650024525e-01,3.953171491622924916e-01,3.952772855758667214e-01,3.952374696731567605e-01,3.951976776123046764e-01,3.614537477493285911e-01,3.462835073471069447e-01,3.406867504119873158e-01,3.373004436492920144e-01,3.359729528427123912e-01,3.949589729309082031e-01,3.949192285537719838e-01,3.948795080184936412e-01,3.948397636413574219e-01,3.947999954223632701e-01,3.947602987289428600e-01,3.947205781936645730e-01,3.946808815002441628e-01,3.946412086486816295e-01,3.946015119552612194e-01,3.945618391036987416e-01,3.945221424102783314e-01,3.944824695587157981e-01
3.555431604385376199e-01,3.555109500885009766e-01,3.554787397384643333e-01,3.554465055465698131e-01,3.554143190383911022e-01,3.553821325302123912e-01,3.553499221801758035e-01,3.553177595138549694e-01,3.552855968475341908e-01,3.552533864974975475e-01,3.552212476730346458e-01,3.551890850067138672e-01,3.551568984985351562e-01,3.551247596740722545e-01,3.550926446914672852e-01,3.550604820251465066e-01,3.550283432006836049e-01,3.549962043762207031e-01,3.549640893936157338e-01,3.549319982528686412e-01,3.548998832702636719e-01,3.548677682876587025e-01,3.548356771469116100e-01,3.548035860061645730e-01,3.547715187072754128e-01,3.547394514083862527e-01,3.547073841094970925e-01,3.546752929687500000e-01,3.546432495117187722e-01,3.546112060546874889e-01,3.545791625976562611e-01,3.545471191406249778e-01,3.545150995254516824e-01,3.544830322265625222e-01,3.544510126113891713e-01,3.544190168380737527e-01,3.543869972229004017e-01,3.543550014495849831e-01,3.543230056762695090e-01,3.542909860610962136e-01,3.542590141296386719e-01,3.542270421981811301e-01,3.541950702667236439e-01,3.541630983352661022e-01,3.541311264038086160e-01,3.540991783142090066e-01,3.540672063827514648e-01,3.540352582931518555e-01,3.540033340454101785e-01,3.539713859558105691e-01,3.539394617080688366e-01,3.539075613021850364e-01,3.538756132125854270e-01,3.538436889648437500e-01,3.538117885589599498e-01,3.537798881530761497e-01,3.537480115890502819e-01,3.537161350250244141e-01,3.536842107772827370e-01,3.536523342132568137e-01,3.536204814910888783e-01,3.535886049270630105e-01,3.535567522048950195e-01,3.432257890701294056e-01,3.334777593612671120e-01,3.297474622726440652e-01,3.274372816085815430e-01,3.243277311325073464e-01,3.533657073974609264e-01,3.533339023590088002e-01,3.533020496368408092e-01,3.532702445983886830e-01,3.532384395599365012e-01,3.532066583633423074e-01,3.531748771667480580e-01,3.531430959701538086e-01,3.531113147735595592e-01,3.530795097351074330e-01,3.530477523803711160e-01,3.530159950256347434e-01
3.215058088302612527e-01,3.214794397354125977e-01,3.214531183242798074e-01,3.214267730712890847e-01,3.214004278182983620e-01,3.213741064071655162e-01,3.213477849960327259e-01,3.213214397430420033e-01,3.212951421737670898e-01,3.212688446044921764e-01,3.212425231933593861e-01,3.212162256240844727e-01,3.211899280548095592e-01,3.211636066436767689e-01,3.211373329162597878e-01,3.211110591888427512e-01,3.210847616195678933e-01,3.210584878921508567e-01,3.210322141647338756e-01,3.210059404373168945e-01,3.209796905517577903e-01,3.209534406661987416e-01,3.209271430969238281e-01,3.209009170532226562e-01,3.208746671676635520e-01,3.208484411239623801e-01,3.208221912384033314e-01,3.207959651947021595e-01,3.207697391510009877e-01,3.207435131072998158e-01,3.207173109054565208e-01,3.206911087036132812e-01,3.206648588180541770e-01,3.206386566162109375e-01,3.206124782562255748e-01,3.205862760543823353e-01,3.205600976943969727e-01,3.205339193344116100e-01,3.205077171325683705e-01,3.204815387725830078e-01,3.204553604125976451e-01,3.204292058944702148e-01,3.204030275344848522e-01,3.203768730163574219e-01,3.203506946563720592e-01,3.203245639801025613e-01,3.202984094619750755e-01,3.202722787857055775e-01,3.202461481094360241e-01,3.202200174331665261e-01,3.201938867568969727e-01,3.201677322387695424e-01,3.201416015624999889e-01,3.201154947280883678e-01,3.200893878936767467e-01,3.200632810592651256e-01,3.200371742248535045e-01,3.200110673904418834e-01,3.199849605560302623e-01,3.199588775634765736e-01,3.199327945709228294e-01,3.199067115783691406e-01,3.198806285858154519e-01,3.198545217514038308e-01,3.198284626007080189e-01,3.198024034500122070e-01,3.197763442993163951e-01,3.197502851486205833e-01,3.197242498397827037e-01,3.196981668472290150e-01,3.196721315383911355e-01,3.196460962295532005e-01,3.196200609207153209e-01,3.195940256118774414e-01,3.195679903030395619e-01,3.195419549942016824e-01,3.195159435272216797e-01,3.194899320602416770e-01,3.194639205932617299e-01,3.194379091262817272e-01
2.934160709381103405e-01,2.933941125869751199e-01,2.933722019195556530e-01,2.933502435684204324e-01,2.933283090591430886e-01,2.933063745498657449e-01,2.932844400405884011e-01,2.932625293731689342e-01,2.932406187057495228e-01,2.932186841964721791e-01,2.931967735290527122e-01,2.931748628616333008e-01,2.931529521942138894e-01,2.931310415267944225e-01,2.931091547012328880e-01,2.930872440338134766e-01,2.930653572082519420e-01,2.930434465408325306e-01,2.930215597152709961e-01,2.929996728897094616e-01,2.929777860641479270e-01,2.929559230804443248e-01,2.929340362548827903e-01,2.929121494293213113e-01,2.928902864456176536e-01,2.928684473037719838e-01,2.928465604782104492e-01,2.928246974945068470e-01,2.928028583526611217e-01,2.927810192108154519e-01,2.927591800689697266e-01,2.927373170852661244e-01,2.927154779434203991e-01,2.926936388015747292e-01,2.926718235015869363e-01,2.926499843597412109e-01,2.926281690597534180e-01,2.926063299179076926e-01,2.925845146179198997e-01,2.925626993179321067e-01,2.925408840179443137e-01,2.925190925598144531e-01,2.924972772598266602e-01,2.924754619598388672e-01,2.924536705017090066e-01,2.924318790435790905e-01,2.924100875854492299e-01,2.923882961273193137e-01,2.923665285110473855e-01,2.923447132110595925e-01,2.923229455947876088e-01,2.923011779785156250e-01,2.922794103622436412e-01,2.922576427459716575e-01,2.922358751296997292e-01,2.922141075134277455e-01,2.921923398971557617e-01,2.921705722808837780e-01,2.921488285064697266e-01,2.921270847320556752e-01,2.921053409576416238e-01,2.920835971832275169e-01,2.920618295669555886e-01,2.920401096343994141e-01,2.920183658599853627e-01,2.919966459274291881e-01,2.919749259948730691e-01,2.919532060623168945e-01,2.919314622879028431e-01,2.919097423553466686e-01,2.918880224227905495e-01,2.918663263320923074e-01,2.918446302413940652e-01,2.918229103088378906e-01,2.918011903762817161e-01,2.917794942855834739e-01,2.917577981948852317e-01,2.917361259460449219e-01,2.917144298553466797e-01,2.916927576065063699e-01
2.698403120040893666e-01,2.698217391967773215e-01,2.698031902313232644e-01,2.697846412658691517e-01,2.697660684585571067e-01,2.697475194931030495e-01,2.697289943695068137e-01,2.697104215621948242e-01,2.696918964385986439e-01,2.696733713150024636e-01,2.696548223495483509e-01,2.696362733840942383e-01,2.696177721023559348e-01,2.695992231369018777e-01,2.695806980133056419e-01,2.695621728897094616e-01,2.695436477661132812e-01,2.695251464843749778e-01,2.695066213607787975e-01,2.694880962371826172e-01,2.694695949554443137e-01,2.694510936737060658e-01,2.694325685501098855e-01,2.694140911102295144e-01,2.693955898284912109e-01,2.693770885467529075e-01,2.693585872650146595e-01,2.693401098251342884e-01,2.693216085433959850e-01,2.693031072616577370e-01,2.692846298217773660e-01,2.692661285400390625e-01,2.692476749420166238e-01,2.692291975021362527e-01,2.692107200622558816e-01,2.691922664642333873e-01,2.691737651824951394e-01,2.691553115844726451e-01,2.691368579864502064e-01,2.691184043884277122e-01,2.690999507904052734e-01,2.690814971923828347e-01,2.690630197525024636e-01,2.690445899963379017e-01,2.690261363983154075e-01,2.690077066421509011e-01,2.689892530441284069e-01,2.689708232879638450e-01,2.689523696899414062e-01,2.689339399337768444e-01,2.689155101776122825e-01,2.688970804214477761e-01,2.688786506652832142e-01,2.688602447509765847e-01,2.688417911529540905e-01,2.688233852386474609e-01,2.688049793243408314e-01,2.687865734100342019e-01,2.687681436538696400e-01,2.687497377395630105e-01,2.687313556671142578e-01,2.687129259109496959e-01,2.686945199966430664e-01,2.686761379241943137e-01,2.686577320098876842e-01,2.686393499374389870e-01,2.686209678649902344e-01,2.686025619506836049e-01,2.685841798782348522e-01,2.685657978057861550e-01,2.685474157333374023e-01,2.685290336608886497e-01,2.685106515884399525e-01,2.684922695159911998e-01,2.684739112854003795e-01,2.684555292129516824e-01,2.684371709823608620e-01,2.684188127517700417e-01,2.684004545211792214e-01,2.683820724487304688e-01
2.497713565826416016e-01,2.497554779052734431e-01,2.497395753860473522e-01,2.497236728668212891e-01,2.497077703475952259e-01,2.496918916702270397e-01,2.496759891510009766e-01,2.496601104736328181e-01,2.496442079544067272e-01,2.496283292770385687e-01,2.496124505996704102e-01,2.495965719223022516e-01,2.495806694030761608e-01,2.495648145675659069e-01,2.495489358901977484e-01,2.495330572128295898e-01,2.495171785354614313e-01,2.495012998580932728e-01,2.494854450225830189e-01,2.494695901870727650e-01,2.494537115097045787e-01,2.494378566741943248e-01,2.494220018386840709e-01,2.494061231613159124e-01,2.493902683258056585e-01,2.493744373321533092e-01,2.493585586547851507e-01,2.493427276611328014e-01,2.493268728256225475e-01,2.493110179901122936e-01,2.492951869964599720e-01,2.492793560028076227e-01,2.492635011672973688e-01,2.492476701736450195e-01,2.492318391799926702e-01,2.492160081863403209e-01,2.492001771926879994e-01,2.491843461990356501e-01,2.491685390472412054e-01,2.491527080535888561e-01,2.491369009017944391e-01,2.491210699081420898e-01,2.491052389144897405e-01,2.490894317626953236e-01,2.490736246109008789e-01,2.490578174591064342e-01,2.490420103073120173e-01,2.490262031555175726e-01,2.490103960037231556e-01,2.489945888519287109e-01,2.489788055419921986e-01,2.489629983901977539e-01,2.489472150802612416e-01,2.489314079284667969e-01,2.489156007766723522e-01,2.488998174667358398e-01,2.488840341567993275e-01,2.488682508468627874e-01,2.488524675369262751e-01,2.488366842269897350e-01,2.488209009170532227e-01,2.488051176071167103e-01,2.487893581390380748e-01,2.487735748291015625e-01,2.487578153610229548e-01,2.487420558929443470e-01,2.487262725830078069e-01,2.487105131149291992e-01,2.486947536468505915e-01,2.486789941787719838e-01,2.486632347106933483e-01,2.486474752426147405e-01,2.486316919326782282e-01,2.486159563064575251e-01,2.486001968383789174e-01,2.485844612121582142e-01,2.485687255859375111e-01,2.485529661178588756e-01,2.485372066497802679e-01,2.485214710235595648e-01
2.324809789657592829e-01,2.324671983718872015e-01,2.324534177780151478e-01,2.324396610260009710e-01,2.324258804321289174e-01,2.324120998382568359e-01,2.323983430862426869e-01,2.323845624923706055e-01,2.323708057403564564e-01,2.323570489883422796e-01,2.323432683944702259e-01,2.323295116424560491e-01,2.323157787322998047e-01,2.323019981384277233e-01,2.322882413864135742e-01,2.322745084762573298e-01,2.322607517242431530e-01,2.322469949722290039e-01,2.322332620620727595e-01,2.322195053100585826e-01,2.322057485580444336e-01,2.321920156478881891e-01,2.321782588958740123e-01,2.321645259857177679e-01,2.321507930755615234e-01,2.321370363235473744e-01,2.321233034133911022e-01,2.321095943450927623e-01,2.320958375930786133e-01,2.320821046829223688e-01,2.320683956146240290e-01,2.320546627044677845e-01,2.320409297943115123e-01,2.320271968841552679e-01,2.320134878158569280e-01,2.319997549057006836e-01,2.319860219955444391e-01,2.319723129272460993e-01,2.319586038589477595e-01,2.319448947906494196e-01,2.319311857223510798e-01,2.319174766540527399e-01,2.319037675857544001e-01,2.318900585174560602e-01,2.318763732910156250e-01,2.318626642227172852e-01,2.318489551544189453e-01,2.318352460861206055e-01,2.318215608596801702e-01,2.318078517913818304e-01,2.317941665649413951e-01,2.317804813385009877e-01,2.317667722702026478e-01,2.317530870437622126e-01,2.317394018173217773e-01,2.317257165908813421e-01,2.317120313644409069e-01,2.316983699798584040e-01,2.316846609115600641e-01,2.316709995269775335e-01,2.316573143005370983e-01,2.316436529159545954e-01,2.316299676895141602e-01,2.316163063049316295e-01,2.316026210784912220e-01,2.315889596939086914e-01,2.315752744674682562e-01,2.315616130828857533e-01,2.315479516983032227e-01,2.315342903137206920e-01,2.315206289291381891e-01,2.315069675445556585e-01,2.314933061599731556e-01,2.314796447753906250e-01,2.314660072326660267e-01,2.314523458480834961e-01,2.314387083053588978e-01,2.314250469207763672e-01,2.314113855361938366e-01,2.313977479934692383e-01
2.174294233322143499e-01,2.174173831939697210e-01,2.174053430557250921e-01,2.173932790756225586e-01,2.173812389373779297e-01,2.173691987991333008e-01,2.173571586608886719e-01,2.173451185226440430e-01,2.173330783843994141e-01,2.173210382461547852e-01,2.173089981079101562e-01,2.172969579696655273e-01,2.172849178314208984e-01,2.172728776931762695e-01,2.172608613967895452e-01,2.172488212585449163e-01,2.172368049621581920e-01,2.172247648239135631e-01,2.172127246856689342e-01,2.172007083892822377e-01,2.171886682510376088e-01,2.171766519546508845e-01,2.171646356582641602e-01,2.171526193618774359e-01,2.171406030654907116e-01,2.171285867691040150e-01,2.171165466308593861e-01,2.171045541763305664e-01,2.170925378799438421e-01,2.170805215835571178e-01,2.170685052871704213e-01,2.170565128326416016e-01,2.170444965362548773e-01,2.170324802398681530e-01,2.170204877853393610e-01,2.170084714889526367e-01,2.169964790344238170e-01,2.169844627380371205e-01,2.169724702835083008e-01,2.169604778289794811e-01,2.169484615325927845e-01,2.169364690780639648e-01,2.169244766235351451e-01,2.169124841690063532e-01,2.169004917144775335e-01,2.168884992599487416e-01,2.168765068054199219e-01,2.168645143508911022e-01,2.168525457382202148e-01,2.168405532836913951e-01,2.168285846710205078e-01,2.168165922164916881e-01,2.168045997619628962e-01,2.167926311492919811e-01,2.167806625366210938e-01,2.167686700820922741e-01,2.167567014694213867e-01,2.167447328567504994e-01,2.167327642440795843e-01,2.167207956314086970e-01,2.167088270187377819e-01,2.166968584060668945e-01,2.166848897933960072e-01,2.166729211807250921e-01,2.166609525680542048e-01,2.166489839553832897e-01,2.166370391845703069e-01,2.166250705718994196e-01,2.166131258010864369e-01,2.166011571884155218e-01,2.165891885757446345e-01,2.165772438049316517e-01,2.165652751922607366e-01,2.165533304214477539e-01,2.165413856506347712e-01,2.165294408798217884e-01,2.165174722671508734e-01,2.165055274963378906e-01,2.164935827255249079e-01,2.164816379547119252e-01
2.042083740234375000e-01,2.041977167129516713e-01,2.041871070861816517e-01,2.041764736175536998e-01,2.041658401489257757e-01,2.041552305221557562e-01,2.041445970535278320e-01,2.041339635848999079e-01,2.041233539581298884e-01,2.041127443313598688e-01,2.041021108627319447e-01,2.040915012359619252e-01,2.040808916091919056e-01,2.040702581405639537e-01,2.040596485137939342e-01,2.040490388870239147e-01,2.040384292602538951e-01,2.040278196334838756e-01,2.040172100067138561e-01,2.040065765380859319e-01,2.039959907531738170e-01,2.039853811264037975e-01,2.039747714996337780e-01,2.039641618728637584e-01,2.039535760879516713e-01,2.039429426193237194e-01,2.039323568344116322e-01,2.039217710494995173e-01,2.039111614227294977e-01,2.039005517959594782e-01,2.038899660110473633e-01,2.038793563842773438e-01,2.038687705993652288e-01,2.038581609725952093e-01,2.038475751876830944e-01,2.038369894027710072e-01,2.038263797760009877e-01,2.038157939910888727e-01,2.038052320480346624e-01,2.037946224212646429e-01,2.037840366363525280e-01,2.037734508514404408e-01,2.037628650665283259e-01,2.037522792816162109e-01,2.037417173385620006e-01,2.037311315536499134e-01,2.037205457687377985e-01,2.037099838256835882e-01,2.036993980407714733e-01,2.036888360977172907e-01,2.036782503128051758e-01,2.036676645278930609e-01,2.036571025848388783e-01,2.036465406417846680e-01,2.036359786987304576e-01,2.036253929138183705e-01,2.036148309707641602e-01,2.036042690277099498e-01,2.035937070846557673e-01,2.035831451416015569e-01,2.035725831985473744e-01,2.035620212554931641e-01,2.035514593124389537e-01,2.035408973693847712e-01,2.035303354263305609e-01,2.035197734832763783e-01,2.035092353820800726e-01,2.034986734390258900e-01,2.034881114959716797e-01,2.034775733947754017e-01,2.034670114517211914e-01,2.034564733505249134e-01,2.034459114074707031e-01,2.034353733062744252e-01,2.034248352050781194e-01,2.034142732620239369e-01,2.034037351608276312e-01,2.033931970596313532e-01,2.033826351165771429e-01,2.033720970153808649e-01
1.925029873847961537e-01,1.924935340881347712e-01,1.924841046333312933e-01,1.924746394157409723e-01,1.924651980400085560e-01,1.924557685852050781e-01,1.924463152885436956e-01,1.924368739128112793e-01,1.924274444580078014e-01,1.924180030822753851e-01,1.924085617065429688e-01,1.923991322517394909e-01,1.923896908760070745e-01,1.923802495002746582e-01,1.923708319664001465e-01,1.923613905906677302e-01,1.923519492149353138e-01,1.923425197601318359e-01,1.923331022262573242e-01,1.923236608505249079e-01,1.923142313957214300e-01,1.923048138618469183e-01,1.922953844070434681e-01,1.922859549522399902e-01,1.922765374183654785e-01,1.922671079635620006e-01,1.922576785087585505e-01,1.922482728958129772e-01,1.922388434410095270e-01,1.922294139862060491e-01,1.922200083732605036e-01,1.922105908393859919e-01,1.922011613845825140e-01,1.921917557716369684e-01,1.921823382377624567e-01,1.921729207038879450e-01,1.921635150909423717e-01,1.921540975570678600e-01,1.921446800231933483e-01,1.921352863311767689e-01,1.921258687973022572e-01,1.921164512634277455e-01,1.921070575714111384e-01,1.920976400375366266e-01,1.920882344245910534e-01,1.920788407325744740e-01,1.920694231986999623e-01,1.920600175857543890e-01,1.920506238937377819e-01,1.920412182807922363e-01,1.920318126678466908e-01,1.920224308967590221e-01,1.920130252838134766e-01,1.920036435127258356e-01,1.919942378997802623e-01,1.919848322868347168e-01,1.919754505157470759e-01,1.919660449028015026e-01,1.919566750526428278e-01,1.919472694396972545e-01,1.919378876686096136e-01,1.919284939765930065e-01,1.919191002845764271e-01,1.919097185134887584e-01,1.919003248214721791e-01,1.918909549713134766e-01,1.918815612792968694e-01,1.918721675872802623e-01,1.918627977371215876e-01,1.918534159660339466e-01,1.918440461158752441e-01,1.918346524238586370e-01,1.918252944946289007e-01,1.918159008026122936e-01,1.918065190315246527e-01,1.917971491813659779e-01,1.917877674102783092e-01,1.917784094810485729e-01,1.917690277099609319e-01,1.917596697807311956e-01
1.820667743682861384e-01,1.820583105087280329e-01,1.820498585700988659e-01,1.820414185523986927e-01,1.820329666137695257e-01,1.820245146751403864e-01,1.820160865783691517e-01,1.820076346397399847e-01,1.819991827011108454e-01,1.819907546043396107e-01,1.819823026657104437e-01,1.819738507270813044e-01,1.819654226303100697e-01,1.819569826126098688e-01,1.819485306739807018e-01,1.819401144981384333e-01,1.819316625595092662e-01,1.819232225418090931e-01,1.819147944450378307e-01,1.819063544273376576e-01,1.818979144096374567e-01,1.818894982337951605e-01,1.818810582160949596e-01,1.818726181983947865e-01,1.818642020225524902e-01,1.818557620048522894e-01,1.818473219871520885e-01,1.818389058113098200e-01,1.818304777145385853e-01,1.818220376968383845e-01,1.818136215209960882e-01,1.818051934242248535e-01,1.817967653274536188e-01,1.817883372306823841e-01,1.817799210548400879e-01,1.817714929580688532e-01,1.817630648612976185e-01,1.817546606063842884e-01,1.817462325096130260e-01,1.817378044128417913e-01,1.817294001579284612e-01,1.817209720611572266e-01,1.817125439643859919e-01,1.817041397094726618e-01,1.816957235336303655e-01,1.816872954368591309e-01,1.816789031028747670e-01,1.816704750061035045e-01,1.816620588302612360e-01,1.816536664962768444e-01,1.816452383995056097e-01,1.816368222236633412e-01,1.816284298896789495e-01,1.816200137138366810e-01,1.816115975379943848e-01,1.816032052040100209e-01,1.815948009490966908e-01,1.815863966941833607e-01,1.815779924392700306e-01,1.815696001052856390e-01,1.815611958503723089e-01,1.815527796745300404e-01,1.815443873405456487e-01,1.815359830856323187e-01,1.815276026725768932e-01,1.815191864967346247e-01,1.815107822418212946e-01,1.815024018287658691e-01,1.814939975738525391e-01,1.814856171607971136e-01,1.814772129058837835e-01,1.814688324928283580e-01,1.814604282379150280e-01,1.814520359039306641e-01,1.814436554908752386e-01,1.814352512359619085e-01,1.814268708229064830e-01,1.814184784889221191e-01,1.814100861549377552e-01,1.814017057418823298e-01
1.727039098739623912e-01,1.726963162422180120e-01,1.726887106895446666e-01,1.726811051368713490e-01,1.726735115051269420e-01,1.726659059524536244e-01,1.726583003997802790e-01,1.726507186889648382e-01,1.726431131362914928e-01,1.726355075836181752e-01,1.726279258728027344e-01,1.726203203201293890e-01,1.726127266883850098e-01,1.726051330566406306e-01,1.725975394248962513e-01,1.725899338722229059e-01,1.725823521614074652e-01,1.725747585296630859e-01,1.725671648979187067e-01,1.725595831871032659e-01,1.725519895553588867e-01,1.725443959236145075e-01,1.725368142127990667e-01,1.725292205810546875e-01,1.725216269493103083e-01,1.725140571594238337e-01,1.725064635276794545e-01,1.724988698959350475e-01,1.724913001060485729e-01,1.724837064743041937e-01,1.724761128425598145e-01,1.724685430526733398e-01,1.724609613418578991e-01,1.724533677101135198e-01,1.724457979202270452e-01,1.724382162094116322e-01,1.724306344985961914e-01,1.724230647087097168e-01,1.724154829978942760e-01,1.724079012870788630e-01,1.724003314971923884e-01,1.723927497863769476e-01,1.723851680755615345e-01,1.723776102066039984e-01,1.723700284957885853e-01,1.723624467849731445e-01,1.723548889160156361e-01,1.723473072052001953e-01,1.723397254943847545e-01,1.723321557044982799e-01,1.723245978355407715e-01,1.723170161247253307e-01,1.723094463348388561e-01,1.723018884658813477e-01,1.722943186759948730e-01,1.722867488861083984e-01,1.722791910171508900e-01,1.722716212272644154e-01,1.722640633583068792e-01,1.722564935684204046e-01,1.722489237785339300e-01,1.722413778305053600e-01,1.722338080406188854e-01,1.722262620925903431e-01,1.722186923027038685e-01,1.722111225128173939e-01,1.722035765647888239e-01,1.721960067749023493e-01,1.721884608268737793e-01,1.721809029579162709e-01,1.721733570098877009e-01,1.721657991409301647e-01,1.721582293510436901e-01,1.721506953239440862e-01,1.721431255340576116e-01,1.721355915069580078e-01,1.721280336380004994e-01,1.721204757690429632e-01,1.721129298210143932e-01,1.721053719520568848e-01
