6.194772243499755415e-01,6.351854324340819868e-01,6.517110824584960715e-01,6.691195011138916238e-01,6.874835491180419922e-01,7.068840503692627175e-01,7.274112224578856978e-01,7.491698265075683594e-01,7.722704410552978516e-01,7.968409538269043413e-01,8.230263710021972212e-01,8.509912490844726562e-01,8.809233665466308372e-01,9.130378723144531028e-01,9.475823402404784934e-01,9.848437309265136719e-01,1.000000000000000000e+00,1.000000000000000000e+00,1.000000000000000000e+00,1.000000000000000000e+00,1.000000000000000000e+00,1.000000000000000000e+00,1.000000000000000000e+00,1.000000000000000000e+00,1.000000000000000000e+00,1.000000000000000000e+00,1.000000000000000000e+00,1.000000000000000000e+00,1.000000000000000000e+00,1.000000000000000000e+00,1.000000000000000000e+00,1.000000000000000000e+00,1.000000000000000000e+00,1.000000000000000000e+00,1.000000000000000000e+00,1.000000000000000000e+00,1.000000000000000000e+00,1.000000000000000000e+00,1.000000000000000000e+00,1.000000000000000000e+00,1.000000000000000000e+00,1.000000000000000000e+00,1.000000000000000000e+00,1.000000000000000000e+00,1.000000000000000000e+00,1.000000000000000000e+00,1.000000000000000000e+00,1.000000000000000000e+00,1.000000000000000000e+00,1.000000000000000000e+00,1.000000000000000000e+00,1.000000000000000000e+00,1.000000000000000000e+00,1.000000000000000000e+00,1.000000000000000000e+00,4.219905853271484486e-01,4.166561126708984153e-01,4.037714481353759655e-01,3.963823318481445312e-01,3.904746532440185325e-01,3.873244047164917103e-01,3.850159406661987083e-01,3.845463514328003041e-01,3.836359739303588645e-01,3.864698886871337780e-01,3.906756877899170144e-01,1.000000000000000000e+00,4.068212509155273438e-01,3.977232694625854603e-01,3.918019533157348633e-01,3.892593383789062500e-01,9.375831604003905806e-01,9.078792572021484597e-01,8.799995422363281472e-01,8.537811279296875222e-01,8.290795326232910378e-01,8.057665824890136719e-01,7.837287902832030806e-01,7.628643512725830078e-01,7.430820465087890625e-01
6.194640159606933372e-01,6.351715564727783425e-01,6.516964435577392578e-01,6.691041469573975053e-01,6.874672889709472212e-01,7.068668365478515403e-01,7.273930072784423606e-01,7.491469860076904741e-01,7.722460746765136275e-01,7.968150615692138894e-01,8.229987144470214400e-01,8.509616851806640625e-01,8.808916091918945757e-01,9.130037307739258257e-01,9.475456237792968528e-01,9.848039627075195757e-01,1.000000000000000000e+00,1.000000000000000000e+00,1.000000000000000000e+00,1.000000000000000000e+00,1.000000000000000000e+00,1.000000000000000000e+00,1.000000000000000000e+00,1.000000000000000000e+00,1.000000000000000000e+00,1.000000000000000000e+00,1.000000000000000000e+00,1.000000000000000000e+00,1.000000000000000000e+00,1.000000000000000000e+00,1.000000000000000000e+00,1.000000000000000000e+00,1.000000000000000000e+00,1.000000000000000000e+00,1.000000000000000000e+00,1.000000000000000000e+00,1.000000000000000000e+00,1.000000000000000000e+00,1.000000000000000000e+00,1.000000000000000000e+00,1.000000000000000000e+00,1.000000000000000000e+00,1.000000000000000000e+00,1.000000000000000000e+00,1.000000000000000000e+00,1.000000000000000000e+00,1.000000000000000000e+00,1.000000000000000000e+00,1.000000000000000000e+00,1.000000000000000000e+00,1.000000000000000000e+00,1.000000000000000000e+00,1.000000000000000000e+00,1.000000000000000000e+00,1.000000000000000000e+00,4.217871665954590066e-01,4.159101963043213002e-01,4.053160190582275613e-01,3.959251642227172852e-01,3.914440870285034180e-01,3.881329059600829856e-01,3.866176843643188699e-01,3.858748912811279519e-01,3.856699228286742942e-01,3.875408172607421875e-01,3.911508321762084961e-01,1.000000000000000000e+00,1.000000000000000000e+00,3.998423099517822155e-01,3.903992652893066295e-01,3.842482089996338002e-01,3.819892406463623047e-01,9.079040527343750222e-01,8.800219535827636941e-01,8.538013458251952903e-01,8.290980339050293413e-01,8.057839393615722212e-01,7.837452888488769531e-01,7.628799915313720925e-01,7.430968761444092241e-01
6.194508075714111328e-01,6.351576328277588335e-01,6.516818046569824441e-01,6.690887451171875222e-01,6.874510288238525613e-01,7.068496227264404741e-01,7.273747920989990234e-01,7.491276741027832475e-01,7.722217082977295144e-01,7.967890262603759544e-01,8.229709625244140403e-01,8.509319305419922319e-01,8.808598518371582031e-01,9.129695892333984375e-01,9.475089073181152122e-01,9.847642898559569868e-01,1.000000000000000000e+00,1.000000000000000000e+00,1.000000000000000000e+00,1.000000000000000000e+00,1.000000000000000000e+00,1.000000000000000000e+00,1.000000000000000000e+00,1.000000000000000000e+00,1.000000000000000000e+00,1.000000000000000000e+00,1.000000000000000000e+00,1.000000000000000000e+00,1.000000000000000000e+00,1.000000000000000000e+00,1.000000000000000000e+00,1.000000000000000000e+00,1.000000000000000000e+00,1.000000000000000000e+00,1.000000000000000000e+00,1.000000000000000000e+00,1.000000000000000000e+00,1.000000000000000000e+00,1.000000000000000000e+00,1.000000000000000000e+00,1.000000000000000000e+00,1.000000000000000000e+00,1.000000000000000000e+00,1.000000000000000000e+00,1.000000000000000000e+00,1.000000000000000000e+00,1.000000000000000000e+00,1.000000000000000000e+00,1.000000000000000000e+00,1.000000000000000000e+00,1.000000000000000000e+00,1.000000000000000000e+00,1.000000000000000000e+00,1.000000000000000000e+00,1.000000000000000000e+00,4.189840793609619363e-01,4.138842105865478405e-01,4.043107032775878906e-01,3.930970430374145508e-01,3.863862037658691295e-01,3.839058637619018333e-01,3.871813297271728405e-01,3.893324851989746205e-01,3.899878025054931419e-01,3.904018640518188699e-01,3.919417858123779297e-01,1.000000000000000000e+00,1.000000000000000000e+00,1.000000000000000000e+00,3.931531906127929688e-01,3.839350223541259655e-01,3.806821346282959206e-01,9.079262733459472212e-01,8.800427436828612837e-01,8.538208961486816184e-01,8.291163444519042969e-01,8.058012962341308816e-01,7.837616443634033425e-01,7.628955841064453125e-01,7.431117057800292747e-01
6.194375991821289285e-01,6.351437568664550781e-01,6.516672134399413840e-01,6.690733432769775391e-01,6.874347686767577903e-01,7.068324089050292969e-01,7.273566722869873047e-01,7.491083621978760210e-01,7.722012042999267800e-01,7.967630386352538840e-01,8.229432106018066406e-01,8.509023666381836382e-01,8.808280944824218306e-01,9.129354476928710493e-01,9.474721908569335715e-01,9.847246170043945090e-01,1.000000000000000000e+00,1.000000000000000000e+00,1.000000000000000000e+00,1.000000000000000000e+00,1.000000000000000000e+00,1.000000000000000000e+00,1.000000000000000000e+00,1.000000000000000000e+00,1.000000000000000000e+00,1.000000000000000000e+00,1.000000000000000000e+00,1.000000000000000000e+00,1.000000000000000000e+00,1.000000000000000000e+00,1.000000000000000000e+00,1.000000000000000000e+00,1.000000000000000000e+00,1.000000000000000000e+00,1.000000000000000000e+00,1.000000000000000000e+00,1.000000000000000000e+00,1.000000000000000000e+00,1.000000000000000000e+00,1.000000000000000000e+00,1.000000000000000000e+00,1.000000000000000000e+00,1.000000000000000000e+00,1.000000000000000000e+00,1.000000000000000000e+00,1.000000000000000000e+00,1.000000000000000000e+00,1.000000000000000000e+00,1.000000000000000000e+00,1.000000000000000000e+00,1.000000000000000000e+00,1.000000000000000000e+00,1.000000000000000000e+00,1.000000000000000000e+00,1.000000000000000000e+00,4.181905746459960715e-01,4.127982616424560325e-01,4.035631179809570090e-01,3.883353233337402122e-01,3.803249597549438477e-01,3.771333217620849720e-01,3.740256547927856556e-01,3.821199178695678933e-01,3.944034337997436301e-01,3.931257486343383567e-01,3.931321859359740989e-01,1.000000000000000000e+00,1.000000000000000000e+00,1.000000000000000000e+00,1.000000000000000000e+00,3.926766633987426869e-01,3.714788436889648326e-01,3.706876277923584206e-01,8.800634384155273660e-01,8.538403511047363281e-01,8.291348457336426003e-01,8.058187484741210493e-01,7.837781429290771040e-01,7.629111766815185325e-01,7.431263923645019531e-01
6.194243907928467241e-01,6.351299285888671875e-01,6.516525745391845703e-01,6.690579414367675559e-01,6.874184608459472656e-01,7.068152427673339844e-01,7.273384571075439675e-01,7.490890026092529297e-01,7.721807003021240456e-01,7.967412471771240234e-01,8.229154586791992410e-01,8.508727073669433150e-01,8.807963371276855691e-01,9.129014015197753906e-01,9.474354743957519309e-01,9.846849441528320312e-01,1.000000000000000000e+00,1.000000000000000000e+00,1.000000000000000000e+00,1.000000000000000000e+00,1.000000000000000000e+00,1.000000000000000000e+00,1.000000000000000000e+00,1.000000000000000000e+00,1.000000000000000000e+00,1.000000000000000000e+00,1.000000000000000000e+00,1.000000000000000000e+00,1.000000000000000000e+00,1.000000000000000000e+00,1.000000000000000000e+00,1.000000000000000000e+00,1.000000000000000000e+00,1.000000000000000000e+00,1.000000000000000000e+00,1.000000000000000000e+00,1.000000000000000000e+00,1.000000000000000000e+00,1.000000000000000000e+00,1.000000000000000000e+00,1.000000000000000000e+00,1.000000000000000000e+00,1.000000000000000000e+00,1.000000000000000000e+00,1.000000000000000000e+00,1.000000000000000000e+00,1.000000000000000000e+00,1.000000000000000000e+00,1.000000000000000000e+00,1.000000000000000000e+00,1.000000000000000000e+00,1.000000000000000000e+00,1.000000000000000000e+00,1.000000000000000000e+00,1.000000000000000000e+00,4.176065921783447266e-01,4.115306377410888894e-01,4.026309967041015736e-01,3.863285064697265514e-01,3.774969577789306641e-01,3.744272470474243053e-01,3.714070558547973855e-01,3.731683969497680553e-01,3.958176136016845481e-01,3.934822320938110574e-01,3.945457935333251953e-01,1.000000000000000000e+00,1.000000000000000000e+00,1.000000000000000000e+00,1.000000000000000000e+00,9.694029808044433150e-01,3.677152395248413086e-01,3.699258089065551869e-01,3.634514570236205833e-01,8.538599014282226562e-01,8.291532516479491743e-01,8.058361053466797097e-01,7.837945938110351118e-01,7.629267215728759988e-01,7.431412220001221147e-01
6.194111824035644087e-01,6.351160526275634322e-01,6.516379833221435103e-01,6.690425395965575728e-01,6.874022006988524947e-01,7.067980289459228072e-01,7.273202419281006303e-01,7.490696907043457031e-01,7.721601486206054465e-01,7.967194080352782981e-01,8.228921890258789062e-01,8.508431434631347212e-01,8.807645797729491965e-01,9.128672599792480025e-01,9.473987579345702903e-01,9.846453666687011719e-01,1.000000000000000000e+00,1.000000000000000000e+00,1.000000000000000000e+00,1.000000000000000000e+00,1.000000000000000000e+00,1.000000000000000000e+00,1.000000000000000000e+00,1.000000000000000000e+00,1.000000000000000000e+00,1.000000000000000000e+00,1.000000000000000000e+00,1.000000000000000000e+00,1.000000000000000000e+00,1.000000000000000000e+00,1.000000000000000000e+00,1.000000000000000000e+00,1.000000000000000000e+00,1.000000000000000000e+00,1.000000000000000000e+00,1.000000000000000000e+00,1.000000000000000000e+00,1.000000000000000000e+00,1.000000000000000000e+00,1.000000000000000000e+00,1.000000000000000000e+00,1.000000000000000000e+00,1.000000000000000000e+00,1.000000000000000000e+00,1.000000000000000000e+00,1.000000000000000000e+00,1.000000000000000000e+00,1.000000000000000000e+00,1.000000000000000000e+00,1.000000000000000000e+00,1.000000000000000000e+00,1.000000000000000000e+00,1.000000000000000000e+00,1.000000000000000000e+00,1.000000000000000000e+00,4.156540393829345481e-01,4.092554569244384877e-01,4.043136119842529186e-01,3.843649864196777566e-01,3.754543781280517689e-01,3.722686052322387584e-01,3.692830085754394420e-01,3.694643735885619895e-01,3.960299730300903542e-01,3.935503959655761719e-01,3.953863620758056863e-01,1.000000000000000000e+00,1.000000000000000000e+00,1.000000000000000000e+00,1.000000000000000000e+00,9.694282531738280806e-01,9.377051353454589622e-01,3.810234546661376842e-01,3.612533807754516602e-01,8.538794517517089844e-01,8.291716575622558594e-01,8.058535575866698775e-01,7.838110923767089844e-01,7.629423141479492188e-01,7.431560516357421653e-01
6.193979740142822044e-01,6.351021766662597878e-01,6.516233444213866965e-01,6.690270900726318359e-01,6.873860359191894531e-01,7.067808628082274947e-01,7.273020267486571822e-01,7.490503787994384766e-01,7.721396446228027122e-01,7.966975688934325728e-01,8.228688240051269531e-01,8.508180618286133035e-01,8.807329177856445535e-01,9.128332138061523438e-01,9.473620414733886497e-01,9.846055984497070757e-01,1.000000000000000000e+00,1.000000000000000000e+00,1.000000000000000000e+00,1.000000000000000000e+00,1.000000000000000000e+00,1.000000000000000000e+00,1.000000000000000000e+00,1.000000000000000000e+00,1.000000000000000000e+00,1.000000000000000000e+00,1.000000000000000000e+00,1.000000000000000000e+00,1.000000000000000000e+00,1.000000000000000000e+00,1.000000000000000000e+00,1.000000000000000000e+00,1.000000000000000000e+00,1.000000000000000000e+00,1.000000000000000000e+00,1.000000000000000000e+00,1.000000000000000000e+00,1.000000000000000000e+00,1.000000000000000000e+00,1.000000000000000000e+00,1.000000000000000000e+00,1.000000000000000000e+00,1.000000000000000000e+00,1.000000000000000000e+00,1.000000000000000000e+00,1.000000000000000000e+00,1.000000000000000000e+00,1.000000000000000000e+00,1.000000000000000000e+00,1.000000000000000000e+00,1.000000000000000000e+00,1.000000000000000000e+00,1.000000000000000000e+00,1.000000000000000000e+00,1.000000000000000000e+00,4.143461704254150502e-01,4.094051361083984597e-01,1.000000000000000000e+00,3.854757308959960715e-01,3.746178150177001953e-01,3.703514575958252175e-01,3.671831369400024303e-01,3.658479928970336803e-01,3.715044260025024414e-01,3.940437555313110463e-01,3.969150543212890403e-01,1.000000000000000000e+00,1.000000000000000000e+00,1.000000000000000000e+00,1.000000000000000000e+00,9.694534301757812278e-01,9.377286911010742632e-01,9.080145835876465288e-01,3.754098415374755859e-01,3.604104995727538951e-01,8.291900634765625444e-01,8.058709144592285378e-01,7.838274955749511275e-01,7.629579544067383035e-01,7.431708335876464622e-01
6.193847656250000000e-01,6.350883007049560325e-01,6.516087532043457475e-01,6.690116882324218528e-01,6.873697757720946822e-01,7.067636489868164285e-01,7.272838115692138450e-01,7.490310668945312500e-01,7.721190929412842241e-01,7.966757297515869585e-01,8.228455543518066184e-01,8.507931709289551225e-01,8.807059288024902122e-01,9.127991676330566850e-01,9.473253250122070090e-01,9.845660209655762163e-01,1.000000000000000000e+00,1.000000000000000000e+00,1.000000000000000000e+00,1.000000000000000000e+00,1.000000000000000000e+00,1.000000000000000000e+00,1.000000000000000000e+00,1.000000000000000000e+00,1.000000000000000000e+00,1.000000000000000000e+00,1.000000000000000000e+00,1.000000000000000000e+00,1.000000000000000000e+00,1.000000000000000000e+00,1.000000000000000000e+00,1.000000000000000000e+00,1.000000000000000000e+00,1.000000000000000000e+00,1.000000000000000000e+00,1.000000000000000000e+00,1.000000000000000000e+00,1.000000000000000000e+00,1.000000000000000000e+00,1.000000000000000000e+00,1.000000000000000000e+00,1.000000000000000000e+00,1.000000000000000000e+00,1.000000000000000000e+00,1.000000000000000000e+00,1.000000000000000000e+00,1.000000000000000000e+00,1.000000000000000000e+00,1.000000000000000000e+00,1.000000000000000000e+00,1.000000000000000000e+00,1.000000000000000000e+00,1.000000000000000000e+00,1.000000000000000000e+00,1.000000000000000000e+00,4.151403427124023549e-01,4.093498706817627064e-01,1.000000000000000000e+00,3.884986639022827148e-01,3.757738351821899303e-01,3.685594797134399414e-01,3.653853893280029075e-01,3.622304916381836049e-01,3.674002408981323353e-01,3.951781511306762806e-01,3.995923519134521595e-01,1.000000000000000000e+00,1.000000000000000000e+00,1.000000000000000000e+00,1.000000000000000000e+00,9.694785118103027566e-01,9.377522468566894531e-01,9.080366134643554910e-01,8.801464080810547097e-01,8.539185523986816406e-01,8.292084693908691184e-01,8.058882713317870872e-01,7.838439464569091353e-01,7.629735469818115234e-01,7.431855678558350053e-01
6.193715572357177956e-01,6.350743770599365234e-01,6.515941143035888228e-01,6.689962863922118697e-01,6.873535156250000222e-01,7.067464351654052512e-01,7.272655963897705078e-01,7.490118503570556419e-01,7.720985889434814897e-01,7.966538429260253684e-01,8.228222846984862837e-01,8.507682800292968306e-01,8.806792259216308372e-01,9.127700805664062944e-01,9.472885131835937500e-01,9.845262527465820090e-01,1.000000000000000000e+00,1.000000000000000000e+00,1.000000000000000000e+00,1.000000000000000000e+00,1.000000000000000000e+00,1.000000000000000000e+00,1.000000000000000000e+00,1.000000000000000000e+00,1.000000000000000000e+00,1.000000000000000000e+00,1.000000000000000000e+00,1.000000000000000000e+00,1.000000000000000000e+00,1.000000000000000000e+00,1.000000000000000000e+00,1.000000000000000000e+00,1.000000000000000000e+00,1.000000000000000000e+00,1.000000000000000000e+00,1.000000000000000000e+00,1.000000000000000000e+00,1.000000000000000000e+00,1.000000000000000000e+00,1.000000000000000000e+00,1.000000000000000000e+00,1.000000000000000000e+00,1.000000000000000000e+00,1.000000000000000000e+00,1.000000000000000000e+00,1.000000000000000000e+00,1.000000000000000000e+00,1.000000000000000000e+00,1.000000000000000000e+00,1.000000000000000000e+00,1.000000000000000000e+00,1.000000000000000000e+00,1.000000000000000000e+00,1.000000000000000000e+00,1.000000000000000000e+00,4.125917911529540794e-01,4.062298297882079856e-01,4.044169425964355691e-01,3.919991970062255970e-01,3.769370079040527122e-01,3.665686607360839622e-01,3.628544807434082031e-01,3.596149921417236550e-01,3.634479999542236106e-01,3.974308729171752708e-01,4.029657363891601674e-01,1.000000000000000000e+00,1.000000000000000000e+00,1.000000000000000000e+00,1.000000000000000000e+00,9.695037841796875222e-01,9.377758026123046431e-01,9.080587387084960715e-01,8.801671981811522993e-01,8.539380073547363503e-01,8.292268753051758035e-01,8.059057235717773660e-01,7.838604450225830078e-01,7.629891872406006081e-01,7.432003974914550559e-01
6.193688869476318137e-01,6.350655078887939009e-01,6.515795707702636275e-01,6.689808845520019975e-01,6.873372554779052512e-01,7.067292690277099387e-01,7.272474288940429243e-01,7.489925384521484153e-01,7.720780849456787553e-01,7.966320037841796431e-01,8.227990150451660600e-01,8.507433891296386497e-01,8.806525230407714622e-01,9.127413749694823775e-01,9.472572326660155806e-01,9.844865798950195312e-01,1.000000000000000000e+00,1.000000000000000000e+00,1.000000000000000000e+00,1.000000000000000000e+00,1.000000000000000000e+00,1.000000000000000000e+00,1.000000000000000000e+00,1.000000000000000000e+00,1.000000000000000000e+00,1.000000000000000000e+00,1.000000000000000000e+00,1.000000000000000000e+00,1.000000000000000000e+00,1.000000000000000000e+00,1.000000000000000000e+00,1.000000000000000000e+00,1.000000000000000000e+00,1.000000000000000000e+00,1.000000000000000000e+00,1.000000000000000000e+00,1.000000000000000000e+00,1.000000000000000000e+00,1.000000000000000000e+00,1.000000000000000000e+00,1.000000000000000000e+00,1.000000000000000000e+00,1.000000000000000000e+00,1.000000000000000000e+00,1.000000000000000000e+00,1.000000000000000000e+00,1.000000000000000000e+00,1.000000000000000000e+00,1.000000000000000000e+00,1.000000000000000000e+00,1.000000000000000000e+00,1.000000000000000000e+00,1.000000000000000000e+00,1.000000000000000000e+00,1.000000000000000000e+00,4.104449748992919922e-01,4.078767299652099609e-01,4.021605968475341908e-01,1.000000000000000000e+00,3.788699865341186301e-01,3.675479888916015625e-01,3.606522321701050027e-01,3.571063518524170144e-01,3.595546960830688366e-01,4.007677078247070535e-01,4.070426940917968861e-01,1.000000000000000000e+00,1.000000000000000000e+00,1.000000000000000000e+00,1.000000000000000000e+00,9.695288658142089400e-01,9.377993583679199441e-01,9.080807685852050337e-01,8.801879882812500000e-01,8.539575576782226785e-01,8.292452812194823775e-01,8.059230804443359153e-01,7.838769435882568803e-01,7.630046844482422097e-01,7.432152271270752175e-01
6.193688869476318137e-01,6.350655078887939009e-01,6.515784263610839844e-01,6.689730167388916460e-01,6.873218059539795144e-01,7.067120552062988725e-01,7.272292137145995872e-01,7.489732265472411887e-01,7.720575332641601562e-01,7.966101646423340288e-01,8.227756500244141069e-01,8.507184028625488503e-01,8.806258201599120872e-01,9.127127647399901900e-01,9.472263336181641069e-01,9.844526290893554910e-01,1.000000000000000000e+00,1.000000000000000000e+00,1.000000000000000000e+00,1.000000000000000000e+00,1.000000000000000000e+00,1.000000000000000000e+00,1.000000000000000000e+00,1.000000000000000000e+00,1.000000000000000000e+00,1.000000000000000000e+00,1.000000000000000000e+00,1.000000000000000000e+00,1.000000000000000000e+00,1.000000000000000000e+00,1.000000000000000000e+00,1.000000000000000000e+00,1.000000000000000000e+00,1.000000000000000000e+00,1.000000000000000000e+00,1.000000000000000000e+00,1.000000000000000000e+00,1.000000000000000000e+00,1.000000000000000000e+00,1.000000000000000000e+00,1.000000000000000000e+00,1.000000000000000000e+00,1.000000000000000000e+00,1.000000000000000000e+00,1.000000000000000000e+00,1.000000000000000000e+00,1.000000000000000000e+00,1.000000000000000000e+00,1.000000000000000000e+00,1.000000000000000000e+00,1.000000000000000000e+00,1.000000000000000000e+00,1.000000000000000000e+00,1.000000000000000000e+00,1.000000000000000000e+00,4.090642929077148438e-01,1.000000000000000000e+00,1.000000000000000000e+00,1.000000000000000000e+00,3.823271274566650280e-01,3.689264297485351785e-01,3.594976425170898215e-01,3.549237728118896373e-01,3.552604436874389759e-01,4.042647838592529075e-01,1.000000000000000000e+00,1.000000000000000000e+00,1.000000000000000000e+00,1.000000000000000000e+00,1.000000000000000000e+00,9.695541381835937056e-01,9.378229141235351340e-01,9.081028938293457253e-01,8.802086830139159712e-01,8.539771080017090066e-01,8.292636871337890625e-01,8.059404373168945757e-01,7.838933944702148882e-01,7.630203247070312944e-01,7.432300090789795144e-01
6.193656921386718750e-01,6.350655078887939009e-01,6.515784263610839844e-01,6.689730167388916460e-01,6.873217582702636497e-01,7.067054271697997825e-01,7.272142410278320535e-01,7.489539146423339622e-01,7.720370292663574219e-01,7.965883255004883035e-01,8.227523803710937722e-01,8.506935119628906694e-01,8.805991172790527122e-01,9.126841545104980025e-01,9.471954345703125222e-01,9.844193458557128906e-01,1.000000000000000000e+00,1.000000000000000000e+00,1.000000000000000000e+00,1.000000000000000000e+00,1.000000000000000000e+00,1.000000000000000000e+00,1.000000000000000000e+00,1.000000000000000000e+00,1.000000000000000000e+00,1.000000000000000000e+00,1.000000000000000000e+00,1.000000000000000000e+00,1.000000000000000000e+00,1.000000000000000000e+00,1.000000000000000000e+00,1.000000000000000000e+00,1.000000000000000000e+00,1.000000000000000000e+00,1.000000000000000000e+00,1.000000000000000000e+00,1.000000000000000000e+00,1.000000000000000000e+00,1.000000000000000000e+00,1.000000000000000000e+00,1.000000000000000000e+00,1.000000000000000000e+00,1.000000000000000000e+00,1.000000000000000000e+00,1.000000000000000000e+00,1.000000000000000000e+00,1.000000000000000000e+00,1.000000000000000000e+00,1.000000000000000000e+00,1.000000000000000000e+00,1.000000000000000000e+00,1.000000000000000000e+00,1.000000000000000000e+00,1.000000000000000000e+00,1.000000000000000000e+00,4.076830863952636830e-01,1.000000000000000000e+00,1.000000000000000000e+00,1.000000000000000000e+00,1.000000000000000000e+00,3.708410501480102761e-01,3.591721773147583119e-01,3.536167860031128041e-01,3.521797418594360130e-01,3.548949718475341575e-01,1.000000000000000000e+00,1.000000000000000000e+00,1.000000000000000000e+00,1.000000000000000000e+00,1.000000000000000000e+00,9.695792198181152344e-01,9.378464698791504350e-01,9.081250190734863059e-01,8.802294731140136719e-01,8.539966583251953347e-01,8.292821884155273660e-01,8.059578895568847434e-01,7.839097976684570312e-01,7.630359172821045144e-01,7.432447433471679465e-01
6.193525314331054243e-01,6.350543975830078569e-01,6.515730857849121316e-01,6.689729690551757812e-01,6.873217582702636497e-01,7.067054271697997825e-01,7.272142410278320535e-01,7.489489078521728294e-01,7.720228195190429465e-01,7.965664863586425781e-01,8.227291107177734375e-01,8.506686210632323775e-01,8.805725097656249556e-01,9.126554489135741965e-01,9.471645355224609375e-01,9.843859672546386719e-01,1.000000000000000000e+00,1.000000000000000000e+00,1.000000000000000000e+00,1.000000000000000000e+00,1.000000000000000000e+00,1.000000000000000000e+00,1.000000000000000000e+00,1.000000000000000000e+00,1.000000000000000000e+00,1.000000000000000000e+00,1.000000000000000000e+00,1.000000000000000000e+00,1.000000000000000000e+00,1.000000000000000000e+00,1.000000000000000000e+00,1.000000000000000000e+00,1.000000000000000000e+00,1.000000000000000000e+00,1.000000000000000000e+00,1.000000000000000000e+00,1.000000000000000000e+00,1.000000000000000000e+00,1.000000000000000000e+00,1.000000000000000000e+00,1.000000000000000000e+00,1.000000000000000000e+00,1.000000000000000000e+00,1.000000000000000000e+00,1.000000000000000000e+00,1.000000000000000000e+00,1.000000000000000000e+00,1.000000000000000000e+00,1.000000000000000000e+00,1.000000000000000000e+00,1.000000000000000000e+00,1.000000000000000000e+00,1.000000000000000000e+00,1.000000000000000000e+00,1.000000000000000000e+00,1.000000000000000000e+00,1.000000000000000000e+00,1.000000000000000000e+00,1.000000000000000000e+00,1.000000000000000000e+00,3.727143049240112527e-01,3.609241485595703347e-01,3.534754753112793191e-01,3.513845205307006836e-01,3.538486242294311412e-01,1.000000000000000000e+00,1.000000000000000000e+00,1.000000000000000000e+00,1.000000000000000000e+00,1.000000000000000000e+00,9.696044921875000000e-01,9.378700256347656250e-01,9.081471443176269975e-01,8.802502632141113725e-01,8.540162086486816628e-01,8.293005943298339400e-01,8.059752464294434038e-01,7.839262962341309038e-01,7.630515575408935991e-01,7.432595729827881081e-01
6.193393707275390847e-01,6.350405693054199663e-01,6.515584945678710715e-01,6.689587593078613059e-01,6.873138427734375444e-01,7.067045688629149947e-01,7.272142410278320535e-01,7.489488124847412109e-01,7.720227241516113281e-01,7.965635776519774947e-01,8.227158546447753684e-01,8.506437301635741965e-01,8.805458068847655806e-01,9.126267433166503906e-01,9.471337318420409712e-01,9.843525886535644531e-01,1.000000000000000000e+00,1.000000000000000000e+00,1.000000000000000000e+00,1.000000000000000000e+00,1.000000000000000000e+00,1.000000000000000000e+00,1.000000000000000000e+00,1.000000000000000000e+00,1.000000000000000000e+00,1.000000000000000000e+00,1.000000000000000000e+00,1.000000000000000000e+00,1.000000000000000000e+00,1.000000000000000000e+00,1.000000000000000000e+00,1.000000000000000000e+00,1.000000000000000000e+00,1.000000000000000000e+00,1.000000000000000000e+00,1.000000000000000000e+00,1.000000000000000000e+00,1.000000000000000000e+00,1.000000000000000000e+00,1.000000000000000000e+00,1.000000000000000000e+00,1.000000000000000000e+00,1.000000000000000000e+00,1.000000000000000000e+00,1.000000000000000000e+00,1.000000000000000000e+00,1.000000000000000000e+00,1.000000000000000000e+00,1.000000000000000000e+00,1.000000000000000000e+00,1.000000000000000000e+00,1.000000000000000000e+00,1.000000000000000000e+00,1.000000000000000000e+00,1.000000000000000000e+00,1.000000000000000000e+00,1.000000000000000000e+00,1.000000000000000000e+00,1.000000000000000000e+00,1.000000000000000000e+00,3.748649835586547741e-01,3.610165834426879994e-01,3.546099662780761719e-01,3.525561809539795033e-01,3.552610158920287975e-01,1.000000000000000000e+00,1.000000000000000000e+00,1.000000000000000000e+00,1.000000000000000000e+00,1.000000000000000000e+00,9.696296691894531472e-01,9.378935813903808150e-01,9.081691741943359597e-01,8.802709579467773438e-01,8.540357589721679910e-01,8.293190002441406250e-01,8.059926986694335715e-01,7.839427471160889116e-01,7.630671024322509544e-01,7.432744026184081587e-01
6.193262100219726340e-01,6.350266933441162109e-01,6.515439510345458762e-01,6.689434051513671875e-01,6.872976779937743919e-01,7.066874504089355469e-01,7.272031307220458984e-01,7.489455699920654075e-01,7.720227241516113281e-01,7.965635776519774947e-01,8.227157592773437500e-01,8.506435394287109597e-01,8.805339813232422319e-01,9.126015663146972434e-01,9.471028327941894975e-01,9.843192100524902344e-01,1.000000000000000000e+00,1.000000000000000000e+00,1.000000000000000000e+00,1.000000000000000000e+00,1.000000000000000000e+00,1.000000000000000000e+00,1.000000000000000000e+00,1.000000000000000000e+00,1.000000000000000000e+00,1.000000000000000000e+00,1.000000000000000000e+00,1.000000000000000000e+00,1.000000000000000000e+00,1.000000000000000000e+00,1.000000000000000000e+00,1.000000000000000000e+00,1.000000000000000000e+00,1.000000000000000000e+00,1.000000000000000000e+00,1.000000000000000000e+00,1.000000000000000000e+00,1.000000000000000000e+00,1.000000000000000000e+00,1.000000000000000000e+00,1.000000000000000000e+00,1.000000000000000000e+00,1.000000000000000000e+00,1.000000000000000000e+00,1.000000000000000000e+00,1.000000000000000000e+00,1.000000000000000000e+00,1.000000000000000000e+00,1.000000000000000000e+00,1.000000000000000000e+00,1.000000000000000000e+00,1.000000000000000000e+00,1.000000000000000000e+00,1.000000000000000000e+00,1.000000000000000000e+00,1.000000000000000000e+00,1.000000000000000000e+00,1.000000000000000000e+00,1.000000000000000000e+00,1.000000000000000000e+00,3.736831903457641380e-01,3.606769800186157005e-01,3.563592672348022683e-01,3.540710210800170898e-01,1.000000000000000000e+00,1.000000000000000000e+00,1.000000000000000000e+00,1.000000000000000000e+00,1.000000000000000000e+00,1.000000000000000000e+00,9.696548461914062944e-01,9.379171371459961160e-01,9.081912994384765403e-01,8.802917480468750444e-01,8.540552139282227007e-01,8.293374061584473100e-01,8.060101509094238503e-01,7.839592456817626731e-01,7.630829811096191406e-01,7.432901382446288618e-01
6.193130970001220481e-01,6.350128650665283203e-01,6.515294075012206809e-01,6.689280986785888228e-01,6.872814655303954856e-01,7.066703319549560991e-01,7.271850109100341797e-01,7.489263534545897993e-01,7.720077037811279297e-01,7.965571403503417525e-01,8.227157592773437500e-01,8.506435394287109597e-01,8.805339813232422319e-01,9.126015663146972434e-01,9.470931053161620872e-01,9.842942237854004350e-01,1.000000000000000000e+00,1.000000000000000000e+00,1.000000000000000000e+00,1.000000000000000000e+00,1.000000000000000000e+00,1.000000000000000000e+00,1.000000000000000000e+00,1.000000000000000000e+00,1.000000000000000000e+00,1.000000000000000000e+00,1.000000000000000000e+00,1.000000000000000000e+00,1.000000000000000000e+00,1.000000000000000000e+00,1.000000000000000000e+00,1.000000000000000000e+00,1.000000000000000000e+00,1.000000000000000000e+00,1.000000000000000000e+00,1.000000000000000000e+00,1.000000000000000000e+00,1.000000000000000000e+00,1.000000000000000000e+00,1.000000000000000000e+00,1.000000000000000000e+00,1.000000000000000000e+00,1.000000000000000000e+00,1.000000000000000000e+00,1.000000000000000000e+00,1.000000000000000000e+00,1.000000000000000000e+00,1.000000000000000000e+00,1.000000000000000000e+00,1.000000000000000000e+00,1.000000000000000000e+00,1.000000000000000000e+00,1.000000000000000000e+00,1.000000000000000000e+00,1.000000000000000000e+00,1.000000000000000000e+00,1.000000000000000000e+00,1.000000000000000000e+00,1.000000000000000000e+00,1.000000000000000000e+00,3.715015649795532227e-01,3.613016128540039174e-01,3.574604511260986439e-01,3.555989265441894531e-01,1.000000000000000000e+00,1.000000000000000000e+00,1.000000000000000000e+00,1.000000000000000000e+00,1.000000000000000000e+00,1.000000000000000000e+00,9.696800231933593306e-01,9.379406929016113059e-01,9.082134246826172319e-01,8.803125381469726340e-01,8.540747642517090288e-01,8.293558120727538840e-01,8.060282707214355691e-01,7.839771270751952903e-01,7.631003856658935547e-01,7.433066844940185991e-01
6.192999362945557085e-01,6.349990367889404297e-01,6.515148639678954856e-01,6.689127445220947044e-01,6.872652530670165794e-01,7.066532135009765403e-01,7.271668910980224609e-01,7.489071369171143022e-01,7.719872951507568137e-01,7.965353965759277566e-01,8.226959228515624556e-01,8.506331443786621094e-01,8.805339813232422319e-01,9.126014709472656250e-01,9.470930099487304688e-01,9.842941284179687056e-01,1.000000000000000000e+00,1.000000000000000000e+00,1.000000000000000000e+00,1.000000000000000000e+00,1.000000000000000000e+00,1.000000000000000000e+00,1.000000000000000000e+00,1.000000000000000000e+00,1.000000000000000000e+00,1.000000000000000000e+00,1.000000000000000000e+00,1.000000000000000000e+00,1.000000000000000000e+00,1.000000000000000000e+00,1.000000000000000000e+00,1.000000000000000000e+00,1.000000000000000000e+00,1.000000000000000000e+00,1.000000000000000000e+00,1.000000000000000000e+00,1.000000000000000000e+00,1.000000000000000000e+00,1.000000000000000000e+00,1.000000000000000000e+00,1.000000000000000000e+00,1.000000000000000000e+00,1.000000000000000000e+00,1.000000000000000000e+00,1.000000000000000000e+00,1.000000000000000000e+00,1.000000000000000000e+00,1.000000000000000000e+00,1.000000000000000000e+00,1.000000000000000000e+00,1.000000000000000000e+00,1.000000000000000000e+00,1.000000000000000000e+00,1.000000000000000000e+00,1.000000000000000000e+00,1.000000000000000000e+00,1.000000000000000000e+00,1.000000000000000000e+00,1.000000000000000000e+00,4.531589984893799050e-01,3.693452358245849498e-01,3.619284391403198020e-01,3.583318471908569225e-01,3.583987712860107200e-01,1.000000000000000000e+00,1.000000000000000000e+00,1.000000000000000000e+00,1.000000000000000000e+00,1.000000000000000000e+00,1.000000000000000000e+00,9.697052001953124778e-01,9.379643440246582253e-01,9.082354545593261941e-01,8.803337097167969194e-01,8.540956497192382368e-01,8.293763160705566184e-01,8.060477256774902788e-01,7.839955329895019753e-01,7.631178379058838335e-01,7.433232307434082253e-01
6.192867755889892578e-01,6.349852085113525391e-01,6.515003204345702903e-01,6.688973903656005859e-01,6.872490406036376731e-01,7.066360950469970925e-01,7.271487712860107422e-01,7.488879203796386941e-01,7.719668865203856978e-01,7.965136528015136497e-01,8.226727485656738503e-01,8.506083488464355469e-01,8.805078506469726785e-01,9.125861167907715066e-01,9.470898628234862837e-01,9.842940330505370872e-01,1.000000000000000000e+00,1.000000000000000000e+00,1.000000000000000000e+00,1.000000000000000000e+00,1.000000000000000000e+00,1.000000000000000000e+00,1.000000000000000000e+00,1.000000000000000000e+00,1.000000000000000000e+00,1.000000000000000000e+00,1.000000000000000000e+00,1.000000000000000000e+00,1.000000000000000000e+00,1.000000000000000000e+00,1.000000000000000000e+00,1.000000000000000000e+00,1.000000000000000000e+00,1.000000000000000000e+00,1.000000000000000000e+00,1.000000000000000000e+00,1.000000000000000000e+00,1.000000000000000000e+00,1.000000000000000000e+00,1.000000000000000000e+00,1.000000000000000000e+00,1.000000000000000000e+00,1.000000000000000000e+00,1.000000000000000000e+00,1.000000000000000000e+00,1.000000000000000000e+00,1.000000000000000000e+00,1.000000000000000000e+00,1.000000000000000000e+00,1.000000000000000000e+00,1.000000000000000000e+00,1.000000000000000000e+00,1.000000000000000000e+00,1.000000000000000000e+00,1.000000000000000000e+00,1.000000000000000000e+00,1.000000000000000000e+00,1.000000000000000000e+00,1.000000000000000000e+00,4.493368625640868919e-01,3.693281650543213113e-01,3.624309778213500866e-01,3.580035686492920033e-01,3.571458101272583230e-01,1.000000000000000000e+00,1.000000000000000000e+00,1.000000000000000000e+00,1.000000000000000000e+00,1.000000000000000000e+00,1.000000000000000000e+00,9.697303771972656250e-01,9.379889488220214400e-01,9.082596778869629350e-01,8.803568840026855247e-01,8.541174888610839622e-01,8.293969154357909712e-01,8.060671806335448775e-01,7.840139389038085493e-01,7.631352901458740012e-01,7.433397769927978516e-01
6.192736625671386719e-01,6.349714279174805132e-01,6.514857769012450950e-01,6.688820838928222212e-01,6.872328281402587669e-01,7.066189765930175337e-01,7.271306514739990234e-01,7.488686561584472212e-01,7.719464302062988281e-01,7.964919090270996538e-01,8.226494789123535156e-01,8.505835533142089844e-01,8.804813385009765403e-01,9.125575065612793191e-01,9.470591545104980469e-01,9.842720985412597434e-01,1.000000000000000000e+00,1.000000000000000000e+00,1.000000000000000000e+00,1.000000000000000000e+00,1.000000000000000000e+00,1.000000000000000000e+00,1.000000000000000000e+00,1.000000000000000000e+00,1.000000000000000000e+00,1.000000000000000000e+00,1.000000000000000000e+00,1.000000000000000000e+00,1.000000000000000000e+00,1.000000000000000000e+00,1.000000000000000000e+00,1.000000000000000000e+00,1.000000000000000000e+00,1.000000000000000000e+00,1.000000000000000000e+00,1.000000000000000000e+00,1.000000000000000000e+00,1.000000000000000000e+00,1.000000000000000000e+00,1.000000000000000000e+00,1.000000000000000000e+00,1.000000000000000000e+00,1.000000000000000000e+00,1.000000000000000000e+00,1.000000000000000000e+00,1.000000000000000000e+00,1.000000000000000000e+00,1.000000000000000000e+00,1.000000000000000000e+00,1.000000000000000000e+00,1.000000000000000000e+00,1.000000000000000000e+00,1.000000000000000000e+00,1.000000000000000000e+00,1.000000000000000000e+00,1.000000000000000000e+00,1.000000000000000000e+00,1.000000000000000000e+00,1.000000000000000000e+00,4.504608631134033314e-01,3.762270450592041238e-01,3.628926515579223855e-01,3.575120210647583230e-01,3.559015989303588867e-01,1.000000000000000000e+00,1.000000000000000000e+00,1.000000000000000000e+00,1.000000000000000000e+00,1.000000000000000000e+00,1.000000000000000000e+00,9.697585105895996094e-01,9.380152702331543413e-01,9.082842826843261497e-01,8.803800582885742410e-01,8.541393280029296875e-01,8.294175148010254350e-01,8.060865402221679688e-01,7.840323448181152344e-01,7.631526470184326616e-01,7.433562278747558594e-01
6.192605018615722212e-01,6.349575996398926225e-01,6.514712333679198997e-01,6.688667297363281028e-01,6.872166633605957253e-01,7.066018581390380859e-01,7.271125316619873047e-01,7.488493919372558594e-01,7.719260215759277122e-01,7.964701652526855469e-01,8.226263046264647993e-01,8.505587577819824219e-01,8.804547309875487837e-01,9.125289916992187500e-01,9.470283508300780806e-01,9.842388153076171431e-01,1.000000000000000000e+00,1.000000000000000000e+00,1.000000000000000000e+00,1.000000000000000000e+00,1.000000000000000000e+00,1.000000000000000000e+00,1.000000000000000000e+00,1.000000000000000000e+00,1.000000000000000000e+00,1.000000000000000000e+00,1.000000000000000000e+00,1.000000000000000000e+00,1.000000000000000000e+00,1.000000000000000000e+00,1.000000000000000000e+00,1.000000000000000000e+00,1.000000000000000000e+00,1.000000000000000000e+00,1.000000000000000000e+00,1.000000000000000000e+00,1.000000000000000000e+00,1.000000000000000000e+00,1.000000000000000000e+00,1.000000000000000000e+00,1.000000000000000000e+00,1.000000000000000000e+00,1.000000000000000000e+00,1.000000000000000000e+00,1.000000000000000000e+00,1.000000000000000000e+00,1.000000000000000000e+00,1.000000000000000000e+00,1.000000000000000000e+00,1.000000000000000000e+00,1.000000000000000000e+00,1.000000000000000000e+00,1.000000000000000000e+00,1.000000000000000000e+00,1.000000000000000000e+00,1.000000000000000000e+00,1.000000000000000000e+00,1.000000000000000000e+00,1.000000000000000000e+00,4.520923137664795144e-01,4.477034091949462780e-01,3.633689880371093750e-01,3.574460268020629994e-01,3.546660423278808483e-01,3.604174137115478405e-01,1.000000000000000000e+00,1.000000000000000000e+00,1.000000000000000000e+00,1.000000000000000000e+00,1.000000000000000000e+00,9.697866439819335938e-01,9.380415916442871316e-01,9.083089828491210938e-01,8.804032325744628462e-01,8.541611671447754128e-01,8.294381141662597878e-01,8.061059951782226785e-01,7.840506553649901900e-01,7.631700992584228294e-01,7.433727741241454856e-01
6.192473411560058816e-01,6.349437713623047319e-01,6.514566898345947044e-01,6.688514232635498491e-01,6.872004508972168191e-01,7.065847396850586382e-01,7.270944118499755859e-01,7.488301753997802512e-01,7.719056129455565962e-01,7.964484214782714400e-01,8.226031303405761941e-01,8.505339622497558594e-01,8.804282188415527566e-01,9.125004768371581809e-01,9.469976425170898438e-01,9.842056274414062722e-01,1.000000000000000000e+00,1.000000000000000000e+00,1.000000000000000000e+00,1.000000000000000000e+00,1.000000000000000000e+00,1.000000000000000000e+00,1.000000000000000000e+00,1.000000000000000000e+00,1.000000000000000000e+00,1.000000000000000000e+00,1.000000000000000000e+00,1.000000000000000000e+00,1.000000000000000000e+00,1.000000000000000000e+00,1.000000000000000000e+00,1.000000000000000000e+00,1.000000000000000000e+00,1.000000000000000000e+00,1.000000000000000000e+00,1.000000000000000000e+00,1.000000000000000000e+00,1.000000000000000000e+00,1.000000000000000000e+00,1.000000000000000000e+00,1.000000000000000000e+00,1.000000000000000000e+00,1.000000000000000000e+00,1.000000000000000000e+00,1.000000000000000000e+00,1.000000000000000000e+00,1.000000000000000000e+00,1.000000000000000000e+00,1.000000000000000000e+00,1.000000000000000000e+00,1.000000000000000000e+00,1.000000000000000000e+00,1.000000000000000000e+00,1.000000000000000000e+00,1.000000000000000000e+00,1.000000000000000000e+00,1.000000000000000000e+00,1.000000000000000000e+00,4.666244506835937611e-01,4.555254936218261497e-01,4.515764713287353516e-01,3.638465881347656139e-01,3.573992967605590931e-01,3.534978866577148660e-01,3.590100765228271262e-01,1.000000000000000000e+00,1.000000000000000000e+00,1.000000000000000000e+00,1.000000000000000000e+00,1.000000000000000000e+00,9.698147773742675781e-01,9.380679130554199219e-01,9.083336830139160378e-01,8.804264068603515625e-01,8.541830062866211382e-01,8.294586181640625222e-01,8.061254501342773882e-01,7.840690612792968750e-01,7.631875514984131081e-01,7.433893203735351118e-01
6.192342281341552956e-01,6.349299430847168413e-01,6.514421463012695090e-01,6.688360691070556197e-01,6.871842861175536665e-01,7.065676689147949441e-01,7.270762920379638672e-01,7.488109588623046431e-01,7.718852043151855913e-01,7.964266777038574441e-01,8.225799560546874778e-01,8.505091667175292969e-01,8.804016113281250000e-01,9.124718666076659934e-01,9.469669342041016069e-01,9.841724395751952903e-01,1.000000000000000000e+00,1.000000000000000000e+00,1.000000000000000000e+00,1.000000000000000000e+00,1.000000000000000000e+00,1.000000000000000000e+00,1.000000000000000000e+00,1.000000000000000000e+00,1.000000000000000000e+00,1.000000000000000000e+00,1.000000000000000000e+00,1.000000000000000000e+00,1.000000000000000000e+00,1.000000000000000000e+00,1.000000000000000000e+00,1.000000000000000000e+00,1.000000000000000000e+00,1.000000000000000000e+00,1.000000000000000000e+00,1.000000000000000000e+00,1.000000000000000000e+00,1.000000000000000000e+00,1.000000000000000000e+00,1.000000000000000000e+00,1.000000000000000000e+00,1.000000000000000000e+00,1.000000000000000000e+00,1.000000000000000000e+00,1.000000000000000000e+00,1.000000000000000000e+00,1.000000000000000000e+00,1.000000000000000000e+00,1.000000000000000000e+00,1.000000000000000000e+00,1.000000000000000000e+00,1.000000000000000000e+00,1.000000000000000000e+00,1.000000000000000000e+00,1.000000000000000000e+00,1.000000000000000000e+00,1.000000000000000000e+00,1.000000000000000000e+00,4.692458152770996316e-01,4.598140239715576283e-01,4.582324504852294811e-01,3.643693685531615989e-01,3.579305171966552512e-01,3.540270090103149192e-01,3.579546451568603738e-01,1.000000000000000000e+00,1.000000000000000000e+00,1.000000000000000000e+00,1.000000000000000000e+00,1.000000000000000000e+00,9.698429107666015625e-01,9.380942344665527122e-01,9.083583831787109819e-01,8.804495811462402788e-01,8.542047500610351340e-01,8.294793128967284934e-01,8.061449050903319868e-01,7.840874671936035600e-01,7.632049560546875222e-01,7.434058666229248491e-01
6.192210674285888450e-01,6.349161148071289507e-01,6.514276027679443137e-01,6.688207626342773660e-01,6.871680736541747603e-01,7.065505504608153853e-01,7.270581722259521484e-01,7.487917423248291460e-01,7.718647480010986106e-01,7.964049339294433372e-01,8.225566864013671431e-01,8.504843711853027344e-01,8.803750038146972434e-01,9.124433517456054243e-01,9.469361305236816406e-01,9.841392517089844194e-01,1.000000000000000000e+00,1.000000000000000000e+00,1.000000000000000000e+00,1.000000000000000000e+00,1.000000000000000000e+00,1.000000000000000000e+00,1.000000000000000000e+00,1.000000000000000000e+00,1.000000000000000000e+00,1.000000000000000000e+00,1.000000000000000000e+00,1.000000000000000000e+00,1.000000000000000000e+00,1.000000000000000000e+00,1.000000000000000000e+00,1.000000000000000000e+00,1.000000000000000000e+00,1.000000000000000000e+00,1.000000000000000000e+00,1.000000000000000000e+00,1.000000000000000000e+00,1.000000000000000000e+00,1.000000000000000000e+00,1.000000000000000000e+00,1.000000000000000000e+00,1.000000000000000000e+00,1.000000000000000000e+00,1.000000000000000000e+00,1.000000000000000000e+00,1.000000000000000000e+00,1.000000000000000000e+00,1.000000000000000000e+00,1.000000000000000000e+00,1.000000000000000000e+00,1.000000000000000000e+00,1.000000000000000000e+00,1.000000000000000000e+00,1.000000000000000000e+00,1.000000000000000000e+00,1.000000000000000000e+00,1.000000000000000000e+00,1.000000000000000000e+00,4.717746734619140403e-01,4.641841411590575950e-01,1.000000000000000000e+00,3.650658607482910045e-01,3.586234569549560658e-01,3.548865318298339844e-01,3.569164991378784291e-01,1.000000000000000000e+00,1.000000000000000000e+00,1.000000000000000000e+00,1.000000000000000000e+00,1.000000000000000000e+00,9.698710441589355469e-01,9.381205558776855025e-01,9.083829879760741965e-01,8.804728507995605025e-01,8.542265892028808594e-01,8.294998168945312278e-01,8.061643600463866965e-01,7.841059207916259988e-01,7.632223606109619363e-01,7.434223651885986106e-01
6.192079544067382590e-01,6.349023342132568137e-01,6.514130592346191184e-01,6.688054084777832475e-01,6.871519088745117188e-01,7.065334320068359375e-01,7.270400524139404297e-01,7.487725257873535378e-01,7.718443393707274947e-01,7.963831901550293413e-01,8.225335121154785378e-01,8.504595756530761719e-01,8.803484916687012163e-01,9.124148368835449663e-01,9.469054222106934038e-01,9.710478782653808594e-01,9.708078384399414507e-01,9.705679893493652788e-01,9.703281402587891069e-01,9.700884819030761719e-01,9.698489189147949663e-01,9.696095466613769975e-01,9.693701744079590288e-01,9.691309928894042969e-01,9.688919067382812944e-01,9.686529159545897993e-01,9.684140205383300337e-01,9.681753158569336160e-01,9.679367065429687056e-01,9.676981925964355247e-01,9.674597740173339622e-01,9.672215461730957475e-01,9.669834136962890403e-01,9.667452812194824441e-01,9.665074348449707031e-01,9.662695884704589622e-01,9.660319328308105691e-01,9.657943725585937944e-01,9.655570030212402566e-01,9.653196334838867188e-01,9.650824546813965288e-01,9.648452758789062278e-01,9.646083831787108931e-01,9.643714904785156694e-01,9.641347885131835715e-01,9.638980865478515847e-01,9.636615753173828347e-01,9.634251594543457031e-01,9.631888389587401900e-01,9.629527091979980247e-01,9.627166748046874778e-01,9.624807357788085493e-01,9.622448921203613503e-01,9.620092391967773882e-01,9.617735862731933150e-01,9.615381240844727007e-01,9.613027572631835938e-01,9.610675811767578347e-01,4.771252155303954967e-01,9.605974197387695535e-01,9.603625297546386497e-01,3.657650470733642689e-01,3.593191385269164928e-01,3.552911996841430775e-01,3.558842897415160911e-01,9.591897964477539285e-01,9.589555740356445757e-01,9.587214469909668413e-01,9.584874153137207253e-01,9.582536697387695757e-01,9.580198287963866965e-01,9.381468772888184038e-01,9.084076881408691406e-01,8.804960250854492188e-01,8.542484283447265847e-01,8.295204162597655806e-01,8.061838150024414062e-01,7.841242313385009544e-01,7.632397651672363503e-01,7.434389114379882368e-01
6.191947937011719194e-01,6.348885059356689231e-01,6.513985157012939231e-01,6.687901020050048828e-01,6.871357440948486772e-01,7.065163135528564897e-01,7.270219326019287109e-01,7.487533092498779297e-01,7.542649745941162331e-01,7.541201114654541016e-01,7.539753437042235884e-01,7.538305759429931863e-01,7.536859989166260210e-01,7.535413742065429910e-01,7.533967971801758257e-01,7.532522678375244141e-01,7.531077861785888672e-01,7.529634952545165572e-01,7.528191089630127397e-01,7.526748180389404297e-01,7.525305747985839844e-01,7.523864746093750222e-01,7.522423267364501953e-01,7.520982742309569868e-01,7.519542694091796431e-01,7.518103599548340288e-01,7.516664505004883035e-01,7.515225887298584428e-01,7.513788223266602007e-01,7.512351512908935769e-01,7.510914325714110884e-01,7.509478092193603294e-01,7.508042335510254350e-01,7.506608009338379128e-01,7.505173206329345259e-01,7.503738880157471147e-01,7.502305030822753462e-01,7.500873088836670366e-01,7.499440670013427512e-01,7.498008251190185769e-01,7.496577262878417747e-01,7.495146274566650835e-01,7.493716716766357644e-01,7.492286682128905806e-01,7.490857601165771262e-01,7.489428997039795366e-01,7.488001823425293191e-01,7.486574172973632368e-01,7.485146999359131303e-01,7.483720302581786665e-01,7.482295513153076616e-01,7.480869770050049272e-01,7.479444980621338113e-01,7.478020668029785600e-01,7.476597785949706809e-01,7.475174427032470481e-01,7.473751544952392800e-01,7.472329616546631303e-01,4.730925559997558594e-01,7.469487667083740678e-01,7.468067169189452903e-01,3.704995155334472878e-01,3.600174903869629017e-01,3.549536466598510742e-01,3.549627780914306752e-01,7.460973262786865234e-01,7.459555625915527122e-01,7.458139896392822488e-01,7.456723690032959206e-01,7.455307960510253462e-01,7.453892707824707475e-01,7.452478885650635210e-01,7.451064586639404297e-01,7.449651241302490678e-01,7.448237895965575950e-01,7.446826457977294700e-01,7.445414543151855913e-01,7.444003105163574663e-01,7.442592144012450950e-01,7.434554576873779741e-01
6.167058944702148438e-01,6.166091442108154741e-01,6.165123462677002397e-01,6.164155960083007590e-01,6.163188457489013894e-01,6.162221908569336382e-01,6.161254882812500222e-01,6.160288333892822710e-01,6.159322261810302734e-01,6.158356189727782759e-01,6.157391071319580078e-01,6.156425952911377397e-01,6.155460834503173606e-01,6.154496192932128462e-01,6.153532028198241965e-01,6.152567863464355469e-01,6.151604175567626509e-01,6.150640487670898660e-01,6.149677753448485884e-01,6.148715019226074219e-01,6.147752285003662553e-01,6.146790027618408425e-01,6.145828247070312944e-01,6.144866943359375000e-01,6.143905162811279519e-01,6.142944335937500222e-01,6.141983509063720925e-01,6.141023159027099165e-01,6.140063285827637163e-01,6.139103412628174050e-01,6.138143539428710938e-01,6.137184619903564009e-01,6.136225700378418191e-01,6.135266780853271262e-01,6.134308815002441628e-01,6.133350849151610884e-01,6.132393360137939897e-01,6.131435871124267800e-01,6.130478382110595703e-01,6.129522323608398438e-01,6.128565788269042525e-01,6.127609252929687722e-01,6.126653194427490456e-01,6.125698089599609375e-01,6.124742507934570757e-01,6.123787403106689675e-01,6.122832775115967241e-01,6.121878623962402344e-01,6.120924472808837447e-01,6.119970321655273660e-01,6.119016647338867410e-01,6.118063449859618697e-01,6.117110729217529741e-01,6.116158008575439675e-01,6.115205764770508257e-01,6.114253520965575728e-01,6.113302230834960493e-01,6.112350463867187722e-01,4.663623332977294700e-01,4.699389934539794922e-01,6.109498023986816850e-01,6.108547687530517800e-01,3.626264572143554910e-01,3.577003479003906250e-01,6.105698585510254128e-01,6.104749679565429910e-01,6.103800296783447044e-01,6.102851867675781472e-01,6.101903915405273438e-01,6.100955963134765403e-01,6.100008487701416016e-01,6.099061012268066628e-01,6.098113536834717241e-01,6.097167491912841575e-01,6.096220970153808372e-01,6.095274448394775169e-01,6.094328880310058150e-01,6.093383789062499778e-01,6.092438220977782759e-01,6.091493129730224387e-01
5.210288047790527788e-01,5.209597110748290794e-01,5.208906173706054910e-01,5.208215713500976562e-01,5.207524776458740678e-01,5.206834316253662331e-01,5.206144332885742632e-01,5.205454349517821822e-01,5.204764842987060769e-01,5.204074859619141069e-01,5.203385353088378906e-01,5.202696323394775391e-01,5.202007293701171875e-01,5.201318264007568359e-01,5.200629234313964844e-01,5.199941158294677512e-01,5.199252605438232644e-01,5.198564052581786665e-01,5.197875976562500444e-01,5.197187900543213113e-01,5.196500778198241965e-01,5.195813179016113281e-01,5.195125579833984597e-01,5.194438457489013450e-01,5.193751811981200950e-01,5.193065166473388450e-01,5.192378520965575950e-01,5.191691875457763450e-01,5.191006183624267134e-01,5.190320014953613281e-01,5.189633846282959428e-01,5.188948154449463113e-01,5.188262939453125444e-01,5.187577724456786665e-01,5.186892509460448997e-01,5.186207294464111328e-01,5.185522556304931197e-01,5.184838294982909712e-01,5.184153556823730691e-01,5.183469295501709206e-01,5.182785034179687722e-01,5.182101726531982422e-01,5.181417942047119585e-01,5.180734157562255637e-01,5.180050849914550337e-01,5.179368019104003684e-01,5.178684711456298384e-01,5.178001880645751731e-01,5.177319526672363725e-01,5.176637172698974609e-01,5.175954818725585493e-01,5.175272464752197488e-01,5.174590587615967019e-01,5.173909187316894087e-01,5.173227787017822266e-01,5.172546386718750444e-01,5.171864986419677512e-01,5.171184539794921875e-01,4.560734748840332142e-01,4.592109203338622936e-01,5.169142246246337669e-01,5.168461799621582031e-01,3.633952856063842884e-01,3.569932699203491322e-01,3.538661241531372292e-01,5.165742874145508035e-01,5.165063381195068581e-01,5.164384365081786665e-01,5.163705348968505859e-01,5.163026332855225053e-01,5.162347793579101785e-01,5.161669254302978516e-01,5.160990715026855247e-01,5.160312652587890625e-01,5.159635066986083540e-01,5.158957004547118919e-01,5.158279418945312944e-01,5.157601833343505859e-01,5.156925201416016069e-01,5.156247615814208984e-01
4.510516643524170033e-01,4.509998798370361550e-01,4.509480953216552512e-01,4.508963584899902122e-01,4.508445739746093639e-01,4.507928371429443248e-01,4.507411003112792858e-01,4.506893634796142467e-01,4.506376743316650169e-01,4.505859851837158425e-01,4.505342960357666127e-01,4.504826068878173828e-01,4.504309654235839622e-01,4.503793239593505970e-01,4.503276824951171764e-01,4.502760410308838113e-01,4.502243995666503906e-01,4.501728057861328347e-01,4.501212120056152233e-01,4.500696182250976674e-01,4.500180721282959206e-01,4.499665260314941184e-01,4.499149799346923717e-01,4.498634338378906250e-01,4.498118877410888783e-01,4.497603893280029408e-01,4.497088909149170033e-01,4.496573925018310658e-01,4.496058940887451283e-01,4.495544433593750000e-01,4.495029926300048717e-01,4.494515419006347434e-01,4.494001388549804799e-01,4.493486881256103516e-01,4.492973327636718972e-01,4.492459297180175781e-01,4.491945266723632590e-01,4.491431236267089955e-01,4.490918159484863503e-01,4.490404605865478405e-01,4.489891052246093861e-01,4.489377498626708762e-01,4.488864898681640403e-01,4.488351821899413951e-01,4.487838745117187500e-01,4.487325668334961049e-01,4.486813545227050781e-01,4.486300945281982422e-01,4.485788345336914062e-01,4.485276222229003795e-01,4.484763622283935436e-01,4.484251976013183816e-01,4.483739852905273549e-01,4.483227729797363281e-01,4.482716083526611106e-01,4.482204914093017578e-01,4.481693267822265403e-01,4.481181621551513783e-01,4.480670452117919700e-01,4.480159759521484264e-01,4.479648590087890736e-01,4.479137420654296653e-01,3.645696163177490345e-01,3.527743577957153098e-01,3.471665143966674583e-01,3.455082416534424050e-01,4.476584434509277566e-01,4.476074695587158314e-01,4.475564479827880970e-01,4.475054264068603627e-01,4.474544525146484375e-01,4.474034786224365123e-01,4.473525524139404519e-01,4.473015785217285267e-01,4.472506046295166016e-01,4.471996784210204856e-01,4.471487998962402344e-01,4.470978736877441184e-01,4.470469951629638672e-01,4.469960689544677512e-01
3.976455688476562278e-01,3.976053476333618053e-01,3.975651025772094505e-01,3.975248813629150280e-01,3.974846124649047963e-01,3.974444150924682506e-01,3.974042177200317605e-01,3.973639726638794056e-01,3.973237991333007924e-01,3.972836256027221791e-01,3.972434043884277566e-01,3.972032546997070201e-01,3.971631050109863392e-01,3.971229553222656028e-01,3.970827817916869895e-01,3.970426559448242410e-01,3.970025300979614369e-01,3.969623804092407005e-01,3.969222784042358287e-01,3.968821763992309570e-01,3.968420505523681530e-01,3.968019723892212136e-01,3.967618703842162864e-01,3.967217922210693470e-01,3.966817378997802845e-01,3.966416597366332897e-01,3.966016292572021595e-01,3.965615987777709739e-01,3.965215206146240345e-01,3.964815139770507812e-01,3.964414596557617188e-01,3.964014530181884655e-01,3.963614702224731445e-01,3.963214397430420144e-01,3.962814807891845703e-01,3.962415218353271262e-01,3.962015151977539285e-01,3.961615562438964844e-01,3.961215734481811634e-01,3.960816383361816517e-01,3.960417270660400169e-01,3.960017442703246959e-01,3.959618568420409934e-01,3.959218978881836049e-01,3.958820104598999023e-01,3.958421230316161998e-01,3.958022117614746205e-01,3.957623243331909180e-01,3.957224845886230247e-01,3.956825733184814453e-01,3.956427335739135520e-01,3.956028461456299050e-01,3.955630064010620117e-01,3.955231904983520508e-01,3.954833507537841575e-01,3.954435348510741965e-01,3.954037427902221680e-01,3.953639030456542747e-01,3.953241348266601785e-01,3.952842950820922852e-01,3.952445507049560658e-01,3.952047824859619141e-01,3.648397922515869141e-01,3.470221519470214622e-01,3.408167123794555442e-01,3.374203920364379772e-01,3.357938528060913086e-01,3.949662685394287331e-01,3.949265718460083230e-01,3.948868989944457897e-01,3.948471546173095703e-01,3.948074817657470925e-01,3.947677612304687500e-01,3.947281122207641491e-01,3.946884632110595481e-01,3.946487665176391380e-01,3.946091175079345925e-01,3.945694923400878684e-01,3.945298433303833230e-01,3.944902181625365989e-01
3.555475234985351340e-01,3.555153608322143555e-01,3.554831981658935769e-01,3.554510354995727428e-01,3.554188489913940319e-01,3.553866863250732533e-01,3.553545475006103516e-01,3.553223848342895730e-01,3.552902460098266713e-01,3.552581310272217019e-01,3.552259683609008678e-01,3.551938533782958984e-01,3.551617622375488059e-01,3.551296472549438366e-01,3.550975322723388672e-01,3.550654411315917747e-01,3.550333499908447377e-01,3.550012350082397683e-01,3.549691677093506081e-01,3.549371004104614480e-01,3.549050331115722878e-01,3.548729419708251953e-01,3.548408985137939675e-01,3.548088073730468750e-01,3.547767639160156472e-01,3.547447443008422963e-01,3.547126770019531361e-01,3.546806573867797852e-01,3.546486139297485574e-01,3.546165943145752064e-01,3.545845985412597878e-01,3.545525550842285045e-01,3.545205593109130859e-01,3.544885873794555442e-01,3.544565677642822488e-01,3.544245958328247070e-01,3.543925762176513561e-01,3.543606281280517467e-01,3.543286561965942605e-01,3.542966842651367188e-01,3.542647361755371094e-01,3.542327880859375000e-01,3.542008161544799583e-01,3.541688919067382812e-01,3.541369199752807395e-01,3.541050195693969949e-01,3.540730953216552623e-01,3.540411710739135853e-01,3.540092706680297852e-01,3.539773225784301758e-01,3.539454460144043080e-01,3.539135694503784402e-01,3.538816452026367076e-01,3.538497686386108398e-01,3.538179159164428489e-01,3.537860155105591042e-01,3.537541627883911133e-01,3.537222862243652455e-01,3.536904335021972545e-01,3.536586046218871959e-01,3.536267280578613281e-01,3.535948991775512695e-01,3.535630941390991433e-01,3.535312414169311523e-01,3.344842910766601674e-01,3.300314426422119030e-01,3.341371774673461692e-01,3.284286260604858398e-01,3.533721923828124778e-01,3.533404111862182839e-01,3.533086061477661022e-01,3.532768249511718528e-01,3.532450675964355358e-01,3.532132863998412864e-01,3.531815290451049694e-01,3.531497716903686523e-01,3.531180143356323353e-01,3.530862808227538951e-01,3.530545234680175781e-01,3.530227899551391380e-01
3.215098381042480469e-01,3.214835405349731334e-01,3.214572429656982200e-01,3.214309453964233620e-01,3.214046001434326394e-01,3.213783264160156028e-01,3.213520288467407449e-01,3.213257312774658314e-01,3.212994575500488503e-01,3.212731838226318137e-01,3.212468862533569558e-01,3.212206125259399192e-01,3.211943626403808705e-01,3.211681127548217662e-01,3.211418151855468528e-01,3.211155652999878041e-01,3.210893392562866322e-01,3.210630655288696511e-01,3.210368394851684792e-01,3.210106134414673074e-01,3.209843397140502708e-01,3.209581375122070312e-01,3.209319114685058594e-01,3.209057092666626199e-01,3.208794593811035156e-01,3.208532571792602761e-01,3.208270549774169811e-01,3.208008289337158092e-01,3.207746505737304465e-01,3.207484245300292747e-01,3.207222461700439675e-01,3.206960678100586049e-01,3.206698656082153098e-01,3.206436872482300027e-01,3.206175327301025169e-01,3.205913305282592773e-01,3.205651760101318470e-01,3.205389976501464844e-01,3.205128431320190541e-01,3.204867124557495006e-01,3.204605340957641380e-01,3.204344034194946400e-01,3.204082489013672097e-01,3.203821182250976562e-01,3.203559875488281028e-01,3.203298330307006725e-01,3.203037261962890514e-01,3.202776193618774303e-01,3.202514886856079324e-01,3.202253818511963113e-01,3.201992511749267578e-01,3.201731681823730691e-01,3.201470851898193248e-01,3.201209545135498269e-01,3.200948953628540150e-01,3.200688123703002708e-01,3.200427055358886497e-01,3.200166463851928933e-01,3.199905395507812722e-01,3.199644804000854603e-01,3.199384212493896484e-01,3.199123382568359597e-01,3.198863029479980247e-01,3.198602199554443359e-01,3.198341846466064564e-01,3.198081731796264537e-01,3.197821140289306419e-01,3.197560787200927623e-01,3.197300672531128152e-01,3.197040081024170033e-01,3.196779966354370006e-01,3.196519613265991211e-01,3.196259498596191184e-01,3.195999622344970481e-01,3.195739269256591686e-01,3.195479393005370983e-01,3.195219516754150280e-01,3.194959402084350808e-01,3.194699764251708873e-01,3.194439649581909402e-01
2.934198379516601562e-01,2.933979272842407449e-01,2.933760166168212780e-01,2.933541059494018666e-01,2.933321714401245228e-01,2.933102846145629883e-01,2.932883977890014537e-01,2.932664632797241100e-01,2.932445764541625755e-01,2.932226896286010964e-01,2.932008028030395619e-01,2.931789159774780273e-01,2.931570291519164928e-01,2.931351661682128906e-01,2.931132793426513561e-01,2.930914163589477539e-01,2.930695533752441517e-01,2.930476665496826172e-01,2.930258035659790150e-01,2.930039644241332897e-01,2.929820775985717551e-01,2.929602384567260853e-01,2.929383993148803600e-01,2.929165601730346902e-01,2.928946971893310325e-01,2.928728580474853627e-01,2.928510427474975697e-01,2.928291797637939675e-01,2.928073644638061745e-01,2.927855491638183816e-01,2.927636861801147239e-01,2.927418947219848633e-01,2.927200794219970703e-01,2.926982402801513450e-01,2.926764488220214844e-01,2.926546096801757590e-01,2.926328182220458984e-01,2.926110267639160378e-01,2.925892114639282449e-01,2.925674200057983287e-01,2.925456285476684681e-01,2.925238370895385520e-01,2.925020456314086914e-01,2.924802541732788308e-01,2.924584865570068470e-01,2.924367189407348633e-01,2.924149274826050027e-01,2.923931598663330189e-01,2.923713922500610352e-01,2.923496246337890514e-01,2.923278808593750000e-01,2.923061132431030162e-01,2.922843694686889648e-01,2.922626256942749134e-01,2.922408580780029297e-01,2.922191381454467551e-01,2.921973705291748269e-01,2.921756505966186523e-01,2.921539068222046009e-01,2.921321630477905495e-01,2.921104431152343750e-01,2.920887470245361328e-01,2.920670032501220814e-01,2.920452833175659069e-01,2.920235633850097878e-01,2.920018672943115456e-01,2.919801473617553711e-01,2.919584274291991965e-01,2.919367313385009544e-01,2.919150590896606445e-01,2.918933391571044700e-01,2.918716669082641602e-01,2.918499469757079856e-01,2.918282747268676758e-01,2.918066024780273660e-01,2.917849063873291238e-01,2.917632341384887584e-01,2.917415380477905162e-01,2.917198896408080833e-01,2.916982412338257058e-01
2.698438167572021484e-01,2.698252916336059681e-01,2.698067665100097878e-01,2.697882413864135520e-01,2.697696924209594949e-01,2.697511672973632590e-01,2.697326421737670787e-01,2.697141170501708984e-01,2.696955919265747181e-01,2.696770906448364147e-01,2.696585655212402344e-01,2.696400642395019309e-01,2.696215629577636830e-01,2.696030616760253795e-01,2.695845365524291992e-01,2.695660352706908958e-01,2.695475339889526478e-01,2.695290327072143444e-01,2.695105552673339733e-01,2.694920539855957253e-01,2.694735527038574219e-01,2.694550752639770508e-01,2.694365978240966797e-01,2.694181203842163086e-01,2.693996429443359375e-01,2.693811655044555664e-01,2.693626880645751953e-01,2.693442106246948242e-01,2.693257570266723855e-01,2.693072795867920144e-01,2.692888021469116433e-01,2.692703485488891491e-01,2.692518949508667103e-01,2.692334413528442161e-01,2.692149877548217773e-01,2.691965341567993386e-01,2.691780805587768444e-01,2.691596269607544056e-01,2.691411972045898438e-01,2.691227436065674050e-01,2.691043138504028431e-01,2.690858602523803489e-01,2.690674304962158425e-01,2.690490007400512806e-01,2.690305709838867188e-01,2.690121412277221569e-01,2.689937114715575950e-01,2.689752817153930886e-01,2.689568758010864036e-01,2.689384460449218972e-01,2.689200401306152122e-01,2.689016342163085826e-01,2.688832044601440208e-01,2.688647985458373912e-01,2.688464164733886941e-01,2.688279867172241322e-01,2.688096046447753795e-01,2.687911987304687500e-01,2.687727928161621205e-01,2.687544107437133678e-01,2.687360048294067383e-01,2.687176465988159180e-01,2.686992406845092884e-01,2.686808586120605358e-01,2.686625003814697155e-01,2.686440944671630859e-01,2.686257362365722656e-01,2.686073780059814453e-01,2.685889959335326926e-01,2.685706138610839955e-01,2.685522556304931752e-01,2.685338973999023549e-01,2.685155391693115345e-01,2.684971809387207142e-01,2.684788227081298939e-01,2.684604883193969505e-01,2.684421062469482533e-01,2.684237718582153098e-01,2.684054136276244895e-01,2.683870792388916016e-01
2.497746706008911188e-01,2.497587919235229603e-01,2.497429132461547741e-01,2.497270345687866155e-01,2.497111558914184570e-01,2.496952772140502985e-01,2.496794223785400446e-01,2.496635437011718861e-01,2.496476650238036998e-01,2.496318101882934459e-01,2.496159315109252874e-01,2.496000766754150335e-01,2.495842218399047796e-01,2.495683670043945257e-01,2.495524883270263672e-01,2.495366573333740179e-01,2.495208024978637640e-01,2.495049476623535101e-01,2.494890928268432562e-01,2.494732618331909069e-01,2.494574069976806530e-01,2.494415521621703991e-01,2.494257211685180775e-01,2.494098901748657282e-01,2.493940353393554743e-01,2.493782043457031250e-01,2.493623971939086803e-01,2.493465423583984264e-01,2.493307113647461049e-01,2.493149042129516602e-01,2.492990493774414062e-01,2.492832422256469616e-01,2.492674350738525446e-01,2.492516040802001953e-01,2.492357969284057506e-01,2.492199659347534291e-01,2.492041587829589844e-01,2.491883516311645397e-01,2.491725444793701227e-01,2.491567373275756780e-01,2.491409301757812611e-01,2.491251230239868164e-01,2.491093158721923717e-01,2.490935325622558594e-01,2.490777254104614147e-01,2.490619182586669977e-01,2.490461349487304576e-01,2.490303516387939453e-01,2.490145444869995006e-01,2.489987611770629883e-01,2.489829778671264759e-01,2.489671945571899359e-01,2.489514112472534235e-01,2.489356279373168834e-01,2.489198684692382757e-01,2.489040613174438588e-01,2.488883018493652233e-01,2.488725423812866155e-01,2.488567590713501032e-01,2.488409996032714955e-01,2.488252401351928600e-01,2.488094568252563477e-01,2.487937211990356445e-01,2.487779378890991322e-01,2.487621784210204967e-01,2.487464427947997936e-01,2.487306833267211859e-01,2.487149238586425781e-01,2.486991882324218750e-01,2.486834287643432673e-01,2.486676931381225641e-01,2.486519336700439564e-01,2.486361980438232533e-01,2.486204624176025502e-01,2.486047267913818470e-01,2.485889911651611439e-01,2.485732316970825084e-01,2.485575199127197377e-01,2.485418081283569391e-01,2.485260486602783314e-01
2.324840784072876032e-01,2.324703216552734264e-01,2.324565649032592773e-01,2.324428319931030329e-01,2.324290513992309515e-01,2.324153184890747070e-01,2.324015617370605580e-01,2.323878049850463812e-01,2.323740482330322321e-01,2.323603153228759877e-01,2.323465585708618109e-01,2.323328256607055664e-01,2.323190927505493220e-01,2.323053359985351451e-01,2.322916030883789007e-01,2.322778701782226562e-01,2.322641372680664118e-01,2.322503805160522350e-01,2.322366476058959905e-01,2.322229385375976507e-01,2.322091817855835016e-01,2.321954727172851618e-01,2.321817398071289174e-01,2.321680307388305775e-01,2.321542978286743053e-01,2.321405887603759655e-01,2.321268558502197210e-01,2.321131229400634766e-01,2.320994138717651367e-01,2.320857048034667969e-01,2.320719957351684570e-01,2.320582866668701172e-01,2.320445775985717773e-01,2.320308685302734375e-01,2.320171594619750977e-01,2.320034503936767578e-01,2.319897651672363226e-01,2.319760322570800781e-01,2.319623470306396429e-01,2.319486618041992076e-01,2.319349527359008678e-01,2.319212436676025280e-01,2.319075584411621205e-01,2.318938493728637806e-01,2.318801641464233454e-01,2.318665027618408148e-01,2.318527936935424749e-01,2.318391084671020397e-01,2.318254232406616322e-01,2.318117380142211970e-01,2.317980527877807617e-01,2.317843675613403265e-01,2.317707061767578236e-01,2.317570209503173884e-01,2.317433357238769531e-01,2.317296743392944225e-01,2.317159891128540150e-01,2.317023277282714844e-01,2.316886663436889537e-01,2.316749811172485463e-01,2.316613435745239202e-01,2.316476583480834850e-01,2.316339969635009821e-01,2.316203355789184515e-01,2.316066741943359486e-01,2.315930366516113226e-01,2.315793752670288197e-01,2.315657138824462891e-01,2.315520763397216908e-01,2.315384149551391602e-01,2.315247535705566295e-01,2.315111160278320312e-01,2.314974546432495006e-01,2.314838171005249023e-01,2.314701795578003041e-01,2.314565420150756780e-01,2.314429044723510798e-01,2.314292430877685491e-01,2.314156293869018555e-01,2.314019918441772572e-01
2.174323797225952148e-01,2.174203395843505859e-01,2.174083232879638616e-01,2.173962831497192327e-01,2.173842430114746038e-01,2.173722267150878795e-01,2.173601865768432506e-01,2.173481464385986217e-01,2.173361301422119252e-01,2.173241138458252009e-01,2.173120737075805720e-01,2.173000574111938477e-01,2.172880411148071234e-01,2.172760248184203991e-01,2.172640085220337025e-01,2.172519922256469782e-01,2.172399759292602539e-01,2.172279596328735296e-01,2.172159433364868053e-01,2.172039270401001088e-01,2.171919107437133845e-01,2.171798944473266602e-01,2.171679019927978405e-01,2.171559095382690485e-01,2.171438932418823242e-01,2.171318769454955999e-01,2.171198844909668080e-01,2.171078681945800837e-01,2.170958757400512640e-01,2.170838832855224720e-01,2.170718669891357477e-01,2.170598983764648326e-01,2.170479059219360407e-01,2.170359134674072210e-01,2.170238971710204967e-01,2.170119285583496094e-01,2.169999361038207897e-01,2.169879436492919977e-01,2.169759511947631780e-01,2.169639825820922907e-01,2.169519901275634710e-01,2.169399976730346791e-01,2.169280290603637640e-01,2.169160366058349720e-01,2.169040441513061523e-01,2.168920755386352650e-01,2.168801069259643499e-01,2.168681144714355580e-01,2.168561458587646429e-01,2.168441772460937556e-01,2.168322086334228405e-01,2.168202400207519531e-01,2.168082714080810658e-01,2.167963027954101507e-01,2.167843341827392634e-01,2.167723655700683483e-01,2.167603969573974609e-01,2.167484283447265736e-01,2.167364835739135631e-01,2.167245149612426758e-01,2.167125463485717884e-01,2.167006015777587780e-01,2.166886329650878906e-01,2.166766881942749079e-01,2.166647434234619252e-01,2.166527748107910101e-01,2.166408300399780273e-01,2.166288852691650446e-01,2.166169404983520619e-01,2.166049957275390514e-01,2.165930271148681641e-01,2.165811061859130859e-01,2.165691614151001032e-01,2.165572166442871205e-01,2.165452718734741100e-01,2.165333271026611273e-01,2.165213823318481445e-01,2.165094614028930664e-01,2.164975166320800837e-01,2.164855957031250056e-01
2.042111396789550726e-01,2.042005300521850530e-01,2.041899204254150335e-01,2.041793107986450140e-01,2.041687011718749944e-01,2.041580915451049749e-01,2.041474819183349554e-01,2.041368484497070312e-01,2.041262388229370117e-01,2.041156530380248968e-01,2.041050195693969727e-01,2.040944337844848577e-01,2.040838241577148382e-01,2.040732145309448187e-01,2.040626049041747991e-01,2.040520191192626842e-01,2.040414094924926647e-01,2.040308237075805775e-01,2.040202140808105580e-01,2.040096282958984431e-01,2.039990186691284235e-01,2.039884328842163086e-01,2.039778470993041937e-01,2.039672613143920787e-01,2.039566516876220592e-01,2.039460659027099720e-01,2.039354801177978571e-01,2.039248943328857422e-01,2.039143085479736273e-01,2.039037227630615123e-01,2.038931131362914928e-01,2.038825511932373102e-01,2.038719654083251953e-01,2.038613796234130804e-01,2.038507938385009655e-01,2.038402318954467829e-01,2.038296461105346680e-01,2.038190603256225530e-01,2.038084983825683705e-01,2.037979125976562556e-01,2.037873268127441406e-01,2.037767648696899303e-01,2.037662029266357477e-01,2.037556171417236328e-01,2.037450551986694225e-01,2.037344932556152399e-01,2.037239313125610296e-01,2.037133455276489147e-01,2.037027835845947321e-01,2.036922216415405218e-01,2.036816596984863392e-01,2.036710977554321289e-01,2.036605358123779186e-01,2.036499738693237360e-01,2.036394119262695257e-01,2.036288499832153431e-01,2.036182880401611328e-01,2.036077499389648549e-01,2.035971879959106445e-01,2.035866260528564342e-01,2.035760641098022516e-01,2.035655260086059459e-01,2.035549879074096680e-01,2.035444259643554576e-01,2.035338878631591797e-01,2.035233259201049694e-01,2.035127878189086914e-01,2.035022497177124134e-01,2.034916877746582031e-01,2.034811496734619252e-01,2.034706115722656194e-01,2.034600734710693415e-01,2.034495353698730358e-01,2.034389972686767578e-01,2.034284591674804799e-01,2.034179210662841741e-01,2.034073829650878962e-01,2.033968448638915905e-01,2.033863067626953125e-01,2.033757686614990345e-01
1.925056338310241755e-01,1.924962043762206976e-01,1.924867749214172474e-01,1.924773335456848034e-01,1.924678921699523870e-01,1.924584627151489369e-01,1.924490332603454590e-01,1.924396038055419811e-01,1.924301862716674694e-01,1.924207568168640192e-01,1.924113154411316029e-01,1.924018979072570912e-01,1.923924684524536133e-01,1.923830509185791016e-01,1.923736333847045898e-01,1.923642158508300781e-01,1.923547983169555664e-01,1.923453569412231501e-01,1.923359394073486384e-01,1.923265337944030651e-01,1.923171162605285534e-01,1.923076987266540416e-01,1.922982931137084961e-01,1.922888755798339844e-01,1.922794461250305065e-01,1.922700405120849609e-01,1.922606348991394154e-01,1.922512292861938421e-01,1.922418117523193304e-01,1.922324061393737848e-01,1.922229886054992731e-01,1.922135829925536998e-01,1.922041773796081543e-01,1.921947717666626088e-01,1.921853780746460016e-01,1.921759724617004284e-01,1.921665787696838490e-01,1.921571612358093373e-01,1.921477556228637640e-01,1.921383619308471569e-01,1.921289682388305775e-01,1.921195745468139704e-01,1.921101808547973633e-01,1.921007633209228516e-01,1.920913696289062444e-01,1.920819878578186035e-01,1.920725941658019964e-01,1.920632004737853893e-01,1.920538187026977484e-01,1.920444250106811412e-01,1.920350432395935003e-01,1.920256376266479548e-01,1.920162558555603138e-01,1.920068621635437067e-01,1.919974803924560658e-01,1.919880986213683971e-01,1.919787049293518177e-01,1.919693231582641491e-01,1.919599413871765081e-01,1.919505596160888672e-01,1.919411897659301647e-01,1.919317841529846191e-01,1.919224143028259166e-01,1.919130444526672419e-01,1.919036626815796009e-01,1.918942928314208984e-01,1.918849229812621959e-01,1.918755292892456166e-01,1.918661594390869141e-01,1.918567895889282116e-01,1.918474197387695368e-01,1.918380498886108343e-01,1.918286681175231934e-01,1.918192982673644909e-01,1.918099403381347545e-01,1.918005704879760798e-01,1.917912125587463434e-01,1.917818307876587025e-01,1.917724609375000000e-01,1.917631030082702637e-01
1.820692777633667048e-01,1.820608377456665039e-01,1.820524096488952692e-01,1.820439696311950684e-01,1.820355415344238337e-01,1.820271015167236328e-01,1.820186734199523981e-01,1.820102214813232311e-01,1.820017933845519964e-01,1.819933533668517955e-01,1.819849252700805609e-01,1.819764971733093262e-01,1.819680690765380915e-01,1.819596409797668568e-01,1.819512009620666559e-01,1.819427728652954213e-01,1.819343447685241588e-01,1.819259285926818903e-01,1.819175004959106556e-01,1.819090723991393932e-01,1.819006323814392201e-01,1.818922162055969238e-01,1.818838000297546276e-01,1.818753719329833929e-01,1.818669557571411244e-01,1.818585395812988281e-01,1.818501234054565319e-01,1.818416833877563588e-01,1.818332672119140625e-01,1.818248629570007324e-01,1.818164467811584362e-01,1.818080306053161677e-01,1.817996144294738714e-01,1.817912101745605413e-01,1.817827820777893066e-01,1.817743659019470104e-01,1.817659616470336803e-01,1.817575454711914118e-01,1.817491412162780817e-01,1.817407369613647516e-01,1.817323088645935170e-01,1.817239046096801869e-01,1.817155003547668568e-01,1.817070960998535267e-01,1.816986918449401966e-01,1.816902875900268666e-01,1.816818833351135365e-01,1.816734671592712402e-01,1.816650748252868763e-01,1.816566705703735463e-01,1.816482782363891546e-01,1.816398739814758245e-01,1.816314816474914606e-01,1.816230773925781306e-01,1.816146731376648005e-01,1.816062688827514704e-01,1.815978765487670787e-01,1.815894842147827148e-01,1.815810918807983509e-01,1.815726876258850209e-01,1.815642952919006292e-01,1.815559029579162653e-01,1.815475106239318737e-01,1.815391302108764759e-01,1.815307378768920843e-01,1.815223336219787542e-01,1.815139412879943903e-01,1.815055608749389648e-01,1.814971804618835394e-01,1.814888000488281139e-01,1.814803957939147838e-01,1.814720153808593861e-01,1.814636349678039606e-01,1.814552545547485352e-01,1.814468741416931097e-01,1.814384698867797796e-01,1.814300894737243541e-01,1.814217209815978948e-01,1.814133405685424694e-01,1.814049601554870716e-01
1.727063298225402777e-01,1.726987361907958984e-01,1.726911425590515192e-01,1.726835608482360784e-01,1.726759552955627330e-01,1.726683616638183538e-01,1.726607680320739746e-01,1.726531863212585338e-01,1.726456046104431208e-01,1.726380109786987416e-01,1.726304054260253962e-01,1.726228237152099554e-01,1.726152420043945424e-01,1.726076602935791016e-01,1.726000785827636608e-01,1.725924968719482477e-01,1.725849151611328069e-01,1.725773215293884277e-01,1.725697398185729869e-01,1.725621581077575739e-01,1.725545763969421331e-01,1.725470066070556585e-01,1.725394248962402455e-01,1.725318431854248047e-01,1.725242495536804255e-01,1.725166797637939509e-01,1.725091099739074763e-01,1.725015282630920355e-01,1.724939584732055609e-01,1.724863886833190862e-01,1.724787950515747070e-01,1.724712252616882324e-01,1.724636554718017578e-01,1.724560856819152832e-01,1.724485158920288086e-01,1.724409461021423340e-01,1.724333763122558594e-01,1.724257946014404186e-01,1.724182248115539440e-01,1.724106550216674694e-01,1.724030971527099609e-01,1.723955273628234863e-01,1.723879694938659779e-01,1.723803877830505371e-01,1.723728299140930287e-01,1.723652601242065541e-01,1.723577022552490179e-01,1.723501443862915095e-01,1.723425865173339733e-01,1.723350167274474987e-01,1.723274469375610241e-01,1.723198890686035156e-01,1.723123311996460072e-01,1.723047733306884710e-01,1.722972154617309626e-01,1.722896575927734264e-01,1.722821116447448841e-01,1.722745537757873480e-01,1.722669839859008734e-01,1.722594261169433649e-01,1.722518801689147949e-01,1.722443222999572865e-01,1.722367763519287165e-01,1.722292065620422419e-01,1.722216606140136719e-01,1.722141146659851019e-01,1.722065687179565319e-01,1.721990108489990234e-01,1.721914529800415150e-01,1.721839070320129450e-01,1.721763610839843750e-01,1.721688151359558050e-01,1.721612691879272350e-01,1.721537113189697266e-01,1.721461653709411566e-01,1.721386313438415527e-01,1.721310853958129827e-01,1.721235394477844127e-01,1.721160054206848089e-01,1.721084475517273005e-01
1.642592430114745983e-01,1.642523765563964899e-01,1.642455101013183538e-01,1.642386436462402455e-01,1.642317771911621094e-01,1.642249226570129395e-01,1.642180562019348034e-01,1.642111778259277288e-01,1.642043113708496205e-01,1.641974449157714844e-01,1.641905903816223145e-01,1.641837239265441784e-01,1.641768693923950084e-01,1.641700029373169001e-01,1.641631364822387640e-01,1.641562700271606556e-01,1.641494154930114857e-01,1.641425609588623158e-01,1.641357064247131459e-01,1.641288399696350098e-01,1.641219735145568737e-01,1.641151189804077037e-01,1.641082644462585338e-01,1.641014099121093639e-01,1.640945553779601940e-01,1.640877008438110241e-01,1.640808582305908203e-01,1.640739798545837458e-01,1.640671372413635143e-01,1.640602827072143444e-01,1.640534281730651744e-01,1.640465855598449707e-01,1.640397310256958008e-01,1.640328884124755970e-01,1.640260219573974609e-01,1.640191793441772572e-01,1.640123248100280873e-01,1.640054821968078558e-01,1.639986395835876520e-01,1.639917969703674205e-01,1.639849305152893122e-01,1.639780879020690807e-01,1.639712452888488770e-01,1.639644026756286732e-01,1.639575600624084417e-01,1.639507174491882380e-01,1.639438748359680065e-01,1.639370203018188366e-01,1.639301776885986328e-01,1.639233469963073675e-01,1.639165043830871638e-01,1.639096617698669323e-01,1.639028310775756947e-01,1.638959765434265248e-01,1.638891339302062933e-01,1.638823032379150280e-01,1.638754725456237904e-01,1.638686299324035589e-01,1.638617992401122936e-01,1.638549685478210560e-01,1.638481259346008245e-01,1.638412833213806208e-01,1.638344526290893555e-01,1.638276219367980902e-01,1.638207912445068248e-01,1.638139605522155873e-01,1.638071179389953558e-01,1.638002872467040905e-01,1.637934565544128529e-01,1.637866258621215876e-01,1.637797951698303223e-01,1.637729763984680231e-01,1.637661337852477916e-01,1.637593030929565541e-01,1.637524843215942272e-01,1.637456536293029896e-01,1.637388348579406627e-01,1.637319922447204590e-01,1.637251734733581598e-01,1.637183427810668945e-01
1.565999507904052845e-01,1.565937042236328069e-01,1.565874695777892955e-01,1.565812230110168457e-01,1.565749645233154297e-01,1.565687298774719183e-01,1.565624952316284069e-01,1.565562486648559570e-01,1.565500140190124456e-01,1.565437793731689342e-01,1.565375328063964844e-01,1.565312862396240345e-01,1.565250515937805231e-01,1.565188169479370117e-01,1.565125823020935003e-01,1.565063476562499889e-01,1.565001130104065052e-01,1.564938664436340277e-01,1.564876317977905162e-01,1.564813971519470326e-01,1.564751744270324596e-01,1.564689397811889759e-01,1.564627051353454645e-01,1.564564824104309193e-01,1.564502358436584417e-01,1.564440011978149303e-01,1.564377784729003851e-01,1.564315438270568737e-01,1.564253211021423284e-01,1.564190864562988170e-01,1.564128518104553334e-01,1.564066171646118220e-01,1.564003944396972767e-01,1.563941717147827037e-01,1.563879489898681585e-01,1.563817262649536133e-01,1.563755035400390681e-01,1.563692569732665905e-01,1.563630342483520452e-01,1.563568115234375000e-01,1.563505887985229548e-01,1.563443660736084095e-01,1.563381552696228027e-01,1.563319206237792913e-01,1.563256978988647461e-01,1.563194751739502009e-01,1.563132524490356556e-01,1.563070416450500488e-01,1.563008189201355036e-01,1.562946081161498968e-01,1.562883734703063854e-01,1.562821507453918402e-01,1.562759399414062611e-01,1.562697172164916881e-01,1.562635064125061091e-01,1.562572956085205023e-01,1.562510848045349232e-01,1.562448501586914118e-01,1.562386393547058050e-01,1.562324285507202259e-01,1.562262177467346191e-01,1.562200069427490123e-01,1.562137961387634333e-01,1.562075614929199219e-01,1.562013745307922474e-01,1.561951398849487360e-01,1.561889410018920954e-01,1.561827301979064886e-01,1.561765193939209095e-01,1.561703085899353027e-01,1.561640858650207575e-01,1.561578869819641169e-01,1.561516761779785101e-01,1.561454772949218694e-01,1.561392664909362904e-01,1.561330437660217174e-01,1.561268448829650768e-01,1.561206340789794977e-01,1.561144351959228571e-01,1.561082363128662165e-01
1.496231079101562611e-01,1.496174097061157282e-01,1.496117115020751953e-01,1.496060132980346624e-01,1.496003150939941295e-01,1.495946168899536244e-01,1.495889306068420299e-01,1.495832204818725586e-01,1.495775222778320257e-01,1.495718240737914928e-01,1.495661377906799261e-01,1.495604395866393932e-01,1.495547533035278265e-01,1.495490550994872936e-01,1.495433568954467884e-01,1.495376586914062556e-01,1.495319724082946888e-01,1.495262742042541559e-01,1.495205879211425892e-01,1.495149016380309948e-01,1.495091915130615234e-01,1.495035052299499567e-01,1.494978189468383900e-01,1.494921326637267955e-01,1.494864463806152288e-01,1.494807600975036621e-01,1.494750738143920954e-01,1.494693636894225963e-01,1.494636774063110296e-01,1.494580030441284291e-01,1.494523167610168346e-01,1.494466304779052679e-01,1.494409441947937012e-01,1.494352579116821345e-01,1.494295597076416016e-01,1.494238853454589733e-01,1.494181990623474066e-01,1.494125127792358398e-01,1.494068384170532116e-01,1.494011521339416448e-01,1.493954539299011119e-01,1.493897795677185114e-01,1.493840932846069447e-01,1.493784189224243164e-01,1.493727445602416881e-01,1.493670582771301214e-01,1.493613839149475209e-01,1.493556976318359264e-01,1.493500113487243597e-01,1.493443369865417591e-01,1.493386626243591309e-01,1.493329882621765026e-01,1.493273138999939020e-01,1.493216276168823353e-01,1.493159532546997070e-01,1.493102788925170787e-01,1.493046045303344782e-01,1.492989301681518499e-01,1.492932558059692494e-01,1.492875814437866211e-01,1.492818951606750544e-01,1.492762207984924261e-01,1.492705583572387640e-01,1.492648839950561634e-01,1.492592096328735352e-01,1.492535471916198730e-01,1.492478728294372448e-01,1.492421865463256780e-01,1.492365241050720159e-01,1.492308497428894154e-01,1.492251873016357533e-01,1.492195129394531250e-01,1.492138504981994629e-01,1.492081761360168346e-01,1.492025017738342341e-01,1.491968393325805720e-01,1.491911768913269098e-01,1.491855144500732477e-01,1.491798400878906194e-01,1.491741657257080189e-01
1.432414174079895131e-01,1.432361960411071833e-01,1.432309746742248535e-01,1.432257533073425237e-01,1.432205200195312556e-01,1.432153105735778920e-01,1.432100892066955622e-01,1.432048678398132324e-01,1.431996464729309027e-01,1.431944251060485729e-01,1.431891918182373047e-01,1.431839823722839411e-01,1.431787610054016113e-01,1.431735396385192816e-01,1.431683301925659180e-01,1.431631088256835882e-01,1.431578993797302246e-01,1.431526660919189564e-01,1.431474447250366266e-01,1.431422352790832631e-01,1.431370258331298717e-01,1.431318044662475697e-01,1.431265950202941784e-01,1.431213736534118763e-01,1.431161522865295466e-01,1.431109428405761830e-01,1.431057333946227916e-01,1.431005120277404896e-01,1.430953025817870983e-01,1.430900931358337347e-01,1.430848717689514049e-01,1.430796623229980413e-01,1.430744528770446777e-01,1.430692434310913141e-01,1.430640339851379506e-01,1.430588245391845592e-01,1.430536150932311956e-01,1.430483937263488659e-01,1.430431842803955023e-01,1.430379748344421387e-01,1.430327653884887751e-01,1.430275678634643499e-01,1.430223584175109863e-01,1.430171370506286566e-01,1.430119395256042591e-01,1.430067300796508678e-01,1.430015206336975042e-01,1.429963231086731068e-01,1.429911136627197155e-01,1.429859161376953181e-01,1.429806947708129883e-01,1.429754972457885631e-01,1.429702877998351995e-01,1.429650902748108021e-01,1.429598927497863770e-01,1.429546833038330134e-01,1.429494857788085882e-01,1.429442763328552246e-01,1.429390668869018610e-01,1.429338693618774359e-01,1.429286718368530384e-01,1.429234743118286133e-01,1.429182767868041881e-01,1.429130673408508245e-01,1.429078698158264271e-01,1.429026722908020020e-01,1.428974747657775768e-01,1.428922772407531794e-01,1.428870797157287542e-01,1.428818821907043568e-01,1.428766727447509655e-01,1.428714752197265681e-01,1.428662896156311091e-01,1.428610920906066839e-01,1.428558945655822865e-01,1.428506970405578613e-01,1.428455114364624023e-01,1.428403019905090388e-01,1.428351044654846136e-01,1.428299188613891546e-01
1.373818397521972545e-01,1.373770356178283802e-01,1.373722314834594782e-01,1.373674392700195424e-01,1.373626351356506403e-01,1.373578310012817383e-01,1.373530268669128362e-01,1.373482108116149958e-01,1.373434185981750599e-01,1.373386144638061579e-01,1.373338103294372559e-01,1.373290181159973200e-01,1.373242139816284180e-01,1.373194098472595159e-01,1.373146057128906139e-01,1.373098015785217396e-01,1.373050093650817760e-01,1.373002052307129017e-01,1.372954130172729381e-01,1.372906088829040638e-01,1.372858047485351618e-01,1.372810125350952259e-01,1.372762084007263239e-01,1.372714161872863881e-01,1.372666239738464244e-01,1.372618198394775502e-01,1.372570276260375866e-01,1.372522234916687123e-01,1.372474312782287487e-01,1.372426390647888128e-01,1.372378349304199108e-01,1.372330427169799749e-01,1.372282505035400391e-01,1.372234582901001032e-01,1.372186541557312012e-01,1.372138619422912653e-01,1.372090697288513295e-01,1.372042775154113659e-01,1.371994972229003962e-01,1.371947050094604603e-01,1.371899008750915583e-01,1.371851086616516224e-01,1.371803164482116588e-01,1.371755361557006891e-01,1.371707439422607533e-01,1.371659517288207897e-01,1.371611595153808538e-01,1.371563673019409180e-01,1.371515750885009821e-01,1.371467947959899847e-01,1.371420025825500488e-01,1.371372222900390514e-01,1.371324300765991155e-01,1.371276378631591797e-01,1.371228456497192438e-01,1.371180653572082464e-01,1.371132731437683105e-01,1.371084928512573131e-01,1.371037125587463434e-01,1.370989203453064076e-01,1.370941281318664440e-01,1.370893478393554743e-01,1.370845675468444769e-01,1.370797753334045410e-01,1.370749950408935436e-01,1.370702147483825739e-01,1.370654344558715765e-01,1.370606422424316406e-01,1.370558619499206432e-01,1.370510816574096735e-01,1.370463013648986761e-01,1.370415210723877064e-01,1.370367407798767090e-01,1.370319485664367731e-01,1.370271682739257757e-01,1.370223879814148060e-01,1.370176076889038086e-01,1.370128393173217773e-01,1.370080590248107799e-01,1.370032787322998102e-01
1.319828271865844671e-01,1.319783926010131836e-01,1.319739580154419001e-01,1.319695234298706166e-01,1.319650888442993053e-01,1.319606542587280218e-01,1.319562196731567383e-01,1.319517970085143932e-01,1.319473624229431097e-01,1.319429278373718262e-01,1.319384932518005427e-01,1.319340586662292591e-01,1.319296240806579479e-01,1.319252014160156306e-01,1.319207668304443470e-01,1.319163441658020020e-01,1.319119095802307184e-01,1.319074749946594349e-01,1.319030404090881237e-01,1.318986177444458063e-01,1.318941831588745228e-01,1.318897604942321777e-01,1.318853378295898326e-01,1.318809032440185491e-01,1.318764686584472656e-01,1.318720459938049205e-01,1.318676233291626032e-01,1.318631887435913197e-01,1.318587660789489746e-01,1.318543434143066295e-01,1.318499088287353460e-01,1.318454861640930287e-01,1.318410634994506836e-01,1.318366408348083385e-01,1.318322181701660212e-01,1.318277835845947377e-01,1.318233609199523926e-01,1.318189382553100475e-01,1.318145155906677302e-01,1.318100929260253851e-01,1.318056702613830677e-01,1.318012475967407227e-01,1.317968249320983776e-01,1.317923903465270941e-01,1.317879676818847767e-01,1.317835569381713978e-01,1.317791342735290527e-01,1.317747116088867076e-01,1.317702889442443903e-01,1.317658782005310114e-01,1.317614436149597279e-01,1.317570328712463490e-01,1.317526102066040039e-01,1.317481875419616588e-01,1.317437767982482799e-01,1.317393541336059626e-01,1.317349433898925837e-01,1.317305088043213002e-01,1.317260980606079213e-01,1.317216753959655762e-01,1.317172646522521973e-01,1.317128539085388184e-01,1.317084312438964733e-01,1.317040085792541559e-01,1.316995978355407770e-01,1.316951751708984319e-01,1.316907644271850530e-01,1.316863536834716741e-01,1.316819429397582952e-01,1.316775202751159779e-01,1.316730976104736328e-01,1.316686868667602539e-01,1.316642761230468750e-01,1.316598653793334961e-01,1.316554546356201172e-01,1.316510438919067383e-01,1.316466331481933594e-01,1.316422104835510143e-01,1.316377997398376354e-01,1.316333889961242565e-01
1.269921064376831055e-01,1.269880056381225697e-01,1.269839048385620062e-01,1.269797921180725042e-01,1.269756913185119684e-01,1.269715905189514049e-01,1.269674897193908691e-01,1.269633769989013672e-01,1.269592761993408314e-01,1.269551753997802679e-01,1.269510626792907659e-01,1.269469618797302302e-01,1.269428610801696666e-01,1.269387602806091309e-01,1.269346475601196289e-01,1.269305586814880316e-01,1.269264578819274958e-01,1.269223570823669323e-01,1.269182562828063965e-01,1.269141554832458607e-01,1.269100427627563588e-01,1.269059419631957952e-01,1.269018411636352595e-01,1.268977522850036621e-01,1.268936514854431263e-01,1.268895506858825628e-01,1.268854498863220270e-01,1.268813490867614635e-01,1.268772482872009277e-01,1.268731474876403920e-01,1.268690586090087946e-01,1.268649578094482311e-01,1.268608570098876953e-01,1.268567681312560980e-01,1.268526673316955622e-01,1.268485665321349987e-01,1.268444776535034291e-01,1.268403768539428655e-01,1.268362879753112682e-01,1.268321871757507324e-01,1.268280863761901966e-01,1.268239855766296331e-01,1.268198966979980358e-01,1.268158078193664662e-01,1.268117070198059027e-01,1.268076181411743053e-01,1.268035292625427357e-01,1.267994284629821722e-01,1.267953276634216364e-01,1.267912387847900391e-01,1.267871499061584417e-01,1.267830610275268444e-01,1.267789721488952748e-01,1.267748713493347112e-01,1.267707824707031139e-01,1.267666816711425781e-01,1.267625927925109808e-01,1.267585039138793834e-01,1.267544150352478138e-01,1.267503261566162165e-01,1.267462372779846191e-01,1.267421483993530218e-01,1.267380595207214244e-01,1.267339706420898549e-01,1.267298817634582575e-01,1.267257928848266602e-01,1.267217040061950628e-01,1.267176032066345270e-01,1.267135143280029297e-01,1.267094373703002985e-01,1.267053484916687012e-01,1.267012596130371038e-01,1.266971707344055065e-01,1.266930818557739369e-01,1.266889929771423395e-01,1.266849160194397084e-01,1.266808271408081110e-01,1.266767382621765137e-01,1.266726613044738825e-01,1.266685724258422852e-01
