6.200650691986083762e-01,6.358017921447753906e-01,6.523580551147460938e-01,6.697996139526367632e-01,6.881994724273681197e-01,7.076387882232666460e-01,7.282082557678222212e-01,7.500093460083008257e-01,7.731559753417969194e-01,7.977768898010253462e-01,8.240174293518066628e-01,8.520429611206055132e-01,8.820418357849121316e-01,9.142302513122558816e-01,1.000000000000000000e+00,1.000000000000000000e+00,1.000000000000000000e+00,1.000000000000000000e+00,1.000000000000000000e+00,3.316468000411987305e-01,3.267288446426391824e-01,3.266005516052246094e-01,3.291939735412597878e-01,3.308525323867798074e-01,3.268074989318847656e-01,3.254237413406372292e-01,3.257758140563964955e-01,3.284913301467895508e-01,3.323481798171997181e-01,3.358442783355712891e-01,3.411985158920288197e-01,3.502298116683960072e-01,3.757603645324706920e-01,3.860075235366821067e-01,1.000000000000000000e+00,1.000000000000000000e+00,1.000000000000000000e+00,1.000000000000000000e+00,1.000000000000000000e+00,1.000000000000000000e+00,1.000000000000000000e+00,1.000000000000000000e+00,1.000000000000000000e+00,1.000000000000000000e+00,1.000000000000000000e+00,1.000000000000000000e+00,1.000000000000000000e+00,1.000000000000000000e+00,1.000000000000000000e+00,1.000000000000000000e+00,1.000000000000000000e+00,1.000000000000000000e+00,1.000000000000000000e+00,1.000000000000000000e+00,1.000000000000000000e+00,1.000000000000000000e+00,1.000000000000000000e+00,1.000000000000000000e+00,1.000000000000000000e+00,1.000000000000000000e+00,1.000000000000000000e+00,1.000000000000000000e+00,1.000000000000000000e+00,1.000000000000000000e+00,1.000000000000000000e+00,1.000000000000000000e+00,1.000000000000000000e+00,1.000000000000000000e+00,1.000000000000000000e+00,1.000000000000000000e+00,1.000000000000000000e+00,1.000000000000000000e+00,9.068413734436034934e-01,8.790395736694336382e-01,8.528919219970703125e-01,8.282478332519531694e-01,8.049810409545898882e-01,7.829856395721435103e-01,7.621603965759277122e-01,7.424142360687255859e-01
6.200532436370849165e-01,6.357893466949462447e-01,6.523449897766113725e-01,6.697858810424804910e-01,6.881849288940429243e-01,7.076234340667724165e-01,7.281919956207275613e-01,7.499920845031737837e-01,7.731376171112060991e-01,7.977573394775390181e-01,8.239966392517089622e-01,8.520206451416015847e-01,8.820179939270019753e-01,9.142045974731445312e-01,9.488294601440430132e-01,1.000000000000000000e+00,1.000000000000000000e+00,1.000000000000000000e+00,1.000000000000000000e+00,3.343011379241943581e-01,3.273405075073242410e-01,3.276707649230957142e-01,3.306450366973877064e-01,3.286868572235107644e-01,3.257051944732666238e-01,3.243490934371948131e-01,3.246939182281494141e-01,3.271662950515746848e-01,3.315784215927123912e-01,3.354617834091186412e-01,3.399001598358154519e-01,3.506222009658813699e-01,3.760293960571289285e-01,3.893030166625976451e-01,1.000000000000000000e+00,1.000000000000000000e+00,1.000000000000000000e+00,1.000000000000000000e+00,1.000000000000000000e+00,1.000000000000000000e+00,1.000000000000000000e+00,1.000000000000000000e+00,1.000000000000000000e+00,1.000000000000000000e+00,1.000000000000000000e+00,1.000000000000000000e+00,1.000000000000000000e+00,1.000000000000000000e+00,1.000000000000000000e+00,1.000000000000000000e+00,1.000000000000000000e+00,1.000000000000000000e+00,1.000000000000000000e+00,1.000000000000000000e+00,1.000000000000000000e+00,1.000000000000000000e+00,1.000000000000000000e+00,1.000000000000000000e+00,1.000000000000000000e+00,1.000000000000000000e+00,1.000000000000000000e+00,1.000000000000000000e+00,1.000000000000000000e+00,1.000000000000000000e+00,1.000000000000000000e+00,1.000000000000000000e+00,1.000000000000000000e+00,1.000000000000000000e+00,1.000000000000000000e+00,1.000000000000000000e+00,1.000000000000000000e+00,9.365061759948730691e-01,9.068855285644531472e-01,8.790811538696289285e-01,8.529215812683105247e-01,8.282684326171875222e-01,8.050004959106444868e-01,7.830040931701660600e-01,7.621778964996337447e-01,7.424307346343994585e-01
6.200412750244140847e-01,6.357769489288329634e-01,6.523319721221924050e-01,6.697721481323242188e-01,6.881703853607177290e-01,7.076080799102782981e-01,7.281757354736327903e-01,7.499748229980468528e-01,7.731193542480468972e-01,7.977377891540526900e-01,8.239757537841796431e-01,8.519983291625976562e-01,8.819941520690918191e-01,9.141789436340331809e-01,9.488018035888672319e-01,9.861503601074218528e-01,1.000000000000000000e+00,1.000000000000000000e+00,1.000000000000000000e+00,1.000000000000000000e+00,3.272236824035644753e-01,3.279838323593139426e-01,3.321516275405883567e-01,3.285550832748412864e-01,3.251693964004516713e-01,3.237264633178710826e-01,3.239499568939209206e-01,3.264858961105346902e-01,3.295693635940551980e-01,3.336276054382324441e-01,3.381084918975830189e-01,3.462123394012451283e-01,3.787411451339721680e-01,1.000000000000000000e+00,1.000000000000000000e+00,1.000000000000000000e+00,1.000000000000000000e+00,1.000000000000000000e+00,1.000000000000000000e+00,1.000000000000000000e+00,1.000000000000000000e+00,1.000000000000000000e+00,1.000000000000000000e+00,1.000000000000000000e+00,1.000000000000000000e+00,1.000000000000000000e+00,1.000000000000000000e+00,1.000000000000000000e+00,1.000000000000000000e+00,1.000000000000000000e+00,1.000000000000000000e+00,1.000000000000000000e+00,1.000000000000000000e+00,1.000000000000000000e+00,1.000000000000000000e+00,1.000000000000000000e+00,1.000000000000000000e+00,1.000000000000000000e+00,1.000000000000000000e+00,1.000000000000000000e+00,1.000000000000000000e+00,1.000000000000000000e+00,1.000000000000000000e+00,1.000000000000000000e+00,1.000000000000000000e+00,1.000000000000000000e+00,1.000000000000000000e+00,1.000000000000000000e+00,1.000000000000000000e+00,1.000000000000000000e+00,9.681774139404296653e-01,9.365531921386718306e-01,9.069295883178710715e-01,8.791105270385741743e-01,8.529434204101562500e-01,8.282890319824218750e-01,8.050199508666991965e-01,7.830225467681884988e-01,7.621953964233398882e-01,7.424473285675048384e-01
6.200280189514160156e-01,6.357643604278564453e-01,6.523189067840575728e-01,6.697583675384521928e-01,6.881558418273925337e-01,7.075926780700683150e-01,7.281594276428222656e-01,7.499575614929199219e-01,7.731010437011718306e-01,7.977182865142822266e-01,8.239549636840820535e-01,8.519761085510253462e-01,8.819702148437500444e-01,9.141533851623535600e-01,9.487741470336914507e-01,9.861205101013184038e-01,1.000000000000000000e+00,1.000000000000000000e+00,1.000000000000000000e+00,1.000000000000000000e+00,3.232452630996703880e-01,3.225135087966918834e-01,3.267942428588866965e-01,3.295947790145873912e-01,3.267722845077514759e-01,3.266035795211791881e-01,3.265633106231689564e-01,3.285291910171508900e-01,3.308305501937865989e-01,3.346393585205078014e-01,3.368988990783691184e-01,3.433063507080078014e-01,3.816394805908203125e-01,1.000000000000000000e+00,1.000000000000000000e+00,1.000000000000000000e+00,1.000000000000000000e+00,1.000000000000000000e+00,1.000000000000000000e+00,1.000000000000000000e+00,1.000000000000000000e+00,1.000000000000000000e+00,1.000000000000000000e+00,1.000000000000000000e+00,1.000000000000000000e+00,1.000000000000000000e+00,1.000000000000000000e+00,1.000000000000000000e+00,1.000000000000000000e+00,1.000000000000000000e+00,1.000000000000000000e+00,1.000000000000000000e+00,1.000000000000000000e+00,1.000000000000000000e+00,1.000000000000000000e+00,1.000000000000000000e+00,1.000000000000000000e+00,1.000000000000000000e+00,1.000000000000000000e+00,1.000000000000000000e+00,1.000000000000000000e+00,1.000000000000000000e+00,1.000000000000000000e+00,1.000000000000000000e+00,1.000000000000000000e+00,1.000000000000000000e+00,1.000000000000000000e+00,1.000000000000000000e+00,1.000000000000000000e+00,1.000000000000000000e+00,9.682277679443359597e-01,9.366003036499023215e-01,9.069585800170898438e-01,8.791337966918945090e-01,8.529653549194335938e-01,8.283097267150878462e-01,8.050395011901855247e-01,7.830410003662109375e-01,7.622128009796143022e-01,7.424639225006103294e-01
6.200148582458495650e-01,6.357505321502685547e-01,6.523056507110596147e-01,6.697445869445800559e-01,6.881413936614990678e-01,7.075773239135741965e-01,7.281431674957274947e-01,7.499402523040771262e-01,7.730826854705810103e-01,7.976987361907958984e-01,8.239340782165527344e-01,8.519538879394531472e-01,8.819463729858398882e-01,9.141277313232422097e-01,9.487464904785156694e-01,9.860906600952148438e-01,1.000000000000000000e+00,1.000000000000000000e+00,1.000000000000000000e+00,1.000000000000000000e+00,3.205010890960693359e-01,3.190211534500121959e-01,3.224911689758300781e-01,3.282974481582641713e-01,3.265310049057006947e-01,3.263959407806396595e-01,3.267230749130248801e-01,3.288692235946655273e-01,3.308217763900757058e-01,3.346388339996337891e-01,3.396657466888427512e-01,3.495114564895629994e-01,3.845825195312500000e-01,1.000000000000000000e+00,1.000000000000000000e+00,1.000000000000000000e+00,1.000000000000000000e+00,1.000000000000000000e+00,1.000000000000000000e+00,1.000000000000000000e+00,1.000000000000000000e+00,1.000000000000000000e+00,1.000000000000000000e+00,1.000000000000000000e+00,1.000000000000000000e+00,1.000000000000000000e+00,1.000000000000000000e+00,1.000000000000000000e+00,1.000000000000000000e+00,1.000000000000000000e+00,1.000000000000000000e+00,1.000000000000000000e+00,1.000000000000000000e+00,1.000000000000000000e+00,1.000000000000000000e+00,1.000000000000000000e+00,1.000000000000000000e+00,1.000000000000000000e+00,1.000000000000000000e+00,1.000000000000000000e+00,1.000000000000000000e+00,1.000000000000000000e+00,1.000000000000000000e+00,1.000000000000000000e+00,1.000000000000000000e+00,1.000000000000000000e+00,1.000000000000000000e+00,1.000000000000000000e+00,1.000000000000000000e+00,1.000000000000000000e+00,9.682777404785156694e-01,9.366288185119628906e-01,9.069833755493164062e-01,8.791569709777832253e-01,8.529871940612793191e-01,8.283303260803223100e-01,8.050589561462402344e-01,7.830595016479492410e-01,7.622303009033203347e-01,7.424805164337158203e-01
6.200016975402832253e-01,6.357366561889647993e-01,6.522910594940185547e-01,6.697306156158446822e-01,6.881268501281738725e-01,7.075619697570800781e-01,7.281269073486328347e-01,7.499229907989501953e-01,7.730643272399901900e-01,7.976792812347411887e-01,8.239132881164550337e-01,8.519315719604492188e-01,8.819225311279297319e-01,9.141020774841308594e-01,9.487189292907715066e-01,9.860608100891112837e-01,1.000000000000000000e+00,1.000000000000000000e+00,1.000000000000000000e+00,1.000000000000000000e+00,3.184036731719970814e-01,3.158194541931152455e-01,3.189036846160888672e-01,3.266778469085693248e-01,3.258949041366577259e-01,3.262968778610229603e-01,3.271904230117798074e-01,3.294988870620727539e-01,3.319063425064087136e-01,3.352495431900024414e-01,3.404378652572631614e-01,3.475922107696532981e-01,3.863970041275024414e-01,1.000000000000000000e+00,1.000000000000000000e+00,1.000000000000000000e+00,1.000000000000000000e+00,1.000000000000000000e+00,1.000000000000000000e+00,1.000000000000000000e+00,1.000000000000000000e+00,1.000000000000000000e+00,1.000000000000000000e+00,1.000000000000000000e+00,1.000000000000000000e+00,1.000000000000000000e+00,1.000000000000000000e+00,1.000000000000000000e+00,1.000000000000000000e+00,1.000000000000000000e+00,1.000000000000000000e+00,1.000000000000000000e+00,1.000000000000000000e+00,1.000000000000000000e+00,1.000000000000000000e+00,1.000000000000000000e+00,1.000000000000000000e+00,1.000000000000000000e+00,1.000000000000000000e+00,1.000000000000000000e+00,1.000000000000000000e+00,1.000000000000000000e+00,1.000000000000000000e+00,1.000000000000000000e+00,1.000000000000000000e+00,1.000000000000000000e+00,1.000000000000000000e+00,1.000000000000000000e+00,1.000000000000000000e+00,1.000000000000000000e+00,9.683058738708496538e-01,9.366551399230956809e-01,9.070080757141113503e-01,8.791802406311035600e-01,8.530091285705566628e-01,8.283509254455566628e-01,8.050784111022949441e-01,7.830779552459716797e-01,7.622477531433105025e-01,7.424971103668213113e-01
6.199885368347167747e-01,6.357227325439452903e-01,6.522764682769774947e-01,6.697152614593505637e-01,6.881122112274169478e-01,7.075466632843017134e-01,7.281106472015380637e-01,7.499057292938232644e-01,7.730459690093993697e-01,7.976597785949707253e-01,8.238924026489258257e-01,8.519092559814452903e-01,8.818985939025878462e-01,9.140764236450195090e-01,9.486913681030273438e-01,9.860309600830078347e-01,1.000000000000000000e+00,1.000000000000000000e+00,1.000000000000000000e+00,1.000000000000000000e+00,3.153867006301879772e-01,3.127508640289306530e-01,3.143461942672729492e-01,3.242679357528686634e-01,3.245001554489135853e-01,3.249282360076904408e-01,3.284675359725952037e-01,3.321778774261474609e-01,3.342053651809692161e-01,3.384097099304199108e-01,3.424298763275146484e-01,3.464070796966552956e-01,3.842025756835937278e-01,1.000000000000000000e+00,1.000000000000000000e+00,1.000000000000000000e+00,1.000000000000000000e+00,1.000000000000000000e+00,1.000000000000000000e+00,1.000000000000000000e+00,1.000000000000000000e+00,1.000000000000000000e+00,1.000000000000000000e+00,1.000000000000000000e+00,1.000000000000000000e+00,1.000000000000000000e+00,1.000000000000000000e+00,1.000000000000000000e+00,1.000000000000000000e+00,1.000000000000000000e+00,1.000000000000000000e+00,1.000000000000000000e+00,1.000000000000000000e+00,1.000000000000000000e+00,1.000000000000000000e+00,1.000000000000000000e+00,1.000000000000000000e+00,1.000000000000000000e+00,1.000000000000000000e+00,1.000000000000000000e+00,1.000000000000000000e+00,1.000000000000000000e+00,1.000000000000000000e+00,1.000000000000000000e+00,1.000000000000000000e+00,1.000000000000000000e+00,1.000000000000000000e+00,1.000000000000000000e+00,1.000000000000000000e+00,1.000000000000000000e+00,9.683341026306152566e-01,9.366815567016602007e-01,9.070327758789062944e-01,8.792034149169921653e-01,8.530309677124023882e-01,8.283716201782226340e-01,8.050979614257812722e-01,7.830963134765625000e-01,7.622652530670166460e-01,7.425137042999268022e-01
6.199753284454345703e-01,6.357089042663573997e-01,6.522618770599365456e-01,6.696998596191405806e-01,6.880959510803222878e-01,7.075311660766601118e-01,7.280943393707275391e-01,7.498884677886963335e-01,7.730276584625244141e-01,7.976402282714843972e-01,8.238716125488281250e-01,8.518870353698730913e-01,8.818747520446776900e-01,9.140507698059081587e-01,9.486637115478515625e-01,9.860012054443358931e-01,1.000000000000000000e+00,1.000000000000000000e+00,1.000000000000000000e+00,1.000000000000000000e+00,3.147546291351318581e-01,3.102462053298949973e-01,3.103636026382446400e-01,3.205448865890502819e-01,3.211477041244507058e-01,3.222356319427490123e-01,3.259944677352905051e-01,3.349007844924926647e-01,3.366629600524902455e-01,3.416300058364868386e-01,3.426049709320068137e-01,3.438575506210327370e-01,3.550837278366089089e-01,1.000000000000000000e+00,1.000000000000000000e+00,1.000000000000000000e+00,1.000000000000000000e+00,1.000000000000000000e+00,1.000000000000000000e+00,1.000000000000000000e+00,1.000000000000000000e+00,1.000000000000000000e+00,1.000000000000000000e+00,1.000000000000000000e+00,1.000000000000000000e+00,1.000000000000000000e+00,1.000000000000000000e+00,1.000000000000000000e+00,1.000000000000000000e+00,1.000000000000000000e+00,1.000000000000000000e+00,1.000000000000000000e+00,1.000000000000000000e+00,1.000000000000000000e+00,1.000000000000000000e+00,1.000000000000000000e+00,1.000000000000000000e+00,1.000000000000000000e+00,1.000000000000000000e+00,1.000000000000000000e+00,1.000000000000000000e+00,1.000000000000000000e+00,1.000000000000000000e+00,1.000000000000000000e+00,1.000000000000000000e+00,1.000000000000000000e+00,1.000000000000000000e+00,1.000000000000000000e+00,1.000000000000000000e+00,1.000000000000000000e+00,9.683622360229492410e-01,9.367079734802246094e-01,9.070575714111328569e-01,8.792266845703125000e-01,8.530528068542480025e-01,8.283922195434569868e-01,8.051174163818359819e-01,7.831147670745849387e-01,7.622821331024169922e-01,7.425289630889893022e-01
6.199621677398681197e-01,6.356950283050537553e-01,6.522473335266113503e-01,6.696845054626464622e-01,6.880796432495117632e-01,7.075139999389647993e-01,7.280779838562011497e-01,7.498712062835692915e-01,7.730093002319335938e-01,7.976207256317138228e-01,8.238508224487304243e-01,8.518647193908691628e-01,8.818509101867675337e-01,9.140251159667969194e-01,9.486360549926757812e-01,9.859713554382324441e-01,1.000000000000000000e+00,1.000000000000000000e+00,1.000000000000000000e+00,1.000000000000000000e+00,1.000000000000000000e+00,3.097695350646972878e-01,3.113267898559570201e-01,3.185346603393554576e-01,3.188857316970825084e-01,3.192969560623168945e-01,3.210072040557861439e-01,3.310009241104125977e-01,3.435677051544189231e-01,3.383951902389526478e-01,3.388076543807983509e-01,3.393003702163696067e-01,3.455989837646484264e-01,1.000000000000000000e+00,1.000000000000000000e+00,1.000000000000000000e+00,1.000000000000000000e+00,1.000000000000000000e+00,1.000000000000000000e+00,1.000000000000000000e+00,1.000000000000000000e+00,1.000000000000000000e+00,1.000000000000000000e+00,1.000000000000000000e+00,1.000000000000000000e+00,1.000000000000000000e+00,1.000000000000000000e+00,1.000000000000000000e+00,1.000000000000000000e+00,1.000000000000000000e+00,1.000000000000000000e+00,1.000000000000000000e+00,1.000000000000000000e+00,1.000000000000000000e+00,1.000000000000000000e+00,1.000000000000000000e+00,1.000000000000000000e+00,1.000000000000000000e+00,1.000000000000000000e+00,1.000000000000000000e+00,1.000000000000000000e+00,1.000000000000000000e+00,1.000000000000000000e+00,1.000000000000000000e+00,1.000000000000000000e+00,1.000000000000000000e+00,1.000000000000000000e+00,1.000000000000000000e+00,1.000000000000000000e+00,1.000000000000000000e+00,9.683904647827148438e-01,9.367342948913573997e-01,9.070823669433594194e-01,8.792499542236328347e-01,8.530747413635253462e-01,8.284125328063964844e-01,8.051357269287109375e-01,7.831313133239745650e-01,7.622976303100585938e-01,7.425436019897461160e-01
6.199490070343017800e-01,6.356812000274658647e-01,6.522327423095702903e-01,6.696691513061523438e-01,6.880634307861328569e-01,7.074968338012694868e-01,7.280598163604736772e-01,7.498539447784423606e-01,7.729909420013427734e-01,7.976011753082274947e-01,8.238299369812012163e-01,8.518424987792968528e-01,8.818270683288573775e-01,9.139995574951171875e-01,9.486084938049316184e-01,9.859415054321288840e-01,1.000000000000000000e+00,1.000000000000000000e+00,1.000000000000000000e+00,1.000000000000000000e+00,1.000000000000000000e+00,3.061883211135864036e-01,3.042814731597900391e-01,3.067393541336059792e-01,3.179581165313720703e-01,3.182973861694335938e-01,3.189254999160766602e-01,3.264138221740722767e-01,3.416553974151611550e-01,3.356689453125000222e-01,3.348880767822265403e-01,3.359919548034667747e-01,3.397188425064087136e-01,3.528856277465820535e-01,1.000000000000000000e+00,1.000000000000000000e+00,1.000000000000000000e+00,1.000000000000000000e+00,1.000000000000000000e+00,1.000000000000000000e+00,1.000000000000000000e+00,1.000000000000000000e+00,1.000000000000000000e+00,1.000000000000000000e+00,1.000000000000000000e+00,1.000000000000000000e+00,1.000000000000000000e+00,1.000000000000000000e+00,1.000000000000000000e+00,1.000000000000000000e+00,1.000000000000000000e+00,1.000000000000000000e+00,1.000000000000000000e+00,1.000000000000000000e+00,1.000000000000000000e+00,1.000000000000000000e+00,1.000000000000000000e+00,1.000000000000000000e+00,1.000000000000000000e+00,1.000000000000000000e+00,1.000000000000000000e+00,1.000000000000000000e+00,1.000000000000000000e+00,1.000000000000000000e+00,1.000000000000000000e+00,1.000000000000000000e+00,1.000000000000000000e+00,1.000000000000000000e+00,1.000000000000000000e+00,1.000000000000000000e+00,9.684186935424804465e-01,9.367607116699219194e-01,9.071070671081542525e-01,8.792721748352050337e-01,8.530947685241698775e-01,8.284308433532714400e-01,8.051530838012694868e-01,7.831476688385009544e-01,7.623130321502685769e-01,7.425583362579345481e-01
6.199358463287353294e-01,6.356673717498779741e-01,6.522181034088134766e-01,6.696537494659423606e-01,6.880472183227539507e-01,7.074796676635741743e-01,7.280416488647460938e-01,7.498346328735351340e-01,7.729726314544678178e-01,7.975816726684570312e-01,8.238091468811035156e-01,8.518202781677246538e-01,8.818032264709472212e-01,9.139739036560058372e-01,9.485808372497558372e-01,9.859117507934570535e-01,1.000000000000000000e+00,1.000000000000000000e+00,1.000000000000000000e+00,1.000000000000000000e+00,1.000000000000000000e+00,3.027815341949463002e-01,2.996452331542968639e-01,3.048839330673217551e-01,3.172791242599487527e-01,3.175589084625244363e-01,3.178391456604003906e-01,3.250072002410888672e-01,3.400065898895263672e-01,3.352863788604736328e-01,3.334304332733154519e-01,3.343778371810913197e-01,3.365458488464355691e-01,3.494156599044799805e-01,1.000000000000000000e+00,1.000000000000000000e+00,1.000000000000000000e+00,1.000000000000000000e+00,1.000000000000000000e+00,1.000000000000000000e+00,1.000000000000000000e+00,1.000000000000000000e+00,1.000000000000000000e+00,1.000000000000000000e+00,1.000000000000000000e+00,1.000000000000000000e+00,1.000000000000000000e+00,1.000000000000000000e+00,1.000000000000000000e+00,1.000000000000000000e+00,1.000000000000000000e+00,1.000000000000000000e+00,1.000000000000000000e+00,1.000000000000000000e+00,1.000000000000000000e+00,1.000000000000000000e+00,1.000000000000000000e+00,1.000000000000000000e+00,1.000000000000000000e+00,1.000000000000000000e+00,1.000000000000000000e+00,1.000000000000000000e+00,1.000000000000000000e+00,1.000000000000000000e+00,1.000000000000000000e+00,1.000000000000000000e+00,1.000000000000000000e+00,1.000000000000000000e+00,1.000000000000000000e+00,1.000000000000000000e+00,9.684462547302246094e-01,9.367853164672851340e-01,9.071290016174315962e-01,8.792928695678711160e-01,8.531141281127929688e-01,8.284491539001465066e-01,8.051702499389647993e-01,7.831639289855957253e-01,7.623285770416259322e-01,7.425730228424072266e-01
6.199225902557372603e-01,6.356534957885742188e-01,6.522035121917724165e-01,6.696383953094482422e-01,6.880310058593750444e-01,7.074624538421631081e-01,7.280234813690185103e-01,7.498153209686279075e-01,7.729521274566650835e-01,7.975621223449707031e-01,8.237882614135741965e-01,8.517979621887207253e-01,8.817792892456054465e-01,9.139482498168944868e-01,9.485531806945800559e-01,9.858819007873534934e-01,1.000000000000000000e+00,1.000000000000000000e+00,1.000000000000000000e+00,1.000000000000000000e+00,1.000000000000000000e+00,3.002089023590087669e-01,2.966942310333252064e-01,3.167505264282226562e-01,3.024273633956909291e-01,3.170706987380981223e-01,3.173671245574951061e-01,3.243561983108520508e-01,3.399283647537231223e-01,3.349949359893799050e-01,3.323535919189453125e-01,3.334409236907959206e-01,3.344815492630004994e-01,3.467937469482421653e-01,1.000000000000000000e+00,1.000000000000000000e+00,1.000000000000000000e+00,1.000000000000000000e+00,1.000000000000000000e+00,1.000000000000000000e+00,1.000000000000000000e+00,1.000000000000000000e+00,1.000000000000000000e+00,1.000000000000000000e+00,1.000000000000000000e+00,1.000000000000000000e+00,1.000000000000000000e+00,1.000000000000000000e+00,1.000000000000000000e+00,1.000000000000000000e+00,1.000000000000000000e+00,1.000000000000000000e+00,1.000000000000000000e+00,1.000000000000000000e+00,1.000000000000000000e+00,1.000000000000000000e+00,1.000000000000000000e+00,1.000000000000000000e+00,1.000000000000000000e+00,1.000000000000000000e+00,1.000000000000000000e+00,1.000000000000000000e+00,1.000000000000000000e+00,1.000000000000000000e+00,1.000000000000000000e+00,1.000000000000000000e+00,1.000000000000000000e+00,1.000000000000000000e+00,1.000000000000000000e+00,1.000000000000000000e+00,9.684712409973144087e-01,9.368086814880370872e-01,9.071509361267089400e-01,8.793133735656738503e-01,8.531334877014160600e-01,8.284673690795898438e-01,8.051875114440918413e-01,7.831802845001221147e-01,7.623440742492675337e-01,7.425877094268799050e-01
6.199094295501709206e-01,6.356396675109863281e-01,6.521889209747314675e-01,6.696230411529541238e-01,6.880147457122802734e-01,7.074452877044677956e-01,7.280053138732910378e-01,7.497960567474365456e-01,7.729316711425781028e-01,7.975403308868408425e-01,8.237674713134766069e-01,8.517757415771484153e-01,8.817555427551269087e-01,9.139225959777832475e-01,9.485257148742676225e-01,9.858520507812500444e-01,1.000000000000000000e+00,1.000000000000000000e+00,1.000000000000000000e+00,1.000000000000000000e+00,1.000000000000000000e+00,3.019844770431518444e-01,3.288740396499633678e-01,3.170871257781982533e-01,3.164535284042358509e-01,3.165840387344360241e-01,3.170333147048950417e-01,3.240075588226318248e-01,3.404378652572631614e-01,3.345492839813232200e-01,3.309943675994873047e-01,3.325092554092407005e-01,3.335440635681152233e-01,3.447046756744384655e-01,1.000000000000000000e+00,1.000000000000000000e+00,1.000000000000000000e+00,1.000000000000000000e+00,1.000000000000000000e+00,1.000000000000000000e+00,1.000000000000000000e+00,1.000000000000000000e+00,1.000000000000000000e+00,1.000000000000000000e+00,1.000000000000000000e+00,1.000000000000000000e+00,1.000000000000000000e+00,1.000000000000000000e+00,1.000000000000000000e+00,1.000000000000000000e+00,1.000000000000000000e+00,1.000000000000000000e+00,1.000000000000000000e+00,1.000000000000000000e+00,1.000000000000000000e+00,1.000000000000000000e+00,1.000000000000000000e+00,1.000000000000000000e+00,1.000000000000000000e+00,1.000000000000000000e+00,1.000000000000000000e+00,1.000000000000000000e+00,1.000000000000000000e+00,1.000000000000000000e+00,1.000000000000000000e+00,1.000000000000000000e+00,1.000000000000000000e+00,1.000000000000000000e+00,1.000000000000000000e+00,1.000000000000000000e+00,9.684961318969727007e-01,9.368320465087890403e-01,9.071728706359862837e-01,8.793339729309082031e-01,8.531528472900390403e-01,8.284856796264647993e-01,8.052048683166503906e-01,7.831966400146483931e-01,7.623595714569091353e-01,7.426023483276367188e-01
6.198962688446044700e-01,6.356257915496825728e-01,6.521743297576904075e-01,6.696075916290282759e-01,6.879985332489013672e-01,7.074281215667724831e-01,7.279871940612793191e-01,7.497767925262450728e-01,7.729111194610596147e-01,7.975185394287109819e-01,8.237442970275878906e-01,8.517534255981444868e-01,8.817316055297851340e-01,9.138970375061035156e-01,9.484980583190918413e-01,9.858222007751464844e-01,1.000000000000000000e+00,1.000000000000000000e+00,1.000000000000000000e+00,1.000000000000000000e+00,1.000000000000000000e+00,2.989714622497558483e-01,3.332964658737182506e-01,3.184792995452880859e-01,3.161693096160888561e-01,3.161570549011230580e-01,3.167002201080322266e-01,3.233746767044067272e-01,3.407360076904296653e-01,3.340863466262817272e-01,3.296462297439575195e-01,3.311934232711791770e-01,3.326118230819702370e-01,3.430289506912231334e-01,1.000000000000000000e+00,1.000000000000000000e+00,1.000000000000000000e+00,1.000000000000000000e+00,1.000000000000000000e+00,1.000000000000000000e+00,1.000000000000000000e+00,1.000000000000000000e+00,1.000000000000000000e+00,1.000000000000000000e+00,1.000000000000000000e+00,1.000000000000000000e+00,1.000000000000000000e+00,1.000000000000000000e+00,1.000000000000000000e+00,1.000000000000000000e+00,1.000000000000000000e+00,1.000000000000000000e+00,1.000000000000000000e+00,1.000000000000000000e+00,1.000000000000000000e+00,1.000000000000000000e+00,1.000000000000000000e+00,1.000000000000000000e+00,1.000000000000000000e+00,1.000000000000000000e+00,1.000000000000000000e+00,1.000000000000000000e+00,1.000000000000000000e+00,1.000000000000000000e+00,1.000000000000000000e+00,1.000000000000000000e+00,1.000000000000000000e+00,1.000000000000000000e+00,1.000000000000000000e+00,1.000000000000000000e+00,9.685212135314941184e-01,9.368554115295409934e-01,9.071948051452636275e-01,8.793545722961425559e-01,8.531722068786621316e-01,8.285039901733398660e-01,8.052220344543457031e-01,7.832129955291747825e-01,7.623749732971191184e-01,7.426170825958251509e-01
6.198831081390381303e-01,6.356119155883789285e-01,6.521597862243652122e-01,6.695922374725341575e-01,6.879823207855224609e-01,7.074110031127929243e-01,7.279689311981201172e-01,7.497575283050537109e-01,7.728906154632568803e-01,7.974967479705810103e-01,8.237210273742675559e-01,8.517286300659179243e-01,8.817077636718749778e-01,9.138713836669921653e-01,9.484704017639160600e-01,9.857924461364746538e-01,1.000000000000000000e+00,1.000000000000000000e+00,1.000000000000000000e+00,1.000000000000000000e+00,1.000000000000000000e+00,2.982937574386596569e-01,1.000000000000000000e+00,3.198837995529174583e-01,3.158576726913452370e-01,3.158684492111206166e-01,3.163394212722778209e-01,3.226377725601196067e-01,3.410346984863281139e-01,3.336157560348510520e-01,3.286059856414794700e-01,3.298844099044799805e-01,3.314537286758422741e-01,3.413694143295288308e-01,1.000000000000000000e+00,1.000000000000000000e+00,1.000000000000000000e+00,1.000000000000000000e+00,1.000000000000000000e+00,1.000000000000000000e+00,1.000000000000000000e+00,1.000000000000000000e+00,1.000000000000000000e+00,1.000000000000000000e+00,1.000000000000000000e+00,1.000000000000000000e+00,1.000000000000000000e+00,1.000000000000000000e+00,1.000000000000000000e+00,1.000000000000000000e+00,1.000000000000000000e+00,1.000000000000000000e+00,1.000000000000000000e+00,1.000000000000000000e+00,1.000000000000000000e+00,1.000000000000000000e+00,1.000000000000000000e+00,1.000000000000000000e+00,1.000000000000000000e+00,1.000000000000000000e+00,1.000000000000000000e+00,1.000000000000000000e+00,1.000000000000000000e+00,1.000000000000000000e+00,1.000000000000000000e+00,1.000000000000000000e+00,1.000000000000000000e+00,1.000000000000000000e+00,1.000000000000000000e+00,1.000000000000000000e+00,9.685461044311522993e-01,9.368788719177245650e-01,9.072166442871093528e-01,8.793751716613769087e-01,8.531916618347168413e-01,8.285222053527832031e-01,8.052393913269042525e-01,7.832293033599853072e-01,7.623904705047607200e-01,7.426317691802978294e-01
6.198698997497558150e-01,6.355980396270751731e-01,6.521451950073242632e-01,6.695768833160400391e-01,6.879661083221435547e-01,7.073938369750976118e-01,7.279507637023925337e-01,7.497382640838623491e-01,7.728701591491698997e-01,7.974749565124511497e-01,8.236976623535156028e-01,8.517037391662597434e-01,8.816812515258789507e-01,9.138458251953125444e-01,9.484428405761718972e-01,9.857625961303710938e-01,1.000000000000000000e+00,1.000000000000000000e+00,1.000000000000000000e+00,1.000000000000000000e+00,1.000000000000000000e+00,1.000000000000000000e+00,1.000000000000000000e+00,3.214731693267822155e-01,3.152254104614257701e-01,3.152361631393432728e-01,3.159576892852783425e-01,3.220733642578125222e-01,3.428666591644287109e-01,3.328315734863281361e-01,3.280941247940063477e-01,3.287584304809570424e-01,3.303170680999755748e-01,3.379611968994140625e-01,1.000000000000000000e+00,1.000000000000000000e+00,1.000000000000000000e+00,1.000000000000000000e+00,1.000000000000000000e+00,1.000000000000000000e+00,1.000000000000000000e+00,1.000000000000000000e+00,1.000000000000000000e+00,1.000000000000000000e+00,1.000000000000000000e+00,1.000000000000000000e+00,1.000000000000000000e+00,1.000000000000000000e+00,1.000000000000000000e+00,1.000000000000000000e+00,1.000000000000000000e+00,1.000000000000000000e+00,1.000000000000000000e+00,1.000000000000000000e+00,1.000000000000000000e+00,1.000000000000000000e+00,1.000000000000000000e+00,1.000000000000000000e+00,1.000000000000000000e+00,1.000000000000000000e+00,1.000000000000000000e+00,1.000000000000000000e+00,1.000000000000000000e+00,1.000000000000000000e+00,1.000000000000000000e+00,1.000000000000000000e+00,1.000000000000000000e+00,1.000000000000000000e+00,1.000000000000000000e+00,1.000000000000000000e+00,9.685711860656738281e-01,9.369021415710448997e-01,9.072386741638183150e-01,8.793957710266113725e-01,8.532110214233398215e-01,8.285405158996581587e-01,8.052566528320312944e-01,7.832456588745116965e-01,7.624059677124023215e-01,7.426464080810546431e-01
6.198567390441894753e-01,6.355842113494872825e-01,6.521306037902832031e-01,6.695614814758300559e-01,6.879498004913330300e-01,7.073767185211181641e-01,7.279325962066650613e-01,7.497189998626708762e-01,7.728496551513671653e-01,7.974530220031738059e-01,8.236744880676269975e-01,8.516789436340331809e-01,8.816546440124511941e-01,9.138174057006835938e-01,9.484151840209961160e-01,9.857328414916992632e-01,1.000000000000000000e+00,1.000000000000000000e+00,1.000000000000000000e+00,1.000000000000000000e+00,1.000000000000000000e+00,1.000000000000000000e+00,1.000000000000000000e+00,3.231233596801758035e-01,3.149264335632324108e-01,3.146064281463623047e-01,3.156053304672241100e-01,3.217072010040283314e-01,3.445663690567016824e-01,3.318329095840454324e-01,3.276080846786498801e-01,3.270783662796020730e-01,3.291881322860717995e-01,3.344006299972533958e-01,3.783231019973755105e-01,1.000000000000000000e+00,1.000000000000000000e+00,1.000000000000000000e+00,1.000000000000000000e+00,1.000000000000000000e+00,1.000000000000000000e+00,1.000000000000000000e+00,1.000000000000000000e+00,1.000000000000000000e+00,1.000000000000000000e+00,1.000000000000000000e+00,1.000000000000000000e+00,1.000000000000000000e+00,1.000000000000000000e+00,1.000000000000000000e+00,1.000000000000000000e+00,1.000000000000000000e+00,1.000000000000000000e+00,1.000000000000000000e+00,1.000000000000000000e+00,1.000000000000000000e+00,1.000000000000000000e+00,1.000000000000000000e+00,1.000000000000000000e+00,1.000000000000000000e+00,1.000000000000000000e+00,1.000000000000000000e+00,1.000000000000000000e+00,1.000000000000000000e+00,1.000000000000000000e+00,1.000000000000000000e+00,1.000000000000000000e+00,1.000000000000000000e+00,1.000000000000000000e+00,1.000000000000000000e+00,9.685960769653320090e-01,9.369256019592284712e-01,9.072605133056640403e-01,8.794163703918457253e-01,8.532304763793945312e-01,8.285588264465332253e-01,8.052739143371582253e-01,7.832620143890380859e-01,7.624214172363281694e-01,7.426610946655273215e-01
6.198358058929442915e-01,6.355667591094971147e-01,6.521159648895263894e-01,6.695461273193359375e-01,6.879335880279541238e-01,7.073595523834228516e-01,7.279144287109374778e-01,7.496996402740478960e-01,7.728291988372802956e-01,7.974312305450439453e-01,8.236512184143066628e-01,8.516540527343750000e-01,8.816279411315918191e-01,9.137887001037597878e-01,9.483846664428711160e-01,9.857029914855957031e-01,1.000000000000000000e+00,1.000000000000000000e+00,1.000000000000000000e+00,1.000000000000000000e+00,1.000000000000000000e+00,1.000000000000000000e+00,1.000000000000000000e+00,3.266991853713989147e-01,3.148082494735717773e-01,3.139791965484619030e-01,3.152537345886230469e-01,3.210177659988403542e-01,1.000000000000000000e+00,3.308402061462402122e-01,3.271234512329101451e-01,3.253081798553466575e-01,3.277149438858032449e-01,3.309142589569091797e-01,3.840713500976562500e-01,1.000000000000000000e+00,1.000000000000000000e+00,1.000000000000000000e+00,1.000000000000000000e+00,1.000000000000000000e+00,1.000000000000000000e+00,1.000000000000000000e+00,1.000000000000000000e+00,1.000000000000000000e+00,1.000000000000000000e+00,1.000000000000000000e+00,1.000000000000000000e+00,1.000000000000000000e+00,1.000000000000000000e+00,1.000000000000000000e+00,1.000000000000000000e+00,1.000000000000000000e+00,1.000000000000000000e+00,1.000000000000000000e+00,1.000000000000000000e+00,1.000000000000000000e+00,1.000000000000000000e+00,1.000000000000000000e+00,1.000000000000000000e+00,1.000000000000000000e+00,1.000000000000000000e+00,1.000000000000000000e+00,1.000000000000000000e+00,1.000000000000000000e+00,1.000000000000000000e+00,1.000000000000000000e+00,1.000000000000000000e+00,1.000000000000000000e+00,1.000000000000000000e+00,1.000000000000000000e+00,9.686211585998535378e-01,9.369489669799804243e-01,9.072824478149413840e-01,8.794369697570800781e-01,8.532498359680176225e-01,8.285771369934081809e-01,8.052911758422851562e-01,7.832782745361328569e-01,7.624369144439697710e-01,7.426758289337158647e-01
6.198127269744873047e-01,6.355424880981445090e-01,6.520914554595946822e-01,6.695252895355224831e-01,6.879169464111327681e-01,7.073423862457275391e-01,7.278962612152100053e-01,7.496803760528564231e-01,7.728087425231933150e-01,7.974094390869140847e-01,8.236279487609863281e-01,8.516291618347168191e-01,8.816012382507324441e-01,9.137600898742676003e-01,9.483538627624511497e-01,9.856699943542480691e-01,1.000000000000000000e+00,1.000000000000000000e+00,1.000000000000000000e+00,1.000000000000000000e+00,1.000000000000000000e+00,1.000000000000000000e+00,1.000000000000000000e+00,3.294319391250610241e-01,3.150742053985595703e-01,3.135083675384521262e-01,3.149029493331909069e-01,3.201295614242553600e-01,1.000000000000000000e+00,3.298890352249145286e-01,3.266216039657592884e-01,3.237056732177734375e-01,3.261215925216675027e-01,3.285110950469970481e-01,1.000000000000000000e+00,1.000000000000000000e+00,1.000000000000000000e+00,1.000000000000000000e+00,1.000000000000000000e+00,1.000000000000000000e+00,1.000000000000000000e+00,1.000000000000000000e+00,1.000000000000000000e+00,1.000000000000000000e+00,1.000000000000000000e+00,1.000000000000000000e+00,1.000000000000000000e+00,1.000000000000000000e+00,1.000000000000000000e+00,1.000000000000000000e+00,1.000000000000000000e+00,1.000000000000000000e+00,1.000000000000000000e+00,1.000000000000000000e+00,1.000000000000000000e+00,1.000000000000000000e+00,1.000000000000000000e+00,1.000000000000000000e+00,1.000000000000000000e+00,1.000000000000000000e+00,1.000000000000000000e+00,1.000000000000000000e+00,1.000000000000000000e+00,1.000000000000000000e+00,1.000000000000000000e+00,1.000000000000000000e+00,1.000000000000000000e+00,1.000000000000000000e+00,1.000000000000000000e+00,1.000000000000000000e+00,9.686460494995117188e-01,9.369723320007323775e-01,9.073043823242187278e-01,8.794575691223144309e-01,8.532691955566406028e-01,8.285953521728515181e-01,8.053084373474120872e-01,7.832946300506591353e-01,7.624524116516113725e-01,7.426905632019042969e-01
6.197918891906738503e-01,6.355181694030761497e-01,6.520659446716308150e-01,6.694983959197997603e-01,6.878885269165039285e-01,7.073174953460693581e-01,7.278759002685546431e-01,7.496611595153808150e-01,7.727882862091064453e-01,7.973876476287842241e-01,8.236046791076659934e-01,8.516042709350586382e-01,8.815746307373046875e-01,9.137314796447754128e-01,9.483229637145995650e-01,9.856367111206054688e-01,1.000000000000000000e+00,1.000000000000000000e+00,1.000000000000000000e+00,1.000000000000000000e+00,1.000000000000000000e+00,1.000000000000000000e+00,1.000000000000000000e+00,1.000000000000000000e+00,3.169192314147949441e-01,3.133912324905395730e-01,3.143430709838866965e-01,3.192461967468261941e-01,1.000000000000000000e+00,3.331927061080932617e-01,3.261314630508422852e-01,3.232084989547729381e-01,3.252565860748291016e-01,3.278545379638672097e-01,1.000000000000000000e+00,1.000000000000000000e+00,1.000000000000000000e+00,1.000000000000000000e+00,1.000000000000000000e+00,1.000000000000000000e+00,1.000000000000000000e+00,1.000000000000000000e+00,1.000000000000000000e+00,1.000000000000000000e+00,1.000000000000000000e+00,1.000000000000000000e+00,1.000000000000000000e+00,1.000000000000000000e+00,1.000000000000000000e+00,1.000000000000000000e+00,1.000000000000000000e+00,1.000000000000000000e+00,1.000000000000000000e+00,1.000000000000000000e+00,1.000000000000000000e+00,1.000000000000000000e+00,1.000000000000000000e+00,1.000000000000000000e+00,1.000000000000000000e+00,1.000000000000000000e+00,1.000000000000000000e+00,1.000000000000000000e+00,1.000000000000000000e+00,1.000000000000000000e+00,1.000000000000000000e+00,1.000000000000000000e+00,1.000000000000000000e+00,1.000000000000000000e+00,1.000000000000000000e+00,1.000000000000000000e+00,9.686710357666015181e-01,9.369956970214843306e-01,9.073263168334960715e-01,8.794781684875487837e-01,8.532885551452636941e-01,8.286136627197265847e-01,8.053256988525390181e-01,7.833110332489013894e-01,7.624679088592529741e-01,7.427051544189453569e-01
6.197785854339599165e-01,6.355020999908447266e-01,6.520442008972168191e-01,6.694714069366455300e-01,6.878600597381592241e-01,7.072873592376709428e-01,7.278440475463867632e-01,7.496313095092773660e-01,7.727633476257323997e-01,7.973658561706542525e-01,8.235814094543456587e-01,8.515793800354003462e-01,8.815480232238769309e-01,9.137028694152832253e-01,9.482921600341797097e-01,9.856033325195312500e-01,1.000000000000000000e+00,1.000000000000000000e+00,1.000000000000000000e+00,1.000000000000000000e+00,1.000000000000000000e+00,1.000000000000000000e+00,1.000000000000000000e+00,1.000000000000000000e+00,3.190263271331786887e-01,3.139400720596313699e-01,3.150702238082885853e-01,3.196554183959960938e-01,1.000000000000000000e+00,3.302690505981445424e-01,3.269675970077514648e-01,3.244155406951904075e-01,3.265334606170654519e-01,3.322012662887573464e-01,1.000000000000000000e+00,1.000000000000000000e+00,1.000000000000000000e+00,1.000000000000000000e+00,1.000000000000000000e+00,1.000000000000000000e+00,1.000000000000000000e+00,1.000000000000000000e+00,1.000000000000000000e+00,1.000000000000000000e+00,1.000000000000000000e+00,1.000000000000000000e+00,1.000000000000000000e+00,1.000000000000000000e+00,1.000000000000000000e+00,1.000000000000000000e+00,1.000000000000000000e+00,1.000000000000000000e+00,1.000000000000000000e+00,1.000000000000000000e+00,1.000000000000000000e+00,1.000000000000000000e+00,1.000000000000000000e+00,1.000000000000000000e+00,1.000000000000000000e+00,1.000000000000000000e+00,1.000000000000000000e+00,1.000000000000000000e+00,1.000000000000000000e+00,1.000000000000000000e+00,1.000000000000000000e+00,1.000000000000000000e+00,1.000000000000000000e+00,1.000000000000000000e+00,1.000000000000000000e+00,1.000000000000000000e+00,9.686961174011230469e-01,9.370190620422362837e-01,9.073482513427734153e-01,8.794987678527832475e-01,8.533079147338866743e-01,8.286319732666015403e-01,8.053429603576660600e-01,7.833273887634277788e-01,7.624833583831787109e-01,7.427198886871337891e-01
6.197653770446777122e-01,6.354881763458252175e-01,6.520295143127441406e-01,6.694549560546875222e-01,6.878373622894287109e-01,7.072577953338623491e-01,7.278121948242187722e-01,7.495975971221924272e-01,7.727273941040039285e-01,7.973300457000732644e-01,8.235508918762206587e-01,8.515545845031737837e-01,8.815213203430175559e-01,9.136741638183594194e-01,9.482612609863281250e-01,9.855700492858886497e-01,1.000000000000000000e+00,1.000000000000000000e+00,1.000000000000000000e+00,1.000000000000000000e+00,1.000000000000000000e+00,1.000000000000000000e+00,1.000000000000000000e+00,3.303298234939575084e-01,3.195026397705078014e-01,3.150888442993163840e-01,3.164599895477294700e-01,3.207933425903320424e-01,1.000000000000000000e+00,3.321385383605957031e-01,3.287997722625732311e-01,3.268593788146972878e-01,3.288480758666992299e-01,1.000000000000000000e+00,1.000000000000000000e+00,1.000000000000000000e+00,1.000000000000000000e+00,1.000000000000000000e+00,1.000000000000000000e+00,1.000000000000000000e+00,1.000000000000000000e+00,1.000000000000000000e+00,1.000000000000000000e+00,1.000000000000000000e+00,1.000000000000000000e+00,1.000000000000000000e+00,1.000000000000000000e+00,1.000000000000000000e+00,1.000000000000000000e+00,1.000000000000000000e+00,1.000000000000000000e+00,1.000000000000000000e+00,1.000000000000000000e+00,1.000000000000000000e+00,1.000000000000000000e+00,1.000000000000000000e+00,1.000000000000000000e+00,1.000000000000000000e+00,1.000000000000000000e+00,1.000000000000000000e+00,1.000000000000000000e+00,1.000000000000000000e+00,1.000000000000000000e+00,1.000000000000000000e+00,1.000000000000000000e+00,1.000000000000000000e+00,1.000000000000000000e+00,1.000000000000000000e+00,1.000000000000000000e+00,1.000000000000000000e+00,9.687210083007812278e-01,9.370425224304199663e-01,9.073701858520507590e-01,8.795193672180176003e-01,8.533273696899413840e-01,8.286501884460448775e-01,8.053602218627929910e-01,7.833436489105224387e-01,7.624988555908203125e-01,7.427345752716064675e-01
6.197521209716796431e-01,6.354742527008057085e-01,6.520148754119873269e-01,6.694394588470459206e-01,6.878210544586181863e-01,7.072405815124511719e-01,7.277884483337402344e-01,7.495661258697510210e-01,7.726915359497070757e-01,7.972918987274170144e-01,8.235100746154785378e-01,8.515113830566406472e-01,8.814838409423828569e-01,9.136432647705078347e-01,9.482304573059081587e-01,9.855367660522460493e-01,1.000000000000000000e+00,1.000000000000000000e+00,1.000000000000000000e+00,1.000000000000000000e+00,1.000000000000000000e+00,1.000000000000000000e+00,3.393159866333007590e-01,3.297236442565917858e-01,3.222149133682251088e-01,3.175091266632080189e-01,3.203863620758056752e-01,3.250380992889404519e-01,1.000000000000000000e+00,3.340292930603027122e-01,3.296755790710449441e-01,3.296151638031005748e-01,3.313206434249877930e-01,1.000000000000000000e+00,1.000000000000000000e+00,1.000000000000000000e+00,1.000000000000000000e+00,1.000000000000000000e+00,1.000000000000000000e+00,1.000000000000000000e+00,1.000000000000000000e+00,1.000000000000000000e+00,1.000000000000000000e+00,1.000000000000000000e+00,1.000000000000000000e+00,1.000000000000000000e+00,1.000000000000000000e+00,1.000000000000000000e+00,1.000000000000000000e+00,1.000000000000000000e+00,1.000000000000000000e+00,1.000000000000000000e+00,1.000000000000000000e+00,1.000000000000000000e+00,1.000000000000000000e+00,1.000000000000000000e+00,1.000000000000000000e+00,1.000000000000000000e+00,1.000000000000000000e+00,1.000000000000000000e+00,1.000000000000000000e+00,1.000000000000000000e+00,1.000000000000000000e+00,1.000000000000000000e+00,1.000000000000000000e+00,1.000000000000000000e+00,1.000000000000000000e+00,1.000000000000000000e+00,1.000000000000000000e+00,1.000000000000000000e+00,9.687460899353027566e-01,9.370657920837401900e-01,9.073920249938964844e-01,8.795399665832519531e-01,8.533467292785644753e-01,8.286684989929199441e-01,8.053774833679199219e-01,7.833600044250488281e-01,7.625146389007568803e-01,7.427503108978271706e-01
6.197388648986816850e-01,6.354602813720703347e-01,6.520001888275146484e-01,6.694240570068359375e-01,6.878046989440917969e-01,7.072232723236083762e-01,7.277702331542968972e-01,7.495467662811279297e-01,7.726666450500487837e-01,7.972582817077636941e-01,8.234693527221679243e-01,8.514677047729491965e-01,8.814371109008789507e-01,9.135931015014648882e-01,9.481841087341308372e-01,9.854976654052733931e-01,1.000000000000000000e+00,1.000000000000000000e+00,1.000000000000000000e+00,1.000000000000000000e+00,1.000000000000000000e+00,1.000000000000000000e+00,3.424084424972534402e-01,3.339533090591430553e-01,3.297437667846679910e-01,3.251103401184082253e-01,3.310517072677612305e-01,1.000000000000000000e+00,1.000000000000000000e+00,3.352761983871460072e-01,3.324116230010986106e-01,3.324178218841552512e-01,3.375923156738281361e-01,1.000000000000000000e+00,1.000000000000000000e+00,1.000000000000000000e+00,1.000000000000000000e+00,1.000000000000000000e+00,1.000000000000000000e+00,1.000000000000000000e+00,1.000000000000000000e+00,1.000000000000000000e+00,1.000000000000000000e+00,1.000000000000000000e+00,1.000000000000000000e+00,1.000000000000000000e+00,1.000000000000000000e+00,1.000000000000000000e+00,1.000000000000000000e+00,1.000000000000000000e+00,1.000000000000000000e+00,1.000000000000000000e+00,1.000000000000000000e+00,1.000000000000000000e+00,1.000000000000000000e+00,1.000000000000000000e+00,1.000000000000000000e+00,1.000000000000000000e+00,1.000000000000000000e+00,1.000000000000000000e+00,1.000000000000000000e+00,1.000000000000000000e+00,1.000000000000000000e+00,1.000000000000000000e+00,1.000000000000000000e+00,1.000000000000000000e+00,1.000000000000000000e+00,1.000000000000000000e+00,1.000000000000000000e+00,1.000000000000000000e+00,9.687709808349609375e-01,9.370892524719238725e-01,9.074140548706054465e-01,8.795605659484863059e-01,8.533660888671874556e-01,8.286868095397948997e-01,8.053956031799316406e-01,7.833779335021973100e-01,7.625321388244629128e-01,7.427668094635009322e-01
6.197256088256836160e-01,6.354464054107665794e-01,6.519855499267578347e-01,6.694085597991943359e-01,6.877884387969970259e-01,7.072060585021973100e-01,7.277519226074218306e-01,7.495273590087890847e-01,7.726460933685302956e-01,7.972362995147704856e-01,8.234432220458984819e-01,8.514317512512207253e-01,8.813903808593750444e-01,9.135428428649902122e-01,9.481300354003906472e-01,9.854392051696777566e-01,1.000000000000000000e+00,1.000000000000000000e+00,1.000000000000000000e+00,1.000000000000000000e+00,1.000000000000000000e+00,1.000000000000000000e+00,3.470710277557372825e-01,3.401602983474731334e-01,3.376329183578491433e-01,3.453078985214233509e-01,1.000000000000000000e+00,1.000000000000000000e+00,1.000000000000000000e+00,3.354121446609497070e-01,3.341029644012450950e-01,3.347131729125976674e-01,3.424069166183471569e-01,1.000000000000000000e+00,1.000000000000000000e+00,1.000000000000000000e+00,1.000000000000000000e+00,1.000000000000000000e+00,1.000000000000000000e+00,1.000000000000000000e+00,1.000000000000000000e+00,1.000000000000000000e+00,1.000000000000000000e+00,1.000000000000000000e+00,1.000000000000000000e+00,1.000000000000000000e+00,1.000000000000000000e+00,1.000000000000000000e+00,1.000000000000000000e+00,1.000000000000000000e+00,1.000000000000000000e+00,1.000000000000000000e+00,1.000000000000000000e+00,1.000000000000000000e+00,1.000000000000000000e+00,1.000000000000000000e+00,1.000000000000000000e+00,1.000000000000000000e+00,1.000000000000000000e+00,1.000000000000000000e+00,1.000000000000000000e+00,1.000000000000000000e+00,1.000000000000000000e+00,1.000000000000000000e+00,1.000000000000000000e+00,1.000000000000000000e+00,1.000000000000000000e+00,1.000000000000000000e+00,1.000000000000000000e+00,1.000000000000000000e+00,9.687960624694824663e-01,9.371126174926758257e-01,9.074358940124511719e-01,8.795816421508788618e-01,8.533868789672851562e-01,8.287073135375976340e-01,8.054150581359863503e-01,7.833964347839355025e-01,7.625495433807373269e-01,7.427834033966064231e-01
6.197124004364014116e-01,6.354324340820312056e-01,6.519708156585692915e-01,6.693931102752685991e-01,6.877720832824707475e-01,7.071887493133545144e-01,7.277336597442627397e-01,7.495079040527343750e-01,7.726254463195800781e-01,7.972144126892090066e-01,8.234198570251465288e-01,8.514066696166991965e-01,8.813629150390625000e-01,9.135041236877441406e-01,9.480780601501465066e-01,9.853808403015136275e-01,1.000000000000000000e+00,1.000000000000000000e+00,1.000000000000000000e+00,1.000000000000000000e+00,1.000000000000000000e+00,1.000000000000000000e+00,3.520364284515380970e-01,3.459314823150634877e-01,3.461055040359496959e-01,1.000000000000000000e+00,1.000000000000000000e+00,1.000000000000000000e+00,3.474378347396850364e-01,3.351989507675171009e-01,3.345564365386962669e-01,3.351683378219604270e-01,1.000000000000000000e+00,1.000000000000000000e+00,1.000000000000000000e+00,1.000000000000000000e+00,1.000000000000000000e+00,1.000000000000000000e+00,1.000000000000000000e+00,1.000000000000000000e+00,1.000000000000000000e+00,1.000000000000000000e+00,1.000000000000000000e+00,1.000000000000000000e+00,1.000000000000000000e+00,1.000000000000000000e+00,1.000000000000000000e+00,1.000000000000000000e+00,1.000000000000000000e+00,1.000000000000000000e+00,1.000000000000000000e+00,1.000000000000000000e+00,1.000000000000000000e+00,1.000000000000000000e+00,1.000000000000000000e+00,1.000000000000000000e+00,1.000000000000000000e+00,1.000000000000000000e+00,1.000000000000000000e+00,1.000000000000000000e+00,1.000000000000000000e+00,1.000000000000000000e+00,1.000000000000000000e+00,1.000000000000000000e+00,1.000000000000000000e+00,1.000000000000000000e+00,1.000000000000000000e+00,1.000000000000000000e+00,1.000000000000000000e+00,1.000000000000000000e+00,9.688210487365722656e-01,9.371371269226074219e-01,9.074601173400879128e-01,8.796049118041991965e-01,8.534088134765625000e-01,8.287280082702637163e-01,8.054345130920410600e-01,7.834147930145263228e-01,7.625670433044433594e-01,7.427999496459960493e-01
6.196990966796874778e-01,6.354185581207275613e-01,6.519562244415283425e-01,6.693776607513427512e-01,6.877557754516601118e-01,7.071715354919433372e-01,7.277153968811035378e-01,7.494885921478271484e-01,7.726048946380614790e-01,7.971924304962157981e-01,8.233964920043945757e-01,8.513816833496093972e-01,8.813361167907715066e-01,9.134753227233887163e-01,9.480470657348633035e-01,9.853386878967285156e-01,1.000000000000000000e+00,1.000000000000000000e+00,1.000000000000000000e+00,1.000000000000000000e+00,1.000000000000000000e+00,3.673075199127197044e-01,3.571984767913818359e-01,3.519018650054931419e-01,3.586857795715331920e-01,1.000000000000000000e+00,1.000000000000000000e+00,1.000000000000000000e+00,3.445254087448120228e-01,3.351249217987060658e-01,3.348968744277954213e-01,3.356247186660766824e-01,1.000000000000000000e+00,1.000000000000000000e+00,1.000000000000000000e+00,1.000000000000000000e+00,1.000000000000000000e+00,1.000000000000000000e+00,1.000000000000000000e+00,1.000000000000000000e+00,1.000000000000000000e+00,1.000000000000000000e+00,1.000000000000000000e+00,1.000000000000000000e+00,1.000000000000000000e+00,1.000000000000000000e+00,1.000000000000000000e+00,1.000000000000000000e+00,1.000000000000000000e+00,1.000000000000000000e+00,1.000000000000000000e+00,1.000000000000000000e+00,1.000000000000000000e+00,1.000000000000000000e+00,1.000000000000000000e+00,1.000000000000000000e+00,1.000000000000000000e+00,1.000000000000000000e+00,1.000000000000000000e+00,1.000000000000000000e+00,1.000000000000000000e+00,1.000000000000000000e+00,1.000000000000000000e+00,1.000000000000000000e+00,1.000000000000000000e+00,1.000000000000000000e+00,1.000000000000000000e+00,1.000000000000000000e+00,1.000000000000000000e+00,1.000000000000000000e+00,9.688491821289062500e-01,9.371635437011718306e-01,9.074847221374511275e-01,8.796280860900879128e-01,8.534306526184082253e-01,8.287485122680664507e-01,8.054540634155273882e-01,7.834331989288330078e-01,7.625844478607177734e-01,7.428165435791015403e-01
6.196858882904052734e-01,6.354045867919921875e-01,6.519415378570556641e-01,6.693622112274170144e-01,6.877394199371338335e-01,7.071542739868164062e-01,7.276971340179443359e-01,7.494691848754883035e-01,7.725842475891113725e-01,7.971705436706543191e-01,8.233731269836426225e-01,8.513566970825194868e-01,8.813093185424805132e-01,9.134465217590331809e-01,9.480160713195801003e-01,9.853052139282226785e-01,1.000000000000000000e+00,1.000000000000000000e+00,1.000000000000000000e+00,1.000000000000000000e+00,1.000000000000000000e+00,3.735602617263794056e-01,3.632926940917968750e-01,3.601635694503784180e-01,1.000000000000000000e+00,1.000000000000000000e+00,1.000000000000000000e+00,1.000000000000000000e+00,3.416614294052123801e-01,3.350509643554687722e-01,3.352280139923095592e-01,3.360823392868041992e-01,1.000000000000000000e+00,1.000000000000000000e+00,1.000000000000000000e+00,1.000000000000000000e+00,1.000000000000000000e+00,1.000000000000000000e+00,1.000000000000000000e+00,1.000000000000000000e+00,1.000000000000000000e+00,1.000000000000000000e+00,1.000000000000000000e+00,1.000000000000000000e+00,1.000000000000000000e+00,1.000000000000000000e+00,1.000000000000000000e+00,1.000000000000000000e+00,1.000000000000000000e+00,1.000000000000000000e+00,1.000000000000000000e+00,1.000000000000000000e+00,1.000000000000000000e+00,1.000000000000000000e+00,1.000000000000000000e+00,1.000000000000000000e+00,1.000000000000000000e+00,1.000000000000000000e+00,1.000000000000000000e+00,1.000000000000000000e+00,1.000000000000000000e+00,1.000000000000000000e+00,1.000000000000000000e+00,1.000000000000000000e+00,1.000000000000000000e+00,1.000000000000000000e+00,1.000000000000000000e+00,1.000000000000000000e+00,1.000000000000000000e+00,1.000000000000000000e+00,9.688774108886718528e-01,9.371898651123047319e-01,9.075095176696776900e-01,8.796513557434082475e-01,8.534524917602539507e-01,8.287692070007324219e-01,8.054735183715819868e-01,7.834516525268554465e-01,7.626018524169921875e-01,7.428330898284911665e-01
6.196726322174072044e-01,6.353906631469726785e-01,6.519268035888672319e-01,6.693467140197754128e-01,6.877231597900390625e-01,7.071370601654052290e-01,7.276788234710693803e-01,7.494498252868652122e-01,7.725637435913086382e-01,7.971486091613769753e-01,8.233496665954589400e-01,8.513317108154296875e-01,8.812825202941894087e-01,9.134177207946777566e-01,9.479850769042968972e-01,9.852717399597168413e-01,1.000000000000000000e+00,1.000000000000000000e+00,1.000000000000000000e+00,1.000000000000000000e+00,1.000000000000000000e+00,3.833916425704956277e-01,3.722751140594482422e-01,3.745383739471435658e-01,1.000000000000000000e+00,1.000000000000000000e+00,1.000000000000000000e+00,1.000000000000000000e+00,3.395859479904174694e-01,3.350378036499023215e-01,3.355597734451293834e-01,3.365412473678588978e-01,1.000000000000000000e+00,1.000000000000000000e+00,1.000000000000000000e+00,1.000000000000000000e+00,1.000000000000000000e+00,1.000000000000000000e+00,1.000000000000000000e+00,1.000000000000000000e+00,1.000000000000000000e+00,1.000000000000000000e+00,1.000000000000000000e+00,1.000000000000000000e+00,1.000000000000000000e+00,1.000000000000000000e+00,1.000000000000000000e+00,1.000000000000000000e+00,1.000000000000000000e+00,1.000000000000000000e+00,1.000000000000000000e+00,1.000000000000000000e+00,1.000000000000000000e+00,1.000000000000000000e+00,1.000000000000000000e+00,1.000000000000000000e+00,1.000000000000000000e+00,1.000000000000000000e+00,1.000000000000000000e+00,1.000000000000000000e+00,1.000000000000000000e+00,1.000000000000000000e+00,1.000000000000000000e+00,1.000000000000000000e+00,1.000000000000000000e+00,1.000000000000000000e+00,1.000000000000000000e+00,1.000000000000000000e+00,1.000000000000000000e+00,1.000000000000000000e+00,9.689055442810058372e-01,9.372162818908691406e-01,9.075342178344726340e-01,8.796745300292968528e-01,8.534744262695312944e-01,8.287898063659667747e-01,8.054929733276366965e-01,7.834700584411621316e-01,7.626194000244140847e-01,7.428496837615966575e-01
6.196593761444091353e-01,6.353767395019531694e-01,6.519122123718261719e-01,6.693313121795654297e-01,6.877068042755126731e-01,7.071197509765625444e-01,7.276606082916259322e-01,7.494304180145263672e-01,7.725430965423584206e-01,7.971267223358153853e-01,8.233263015747069868e-01,8.513067245483398882e-01,8.812557220458984153e-01,9.133889198303222212e-01,9.479540824890136941e-01,9.852382659912108931e-01,1.000000000000000000e+00,1.000000000000000000e+00,1.000000000000000000e+00,1.000000000000000000e+00,1.000000000000000000e+00,3.868379592895507812e-01,3.843702793121338002e-01,1.000000000000000000e+00,1.000000000000000000e+00,1.000000000000000000e+00,1.000000000000000000e+00,1.000000000000000000e+00,3.400599479675293080e-01,3.354587078094482533e-01,3.360384464263915794e-01,3.387008190155029186e-01,1.000000000000000000e+00,1.000000000000000000e+00,1.000000000000000000e+00,1.000000000000000000e+00,1.000000000000000000e+00,1.000000000000000000e+00,1.000000000000000000e+00,1.000000000000000000e+00,1.000000000000000000e+00,1.000000000000000000e+00,1.000000000000000000e+00,1.000000000000000000e+00,1.000000000000000000e+00,1.000000000000000000e+00,1.000000000000000000e+00,1.000000000000000000e+00,1.000000000000000000e+00,1.000000000000000000e+00,1.000000000000000000e+00,1.000000000000000000e+00,1.000000000000000000e+00,1.000000000000000000e+00,1.000000000000000000e+00,1.000000000000000000e+00,1.000000000000000000e+00,1.000000000000000000e+00,1.000000000000000000e+00,1.000000000000000000e+00,1.000000000000000000e+00,1.000000000000000000e+00,1.000000000000000000e+00,1.000000000000000000e+00,1.000000000000000000e+00,1.000000000000000000e+00,1.000000000000000000e+00,1.000000000000000000e+00,1.000000000000000000e+00,1.000000000000000000e+00,9.689336776733398215e-01,9.372426033020019309e-01,9.075589179992675781e-01,8.796977043151855691e-01,8.534962654113769087e-01,8.288104057312011275e-01,8.055124282836914062e-01,7.834885120391845703e-01,7.626368045806884988e-01,7.428662300109862837e-01
6.196461200714111772e-01,6.353628158569335493e-01,6.518975257873534934e-01,6.693158149719238281e-01,6.876905441284180132e-01,7.071025371551513672e-01,7.276422977447509766e-01,7.494111061096191406e-01,7.725225448608398215e-01,7.971047401428222878e-01,8.233029365539550337e-01,8.512817382812499778e-01,8.812289237976074219e-01,9.133602142333984153e-01,9.479230880737304910e-01,9.852046966552734375e-01,1.000000000000000000e+00,1.000000000000000000e+00,1.000000000000000000e+00,1.000000000000000000e+00,1.000000000000000000e+00,3.872306346893310547e-01,3.872870683670043834e-01,1.000000000000000000e+00,1.000000000000000000e+00,1.000000000000000000e+00,1.000000000000000000e+00,1.000000000000000000e+00,3.405353069305420144e-01,3.359514236450195090e-01,3.365429401397704856e-01,1.000000000000000000e+00,1.000000000000000000e+00,1.000000000000000000e+00,1.000000000000000000e+00,1.000000000000000000e+00,1.000000000000000000e+00,1.000000000000000000e+00,1.000000000000000000e+00,1.000000000000000000e+00,1.000000000000000000e+00,1.000000000000000000e+00,1.000000000000000000e+00,1.000000000000000000e+00,1.000000000000000000e+00,1.000000000000000000e+00,1.000000000000000000e+00,1.000000000000000000e+00,1.000000000000000000e+00,1.000000000000000000e+00,1.000000000000000000e+00,1.000000000000000000e+00,1.000000000000000000e+00,1.000000000000000000e+00,1.000000000000000000e+00,1.000000000000000000e+00,1.000000000000000000e+00,1.000000000000000000e+00,1.000000000000000000e+00,1.000000000000000000e+00,1.000000000000000000e+00,1.000000000000000000e+00,1.000000000000000000e+00,1.000000000000000000e+00,1.000000000000000000e+00,1.000000000000000000e+00,1.000000000000000000e+00,1.000000000000000000e+00,1.000000000000000000e+00,1.000000000000000000e+00,9.689619064331054243e-01,9.372689247131347212e-01,9.075837135314941406e-01,8.797209739685059038e-01,8.535181045532226340e-01,8.288310050964355913e-01,8.055318832397461160e-01,7.835069179534912553e-01,7.626543045043945312e-01,7.428827762603760210e-01
6.196329116821288618e-01,6.353488922119140403e-01,6.518828868865966797e-01,6.693004131317138450e-01,6.876741886138916238e-01,7.070852756500244363e-01,7.276240825653076394e-01,7.493916511535644309e-01,7.725018978118896040e-01,7.970829010009765625e-01,8.232794761657714622e-01,8.512566566467285600e-01,8.812022209167480469e-01,9.133314132690429910e-01,9.478920936584472878e-01,9.710391998291015847e-01,9.707990646362304465e-01,9.705590248107910378e-01,9.703190803527832475e-01,9.700793266296386941e-01,3.886481046676635853e-01,3.878928184509277122e-01,3.887055158615112527e-01,9.691213607788086160e-01,9.688821792602538840e-01,9.686430931091308816e-01,9.684040069580077681e-01,9.681652069091797319e-01,3.410119771957397239e-01,3.365787982940673939e-01,3.370489358901977428e-01,9.672109603881835493e-01,9.669727325439453347e-01,9.667346000671386275e-01,9.664964675903320312e-01,9.662586212158202903e-01,9.660208702087402788e-01,9.657832145690917747e-01,9.655455589294433816e-01,9.653081893920898438e-01,9.650708198547363059e-01,9.648336410522461160e-01,9.645965576171875444e-01,9.643595695495605913e-01,9.641226768493652566e-01,9.638859748840331587e-01,9.636492729187011719e-01,9.634127616882324219e-01,9.631764411926269087e-01,9.629401206970215066e-01,9.627038955688476118e-01,9.624679565429687944e-01,9.622320175170898660e-01,9.619961738586425559e-01,9.617604255676269753e-01,9.615248680114746316e-01,9.612894058227539062e-01,9.610540390014647993e-01,9.608187675476074219e-01,9.605836868286132812e-01,9.603487014770507590e-01,9.601137161254882368e-01,9.598790168762206809e-01,9.596443176269531250e-01,9.594098091125488059e-01,9.591753005981444868e-01,9.589409828186035156e-01,9.587068557739257812e-01,9.584727287292480469e-01,9.582386970520019309e-01,9.580048561096191628e-01,9.372953414916992410e-01,9.076084136962890847e-01,8.797442436218261275e-01,8.535399436950683594e-01,8.288516998291015625e-01,8.055513381958008257e-01,7.835252761840820757e-01,7.626717090606689453e-01,7.428993701934814009e-01
6.196196556091309038e-01,6.353349685668945312e-01,6.518682003021240012e-01,6.692849159240722434e-01,6.876578807830810991e-01,7.070679664611816406e-01,7.276057720184325728e-01,7.493723392486572044e-01,7.542607307434081587e-01,7.541158199310302734e-01,7.539710044860840066e-01,7.538261890411377397e-01,7.536815166473388450e-01,7.535367965698241965e-01,7.533921241760254128e-01,7.532475948333740012e-01,7.531030654907227007e-01,7.529585838317871538e-01,7.528141975402832253e-01,7.526698112487792969e-01,7.525255203247069868e-01,3.877145528793334850e-01,3.897614240646362083e-01,7.520930290222167525e-01,7.519489288330077903e-01,7.518048763275146928e-01,7.516609668731689675e-01,7.515170574188232422e-01,3.414869070053100364e-01,3.372084617614746205e-01,3.387068748474121316e-01,7.509419918060302734e-01,7.507983207702636497e-01,7.506547451019287553e-01,7.505112648010253684e-01,7.503677845001220925e-01,7.502243041992187056e-01,7.500810146331786665e-01,7.499376773834228738e-01,7.497944831848144531e-01,7.496512413024902788e-01,7.495080947875976118e-01,7.493650436401366743e-01,7.492219924926757368e-01,7.490789890289306641e-01,7.489361286163329634e-01,7.487932205200195090e-01,7.486504554748535378e-01,7.485076904296874556e-01,7.483649253845214844e-01,7.482223510742187500e-01,7.480797290802001509e-01,7.479371547698974165e-01,7.477947235107421653e-01,7.476522922515869141e-01,7.475099563598632812e-01,7.473675727844237837e-01,7.472252845764160156e-01,7.470831394195556197e-01,7.469409465789794700e-01,7.467988014221191850e-01,7.466567993164062722e-01,7.465147972106933594e-01,7.463727951049804465e-01,7.462309837341308816e-01,7.460891246795654519e-01,7.459473609924316406e-01,7.458055973052978294e-01,7.456638813018798828e-01,7.455223560333251731e-01,7.453807353973388450e-01,7.452392101287841353e-01,7.450977802276611550e-01,7.449563503265380637e-01,7.448150634765624556e-01,7.446737289428710938e-01,7.445324420928954856e-01,7.443912982940673606e-01,7.442501544952392356e-01,7.429159164428711382e-01
6.167039394378661665e-01,6.166070938110351785e-01,6.165102481842040794e-01,6.164134025573730913e-01,6.163166522979736106e-01,6.162199020385742410e-01,6.161231517791747603e-01,6.160264015197753906e-01,6.159297943115233931e-01,6.158331394195556419e-01,6.157365798950195090e-01,6.156399726867676225e-01,6.155434131622314897e-01,6.154469490051269753e-01,6.153504371643065962e-01,6.152539730072021928e-01,6.151576042175292969e-01,6.150611877441406472e-01,6.149648189544677512e-01,6.148684978485107200e-01,6.147721767425536887e-01,3.875625133514404297e-01,3.895404577255249245e-01,6.144834518432616965e-01,6.143873214721680132e-01,6.142911434173583540e-01,6.141950130462646706e-01,6.140989780426024947e-01,3.472139835357666016e-01,3.411368370056152566e-01,3.489675521850585938e-01,6.137148857116698775e-01,6.136189937591552956e-01,6.135230541229248491e-01,6.134271621704101562e-01,6.133313655853271928e-01,6.132355213165283647e-01,6.131397724151611550e-01,6.130439758300780806e-01,6.129482269287109819e-01,6.128525733947753906e-01,6.127569198608397993e-01,6.126612186431884544e-01,6.125656604766845925e-01,6.124700546264648660e-01,6.123745441436767578e-01,6.122790336608886497e-01,6.121835231781005415e-01,6.120880603790282981e-01,6.119926452636719194e-01,6.118971824645995650e-01,6.118018627166748047e-01,6.117064952850341797e-01,6.116112232208251731e-01,6.115159511566161665e-01,6.114206790924072710e-01,6.113254547119140181e-01,6.112302780151367410e-01,6.111350536346435991e-01,6.110399723052978294e-01,6.109448432922363059e-01,6.108497619628906472e-01,6.107547283172607422e-01,6.106596946716308372e-01,6.105647563934326616e-01,6.104697704315185103e-01,6.103748321533203347e-01,6.102799892425536665e-01,6.101850986480712447e-01,6.100902080535888228e-01,6.099954605102538840e-01,6.099006652832030806e-01,6.098059654235840066e-01,6.097112178802490678e-01,6.096165180206298828e-01,6.095218658447265625e-01,6.094272136688232422e-01,6.093326091766357866e-01,6.092380523681640847e-01,6.091434955596923828e-01
5.210276603698730247e-01,5.209585189819335715e-01,5.208894252777099831e-01,5.208202838897705300e-01,5.207511901855468306e-01,5.206820964813232422e-01,5.206130504608154075e-01,5.205440044403075728e-01,5.204750061035156028e-01,5.204059600830077681e-01,5.203369617462157981e-01,5.202680587768554465e-01,5.201990604400634766e-01,5.201301097869872603e-01,5.200612545013427734e-01,5.199923515319824219e-01,5.199234962463379350e-01,5.198546409606933372e-01,5.197857379913329856e-01,5.197169780731201172e-01,5.196481227874756303e-01,5.195793628692626509e-01,3.917162656784057839e-01,5.194418430328369141e-01,5.193730831146240456e-01,5.193044185638427956e-01,5.192357063293456809e-01,5.191670417785644309e-01,3.426165819168091042e-01,3.390007495880126842e-01,5.189611434936522993e-01,5.188925266265869141e-01,5.188239097595215288e-01,5.187553882598876509e-01,5.186868190765381303e-01,5.186182975769042525e-01,5.185497760772704856e-01,5.184813022613525835e-01,5.184128284454345703e-01,5.183443546295165572e-01,5.182759284973144087e-01,5.182075023651122603e-01,5.181390762329101118e-01,5.180707454681396928e-01,5.180023670196532981e-01,5.179339885711670144e-01,5.178657054901123491e-01,5.177973747253418191e-01,5.177290439605712891e-01,5.176608085632323775e-01,5.175925254821777122e-01,5.175243377685546653e-01,5.174561023712158647e-01,5.173878669738769531e-01,5.173196792602539062e-01,5.172515392303467241e-01,5.171833515167236772e-01,5.171152591705322488e-01,5.170471191406249556e-01,5.169790267944336382e-01,5.169109821319579634e-01,5.168428897857666460e-01,5.167748451232909712e-01,5.167068481445312722e-01,5.166388034820557085e-01,5.165708541870117632e-01,5.165028572082519531e-01,5.164349079132080078e-01,5.163669586181640625e-01,5.162990570068359819e-01,5.162311553955077903e-01,5.161632537841797097e-01,5.160953998565673828e-01,5.160275936126709206e-01,5.159597396850585938e-01,5.158918857574462669e-01,5.158241271972656694e-01,5.157563686370849609e-01,5.156886100769042525e-01,5.156208515167236550e-01
4.510509967803955078e-01,4.509991645812988503e-01,4.509473800659179465e-01,4.508955955505370983e-01,4.508438110351562500e-01,4.507920265197754017e-01,4.507402420043945535e-01,4.506885051727295144e-01,4.506367683410644753e-01,4.505850315093994363e-01,4.505333423614502064e-01,4.504816055297851674e-01,4.504299163818359375e-01,4.503782272338867076e-01,4.503265857696533425e-01,4.502748966217041127e-01,4.502232551574706920e-01,4.501716613769531361e-01,4.501200199127197155e-01,4.500683784484863503e-01,4.500168323516845481e-01,4.499652385711669922e-01,4.499136447906494363e-01,4.498620986938476340e-01,4.498105525970458873e-01,4.497590065002441406e-01,4.497074604034423939e-01,4.496559619903564564e-01,3.406229972839355247e-01,3.329929590225219616e-01,3.361913442611694225e-01,4.494500160217285156e-01,4.493985652923583873e-01,4.493471145629882590e-01,4.492957115173339955e-01,4.492442607879638672e-01,4.491928577423095481e-01,4.491414546966552845e-01,4.490900516510009655e-01,4.490386962890625111e-01,4.489873409271240012e-01,4.489359855651855469e-01,4.488846302032470925e-01,4.488333225250243919e-01,4.487820148468017467e-01,4.487307071685791016e-01,4.486793994903564564e-01,4.486281394958496205e-01,4.485768795013427845e-01,4.485256195068359486e-01,4.484743595123291127e-01,4.484230995178222767e-01,4.483719348907470592e-01,4.483206748962402233e-01,4.482695102691650613e-01,4.482182979583740345e-01,4.481671333312988170e-01,4.481159687042236550e-01,4.480648517608642467e-01,4.480136871337890847e-01,4.479625701904296764e-01,4.479114532470703236e-01,4.478603363037109153e-01,4.478092670440673717e-01,4.477581501007080189e-01,4.477070808410644753e-01,4.476560592651367410e-01,4.476049900054931419e-01,4.475539684295654075e-01,4.475029468536376731e-01,4.474519252777099387e-01,4.474009513854980691e-01,4.473499298095703347e-01,4.472989559173584095e-01,4.472479820251464844e-01,4.471970558166503684e-01,4.471461296081543080e-01,4.470951557159423828e-01,4.470442295074462669e-01,4.469933509826660156e-01
3.976452589035034402e-01,3.976049661636352761e-01,3.975647211074829213e-01,3.975244522094726340e-01,3.974842071533203347e-01,3.974439382553100475e-01,3.974036931991576926e-01,3.973634719848632701e-01,3.973232746124267800e-01,3.972830533981323020e-01,3.972428560256958119e-01,3.972026348114013894e-01,3.971624374389648438e-01,3.971223115921020397e-01,3.970821142196655495e-01,3.970419645309448131e-01,3.970017910003661998e-01,3.969616413116455189e-01,3.969214916229247825e-01,3.968813419342041016e-01,3.968412160873412975e-01,3.968011379241943581e-01,3.967610120773315541e-01,3.967209100723266824e-01,3.966808080673217551e-01,3.966407299041748158e-01,3.966006755828857533e-01,3.965605974197387584e-01,3.435597419738769531e-01,3.254101037979125755e-01,3.275954484939574973e-01,3.964004278182983176e-01,3.963603973388671875e-01,3.963203668594360574e-01,3.962803602218628041e-01,3.962403535842895508e-01,3.962003469467162975e-01,3.961603879928589089e-01,3.961204051971435325e-01,3.960804224014282116e-01,3.960404634475708230e-01,3.960004806518554465e-01,3.959605932235717995e-01,3.959206342697143555e-01,3.958806991577148438e-01,3.958407640457153320e-01,3.958008527755737527e-01,3.957609653472900502e-01,3.957210779190063477e-01,3.956811666488647683e-01,3.956412792205810658e-01,3.956013917922973633e-01,3.955615282058715931e-01,3.955217123031616322e-01,3.954818487167358620e-01,3.954420089721679688e-01,3.954021453857421986e-01,3.953623294830322377e-01,3.953225374221801536e-01,3.952827215194701926e-01,3.952429056167602317e-01,3.952031135559082031e-01,3.951633214950561745e-01,3.951235294342040905e-01,3.950838088989258035e-01,3.950440406799316517e-01,3.950042724609375000e-01,3.949645042419433483e-01,3.949247598648071289e-01,3.948850870132446511e-01,3.948453426361083762e-01,3.948056221008300892e-01,3.947659015655517467e-01,3.947262048721313366e-01,3.946865558624267356e-01,3.946468591690063255e-01,3.946071863174438477e-01,3.945675134658813699e-01,3.945278406143188366e-01,3.944881916046142356e-01
3.555474042892455833e-01,3.555152177810668723e-01,3.554830074310302845e-01,3.554508209228515736e-01,3.554186105728149303e-01,3.553864717483520286e-01,3.553542852401733176e-01,3.553221225738525391e-01,3.552899599075317605e-01,3.552577972412109264e-01,3.552256345748901478e-01,3.551935195922851785e-01,3.551613807678222767e-01,3.551292419433593750e-01,3.550971031188964733e-01,3.550649881362915039e-01,3.550328969955444114e-01,3.550007820129394420e-01,3.549686670303344727e-01,3.549365758895873801e-01,3.549044609069824108e-01,3.548723697662353738e-01,3.548403024673462136e-01,3.548082113265991211e-01,3.547761678695678933e-01,3.547441005706787331e-01,3.547120332717895730e-01,3.546799898147582897e-01,3.546479225158691295e-01,3.193609952926635964e-01,3.152076244354248269e-01,3.212501049041748269e-01,3.545198202133178489e-01,3.544878005981445535e-01,3.544557809829712025e-01,3.544238090515136608e-01,3.543917894363403098e-01,3.543597936630248912e-01,3.543277978897094727e-01,3.542958259582519309e-01,3.542638778686523215e-01,3.542318820953369030e-01,3.541999101638794167e-01,3.541679620742798074e-01,3.541359901428222656e-01,3.541040897369384655e-01,3.540721416473388561e-01,3.540401935577392467e-01,3.540082454681396373e-01,3.539763212203979603e-01,3.539443969726562278e-01,3.539125204086303600e-01,3.538805961608886830e-01,3.538486957550048828e-01,3.538167953491210826e-01,3.537848949432372825e-01,3.537530422210693470e-01,3.537211656570434792e-01,3.536892890930175559e-01,3.536574125289916881e-01,3.536255359649658203e-01,3.535936832427978294e-01,3.535618543624877708e-01,3.535300016403198353e-01,3.534981727600097767e-01,3.534663200378417858e-01,3.534344911575317272e-01,3.534027099609374778e-01,3.533708810806274192e-01,3.533390760421752930e-01,3.533072471618652344e-01,3.532754421234131081e-01,3.532436847686767356e-01,3.532119035720825417e-01,3.531801223754882924e-01,3.531483411788940430e-01,3.531165599822997936e-01,3.530848026275634766e-01,3.530530691146850364e-01,3.530213117599487194e-01
3.215098381042480469e-01,3.214834928512573242e-01,3.214571714401245339e-01,3.214308738708496205e-01,3.214045524597167747e-01,3.213782310485839844e-01,3.213519096374511941e-01,3.213256120681762806e-01,3.212993383407592995e-01,3.212730169296264537e-01,3.212467193603515403e-01,3.212204217910766824e-01,3.211941480636596458e-01,3.211678504943847878e-01,3.211416006088256836e-01,3.211153268814087025e-01,3.210890531539917214e-01,3.210627794265746848e-01,3.210365295410156361e-01,3.210103034973144642e-01,3.209840297698974831e-01,3.209577798843383789e-01,3.209315299987792747e-01,3.209053039550781028e-01,3.208790540695190541e-01,3.208528280258178822e-01,3.208266019821167103e-01,3.208003997802734153e-01,3.207741737365722434e-01,3.207479715347290039e-01,3.207217454910278320e-01,3.206955432891845925e-01,3.206693410873412975e-01,3.206431627273559348e-01,3.206169843673706277e-01,3.205907821655273326e-01,3.205646038055419700e-01,3.205384254455566628e-01,3.205122709274291770e-01,3.204860925674438699e-01,3.204599142074585072e-01,3.204337596893310769e-01,3.204076051712035911e-01,3.203814744949340931e-01,3.203553199768066628e-01,3.203291654586791770e-01,3.203030347824096791e-01,3.202768802642822488e-01,3.202507495880126953e-01,3.202246427536010742e-01,3.201985359191894531e-01,3.201724052429198997e-01,3.201462745666504017e-01,3.201201677322387806e-01,3.200940847396850364e-01,3.200679779052734153e-01,3.200418949127197266e-01,3.200157880783081055e-01,3.199896812438964844e-01,3.199635982513427956e-01,3.199375391006469838e-01,3.199114561080932395e-01,3.198853969573974831e-01,3.198593139648437389e-01,3.198332548141479270e-01,3.198072195053100475e-01,3.197811603546142356e-01,3.197551012039184792e-01,3.197290658950805442e-01,3.197030067443847878e-01,3.196769952774047852e-01,3.196509599685669056e-01,3.196249246597290261e-01,3.195988893508910911e-01,3.195728778839111439e-01,3.195468425750732644e-01,3.195208549499511941e-01,3.194948434829711914e-01,3.194688558578491211e-01,3.194428443908691184e-01
2.934199094772338978e-01,2.933979988098144309e-01,2.933760643005370872e-01,2.933541297912597434e-01,2.933322191238403320e-01,2.933102846145629883e-01,2.932883977890014537e-01,2.932664632797241100e-01,2.932445526123046986e-01,2.932226419448852317e-01,2.932007312774658203e-01,2.931788682937622181e-01,2.931569576263427512e-01,2.931350708007812722e-01,2.931131601333618053e-01,2.930912733078002708e-01,2.930693864822387917e-01,2.930475234985351340e-01,2.930256605148315319e-01,2.930037736892699973e-01,2.929819107055663951e-01,2.929600238800048606e-01,2.929381847381591908e-01,2.929163217544555886e-01,2.928944587707519309e-01,2.928725957870483287e-01,2.928507566452026589e-01,2.928288936614990012e-01,2.928070545196533314e-01,2.927852153778076061e-01,2.927633762359619363e-01,2.927415609359741433e-01,2.927197217941284180e-01,2.926978826522826926e-01,2.926760435104370228e-01,2.926542282104492299e-01,2.926324367523193137e-01,2.926106214523315208e-01,2.925888061523437278e-01,2.925669908523559348e-01,2.925451755523681419e-01,2.925234079360962136e-01,2.925015926361084206e-01,2.924798011779785045e-01,2.924580097198486439e-01,2.924362182617187278e-01,2.924144268035888672e-01,2.923926591873168834e-01,2.923708677291870228e-01,2.923491001129150391e-01,2.923273324966430553e-01,2.923055410385131947e-01,2.922837972640991433e-01,2.922620296478271595e-01,2.922402858734131081e-01,2.922185182571411244e-01,2.921967506408691406e-01,2.921750068664550892e-01,2.921532869338989147e-01,2.921315431594848633e-01,2.921097993850708119e-01,2.920880556106567605e-01,2.920663118362426536e-01,2.920446157455444114e-01,2.920228719711303600e-01,2.920011520385742410e-01,2.919794082641601340e-01,2.919576883316040150e-01,2.919360160827636497e-01,2.919142961502075306e-01,2.918925762176513561e-01,2.918708801269531139e-01,2.918491601943969949e-01,2.918274641036987527e-01,2.918057918548583873e-01,2.917840957641601451e-01,2.917623996734619030e-01,2.917407035827636608e-01,2.917190313339233509e-01,2.916973590850829856e-01
2.698439836502075084e-01,2.698254108428955189e-01,2.698068618774414062e-01,2.697883129119872936e-01,2.697698116302490456e-01,2.697512626647949330e-01,2.697327136993408203e-01,2.697141885757446400e-01,2.696956396102905273e-01,2.696771383285522239e-01,2.696586132049560436e-01,2.696400880813598633e-01,2.696215629577636830e-01,2.696030378341675027e-01,2.695845365524291992e-01,2.695660114288330189e-01,2.695475101470947155e-01,2.695289850234985352e-01,2.695104837417602317e-01,2.694919824600219838e-01,2.694735050201416127e-01,2.694550037384033092e-01,2.694365024566650613e-01,2.694180011749267578e-01,2.693994998931884544e-01,2.693810462951660156e-01,2.693625450134277122e-01,2.693440675735473411e-01,2.693255662918090931e-01,2.693070888519287220e-01,2.692886114120483509e-01,2.692701339721679799e-01,2.692516565322876088e-01,2.692332029342651145e-01,2.692147493362426758e-01,2.691962718963623047e-01,2.691778182983398660e-01,2.691593647003173717e-01,2.691408872604370006e-01,2.691224575042724387e-01,2.691040039062500000e-01,2.690855503082275613e-01,2.690670967102050670e-01,2.690486669540405051e-01,2.690302133560180664e-01,2.690117835998535045e-01,2.689933538436889426e-01,2.689749240875244363e-01,2.689564943313598744e-01,2.689380645751953125e-01,2.689196586608886830e-01,2.689012289047241211e-01,2.688827991485595592e-01,2.688643693923949973e-01,2.688459634780883678e-01,2.688275575637817383e-01,2.688091516494751088e-01,2.687907457351684792e-01,2.687723398208617942e-01,2.687539339065551647e-01,2.687355279922485352e-01,2.687171459197997825e-01,2.686987400054931530e-01,2.686803579330444558e-01,2.686619520187377708e-01,2.686435699462890736e-01,2.686251878738403209e-01,2.686068058013916238e-01,2.685884237289428711e-01,2.685700416564941184e-01,2.685516595840454213e-01,2.685333013534546009e-01,2.685149431228637806e-01,2.684965610504150280e-01,2.684782028198242076e-01,2.684598445892333873e-01,2.684414625167846902e-01,2.684231281280517467e-01,2.684047698974609264e-01,2.683864116668701061e-01
2.497748613357543834e-01,2.497589826583862249e-01,2.497430801391601618e-01,2.497272014617920033e-01,2.497112989425659124e-01,2.496954202651977539e-01,2.496795415878295954e-01,2.496636629104614369e-01,2.496477842330932506e-01,2.496319055557250921e-01,2.496160268783569336e-01,2.496001482009887751e-01,2.495842933654785212e-01,2.495684146881103627e-01,2.495525598526001088e-01,2.495366811752319225e-01,2.495208263397216686e-01,2.495049715042114147e-01,2.494891166687011608e-01,2.494732618331909069e-01,2.494574069976806530e-01,2.494415521621703991e-01,2.494256973266601451e-01,2.494098424911498912e-01,2.493940114974975697e-01,2.493781566619873158e-01,2.493623018264770619e-01,2.493464708328247126e-01,2.493306398391723633e-01,2.493148088455200140e-01,2.492989778518676647e-01,2.492831230163574108e-01,2.492672920227050892e-01,2.492514610290527399e-01,2.492356300354003906e-01,2.492197990417480413e-01,2.492039918899536244e-01,2.491881847381591797e-01,2.491723537445068304e-01,2.491565465927124134e-01,2.491407155990600641e-01,2.491249084472656194e-01,2.491091012954712025e-01,2.490932941436767578e-01,2.490774869918823131e-01,2.490616798400878962e-01,2.490458726882934515e-01,2.490300655364990345e-01,2.490142822265624944e-01,2.489984989166259821e-01,2.489826917648315374e-01,2.489669084548950251e-01,2.489511013031005804e-01,2.489353418350219727e-01,2.489195346832275280e-01,2.489037513732910156e-01,2.488879680633545033e-01,2.488721847534179632e-01,2.488564014434814509e-01,2.488406419754028431e-01,2.488248825073242076e-01,2.488090991973876953e-01,2.487933158874511830e-01,2.487775564193725475e-01,2.487617969512939398e-01,2.487460374832153320e-01,2.487302780151367243e-01,2.487144947052001842e-01,2.486987352371215765e-01,2.486829757690429688e-01,2.486672401428222656e-01,2.486514806747436579e-01,2.486357450485229548e-01,2.486199855804443470e-01,2.486042499542236439e-01,2.485885143280029408e-01,2.485727548599243053e-01,2.485570192337036022e-01,2.485412836074828991e-01,2.485255479812621959e-01
2.324843168258667048e-01,2.324705362319946234e-01,2.324567794799804743e-01,2.324429988861083929e-01,2.324292421340942438e-01,2.324154853820800670e-01,2.324017286300659180e-01,2.323879718780517689e-01,2.323741912841796875e-01,2.323604345321655384e-01,2.323467016220092662e-01,2.323329448699951172e-01,2.323191881179809681e-01,2.323054313659667913e-01,2.322916984558105469e-01,2.322779655456543024e-01,2.322642087936401256e-01,2.322504758834838812e-01,2.322367191314697321e-01,2.322229862213134877e-01,2.322092533111572155e-01,2.321955204010009710e-01,2.321817874908447266e-01,2.321680545806884821e-01,2.321543216705322377e-01,2.321405887603759655e-01,2.321268558502197210e-01,2.321131229400634766e-01,2.320994138717651367e-01,2.320856809616088923e-01,2.320719480514526478e-01,2.320582389831543080e-01,2.320445299148559681e-01,2.320307970046996959e-01,2.320170879364013561e-01,2.320033788681030162e-01,2.319896697998046764e-01,2.319759607315063366e-01,2.319622278213500921e-01,2.319485187530517523e-01,2.319348096847534124e-01,2.319211244583129772e-01,2.319074153900146373e-01,2.318937063217162975e-01,2.318800210952758900e-01,2.318663120269775502e-01,2.318526268005371149e-01,2.318389415740966797e-01,2.318252325057983398e-01,2.318115472793579046e-01,2.317978620529174694e-01,2.317841768264770619e-01,2.317704916000366266e-01,2.317568063735961914e-01,2.317431211471557562e-01,2.317294359207153209e-01,2.317157506942749134e-01,2.317020893096923828e-01,2.316884040832519476e-01,2.316747188568115123e-01,2.316610574722290095e-01,2.316473960876464788e-01,2.316337347030639759e-01,2.316200494766235407e-01,2.316063880920410101e-01,2.315927267074585072e-01,2.315790653228759766e-01,2.315654039382934459e-01,2.315517425537109431e-01,2.315380811691284124e-01,2.315244197845459095e-01,2.315107583999633789e-01,2.314971208572387806e-01,2.314834833145141546e-01,2.314698219299316517e-01,2.314561605453491211e-01,2.314425230026245228e-01,2.314288616180419922e-01,2.314152479171752985e-01,2.314015865325927679e-01
2.174326181411743164e-01,2.174205780029296875e-01,2.174085378646850586e-01,2.173964977264404297e-01,2.173844575881958008e-01,2.173724174499511719e-01,2.173603773117065430e-01,2.173483610153198187e-01,2.173363208770751898e-01,2.173242807388305609e-01,2.173122406005859319e-01,2.173002243041992076e-01,2.172881841659545787e-01,2.172761678695678822e-01,2.172641277313232533e-01,2.172521114349365290e-01,2.172400951385498047e-01,2.172280550003051758e-01,2.172160625457763561e-01,2.172040224075317272e-01,2.171920061111450306e-01,2.171799898147583063e-01,2.171679735183715820e-01,2.171559810638427623e-01,2.171439647674560658e-01,2.171319484710693415e-01,2.171199321746826172e-01,2.171079158782958929e-01,2.170958995819091686e-01,2.170839071273803766e-01,2.170719146728515569e-01,2.170598983764648326e-01,2.170479059219360407e-01,2.170358896255493164e-01,2.170238971710204967e-01,2.170119047164917048e-01,2.169999122619628851e-01,2.169879198074340931e-01,2.169759035110473688e-01,2.169639110565185491e-01,2.169519424438476618e-01,2.169399499893188421e-01,2.169279336929321178e-01,2.169159412384033259e-01,2.169039726257324108e-01,2.168919801712036188e-01,2.168799877166747991e-01,2.168680191040039118e-01,2.168560266494750921e-01,2.168440580368042048e-01,2.168320894241332897e-01,2.168200969696044977e-01,2.168081283569335826e-01,2.167961359024047907e-01,2.167841672897338756e-01,2.167722225189208929e-01,2.167602300643921009e-01,2.167482614517211859e-01,2.167362928390502985e-01,2.167243242263793834e-01,2.167123794555664007e-01,2.167004108428955134e-01,2.166884422302245983e-01,2.166764736175537109e-01,2.166645050048828236e-01,2.166525602340698131e-01,2.166406154632568304e-01,2.166286468505859431e-01,2.166167020797729603e-01,2.166047334671020452e-01,2.165927886962890625e-01,2.165808439254760798e-01,2.165688991546630970e-01,2.165569543838500866e-01,2.165449857711791992e-01,2.165330410003662165e-01,2.165211200714111384e-01,2.165091753005981556e-01,2.164972305297851451e-01,2.164852857589721624e-01
2.042114019393920787e-01,2.042007923126220592e-01,2.041901588439941351e-01,2.041795253753662109e-01,2.041689157485961914e-01,2.041583061218261719e-01,2.041476964950561523e-01,2.041370630264282282e-01,2.041264533996582087e-01,2.041158199310302845e-01,2.041052341461181696e-01,2.040946245193481501e-01,2.040839910507202259e-01,2.040733814239502064e-01,2.040627717971801869e-01,2.040521621704101674e-01,2.040415763854980524e-01,2.040309667587280329e-01,2.040203571319580134e-01,2.040097475051879938e-01,2.039991378784179743e-01,2.039885520935058594e-01,2.039779424667358398e-01,2.039673566818237249e-01,2.039567470550537054e-01,2.039461612701415905e-01,2.039355516433715709e-01,2.039249658584594838e-01,2.039143800735473688e-01,2.039037704467773493e-01,2.038931846618652344e-01,2.038825988769531194e-01,2.038720130920410045e-01,2.038614273071289174e-01,2.038508415222168024e-01,2.038402557373046875e-01,2.038296699523925726e-01,2.038190841674804576e-01,2.038084983825683705e-01,2.037979125976562556e-01,2.037873268127441406e-01,2.037767648696899303e-01,2.037661790847778431e-01,2.037556171417236328e-01,2.037450313568115179e-01,2.037344455718994030e-01,2.037238597869873158e-01,2.037132978439331055e-01,2.037027359008788951e-01,2.036921501159668080e-01,2.036815881729125977e-01,2.036710023880004827e-01,2.036604404449463002e-01,2.036498785018920898e-01,2.036393165588378795e-01,2.036287546157836970e-01,2.036181926727294866e-01,2.036076307296753041e-01,2.035970687866210938e-01,2.035865068435668834e-01,2.035759449005127009e-01,2.035653829574584905e-01,2.035548448562622126e-01,2.035442829132080023e-01,2.035337209701538197e-01,2.035231828689575140e-01,2.035126209259033314e-01,2.035020589828491211e-01,2.034915208816528431e-01,2.034809827804565374e-01,2.034704208374023549e-01,2.034598827362060491e-01,2.034493446350097712e-01,2.034387826919555609e-01,2.034282445907592829e-01,2.034177064895629772e-01,2.034071683883666992e-01,2.033966302871704213e-01,2.033860921859741155e-01,2.033755540847778376e-01
1.925058960914611816e-01,1.924964427947997991e-01,1.924870133399963490e-01,1.924775838851928711e-01,1.924681305885314886e-01,1.924587011337280384e-01,1.924492597579955944e-01,1.924398303031921442e-01,1.924304008483886663e-01,1.924209594726562500e-01,1.924115300178527721e-01,1.924020886421203558e-01,1.923926711082458441e-01,1.923832535743713323e-01,1.923738121986389160e-01,1.923643946647644043e-01,1.923549532890319880e-01,1.923455357551574763e-01,1.923360943794250599e-01,1.923266887664794866e-01,1.923172712326049749e-01,1.923078298568725586e-01,1.922984242439270131e-01,1.922889947891235352e-01,1.922795772552490234e-01,1.922701716423034779e-01,1.922607421875000000e-01,1.922513365745544545e-01,1.922419071197509766e-01,1.922325015068054310e-01,1.922230958938598577e-01,1.922136664390564076e-01,1.922042608261108343e-01,1.921948432922363226e-01,1.921854376792907770e-01,1.921760439872741699e-01,1.921666145324706920e-01,1.921572208404541127e-01,1.921478033065796009e-01,1.921384096145629938e-01,1.921290159225463867e-01,1.921195983886718750e-01,1.921102046966552679e-01,1.921007871627807562e-01,1.920913934707641491e-01,1.920819878578186035e-01,1.920725941658019964e-01,1.920632004737853893e-01,1.920537948608398438e-01,1.920443892478942982e-01,1.920349955558776911e-01,1.920256137847900502e-01,1.920162081718444769e-01,1.920068264007568359e-01,1.919974207878112904e-01,1.919880390167236217e-01,1.919786572456359808e-01,1.919692516326904352e-01,1.919598698616027943e-01,1.919504761695861872e-01,1.919410943984985463e-01,1.919317007064819391e-01,1.919223308563232366e-01,1.919129490852355957e-01,1.919035553932189886e-01,1.918941855430603138e-01,1.918847918510437067e-01,1.918754220008850042e-01,1.918660521507263295e-01,1.918566584587097223e-01,1.918472886085510198e-01,1.918379068374633789e-01,1.918285369873046764e-01,1.918191671371460016e-01,1.918097853660583607e-01,1.918004155158996582e-01,1.917910337448120173e-01,1.917816758155822809e-01,1.917723178863525446e-01,1.917629361152649037e-01
1.820695519447326771e-01,1.820611238479614147e-01,1.820526599884033092e-01,1.820442318916320745e-01,1.820357680320739691e-01,1.820273399353027344e-01,1.820189118385314997e-01,1.820104598999023326e-01,1.820020198822021595e-01,1.819935798645019587e-01,1.819851398468017578e-01,1.819767117500305231e-01,1.819682717323303223e-01,1.819598436355590876e-01,1.819513916969299205e-01,1.819429755210876520e-01,1.819345474243164174e-01,1.819260954856872503e-01,1.819176793098449818e-01,1.819092392921447809e-01,1.819008111953735463e-01,1.818923711776733454e-01,1.818839550018310491e-01,1.818755388259887806e-01,1.818670988082885798e-01,1.818586826324462835e-01,1.818502426147460826e-01,1.818418264389038141e-01,1.818334102630615179e-01,1.818249702453613170e-01,1.818165659904479869e-01,1.818081259727478138e-01,1.817997217178344838e-01,1.817913055419921875e-01,1.817828774452209528e-01,1.817744612693786566e-01,1.817660331726074219e-01,1.817576289176940918e-01,1.817492246627807617e-01,1.817407965660095270e-01,1.817323923110961970e-01,1.817239642143249623e-01,1.817155599594116322e-01,1.817071557044983021e-01,1.816987276077270397e-01,1.816903352737426758e-01,1.816819071769714411e-01,1.816735148429870494e-01,1.816650867462158148e-01,1.816566944122314509e-01,1.816482901573181208e-01,1.816398739814758245e-01,1.816314816474914606e-01,1.816230654716491644e-01,1.816146731376648005e-01,1.816062569618225042e-01,1.815978646278381403e-01,1.815894484519958441e-01,1.815810561180114802e-01,1.815726399421691839e-01,1.815642595291137584e-01,1.815558671951293945e-01,1.815474510192870983e-01,1.815390706062317006e-01,1.815306544303894043e-01,1.815222740173339788e-01,1.815138936042785534e-01,1.815054893493652233e-01,1.814970970153808594e-01,1.814886927604675293e-01,1.814803123474121038e-01,1.814719319343566784e-01,1.814635276794433483e-01,1.814551472663879506e-01,1.814467549324035589e-01,1.814383745193481334e-01,1.814299941062927357e-01,1.814216017723083441e-01,1.814132213592529186e-01,1.814048290252685547e-01
