6.195438861846923606e-01,6.352555274963378462e-01,6.517872810363769531e-01,6.692028999328613059e-01,6.875748157501220259e-01,7.069839000701904075e-01,7.275206089019775613e-01,7.492861747741699219e-01,7.723941802978515625e-01,7.969728946685791238e-01,8.231672286987304910e-01,8.511419296264648438e-01,8.810850143432616965e-01,9.132116317749023882e-01,9.477698326110839400e-01,9.850463867187500000e-01,1.000000000000000000e+00,1.000000000000000000e+00,1.000000000000000000e+00,1.000000000000000000e+00,1.000000000000000000e+00,1.000000000000000000e+00,1.000000000000000000e+00,1.000000000000000000e+00,1.000000000000000000e+00,1.000000000000000000e+00,1.000000000000000000e+00,1.000000000000000000e+00,1.000000000000000000e+00,1.000000000000000000e+00,1.000000000000000000e+00,1.000000000000000000e+00,1.000000000000000000e+00,1.000000000000000000e+00,1.000000000000000000e+00,1.000000000000000000e+00,1.000000000000000000e+00,1.000000000000000000e+00,1.000000000000000000e+00,1.000000000000000000e+00,1.000000000000000000e+00,1.000000000000000000e+00,1.000000000000000000e+00,1.000000000000000000e+00,1.000000000000000000e+00,1.000000000000000000e+00,1.000000000000000000e+00,1.000000000000000000e+00,1.000000000000000000e+00,1.000000000000000000e+00,1.000000000000000000e+00,1.000000000000000000e+00,1.000000000000000000e+00,1.000000000000000000e+00,1.000000000000000000e+00,1.000000000000000000e+00,3.578791618347167969e-01,3.534757137298584206e-01,3.511711120605468528e-01,3.420449256896972434e-01,3.360735416412353738e-01,3.328974485397339089e-01,3.297994375228882058e-01,3.279445171356201172e-01,3.271841287612914928e-01,3.264272212982177734e-01,3.279559850692749245e-01,3.302498340606689342e-01,3.362588167190551647e-01,3.560101985931396484e-01,3.521548271179198997e-01,3.509456157684326394e-01,9.077559471130370872e-01,8.798835754394531694e-01,8.536719322204590066e-01,8.289767265319823997e-01,8.056701660156250222e-01,7.836382865905762163e-01,7.627793788909912331e-01,7.430020332336425559e-01
6.195306777954101562e-01,6.352416515350342019e-01,6.517701625823975053e-01,6.691844940185547319e-01,6.875553131103515625e-01,7.069633483886719194e-01,7.274988174438477007e-01,7.492630004882812056e-01,7.723696231842041016e-01,7.969466686248779519e-01,8.231392860412597434e-01,8.511121749877930132e-01,8.810529708862304688e-01,9.131772994995117632e-01,9.477328300476074441e-01,9.850064277648925559e-01,1.000000000000000000e+00,1.000000000000000000e+00,1.000000000000000000e+00,1.000000000000000000e+00,1.000000000000000000e+00,1.000000000000000000e+00,1.000000000000000000e+00,1.000000000000000000e+00,1.000000000000000000e+00,1.000000000000000000e+00,1.000000000000000000e+00,1.000000000000000000e+00,1.000000000000000000e+00,1.000000000000000000e+00,1.000000000000000000e+00,1.000000000000000000e+00,1.000000000000000000e+00,1.000000000000000000e+00,1.000000000000000000e+00,1.000000000000000000e+00,1.000000000000000000e+00,1.000000000000000000e+00,1.000000000000000000e+00,1.000000000000000000e+00,1.000000000000000000e+00,1.000000000000000000e+00,1.000000000000000000e+00,1.000000000000000000e+00,1.000000000000000000e+00,1.000000000000000000e+00,1.000000000000000000e+00,1.000000000000000000e+00,1.000000000000000000e+00,1.000000000000000000e+00,1.000000000000000000e+00,1.000000000000000000e+00,1.000000000000000000e+00,1.000000000000000000e+00,1.000000000000000000e+00,1.000000000000000000e+00,3.586191177368164285e-01,3.540573835372924916e-01,3.499941825866699219e-01,3.418771743774414174e-01,3.352792739868163951e-01,3.323299169540405162e-01,3.295962572097778098e-01,3.285640001296997181e-01,3.274696588516235463e-01,3.262356519699096680e-01,3.288195133209228516e-01,3.305774688720702903e-01,3.371376276016235241e-01,3.542015790939331277e-01,3.497220993041992299e-01,3.482927083969116211e-01,9.077806472778320312e-01,8.799068450927733931e-01,8.536937713623047319e-01,8.289973258972167525e-01,8.056897163391113503e-01,7.836567878723144087e-01,7.627968311309814009e-01,7.430185317993164285e-01
6.195174694061279519e-01,6.352277755737304465e-01,6.517555713653564453e-01,6.691664695739746316e-01,6.875358581542968528e-01,7.069427013397217019e-01,7.274770736694335938e-01,7.492398738861083540e-01,7.723450183868407759e-01,7.969205379486083984e-01,8.231113433837891069e-01,8.510823249816894531e-01,8.810211181640624778e-01,9.131429672241211382e-01,9.476958274841308372e-01,9.849664688110351118e-01,1.000000000000000000e+00,1.000000000000000000e+00,1.000000000000000000e+00,1.000000000000000000e+00,1.000000000000000000e+00,1.000000000000000000e+00,1.000000000000000000e+00,1.000000000000000000e+00,1.000000000000000000e+00,1.000000000000000000e+00,1.000000000000000000e+00,1.000000000000000000e+00,1.000000000000000000e+00,1.000000000000000000e+00,1.000000000000000000e+00,1.000000000000000000e+00,1.000000000000000000e+00,1.000000000000000000e+00,1.000000000000000000e+00,1.000000000000000000e+00,1.000000000000000000e+00,1.000000000000000000e+00,1.000000000000000000e+00,1.000000000000000000e+00,1.000000000000000000e+00,1.000000000000000000e+00,1.000000000000000000e+00,1.000000000000000000e+00,1.000000000000000000e+00,1.000000000000000000e+00,1.000000000000000000e+00,1.000000000000000000e+00,1.000000000000000000e+00,1.000000000000000000e+00,1.000000000000000000e+00,1.000000000000000000e+00,1.000000000000000000e+00,1.000000000000000000e+00,1.000000000000000000e+00,1.000000000000000000e+00,3.565992593765258678e-01,3.514497995376587025e-01,3.507786512374878041e-01,3.400183439254760853e-01,3.346222400665282981e-01,3.320744514465331920e-01,3.300810575485229603e-01,3.298310518264770397e-01,3.295814037322998269e-01,3.292640209197997825e-01,3.303509950637817383e-01,3.316152334213257058e-01,3.378403902053833119e-01,3.533507585525512695e-01,3.488415718078613503e-01,3.460365533828735352e-01,3.472669363021850808e-01,8.799301147460937278e-01,8.537156105041503462e-01,8.290180206298828347e-01,8.057091712951660600e-01,7.836751937866210938e-01,7.628143310546875444e-01,7.430351734161376731e-01
6.195042610168457475e-01,6.352138519287109375e-01,6.517409801483153853e-01,6.691510677337646484e-01,6.875167846679687278e-01,7.069221496582031028e-01,7.274552345275878684e-01,7.492167949676513672e-01,7.723204612731933150e-01,7.968943595886230913e-01,8.230834960937499778e-01,8.510524749755858931e-01,8.809890747070312500e-01,9.131086349487305132e-01,9.476588249206543413e-01,9.849265098571777788e-01,1.000000000000000000e+00,1.000000000000000000e+00,1.000000000000000000e+00,1.000000000000000000e+00,1.000000000000000000e+00,1.000000000000000000e+00,1.000000000000000000e+00,1.000000000000000000e+00,1.000000000000000000e+00,1.000000000000000000e+00,1.000000000000000000e+00,1.000000000000000000e+00,1.000000000000000000e+00,1.000000000000000000e+00,1.000000000000000000e+00,1.000000000000000000e+00,1.000000000000000000e+00,1.000000000000000000e+00,1.000000000000000000e+00,1.000000000000000000e+00,1.000000000000000000e+00,1.000000000000000000e+00,1.000000000000000000e+00,1.000000000000000000e+00,1.000000000000000000e+00,1.000000000000000000e+00,1.000000000000000000e+00,1.000000000000000000e+00,1.000000000000000000e+00,1.000000000000000000e+00,1.000000000000000000e+00,1.000000000000000000e+00,1.000000000000000000e+00,1.000000000000000000e+00,1.000000000000000000e+00,1.000000000000000000e+00,1.000000000000000000e+00,1.000000000000000000e+00,1.000000000000000000e+00,1.000000000000000000e+00,3.540581226348876731e-01,3.494346857070922963e-01,3.477027893066406139e-01,3.387450456619262584e-01,3.335540771484374889e-01,3.311573743820190319e-01,3.287948846817016491e-01,3.328736066818237527e-01,3.326193332672119363e-01,3.322457551956176647e-01,3.333525180816650502e-01,3.320518255233764759e-01,3.341112136840820312e-01,3.557308673858642356e-01,3.485124111175537109e-01,3.433715820312500111e-01,3.423283576965331920e-01,8.799533843994140625e-01,8.537375450134276900e-01,8.290386199951171875e-01,8.057286262512206587e-01,7.836936473846435325e-01,7.628317832946777122e-01,7.430517196655272993e-01
6.194910526275634322e-01,6.351999759674071822e-01,6.517263889312744363e-01,6.691356658935546653e-01,6.875005245208740678e-01,7.069018840789794700e-01,7.274334430694580078e-01,7.491936206817626509e-01,7.722959518432617188e-01,7.968682289123535378e-01,8.230555534362793413e-01,8.510226249694824441e-01,8.809571266174316406e-01,9.130743026733398882e-01,9.476218223571777344e-01,9.848865509033203347e-01,1.000000000000000000e+00,1.000000000000000000e+00,1.000000000000000000e+00,1.000000000000000000e+00,1.000000000000000000e+00,1.000000000000000000e+00,1.000000000000000000e+00,1.000000000000000000e+00,1.000000000000000000e+00,1.000000000000000000e+00,1.000000000000000000e+00,1.000000000000000000e+00,1.000000000000000000e+00,1.000000000000000000e+00,1.000000000000000000e+00,1.000000000000000000e+00,1.000000000000000000e+00,1.000000000000000000e+00,1.000000000000000000e+00,1.000000000000000000e+00,1.000000000000000000e+00,1.000000000000000000e+00,1.000000000000000000e+00,1.000000000000000000e+00,1.000000000000000000e+00,1.000000000000000000e+00,1.000000000000000000e+00,1.000000000000000000e+00,1.000000000000000000e+00,1.000000000000000000e+00,1.000000000000000000e+00,1.000000000000000000e+00,1.000000000000000000e+00,1.000000000000000000e+00,1.000000000000000000e+00,1.000000000000000000e+00,1.000000000000000000e+00,1.000000000000000000e+00,1.000000000000000000e+00,1.000000000000000000e+00,3.528939247131347434e-01,3.478810071945190319e-01,3.471689462661743386e-01,3.377088069915771262e-01,3.313089609146118164e-01,3.291814565658569558e-01,3.271634340286254661e-01,3.314768075942993164e-01,3.355095624923706277e-01,3.352819919586181863e-01,3.322879314422607644e-01,3.297097206115722767e-01,3.266080379486083762e-01,3.326883316040039062e-01,3.480240106582641602e-01,3.428582191467285378e-01,3.393956899642944225e-01,8.799765586853027788e-01,8.537593841552734153e-01,8.290593147277831587e-01,8.057481765747069868e-01,7.837120532989502175e-01,7.628487586975097878e-01,7.430671691894531472e-01
6.194778442382812278e-01,6.351861000061035378e-01,6.517117500305176225e-01,6.691202163696289285e-01,6.874842643737792969e-01,7.068847179412841575e-01,7.274119377136230025e-01,7.491705417633056641e-01,7.722712993621826394e-01,7.968420982360839844e-01,8.230276107788085938e-01,8.509927749633788840e-01,8.809251785278320312e-01,9.130399703979492632e-01,9.475848197937011275e-01,9.848464965820312722e-01,1.000000000000000000e+00,1.000000000000000000e+00,1.000000000000000000e+00,1.000000000000000000e+00,1.000000000000000000e+00,1.000000000000000000e+00,1.000000000000000000e+00,1.000000000000000000e+00,1.000000000000000000e+00,1.000000000000000000e+00,1.000000000000000000e+00,1.000000000000000000e+00,1.000000000000000000e+00,1.000000000000000000e+00,1.000000000000000000e+00,1.000000000000000000e+00,1.000000000000000000e+00,1.000000000000000000e+00,1.000000000000000000e+00,1.000000000000000000e+00,1.000000000000000000e+00,1.000000000000000000e+00,1.000000000000000000e+00,1.000000000000000000e+00,1.000000000000000000e+00,1.000000000000000000e+00,1.000000000000000000e+00,1.000000000000000000e+00,1.000000000000000000e+00,1.000000000000000000e+00,1.000000000000000000e+00,1.000000000000000000e+00,1.000000000000000000e+00,1.000000000000000000e+00,1.000000000000000000e+00,1.000000000000000000e+00,1.000000000000000000e+00,1.000000000000000000e+00,1.000000000000000000e+00,1.000000000000000000e+00,3.518655776977538951e-01,3.456466913223266713e-01,3.467777729034423606e-01,3.364178657531738392e-01,3.293716192245483287e-01,3.271772146224975475e-01,3.250165462493896373e-01,3.251527070999145619e-01,3.330649137496948242e-01,3.329090833663940208e-01,3.290292978286742942e-01,3.259732484817504661e-01,3.233274698257446178e-01,3.255687952041625977e-01,3.519777774810791127e-01,3.428831815719604603e-01,3.403312206268310769e-01,8.799998283386230025e-01,8.537814140319823775e-01,8.290797233581542747e-01,8.057665824890136719e-01,7.837287902832030806e-01,7.628643512725830078e-01,7.430819034576415794e-01
6.194646358489990234e-01,6.351722717285156472e-01,6.516971588134765625e-01,6.691048145294189453e-01,6.874680042266845259e-01,7.068675041198730913e-01,7.273937225341796653e-01,7.491477489471435325e-01,7.722467899322509322e-01,7.968159198760986772e-01,8.229997634887695757e-01,8.509629249572754350e-01,8.808931350708008035e-01,9.130056381225586382e-01,9.475479125976562500e-01,9.848066329956054465e-01,1.000000000000000000e+00,1.000000000000000000e+00,1.000000000000000000e+00,1.000000000000000000e+00,1.000000000000000000e+00,1.000000000000000000e+00,1.000000000000000000e+00,1.000000000000000000e+00,1.000000000000000000e+00,1.000000000000000000e+00,1.000000000000000000e+00,1.000000000000000000e+00,1.000000000000000000e+00,1.000000000000000000e+00,1.000000000000000000e+00,1.000000000000000000e+00,1.000000000000000000e+00,1.000000000000000000e+00,1.000000000000000000e+00,1.000000000000000000e+00,1.000000000000000000e+00,1.000000000000000000e+00,1.000000000000000000e+00,1.000000000000000000e+00,1.000000000000000000e+00,1.000000000000000000e+00,1.000000000000000000e+00,1.000000000000000000e+00,1.000000000000000000e+00,1.000000000000000000e+00,1.000000000000000000e+00,1.000000000000000000e+00,1.000000000000000000e+00,1.000000000000000000e+00,1.000000000000000000e+00,1.000000000000000000e+00,1.000000000000000000e+00,1.000000000000000000e+00,1.000000000000000000e+00,1.000000000000000000e+00,3.496746778488158958e-01,3.435760974884033425e-01,3.447077035903930442e-01,3.360212326049804576e-01,3.289327859878540261e-01,3.267032384872436412e-01,3.245062112808227428e-01,3.229114532470703236e-01,3.280766725540161244e-01,3.324380874633788840e-01,3.263458967208862083e-01,3.240867614746093528e-01,3.218626976013183594e-01,3.219046592712402344e-01,3.291881799697876088e-01,3.480065584182739369e-01,3.360316991806030495e-01,3.364710330963134877e-01,8.538015365600586382e-01,8.290981292724609597e-01,8.057839393615722212e-01,7.837451934814453347e-01,7.628798961639404741e-01,7.430966854095458762e-01
6.194514274597168191e-01,6.351583957672118919e-01,6.516825199127197488e-01,6.690894126892089622e-01,6.874516963958740012e-01,7.068502902984619141e-01,7.273755073547363281e-01,7.491283893585205522e-01,7.722224235534668191e-01,7.967897891998291238e-01,8.229719161987304465e-01,8.509331703186034934e-01,8.808611869812011941e-01,9.129712104797362837e-01,9.475109100341796431e-01,9.847666740417480025e-01,1.000000000000000000e+00,1.000000000000000000e+00,1.000000000000000000e+00,1.000000000000000000e+00,1.000000000000000000e+00,1.000000000000000000e+00,1.000000000000000000e+00,1.000000000000000000e+00,1.000000000000000000e+00,1.000000000000000000e+00,1.000000000000000000e+00,1.000000000000000000e+00,1.000000000000000000e+00,1.000000000000000000e+00,1.000000000000000000e+00,1.000000000000000000e+00,1.000000000000000000e+00,1.000000000000000000e+00,1.000000000000000000e+00,1.000000000000000000e+00,1.000000000000000000e+00,1.000000000000000000e+00,1.000000000000000000e+00,1.000000000000000000e+00,1.000000000000000000e+00,1.000000000000000000e+00,1.000000000000000000e+00,1.000000000000000000e+00,1.000000000000000000e+00,1.000000000000000000e+00,1.000000000000000000e+00,1.000000000000000000e+00,1.000000000000000000e+00,1.000000000000000000e+00,1.000000000000000000e+00,1.000000000000000000e+00,1.000000000000000000e+00,1.000000000000000000e+00,1.000000000000000000e+00,1.000000000000000000e+00,3.482077598571777233e-01,3.446773767471313366e-01,3.444852828979492188e-01,3.351503372192382590e-01,3.285976409912109153e-01,3.263919353485107422e-01,3.242156505584716797e-01,3.220681905746459739e-01,3.268695354461669811e-01,3.323354244232177845e-01,3.258398532867431419e-01,3.231255054473877175e-01,3.210805654525756836e-01,3.193458795547485241e-01,3.263332128524780162e-01,3.377834320068359153e-01,3.312548875808715709e-01,3.314958333969116322e-01,8.538209915161132368e-01,8.291164398193359153e-01,8.058013916015625000e-01,7.837616443634033425e-01,7.628954887390136941e-01,7.431115150451660378e-01
6.194382667541503684e-01,6.351444721221923828e-01,6.516679286956786887e-01,6.690740108489989790e-01,6.874354362487793413e-01,7.068330764770507368e-01,7.273573875427246094e-01,7.491090774536133257e-01,7.722019195556640847e-01,7.967637538909911887e-01,8.229439735412598100e-01,8.509033203125000444e-01,8.808293342590332031e-01,9.129368782043456587e-01,9.474739074707031472e-01,9.847267150878906694e-01,1.000000000000000000e+00,1.000000000000000000e+00,1.000000000000000000e+00,1.000000000000000000e+00,1.000000000000000000e+00,1.000000000000000000e+00,1.000000000000000000e+00,1.000000000000000000e+00,1.000000000000000000e+00,1.000000000000000000e+00,1.000000000000000000e+00,1.000000000000000000e+00,1.000000000000000000e+00,1.000000000000000000e+00,1.000000000000000000e+00,1.000000000000000000e+00,1.000000000000000000e+00,1.000000000000000000e+00,1.000000000000000000e+00,1.000000000000000000e+00,1.000000000000000000e+00,1.000000000000000000e+00,1.000000000000000000e+00,1.000000000000000000e+00,1.000000000000000000e+00,1.000000000000000000e+00,1.000000000000000000e+00,1.000000000000000000e+00,1.000000000000000000e+00,1.000000000000000000e+00,1.000000000000000000e+00,1.000000000000000000e+00,1.000000000000000000e+00,1.000000000000000000e+00,1.000000000000000000e+00,1.000000000000000000e+00,1.000000000000000000e+00,1.000000000000000000e+00,1.000000000000000000e+00,1.000000000000000000e+00,3.489801168441772350e-01,3.432059526443481667e-01,3.508964300155639759e-01,3.363419055938720592e-01,3.286917448043823464e-01,3.263498306274413840e-01,3.241741180419921986e-01,3.220272064208984375e-01,3.263544321060180553e-01,3.327050924301147572e-01,3.260459423065185658e-01,3.224701166152953991e-01,3.204581499099731223e-01,3.184466838836669811e-01,3.238011837005615456e-01,9.376585006713866743e-01,3.289581060409546009e-01,3.311025381088256725e-01,3.325782299041747936e-01,8.291348457336426003e-01,8.058187484741210493e-01,7.837780475616454856e-01,7.629110336303710493e-01,7.431262493133544700e-01
6.194250583648681641e-01,6.351305961608886275e-01,6.516532897949218750e-01,6.690586090087891069e-01,6.874191761016845703e-01,7.068159103393554243e-01,7.273391723632812722e-01,7.490897655487060991e-01,7.721813678741454856e-01,7.967419147491454634e-01,8.229162216186522993e-01,8.508734703063964844e-01,8.807972908020019753e-01,9.129026412963867632e-01,9.474369049072265403e-01,9.846867561340332253e-01,1.000000000000000000e+00,1.000000000000000000e+00,1.000000000000000000e+00,1.000000000000000000e+00,1.000000000000000000e+00,1.000000000000000000e+00,1.000000000000000000e+00,1.000000000000000000e+00,1.000000000000000000e+00,1.000000000000000000e+00,1.000000000000000000e+00,1.000000000000000000e+00,1.000000000000000000e+00,1.000000000000000000e+00,1.000000000000000000e+00,1.000000000000000000e+00,1.000000000000000000e+00,1.000000000000000000e+00,1.000000000000000000e+00,1.000000000000000000e+00,1.000000000000000000e+00,1.000000000000000000e+00,1.000000000000000000e+00,1.000000000000000000e+00,1.000000000000000000e+00,1.000000000000000000e+00,1.000000000000000000e+00,1.000000000000000000e+00,1.000000000000000000e+00,1.000000000000000000e+00,1.000000000000000000e+00,1.000000000000000000e+00,1.000000000000000000e+00,1.000000000000000000e+00,1.000000000000000000e+00,1.000000000000000000e+00,1.000000000000000000e+00,1.000000000000000000e+00,1.000000000000000000e+00,1.000000000000000000e+00,3.467684030532837136e-01,3.390387535095215066e-01,3.371946573257446067e-01,3.382869720458984153e-01,3.291161537170410045e-01,3.264198064804076926e-01,3.241325855255127175e-01,3.219862222671509011e-01,3.259490728378295898e-01,3.328730344772338756e-01,3.261649370193481223e-01,3.214348077774047963e-01,3.197526693344115989e-01,3.178344249725341686e-01,3.215028524398803600e-01,9.376820564270019753e-01,9.079707145690918413e-01,3.418642044067382590e-01,3.239300012588500755e-01,8.291532516479491743e-01,8.058361053466797097e-01,7.837945461273193581e-01,7.629266262054443803e-01,7.431410789489746316e-01
6.194118499755859597e-01,6.351167201995849831e-01,6.516386508941650613e-01,6.690432071685791238e-01,6.874029159545897993e-01,7.067986965179443581e-01,7.273209571838379350e-01,7.490704536437988725e-01,7.721608638763427512e-01,7.967200756072998491e-01,8.228928565979003462e-01,8.508436203002929243e-01,8.807653427124023660e-01,9.128683090209961382e-01,9.473999977111816628e-01,9.846468925476073997e-01,1.000000000000000000e+00,1.000000000000000000e+00,1.000000000000000000e+00,1.000000000000000000e+00,1.000000000000000000e+00,1.000000000000000000e+00,1.000000000000000000e+00,1.000000000000000000e+00,1.000000000000000000e+00,1.000000000000000000e+00,1.000000000000000000e+00,1.000000000000000000e+00,1.000000000000000000e+00,1.000000000000000000e+00,1.000000000000000000e+00,1.000000000000000000e+00,1.000000000000000000e+00,1.000000000000000000e+00,1.000000000000000000e+00,1.000000000000000000e+00,1.000000000000000000e+00,1.000000000000000000e+00,1.000000000000000000e+00,1.000000000000000000e+00,1.000000000000000000e+00,1.000000000000000000e+00,1.000000000000000000e+00,1.000000000000000000e+00,1.000000000000000000e+00,1.000000000000000000e+00,1.000000000000000000e+00,1.000000000000000000e+00,1.000000000000000000e+00,1.000000000000000000e+00,1.000000000000000000e+00,1.000000000000000000e+00,1.000000000000000000e+00,1.000000000000000000e+00,1.000000000000000000e+00,1.000000000000000000e+00,3.440614938735961914e-01,3.362287282943725586e-01,3.396579265594482644e-01,3.406668424606323353e-01,3.309862375259399192e-01,3.265807867050171120e-01,3.241790533065795898e-01,3.219452619552612416e-01,3.252014636993408314e-01,3.330147743225097545e-01,3.262804746627807617e-01,3.204061508178711049e-01,3.187347173690796009e-01,3.170806407928467019e-01,3.193936109542846458e-01,9.377056121826171653e-01,9.079927444458008035e-01,8.801052093505858931e-01,3.299480915069580300e-01,8.291716575622558594e-01,8.058534622192382590e-01,7.838109970092773660e-01,7.629421710968017356e-01,7.431558132171630637e-01
6.193986415863037553e-01,6.351028442382812278e-01,6.516240596771240012e-01,6.690277576446532759e-01,6.873866558074951394e-01,7.067815780639647993e-01,7.273027420043944868e-01,7.490511417388916460e-01,7.721403598785400169e-01,7.966982364654541238e-01,8.228695869445801225e-01,8.508187294006347434e-01,8.807333946228027566e-01,9.128339767456055132e-01,9.473629951477050559e-01,9.846069335937499556e-01,1.000000000000000000e+00,1.000000000000000000e+00,1.000000000000000000e+00,1.000000000000000000e+00,1.000000000000000000e+00,1.000000000000000000e+00,1.000000000000000000e+00,1.000000000000000000e+00,1.000000000000000000e+00,1.000000000000000000e+00,1.000000000000000000e+00,1.000000000000000000e+00,1.000000000000000000e+00,1.000000000000000000e+00,1.000000000000000000e+00,1.000000000000000000e+00,1.000000000000000000e+00,1.000000000000000000e+00,1.000000000000000000e+00,1.000000000000000000e+00,1.000000000000000000e+00,1.000000000000000000e+00,1.000000000000000000e+00,1.000000000000000000e+00,1.000000000000000000e+00,1.000000000000000000e+00,1.000000000000000000e+00,1.000000000000000000e+00,1.000000000000000000e+00,1.000000000000000000e+00,1.000000000000000000e+00,1.000000000000000000e+00,1.000000000000000000e+00,1.000000000000000000e+00,1.000000000000000000e+00,1.000000000000000000e+00,1.000000000000000000e+00,1.000000000000000000e+00,1.000000000000000000e+00,1.000000000000000000e+00,3.445126295089721569e-01,3.341315269470214733e-01,1.000000000000000000e+00,3.444512605667114369e-01,3.328776836395263561e-01,3.267418861389160267e-01,3.243378400802612305e-01,3.219413280487060658e-01,3.244572639465331809e-01,3.331565856933593750e-01,3.263961315155029519e-01,3.198275804519653542e-01,3.178643941879272239e-01,3.163160085678100586e-01,3.165236711502075195e-01,9.377290725708007368e-01,9.080148696899413840e-01,8.801259040832519753e-01,8.538990974426269309e-01,8.291900634765625444e-01,8.058708190917969194e-01,7.838274002075195090e-01,7.629577636718749556e-01,7.431705951690673606e-01
6.193854331970214400e-01,6.350889682769775835e-01,6.516094207763671875e-01,6.690123558044434038e-01,6.873703956604003684e-01,7.067644119262694868e-01,7.272845268249511497e-01,7.490318298339844194e-01,7.721198081970215288e-01,7.966763973236083984e-01,8.228462219238281694e-01,8.507938385009765625e-01,8.807065963745117632e-01,9.127996444702148882e-01,9.473259925842285600e-01,9.845669746398926225e-01,1.000000000000000000e+00,1.000000000000000000e+00,1.000000000000000000e+00,1.000000000000000000e+00,1.000000000000000000e+00,1.000000000000000000e+00,1.000000000000000000e+00,1.000000000000000000e+00,1.000000000000000000e+00,1.000000000000000000e+00,1.000000000000000000e+00,1.000000000000000000e+00,1.000000000000000000e+00,1.000000000000000000e+00,1.000000000000000000e+00,1.000000000000000000e+00,1.000000000000000000e+00,1.000000000000000000e+00,1.000000000000000000e+00,1.000000000000000000e+00,1.000000000000000000e+00,1.000000000000000000e+00,1.000000000000000000e+00,1.000000000000000000e+00,1.000000000000000000e+00,1.000000000000000000e+00,1.000000000000000000e+00,1.000000000000000000e+00,1.000000000000000000e+00,1.000000000000000000e+00,1.000000000000000000e+00,1.000000000000000000e+00,1.000000000000000000e+00,1.000000000000000000e+00,1.000000000000000000e+00,1.000000000000000000e+00,1.000000000000000000e+00,1.000000000000000000e+00,1.000000000000000000e+00,1.000000000000000000e+00,3.434675216674804576e-01,3.322067022323608176e-01,1.000000000000000000e+00,3.478402853012084739e-01,3.349086284637451394e-01,3.265668630599975475e-01,3.239284515380859153e-01,3.215189218521118386e-01,3.237723827362060658e-01,3.344039678573608176e-01,3.262549161911010853e-01,3.197099208831787331e-01,3.171617746353149192e-01,3.156728744506835938e-01,3.141457319259643444e-01,9.377526283264160378e-01,9.080368995666503462e-01,8.801465988159179465e-01,8.539185523986816406e-01,8.292084693908691184e-01,8.058881759643554688e-01,7.838438510894775169e-01,7.629734039306640403e-01,7.431853294372559038e-01
6.193722248077392356e-01,6.350750446319579634e-01,6.515948295593261275e-01,6.689969539642334206e-01,6.873541831970214622e-01,7.067471981048584206e-01,7.272663116455078125e-01,7.490125179290771928e-01,7.720993041992187944e-01,7.966545104980469194e-01,8.228229522705078347e-01,8.507689476013183816e-01,8.806798934936523882e-01,9.127707481384277344e-01,9.472890853881835715e-01,9.845270156860351785e-01,1.000000000000000000e+00,1.000000000000000000e+00,1.000000000000000000e+00,1.000000000000000000e+00,1.000000000000000000e+00,1.000000000000000000e+00,1.000000000000000000e+00,1.000000000000000000e+00,1.000000000000000000e+00,1.000000000000000000e+00,1.000000000000000000e+00,1.000000000000000000e+00,1.000000000000000000e+00,1.000000000000000000e+00,1.000000000000000000e+00,1.000000000000000000e+00,1.000000000000000000e+00,1.000000000000000000e+00,1.000000000000000000e+00,1.000000000000000000e+00,1.000000000000000000e+00,1.000000000000000000e+00,1.000000000000000000e+00,1.000000000000000000e+00,1.000000000000000000e+00,1.000000000000000000e+00,1.000000000000000000e+00,1.000000000000000000e+00,1.000000000000000000e+00,1.000000000000000000e+00,1.000000000000000000e+00,1.000000000000000000e+00,1.000000000000000000e+00,1.000000000000000000e+00,1.000000000000000000e+00,1.000000000000000000e+00,1.000000000000000000e+00,1.000000000000000000e+00,1.000000000000000000e+00,1.000000000000000000e+00,3.417703628540039174e-01,1.000000000000000000e+00,1.000000000000000000e+00,1.000000000000000000e+00,3.370892524719238392e-01,3.273914575576782338e-01,3.235008001327514537e-01,3.210976362228393777e-01,3.230988979339599609e-01,3.366181135177612194e-01,3.258883953094482422e-01,3.196690320968628152e-01,3.159322261810302845e-01,3.150323390960693137e-01,3.135113716125488281e-01,9.377761840820312278e-01,9.080590248107910378e-01,8.801672935485840288e-01,8.539381027221679688e-01,8.292268753051758035e-01,8.059056282043457475e-01,7.838602542877197710e-01,7.629889011383056419e-01,7.432001590728759544e-01
6.193694591522216353e-01,6.350661277770995872e-01,6.515801906585693137e-01,6.689815521240234375e-01,6.873379230499268022e-01,7.067299842834472434e-01,7.272481441497802290e-01,7.489932060241699663e-01,7.720788002014160600e-01,7.966326713562011941e-01,8.227996826171875000e-01,8.507440567016602007e-01,8.806532859802246316e-01,9.127421379089355469e-01,9.472579002380371316e-01,9.844871520996093528e-01,1.000000000000000000e+00,1.000000000000000000e+00,1.000000000000000000e+00,1.000000000000000000e+00,1.000000000000000000e+00,1.000000000000000000e+00,1.000000000000000000e+00,1.000000000000000000e+00,1.000000000000000000e+00,1.000000000000000000e+00,1.000000000000000000e+00,1.000000000000000000e+00,1.000000000000000000e+00,1.000000000000000000e+00,1.000000000000000000e+00,1.000000000000000000e+00,1.000000000000000000e+00,1.000000000000000000e+00,1.000000000000000000e+00,1.000000000000000000e+00,1.000000000000000000e+00,1.000000000000000000e+00,1.000000000000000000e+00,1.000000000000000000e+00,1.000000000000000000e+00,1.000000000000000000e+00,1.000000000000000000e+00,1.000000000000000000e+00,1.000000000000000000e+00,1.000000000000000000e+00,1.000000000000000000e+00,1.000000000000000000e+00,1.000000000000000000e+00,1.000000000000000000e+00,1.000000000000000000e+00,1.000000000000000000e+00,1.000000000000000000e+00,1.000000000000000000e+00,1.000000000000000000e+00,1.000000000000000000e+00,1.000000000000000000e+00,1.000000000000000000e+00,1.000000000000000000e+00,1.000000000000000000e+00,3.406111717224121205e-01,3.295921802520752064e-01,3.237309932708740123e-01,3.206774234771728738e-01,3.222703933715820312e-01,1.000000000000000000e+00,3.255227088928222545e-01,3.196281671524047741e-01,3.147716283798217551e-01,3.138414621353149414e-01,3.128795862197876199e-01,3.183393239974975364e-01,9.080810546875000000e-01,8.801880836486816184e-01,8.539575576782226785e-01,8.292452812194823775e-01,8.059229850769042969e-01,7.838767528533935325e-01,7.630045413970947266e-01,7.432148933410644975e-01
6.193693161010742632e-01,6.350659847259521040e-01,6.515789508819580522e-01,6.689736366271972212e-01,6.873224735260009544e-01,7.067128181457519309e-01,7.272299289703368919e-01,7.489738941192627397e-01,7.720582485198974609e-01,7.966108322143554688e-01,8.227764129638671653e-01,8.507191658020019087e-01,8.806265830993652566e-01,9.127134323120117410e-01,9.472270011901855469e-01,9.844532966613769309e-01,1.000000000000000000e+00,1.000000000000000000e+00,1.000000000000000000e+00,1.000000000000000000e+00,1.000000000000000000e+00,1.000000000000000000e+00,1.000000000000000000e+00,1.000000000000000000e+00,1.000000000000000000e+00,1.000000000000000000e+00,1.000000000000000000e+00,1.000000000000000000e+00,1.000000000000000000e+00,1.000000000000000000e+00,1.000000000000000000e+00,1.000000000000000000e+00,1.000000000000000000e+00,1.000000000000000000e+00,1.000000000000000000e+00,1.000000000000000000e+00,1.000000000000000000e+00,1.000000000000000000e+00,1.000000000000000000e+00,1.000000000000000000e+00,1.000000000000000000e+00,1.000000000000000000e+00,1.000000000000000000e+00,1.000000000000000000e+00,1.000000000000000000e+00,1.000000000000000000e+00,1.000000000000000000e+00,1.000000000000000000e+00,1.000000000000000000e+00,1.000000000000000000e+00,1.000000000000000000e+00,1.000000000000000000e+00,1.000000000000000000e+00,1.000000000000000000e+00,1.000000000000000000e+00,1.000000000000000000e+00,1.000000000000000000e+00,1.000000000000000000e+00,1.000000000000000000e+00,1.000000000000000000e+00,3.434142589569091908e-01,3.318227052688598744e-01,3.241995096206665150e-01,3.204847574234008789e-01,3.211424589157104714e-01,3.238597154617309792e-01,3.255697250366210715e-01,3.195872783660888561e-01,3.147320032119750866e-01,3.126374244689941184e-01,3.117782115936279519e-01,3.149247169494628906e-01,9.081030845642089622e-01,8.802088737487793191e-01,8.539771080017090066e-01,8.292636871337890625e-01,8.059403419494628462e-01,7.838931083679199219e-01,7.630200386047363281e-01,7.432297229766845481e-01
6.193659782409668413e-01,6.350658893585204856e-01,6.515788078308105691e-01,6.689734458923339844e-01,6.873223304748534712e-01,7.067060470581054688e-01,7.272148609161377397e-01,7.489545822143555132e-01,7.720377445220947266e-01,7.965890884399413618e-01,8.227530479431152122e-01,8.506942749023437278e-01,8.805998802185058816e-01,9.126848220825195535e-01,9.471961021423339622e-01,9.844199180603027122e-01,1.000000000000000000e+00,1.000000000000000000e+00,1.000000000000000000e+00,1.000000000000000000e+00,1.000000000000000000e+00,1.000000000000000000e+00,1.000000000000000000e+00,1.000000000000000000e+00,1.000000000000000000e+00,1.000000000000000000e+00,1.000000000000000000e+00,1.000000000000000000e+00,1.000000000000000000e+00,1.000000000000000000e+00,1.000000000000000000e+00,1.000000000000000000e+00,1.000000000000000000e+00,1.000000000000000000e+00,1.000000000000000000e+00,1.000000000000000000e+00,1.000000000000000000e+00,1.000000000000000000e+00,1.000000000000000000e+00,1.000000000000000000e+00,1.000000000000000000e+00,1.000000000000000000e+00,1.000000000000000000e+00,1.000000000000000000e+00,1.000000000000000000e+00,1.000000000000000000e+00,1.000000000000000000e+00,1.000000000000000000e+00,1.000000000000000000e+00,1.000000000000000000e+00,1.000000000000000000e+00,1.000000000000000000e+00,1.000000000000000000e+00,1.000000000000000000e+00,1.000000000000000000e+00,1.000000000000000000e+00,1.000000000000000000e+00,1.000000000000000000e+00,1.000000000000000000e+00,1.000000000000000000e+00,3.457323789596557506e-01,3.340471267700195201e-01,3.248020887374877819e-01,3.207201004028320535e-01,3.207938909530639870e-01,3.231228113174438588e-01,3.339009761810302623e-01,3.195643663406372292e-01,3.149776935577392467e-01,3.126706361770629772e-01,3.120399236679077259e-01,3.151944160461425670e-01,9.081252098083496538e-01,8.802295684814452903e-01,8.539965629577637163e-01,8.292820930480957475e-01,8.059577941894531250e-01,7.839096069335937944e-01,7.630356788635254128e-01,7.432445049285888450e-01
6.193527698516845259e-01,6.350546360015869585e-01,6.515733242034912331e-01,6.689733028411865012e-01,6.873221874237060991e-01,7.067059040069579856e-01,7.272147178649902566e-01,7.489494323730468972e-01,7.720234394073486328e-01,7.965672492980957475e-01,8.227297782897948775e-01,8.506692886352539285e-01,8.805731773376465066e-01,9.126561164855957475e-01,9.471652030944823775e-01,9.843866348266601118e-01,1.000000000000000000e+00,1.000000000000000000e+00,1.000000000000000000e+00,1.000000000000000000e+00,1.000000000000000000e+00,1.000000000000000000e+00,1.000000000000000000e+00,1.000000000000000000e+00,1.000000000000000000e+00,1.000000000000000000e+00,1.000000000000000000e+00,1.000000000000000000e+00,1.000000000000000000e+00,1.000000000000000000e+00,1.000000000000000000e+00,1.000000000000000000e+00,1.000000000000000000e+00,1.000000000000000000e+00,1.000000000000000000e+00,1.000000000000000000e+00,1.000000000000000000e+00,1.000000000000000000e+00,1.000000000000000000e+00,1.000000000000000000e+00,1.000000000000000000e+00,1.000000000000000000e+00,1.000000000000000000e+00,1.000000000000000000e+00,1.000000000000000000e+00,1.000000000000000000e+00,1.000000000000000000e+00,1.000000000000000000e+00,1.000000000000000000e+00,1.000000000000000000e+00,1.000000000000000000e+00,1.000000000000000000e+00,1.000000000000000000e+00,1.000000000000000000e+00,1.000000000000000000e+00,1.000000000000000000e+00,1.000000000000000000e+00,1.000000000000000000e+00,1.000000000000000000e+00,1.000000000000000000e+00,1.000000000000000000e+00,3.366703510284423939e-01,3.262283086776733287e-01,3.216495752334594949e-01,3.217382669448852761e-01,3.244277477264404519e-01,3.350385665893554910e-01,3.207029581069946178e-01,3.158084869384765736e-01,3.130858659744262806e-01,3.125454425811767800e-01,9.378703117370605913e-01,9.081472396850586160e-01,8.802502632141113725e-01,8.540162086486816628e-01,8.293004035949707031e-01,8.059751510620116743e-01,7.839261054992675559e-01,7.630512237548827681e-01,7.432592391967773882e-01
6.193394660949707031e-01,6.350406646728515847e-01,6.515586853027344194e-01,6.689589500427246538e-01,6.873140811920166460e-01,7.067048549652099609e-01,7.272145271301269087e-01,7.489492416381835493e-01,7.720231533050536665e-01,7.965641021728515625e-01,8.227163314819335715e-01,8.506444931030273660e-01,8.805465698242187500e-01,9.126275062561035600e-01,9.471343994140625222e-01,9.843533515930176225e-01,1.000000000000000000e+00,1.000000000000000000e+00,1.000000000000000000e+00,1.000000000000000000e+00,1.000000000000000000e+00,1.000000000000000000e+00,1.000000000000000000e+00,1.000000000000000000e+00,1.000000000000000000e+00,1.000000000000000000e+00,1.000000000000000000e+00,1.000000000000000000e+00,1.000000000000000000e+00,1.000000000000000000e+00,1.000000000000000000e+00,1.000000000000000000e+00,1.000000000000000000e+00,1.000000000000000000e+00,1.000000000000000000e+00,1.000000000000000000e+00,1.000000000000000000e+00,1.000000000000000000e+00,1.000000000000000000e+00,1.000000000000000000e+00,1.000000000000000000e+00,1.000000000000000000e+00,1.000000000000000000e+00,1.000000000000000000e+00,1.000000000000000000e+00,1.000000000000000000e+00,1.000000000000000000e+00,1.000000000000000000e+00,1.000000000000000000e+00,1.000000000000000000e+00,1.000000000000000000e+00,1.000000000000000000e+00,1.000000000000000000e+00,1.000000000000000000e+00,1.000000000000000000e+00,1.000000000000000000e+00,1.000000000000000000e+00,1.000000000000000000e+00,1.000000000000000000e+00,1.000000000000000000e+00,1.000000000000000000e+00,3.360359668731689453e-01,3.285312414169311301e-01,3.236694097518920676e-01,3.247648477554321289e-01,3.473793745040893444e-01,3.302542448043823131e-01,3.233759403228759766e-01,3.175032138824462891e-01,3.159704446792602761e-01,3.152937650680541770e-01,9.378938674926757812e-01,9.081692695617675781e-01,8.802709579467773438e-01,8.540356636047363725e-01,8.293188095092773882e-01,8.059925079345703347e-01,7.839425086975098100e-01,7.630668163299560991e-01,7.432740688323974387e-01
6.193263053894042525e-01,6.350267887115478294e-01,6.515440464019774947e-01,6.689435005187988059e-01,6.872977256774902566e-01,7.066875934600830300e-01,7.272032737731933816e-01,7.489457130432128906e-01,7.720230102539062944e-01,7.965639591217040794e-01,8.227161407470703347e-01,8.506440162658691628e-01,8.805345535278320535e-01,9.126022338867187944e-01,9.471035957336425559e-01,9.843199729919434038e-01,1.000000000000000000e+00,1.000000000000000000e+00,1.000000000000000000e+00,1.000000000000000000e+00,1.000000000000000000e+00,1.000000000000000000e+00,1.000000000000000000e+00,1.000000000000000000e+00,1.000000000000000000e+00,1.000000000000000000e+00,1.000000000000000000e+00,1.000000000000000000e+00,1.000000000000000000e+00,1.000000000000000000e+00,1.000000000000000000e+00,1.000000000000000000e+00,1.000000000000000000e+00,1.000000000000000000e+00,1.000000000000000000e+00,1.000000000000000000e+00,1.000000000000000000e+00,1.000000000000000000e+00,1.000000000000000000e+00,1.000000000000000000e+00,1.000000000000000000e+00,1.000000000000000000e+00,1.000000000000000000e+00,1.000000000000000000e+00,1.000000000000000000e+00,1.000000000000000000e+00,1.000000000000000000e+00,1.000000000000000000e+00,1.000000000000000000e+00,1.000000000000000000e+00,1.000000000000000000e+00,1.000000000000000000e+00,1.000000000000000000e+00,1.000000000000000000e+00,1.000000000000000000e+00,1.000000000000000000e+00,1.000000000000000000e+00,1.000000000000000000e+00,1.000000000000000000e+00,1.000000000000000000e+00,1.000000000000000000e+00,3.364189386367797963e-01,3.307184219360351785e-01,3.265364408493042214e-01,3.281563758850097878e-01,3.429297208786010742e-01,3.350970506668090598e-01,3.272997140884399414e-01,3.226983547210693359e-01,3.215509414672851340e-01,9.696551322937011497e-01,9.379173278808593528e-01,9.081913948059081587e-01,8.802917480468750444e-01,8.540552139282227007e-01,8.293373107910155806e-01,8.060098648071288840e-01,7.839589595794678178e-01,7.630827903747559038e-01,7.432898998260497603e-01
6.193130493164062944e-01,6.350128650665283203e-01,6.515294075012206809e-01,6.689280986785888228e-01,6.872814655303954856e-01,7.066703796386718528e-01,7.271850109100341797e-01,7.489263534545897993e-01,7.720077991485595481e-01,7.965572357177734819e-01,8.227159500122069868e-01,8.506437301635741965e-01,8.805342674255370872e-01,9.126018524169922097e-01,9.470934867858886719e-01,9.842947006225586382e-01,1.000000000000000000e+00,1.000000000000000000e+00,1.000000000000000000e+00,1.000000000000000000e+00,1.000000000000000000e+00,1.000000000000000000e+00,1.000000000000000000e+00,1.000000000000000000e+00,1.000000000000000000e+00,1.000000000000000000e+00,1.000000000000000000e+00,1.000000000000000000e+00,1.000000000000000000e+00,1.000000000000000000e+00,1.000000000000000000e+00,1.000000000000000000e+00,1.000000000000000000e+00,1.000000000000000000e+00,1.000000000000000000e+00,1.000000000000000000e+00,1.000000000000000000e+00,1.000000000000000000e+00,1.000000000000000000e+00,1.000000000000000000e+00,1.000000000000000000e+00,1.000000000000000000e+00,1.000000000000000000e+00,1.000000000000000000e+00,1.000000000000000000e+00,1.000000000000000000e+00,1.000000000000000000e+00,1.000000000000000000e+00,1.000000000000000000e+00,1.000000000000000000e+00,1.000000000000000000e+00,1.000000000000000000e+00,1.000000000000000000e+00,1.000000000000000000e+00,1.000000000000000000e+00,1.000000000000000000e+00,1.000000000000000000e+00,1.000000000000000000e+00,1.000000000000000000e+00,1.000000000000000000e+00,3.491874217987060436e-01,3.376043081283569558e-01,3.329348802566528542e-01,3.294547319412231556e-01,3.337692499160766491e-01,3.456509828567504994e-01,3.379906892776489147e-01,3.337657213211059348e-01,3.299896955490112527e-01,1.000000000000000000e+00,9.696803092956542969e-01,9.379408836364746538e-01,9.082135200500488503e-01,8.803124427795410156e-01,8.540746688842772993e-01,8.293557167053222656e-01,8.060281753540039507e-01,7.839770317077636719e-01,7.631003379821776900e-01,7.433064937591552512e-01
6.192998409271239790e-01,6.349989891052245650e-01,6.515147209167480025e-01,6.689126014709472212e-01,6.872651576995849609e-01,7.066531181335449219e-01,7.271667957305908425e-01,7.489070415496825728e-01,7.719872951507568137e-01,7.965353965759277566e-01,8.226958274841308372e-01,8.506331443786621094e-01,8.805340766906738503e-01,9.126016616821288618e-01,9.470932960510254350e-01,9.842944145202636719e-01,1.000000000000000000e+00,1.000000000000000000e+00,1.000000000000000000e+00,1.000000000000000000e+00,1.000000000000000000e+00,1.000000000000000000e+00,1.000000000000000000e+00,1.000000000000000000e+00,1.000000000000000000e+00,1.000000000000000000e+00,1.000000000000000000e+00,1.000000000000000000e+00,1.000000000000000000e+00,1.000000000000000000e+00,1.000000000000000000e+00,1.000000000000000000e+00,1.000000000000000000e+00,1.000000000000000000e+00,1.000000000000000000e+00,1.000000000000000000e+00,1.000000000000000000e+00,1.000000000000000000e+00,1.000000000000000000e+00,1.000000000000000000e+00,1.000000000000000000e+00,1.000000000000000000e+00,1.000000000000000000e+00,1.000000000000000000e+00,1.000000000000000000e+00,1.000000000000000000e+00,1.000000000000000000e+00,1.000000000000000000e+00,1.000000000000000000e+00,1.000000000000000000e+00,1.000000000000000000e+00,1.000000000000000000e+00,1.000000000000000000e+00,1.000000000000000000e+00,1.000000000000000000e+00,1.000000000000000000e+00,1.000000000000000000e+00,1.000000000000000000e+00,1.000000000000000000e+00,1.000000000000000000e+00,3.463681459426879994e-01,3.393558740615844616e-01,3.351812601089477761e-01,3.324256658554077259e-01,3.388661861419677845e-01,3.476505994796753041e-01,3.430412292480468639e-01,3.400399208068847767e-01,3.420717716217041016e-01,1.000000000000000000e+00,9.697054862976074441e-01,9.379644393920898438e-01,9.082355499267578125e-01,8.803338050842285378e-01,8.540956497192382368e-01,8.293764114379882368e-01,8.060477256774902788e-01,7.839955329895019753e-01,7.631178379058838335e-01,7.433231353759766069e-01
6.192865848541260210e-01,6.349850654602050559e-01,6.515001296997070535e-01,6.688971996307373491e-01,6.872488975524901900e-01,7.066359519958496094e-01,7.271485328674316406e-01,7.488876342773437278e-01,7.719666957855224609e-01,7.965134620666504128e-01,8.226724624633788840e-01,8.506081581115723100e-01,8.805077552795410600e-01,9.125859260559081587e-01,9.470897674560546653e-01,9.842941284179687056e-01,1.000000000000000000e+00,1.000000000000000000e+00,1.000000000000000000e+00,1.000000000000000000e+00,1.000000000000000000e+00,1.000000000000000000e+00,1.000000000000000000e+00,1.000000000000000000e+00,1.000000000000000000e+00,1.000000000000000000e+00,1.000000000000000000e+00,1.000000000000000000e+00,1.000000000000000000e+00,1.000000000000000000e+00,1.000000000000000000e+00,1.000000000000000000e+00,1.000000000000000000e+00,1.000000000000000000e+00,1.000000000000000000e+00,1.000000000000000000e+00,1.000000000000000000e+00,1.000000000000000000e+00,1.000000000000000000e+00,1.000000000000000000e+00,1.000000000000000000e+00,1.000000000000000000e+00,1.000000000000000000e+00,1.000000000000000000e+00,1.000000000000000000e+00,1.000000000000000000e+00,1.000000000000000000e+00,1.000000000000000000e+00,1.000000000000000000e+00,1.000000000000000000e+00,1.000000000000000000e+00,1.000000000000000000e+00,1.000000000000000000e+00,1.000000000000000000e+00,1.000000000000000000e+00,1.000000000000000000e+00,1.000000000000000000e+00,1.000000000000000000e+00,1.000000000000000000e+00,1.000000000000000000e+00,3.490935325622558372e-01,3.409894704818725586e-01,3.363677263259887695e-01,3.336174249649047630e-01,3.396141767501831277e-01,3.501853942871093750e-01,3.474954128265380637e-01,3.444159984588622825e-01,1.000000000000000000e+00,1.000000000000000000e+00,9.697306632995605913e-01,9.379892349243164062e-01,9.082597732543945535e-01,8.803570747375488725e-01,8.541176795959473100e-01,8.293971061706543191e-01,8.060672760009766069e-01,7.840140342712402788e-01,7.631353855133056197e-01,7.433397769927978516e-01
6.192733764648437056e-01,6.349711894989014116e-01,6.514854431152343750e-01,6.688817501068115012e-01,6.872325420379639116e-01,7.066186904907226785e-01,7.271303176879883035e-01,7.488683223724365012e-01,7.719461917877197266e-01,7.964916229248046875e-01,8.226491928100585493e-01,8.505832672119140181e-01,8.804810523986816850e-01,9.125572204589843528e-01,9.470587730407714622e-01,9.842717170715331587e-01,1.000000000000000000e+00,1.000000000000000000e+00,1.000000000000000000e+00,1.000000000000000000e+00,1.000000000000000000e+00,1.000000000000000000e+00,1.000000000000000000e+00,1.000000000000000000e+00,1.000000000000000000e+00,1.000000000000000000e+00,1.000000000000000000e+00,1.000000000000000000e+00,1.000000000000000000e+00,1.000000000000000000e+00,1.000000000000000000e+00,1.000000000000000000e+00,1.000000000000000000e+00,1.000000000000000000e+00,1.000000000000000000e+00,1.000000000000000000e+00,1.000000000000000000e+00,1.000000000000000000e+00,1.000000000000000000e+00,1.000000000000000000e+00,1.000000000000000000e+00,1.000000000000000000e+00,1.000000000000000000e+00,1.000000000000000000e+00,1.000000000000000000e+00,1.000000000000000000e+00,1.000000000000000000e+00,1.000000000000000000e+00,1.000000000000000000e+00,1.000000000000000000e+00,1.000000000000000000e+00,1.000000000000000000e+00,1.000000000000000000e+00,1.000000000000000000e+00,1.000000000000000000e+00,1.000000000000000000e+00,1.000000000000000000e+00,1.000000000000000000e+00,1.000000000000000000e+00,1.000000000000000000e+00,3.560588598251342995e-01,3.425909519195556863e-01,3.373042583465576394e-01,3.345057010650634988e-01,3.403097867965698131e-01,3.547723531723022683e-01,3.520120143890380637e-01,1.000000000000000000e+00,1.000000000000000000e+00,1.000000000000000000e+00,9.697589874267578125e-01,9.380156517028808150e-01,9.082846641540527344e-01,8.803804397583008257e-01,8.541396141052246538e-01,8.294178009033202903e-01,8.060868263244629350e-01,7.840325355529784712e-01,7.631528854370117632e-01,7.433564186096190962e-01
6.192601203918457475e-01,6.349572181701660378e-01,6.514708518981933150e-01,6.688663482666015181e-01,6.872162818908691406e-01,7.066014766693115012e-01,7.271120548248291016e-01,7.488489627838135210e-01,7.719255924224853738e-01,7.964696884155273438e-01,8.226258277893065962e-01,8.505582809448242188e-01,8.804542541503905806e-01,9.125285148620605469e-01,9.470278739929198775e-01,9.842383384704589400e-01,1.000000000000000000e+00,1.000000000000000000e+00,1.000000000000000000e+00,1.000000000000000000e+00,1.000000000000000000e+00,1.000000000000000000e+00,1.000000000000000000e+00,1.000000000000000000e+00,1.000000000000000000e+00,1.000000000000000000e+00,1.000000000000000000e+00,1.000000000000000000e+00,1.000000000000000000e+00,1.000000000000000000e+00,1.000000000000000000e+00,1.000000000000000000e+00,1.000000000000000000e+00,1.000000000000000000e+00,1.000000000000000000e+00,1.000000000000000000e+00,1.000000000000000000e+00,1.000000000000000000e+00,1.000000000000000000e+00,1.000000000000000000e+00,1.000000000000000000e+00,1.000000000000000000e+00,1.000000000000000000e+00,1.000000000000000000e+00,1.000000000000000000e+00,1.000000000000000000e+00,1.000000000000000000e+00,1.000000000000000000e+00,1.000000000000000000e+00,1.000000000000000000e+00,1.000000000000000000e+00,1.000000000000000000e+00,1.000000000000000000e+00,1.000000000000000000e+00,1.000000000000000000e+00,1.000000000000000000e+00,1.000000000000000000e+00,1.000000000000000000e+00,1.000000000000000000e+00,1.000000000000000000e+00,1.000000000000000000e+00,3.442439317703246959e-01,3.385716915130615456e-01,3.353986740112304688e-01,3.410083055496215820e-01,3.595714330673217551e-01,3.566472291946410911e-01,1.000000000000000000e+00,1.000000000000000000e+00,1.000000000000000000e+00,9.697872161865234153e-01,9.380421638488769531e-01,9.083094596862792969e-01,8.804037094116210493e-01,8.541615486145019975e-01,8.294384956359863725e-01,8.061063766479492632e-01,7.840510368347167747e-01,7.631704330444335493e-01,7.433731079101562056e-01
6.192469120025634322e-01,6.349433422088622825e-01,6.514561653137207475e-01,6.688508987426757812e-01,6.871999740600586160e-01,7.065842151641845703e-01,7.270938396453857644e-01,7.488296508789062944e-01,7.719050884246826394e-01,7.964478492736816184e-01,8.226024627685546431e-01,8.505332946777344194e-01,8.804275512695312056e-01,9.124998092651367410e-01,9.469968795776366743e-01,9.842049598693847212e-01,1.000000000000000000e+00,1.000000000000000000e+00,1.000000000000000000e+00,1.000000000000000000e+00,1.000000000000000000e+00,1.000000000000000000e+00,1.000000000000000000e+00,1.000000000000000000e+00,1.000000000000000000e+00,1.000000000000000000e+00,1.000000000000000000e+00,1.000000000000000000e+00,1.000000000000000000e+00,1.000000000000000000e+00,1.000000000000000000e+00,1.000000000000000000e+00,1.000000000000000000e+00,1.000000000000000000e+00,1.000000000000000000e+00,1.000000000000000000e+00,1.000000000000000000e+00,1.000000000000000000e+00,1.000000000000000000e+00,1.000000000000000000e+00,1.000000000000000000e+00,1.000000000000000000e+00,1.000000000000000000e+00,1.000000000000000000e+00,1.000000000000000000e+00,1.000000000000000000e+00,1.000000000000000000e+00,1.000000000000000000e+00,1.000000000000000000e+00,1.000000000000000000e+00,1.000000000000000000e+00,1.000000000000000000e+00,1.000000000000000000e+00,1.000000000000000000e+00,1.000000000000000000e+00,1.000000000000000000e+00,1.000000000000000000e+00,1.000000000000000000e+00,1.000000000000000000e+00,1.000000000000000000e+00,1.000000000000000000e+00,3.459129810333251842e-01,3.398486614227295144e-01,3.362964391708374023e-01,3.417096376419067605e-01,3.646763563156127930e-01,1.000000000000000000e+00,1.000000000000000000e+00,1.000000000000000000e+00,1.000000000000000000e+00,9.698155403137207475e-01,9.380686759948730913e-01,9.083343505859374778e-01,8.804270744323730025e-01,8.541834831237793413e-01,8.294591903686523438e-01,8.061259269714355913e-01,7.840695381164550781e-01,7.631879806518554465e-01,7.433897495269775613e-01
6.192336559295654741e-01,6.349294185638427734e-01,6.514415740966796875e-01,6.688354969024657981e-01,6.871837139129638450e-01,7.065670490264892578e-01,7.270755767822265625e-01,7.488102912902832031e-01,7.718844890594482866e-01,7.964259147644042747e-01,8.225790977478026900e-01,8.505084037780761275e-01,8.804008483886718306e-01,9.124710083007812056e-01,9.469659805297852007e-01,9.841714859008788840e-01,1.000000000000000000e+00,1.000000000000000000e+00,1.000000000000000000e+00,1.000000000000000000e+00,1.000000000000000000e+00,1.000000000000000000e+00,1.000000000000000000e+00,1.000000000000000000e+00,1.000000000000000000e+00,1.000000000000000000e+00,1.000000000000000000e+00,1.000000000000000000e+00,1.000000000000000000e+00,1.000000000000000000e+00,1.000000000000000000e+00,1.000000000000000000e+00,1.000000000000000000e+00,1.000000000000000000e+00,1.000000000000000000e+00,1.000000000000000000e+00,1.000000000000000000e+00,1.000000000000000000e+00,1.000000000000000000e+00,1.000000000000000000e+00,1.000000000000000000e+00,1.000000000000000000e+00,1.000000000000000000e+00,1.000000000000000000e+00,1.000000000000000000e+00,1.000000000000000000e+00,1.000000000000000000e+00,1.000000000000000000e+00,1.000000000000000000e+00,1.000000000000000000e+00,1.000000000000000000e+00,1.000000000000000000e+00,1.000000000000000000e+00,1.000000000000000000e+00,1.000000000000000000e+00,1.000000000000000000e+00,1.000000000000000000e+00,1.000000000000000000e+00,1.000000000000000000e+00,1.000000000000000000e+00,1.000000000000000000e+00,3.476558208465576061e-01,3.413571119308471680e-01,3.376722097396850364e-01,3.427205801010131947e-01,1.000000000000000000e+00,1.000000000000000000e+00,1.000000000000000000e+00,1.000000000000000000e+00,1.000000000000000000e+00,9.698438644409179688e-01,9.380951881408691184e-01,9.083591461181640403e-01,8.804504394531249556e-01,8.542055130004883035e-01,8.294799804687500444e-01,8.061454772949219194e-01,7.840880393981933816e-01,7.632054805755614790e-01,7.434063911437988059e-01
6.192204475402831587e-01,6.349155426025390181e-01,6.514268875122070090e-01,6.688199996948241965e-01,6.871674060821533203e-01,7.065497875213623269e-01,7.270573616027832253e-01,7.487909793853759766e-01,7.718639850616455522e-01,7.964040756225585493e-01,8.225558280944824663e-01,8.504834175109863281e-01,8.803740501403808372e-01,9.124423027038573997e-01,9.469349861145019975e-01,9.841381072998046653e-01,1.000000000000000000e+00,1.000000000000000000e+00,1.000000000000000000e+00,1.000000000000000000e+00,1.000000000000000000e+00,1.000000000000000000e+00,1.000000000000000000e+00,1.000000000000000000e+00,1.000000000000000000e+00,1.000000000000000000e+00,1.000000000000000000e+00,1.000000000000000000e+00,1.000000000000000000e+00,1.000000000000000000e+00,1.000000000000000000e+00,1.000000000000000000e+00,1.000000000000000000e+00,1.000000000000000000e+00,1.000000000000000000e+00,1.000000000000000000e+00,1.000000000000000000e+00,1.000000000000000000e+00,1.000000000000000000e+00,1.000000000000000000e+00,1.000000000000000000e+00,1.000000000000000000e+00,1.000000000000000000e+00,1.000000000000000000e+00,1.000000000000000000e+00,1.000000000000000000e+00,1.000000000000000000e+00,1.000000000000000000e+00,1.000000000000000000e+00,1.000000000000000000e+00,1.000000000000000000e+00,1.000000000000000000e+00,1.000000000000000000e+00,1.000000000000000000e+00,1.000000000000000000e+00,1.000000000000000000e+00,1.000000000000000000e+00,1.000000000000000000e+00,1.000000000000000000e+00,1.000000000000000000e+00,1.000000000000000000e+00,3.495894670486450195e-01,3.432588100433349720e-01,3.399131774902343639e-01,3.440733432769775280e-01,1.000000000000000000e+00,1.000000000000000000e+00,1.000000000000000000e+00,1.000000000000000000e+00,1.000000000000000000e+00,9.698721885681151900e-01,9.381216049194336382e-01,9.083840370178222212e-01,8.804737091064452903e-01,8.542274475097656472e-01,8.295006752014160156e-01,8.061650276184082475e-01,7.841065406799316850e-01,7.632230281829833762e-01,7.434230327606201616e-01
6.192071914672852007e-01,6.349016189575195090e-01,6.514122962951660600e-01,6.688045978546142134e-01,6.871511459350585493e-01,7.065326213836670144e-01,7.270390987396240234e-01,7.487715721130371316e-01,7.718433856964110884e-01,7.963821411132812056e-01,8.225324630737305132e-01,8.504584312438965288e-01,8.803473472595214622e-01,9.124135971069335938e-01,9.469040870666504128e-01,9.710476875305176225e-01,9.708075523376464844e-01,9.705673217773437278e-01,9.703273773193359375e-01,9.700875282287597656e-01,9.698477745056152122e-01,9.696082115173340066e-01,9.693686485290526900e-01,9.691292762756347212e-01,9.688899993896484819e-01,9.686508178710937500e-01,9.684117317199707475e-01,9.681728363037109819e-01,9.679340362548828347e-01,9.676953315734863059e-01,9.674567222595215066e-01,9.672183036804199441e-01,9.669799804687500000e-01,9.667417526245116743e-01,9.665037155151366965e-01,9.662656784057617188e-01,9.660278320312499778e-01,9.657900810241699663e-01,9.655524253845214622e-01,9.653149604797363059e-01,9.650774955749511497e-01,9.648402214050293413e-01,9.646031379699706587e-01,9.643660545349120872e-01,9.641290664672851340e-01,9.638922691345215288e-01,9.636555671691894309e-01,9.634190559387206809e-01,9.631825447082519309e-01,9.629461288452147993e-01,9.627099037170410156e-01,9.624738693237304688e-01,9.622378349304199219e-01,9.620018959045409934e-01,9.617661476135254128e-01,9.615304946899414507e-01,9.612950325012207253e-01,9.610594749450683816e-01,9.608242034912108931e-01,9.605890274047851340e-01,9.603539466857909934e-01,3.515447854995727428e-01,3.451818466186523660e-01,3.421840906143188699e-01,3.458193063735962025e-01,9.591803550720214844e-01,9.589458465576171653e-01,9.587116241455078125e-01,9.584774971008300781e-01,9.582434654235839622e-01,9.580095291137695757e-01,9.381481170654296653e-01,9.084088325500487837e-01,8.804970741271972434e-01,8.542493820190429910e-01,8.295213699340819868e-01,8.061845779418945757e-01,7.841250419616698775e-01,7.632405757904052734e-01,7.434396743774414062e-01
6.191939830780028853e-01,6.348877429962158647e-01,6.513976097106933816e-01,6.687891483306884766e-01,6.871348381042480247e-01,7.065153598785400835e-01,7.270208835601806863e-01,7.487523078918456587e-01,7.542653083801269531e-01,7.541203498840332031e-01,7.539753913879394531e-01,7.538305759429931863e-01,7.536858081817626731e-01,7.535410881042480247e-01,7.533964633941649947e-01,7.532518386840820757e-01,7.531073093414306641e-01,7.529628276824951172e-01,7.528182506561279519e-01,7.526738643646240234e-01,7.525295734405517134e-01,7.523852825164795144e-01,7.522410869598388228e-01,7.520969390869141069e-01,7.519527912139892800e-01,7.518087863922119363e-01,7.516647815704345925e-01,7.515207290649413840e-01,7.513768672943115234e-01,7.512330532073974165e-01,7.510892391204834206e-01,7.509455204010009322e-01,7.508018493652344194e-01,7.506582736968994141e-01,7.505146980285644087e-01,7.503712177276611328e-01,7.502276897430419922e-01,7.500843048095703347e-01,7.499409675598144309e-01,7.497976779937743919e-01,7.496544361114502175e-01,7.495112895965576616e-01,7.493681430816649947e-01,7.492250919342040572e-01,7.490820884704589844e-01,7.489390373229980469e-01,7.487961292266845925e-01,7.486533164978027566e-01,7.485105037689209206e-01,7.483677864074707031e-01,7.482251167297363503e-01,7.480824947357177512e-01,7.479399204254150169e-01,7.477973937988281472e-01,7.476548671722411665e-01,7.475124359130859153e-01,7.473701000213622825e-01,7.472278118133545144e-01,7.470855236053466353e-01,7.469433784484863503e-01,7.468012332916259544e-01,3.535220623016357422e-01,3.471265554428100697e-01,3.439095497131347545e-01,3.846864461898803489e-01,7.460912704467773660e-01,7.459494590759276900e-01,7.458076953887939897e-01,7.456659793853759322e-01,7.455243110656738503e-01,7.453827381134032759e-01,7.452411651611328125e-01,7.450995922088623491e-01,7.449581623077392578e-01,7.448167800903320312e-01,7.446754455566406694e-01,7.445341587066650613e-01,7.443929672241210715e-01,7.442517757415771928e-01,7.434562683105468972e-01
6.167066097259521484e-01,6.166097164154052956e-01,6.165128231048584428e-01,6.164160251617432085e-01,6.163191795349121094e-01,6.162224292755127397e-01,6.161256313323975053e-01,6.160289287567138894e-01,6.159322261810302734e-01,6.158355712890625222e-01,6.157389640808105247e-01,6.156423568725586382e-01,6.155457973480225053e-01,6.154492855072021262e-01,6.153527736663818581e-01,6.152562141418457253e-01,6.151597976684570757e-01,6.150633811950683150e-01,6.149670124053955300e-01,6.148706436157226340e-01,6.147743225097656028e-01,6.146780490875244363e-01,6.145817756652831587e-01,6.144855499267578569e-01,6.143892765045165794e-01,6.142931461334228960e-01,6.141969680786132368e-01,6.141008853912353072e-01,6.140048027038573775e-01,6.139087677001953125e-01,6.138127326965332475e-01,6.137167453765869363e-01,6.136207580566406250e-01,6.135248184204101785e-01,6.134288787841797319e-01,6.133330345153809038e-01,6.132371902465820757e-01,6.131413936614990012e-01,6.130455970764160378e-01,6.129498481750488281e-01,6.128541469573974831e-01,6.127584457397461382e-01,6.126627445220946822e-01,6.125671386718749556e-01,6.124715328216552290e-01,6.123759269714355025e-01,6.122804164886475053e-01,6.121849060058593972e-01,6.120893955230712891e-01,6.119939804077147993e-01,6.118985652923584206e-01,6.118031024932861772e-01,6.117077350616455522e-01,6.116124153137206809e-01,6.115170955657959206e-01,6.114218235015869141e-01,6.113265991210937722e-01,6.112313747406006303e-01,6.111361980438232422e-01,6.110410213470458540e-01,6.109458446502685769e-01,6.108507633209228072e-01,3.514900207519531250e-01,3.451539754867553600e-01,3.821195840835571178e-01,6.104706764221191628e-01,6.103757381439208762e-01,6.102807998657227007e-01,6.101858615875244141e-01,6.100910186767578569e-01,6.099961757659911887e-01,6.099013805389403853e-01,6.098066329956054465e-01,6.097118854522705078e-01,6.096171379089355691e-01,6.095224857330322488e-01,6.094278335571289285e-01,6.093331336975097434e-01,6.092385768890380415e-01,6.091440200805664507e-01
5.210291385650634988e-01,5.209599494934081809e-01,5.208908081054687278e-01,5.208216667175292747e-01,5.207525730133056863e-01,5.206834793090819868e-01,5.206144332885742632e-01,5.205453395843505637e-01,5.204763412475585938e-01,5.204072952270507590e-01,5.203382968902587891e-01,5.202693462371825728e-01,5.202003002166748491e-01,5.201313972473144975e-01,5.200624465942382812e-01,5.199935436248779297e-01,5.199246406555175781e-01,5.198557853698730913e-01,5.197869300842284934e-01,5.197180747985840066e-01,5.196492195129394087e-01,5.195804119110107866e-01,5.195116519927978072e-01,5.194428920745849387e-01,5.193741321563720703e-01,5.193054199218749556e-01,5.192367076873779519e-01,5.191680431365967019e-01,5.190993309020995872e-01,5.190307140350342019e-01,5.189620018005370872e-01,5.188933849334717019e-01,5.188248157501220703e-01,5.187562465667724387e-01,5.186876773834228072e-01,5.186191082000732866e-01,5.185505867004394087e-01,5.184820652008056419e-01,5.184135437011718750e-01,5.183450698852538618e-01,5.182766437530517134e-01,5.182082176208495650e-01,5.181397914886474165e-01,5.180713653564452681e-01,5.180029869079589844e-01,5.179346561431884544e-01,5.178662776947021706e-01,5.177978992462157759e-01,5.177296161651611106e-01,5.176613330841064453e-01,5.175930500030517800e-01,5.175248146057128684e-01,5.174565792083740678e-01,5.173883438110351562e-01,5.173201560974121094e-01,5.172519683837890625e-01,5.171837329864501509e-01,5.171155929565429688e-01,5.170475006103515403e-01,5.169793605804443581e-01,5.169112682342529297e-01,5.168432235717773660e-01,3.521869659423828014e-01,3.481207132339477761e-01,3.770570039749145397e-01,3.825159311294555886e-01,5.165030479431151900e-01,5.164350986480712447e-01,5.163671493530272993e-01,5.162992000579833540e-01,5.162312984466552734e-01,5.161633968353271928e-01,5.160954952239990012e-01,5.160276412963866743e-01,5.159597873687744585e-01,5.158919334411621316e-01,5.158241271972656694e-01,5.157563686370849609e-01,5.156885623931884988e-01,5.156208038330077903e-01
4.510517597198486217e-01,4.509999275207519642e-01,4.509481430053711160e-01,4.508963584899902122e-01,4.508445262908935547e-01,4.507927417755127064e-01,4.507410049438476674e-01,4.506892204284668191e-01,4.506374835968017800e-01,4.505857467651367410e-01,4.505340099334717019e-01,4.504822731018066628e-01,4.504305362701416238e-01,4.503788471221923939e-01,4.503272056579589733e-01,4.502755165100097434e-01,4.502238750457763783e-01,4.501721858978271484e-01,4.501205444335937278e-01,4.500689506530761719e-01,4.500173091888427512e-01,4.499657154083251953e-01,4.499141693115234486e-01,4.498625755310058372e-01,4.498110294342040905e-01,4.497594833374023438e-01,4.497078895568847878e-01,4.496563911437988503e-01,4.496048450469970481e-01,4.495533466339111106e-01,4.495018482208251731e-01,4.494503974914551003e-01,4.493988990783691628e-01,4.493474483489990345e-01,4.492959976196289062e-01,4.492445468902587780e-01,4.491931438446045144e-01,4.491417407989501953e-01,4.490903377532958762e-01,4.490389347076416127e-01,4.489875793457031028e-01,4.489362239837646484e-01,4.488848686218261941e-01,4.488335132598876842e-01,4.487821578979492299e-01,4.487308502197265847e-01,4.486795425415038840e-01,4.486282348632812389e-01,4.485769748687744030e-01,4.485257148742675670e-01,4.484744548797607311e-01,4.484231948852538951e-01,4.483719825744628684e-01,4.483207225799560325e-01,4.482695102691650613e-01,4.482182979583740345e-01,4.481671333312988170e-01,4.481159687042236550e-01,4.480648040771484375e-01,4.480136394500732200e-01,4.479625225067138672e-01,4.479114055633545144e-01,3.510650157928466575e-01,3.444463014602661133e-01,3.415714502334594727e-01,4.477069854736328014e-01,4.476559162139892578e-01,4.476048469543457142e-01,4.475537776947021706e-01,4.475027561187744363e-01,4.474517345428467019e-01,4.474007129669189675e-01,4.473496913909912331e-01,4.472987174987793080e-01,4.472477436065673828e-01,4.471967697143554576e-01,4.471457958221435325e-01,4.470948696136474720e-01,4.470439434051513561e-01,4.469930171966552956e-01
3.976456165313720925e-01,3.976053476333618053e-01,3.975650548934936412e-01,3.975247859954834095e-01,3.974845170974731223e-01,3.974442720413208230e-01,3.974040269851684681e-01,3.973637819290161133e-01,3.973235607147216908e-01,3.972833395004272683e-01,3.972431182861327903e-01,3.972029209136963002e-01,3.971627235412597545e-01,3.971225500106811412e-01,3.970823526382446511e-01,3.970421791076660378e-01,3.970019817352294922e-01,3.969618320465088113e-01,3.969216823577880748e-01,3.968815326690673939e-01,3.968414068222045898e-01,3.968012809753417858e-01,3.967611551284789817e-01,3.967210531234741100e-01,3.966809511184692383e-01,3.966408491134643666e-01,3.966007709503173717e-01,3.965606927871704324e-01,3.965206384658813699e-01,3.964805841445923074e-01,3.964405298233032449e-01,3.964004755020141824e-01,3.963603973388671875e-01,3.963203668594360574e-01,3.962803602218628041e-01,3.962403535842895508e-01,3.962003469467162975e-01,3.961603403091430442e-01,3.961203575134277233e-01,3.960803747177124023e-01,3.960404157638549583e-01,3.960004568099975697e-01,3.959604978561401256e-01,3.959205389022827370e-01,3.958806037902832253e-01,3.958406686782837136e-01,3.958007574081420787e-01,3.957608461380004994e-01,3.957209348678588645e-01,3.956810235977172852e-01,3.956410884857177734e-01,3.956012248992920033e-01,3.955613374710083008e-01,3.955214738845825306e-01,3.954816102981567605e-01,3.954417705535888672e-01,3.954019308090209739e-01,3.953620910644531361e-01,3.953222513198852428e-01,3.952824354171752819e-01,3.952426433563232533e-01,3.952028274536132924e-01,3.483134508132934570e-01,3.405386209487915039e-01,3.364325046539306530e-01,3.344956159591674916e-01,3.950039386749267800e-01,3.949641466140746959e-01,3.949244022369384766e-01,3.948846578598022572e-01,3.948449373245239147e-01,3.948052167892456277e-01,3.947654962539672852e-01,3.947257757186889426e-01,3.946860790252685325e-01,3.946464061737060547e-01,3.946067094802856445e-01,3.945670366287231667e-01,3.945273876190185658e-01,3.944877147674560325e-01
3.555474996566772572e-01,3.555152893066406139e-01,3.554830789566040261e-01,3.554508924484253152e-01,3.554187059402466042e-01,3.553865194320678933e-01,3.553543329238891824e-01,3.553221464157104714e-01,3.552899837493896373e-01,3.552578210830688588e-01,3.552256822586059570e-01,3.551935195922851785e-01,3.551613807678222767e-01,3.551292419433593750e-01,3.550971031188964733e-01,3.550649881362915039e-01,3.550328493118286022e-01,3.550007343292236328e-01,3.549686431884765403e-01,3.549365282058715709e-01,3.549043893814086692e-01,3.548722982406616322e-01,3.548402070999145397e-01,3.548081398010253795e-01,3.547760486602783425e-01,3.547439813613891824e-01,3.547119379043578991e-01,3.546798706054687389e-01,3.546478271484375111e-01,3.546157836914062278e-01,3.545837402343750000e-01,3.545516967773437722e-01,3.545196771621704213e-01,3.544876337051391380e-01,3.544556379318237194e-01,3.544236183166503684e-01,3.543915987014770730e-01,3.543595790863037220e-01,3.543275833129883035e-01,3.542955875396728294e-01,3.542636156082153431e-01,3.542316198348999245e-01,3.541996717453003152e-01,3.541676998138427734e-01,3.541357278823852317e-01,3.541037797927856223e-01,3.540718317031860130e-01,3.540398836135864036e-01,3.540079593658447266e-01,3.539760351181030495e-01,3.539440870285034402e-01,3.539121866226196400e-01,3.538802623748779075e-01,3.538483619689941628e-01,3.538164615631103627e-01,3.537845134735107533e-01,3.537526369094848855e-01,3.537207365036010853e-01,3.536888599395752175e-01,3.536570072174072266e-01,3.536251306533813588e-01,3.535932779312133678e-01,3.535614013671875000e-01,3.348809957504272350e-01,3.299266338348388894e-01,3.264301538467407338e-01,3.263757705688476451e-01,3.534022092819213978e-01,3.533704042434692161e-01,3.533385753631591575e-01,3.533067703247070312e-01,3.532749652862549050e-01,3.532431840896606556e-01,3.532113313674926647e-01,3.531795501708984153e-01,3.531477689743042214e-01,3.531160116195678489e-01,3.530842304229736550e-01,3.530524730682372825e-01,3.530207157135009655e-01
3.215097427368164285e-01,3.214834213256835826e-01,3.214570760726928600e-01,3.214307546615600697e-01,3.214044332504272239e-01,3.213781118392944336e-01,3.213517904281616433e-01,3.213254690170287975e-01,3.212991714477538840e-01,3.212728738784790261e-01,3.212465763092041127e-01,3.212202787399291992e-01,3.211939811706542858e-01,3.211677074432373047e-01,3.211414098739623912e-01,3.211151361465454102e-01,3.210888624191284291e-01,3.210626125335693248e-01,3.210363388061523438e-01,3.210100889205932395e-01,3.209838151931762584e-01,3.209575653076172097e-01,3.209313154220581055e-01,3.209050893783569336e-01,3.208788394927978294e-01,3.208525896072387806e-01,3.208263635635376088e-01,3.208001375198364369e-01,3.207739114761352650e-01,3.207476854324340931e-01,3.207214832305907981e-01,3.206952571868896262e-01,3.206690549850463867e-01,3.206428527832031472e-01,3.206166744232177845e-01,3.205904722213744895e-01,3.205642938613891824e-01,3.205381155014038197e-01,3.205119371414184570e-01,3.204857587814330944e-01,3.204595804214477317e-01,3.204334259033203014e-01,3.204072713851928711e-01,3.203810691833496316e-01,3.203549146652221458e-01,3.203287839889526478e-01,3.203026294708252175e-01,3.202764987945556641e-01,3.202503442764282338e-01,3.202242136001586803e-01,3.201981067657470592e-01,3.201719760894775613e-01,3.201458454132080078e-01,3.201197385787963867e-01,3.200936317443847656e-01,3.200675249099731445e-01,3.200414180755615234e-01,3.200153350830078347e-01,3.199892282485962136e-01,3.199631452560424694e-01,3.199370622634887806e-01,3.199109554290771595e-01,3.198848724365234153e-01,3.198587894439697266e-01,3.198327302932739147e-01,3.198066711425781028e-01,3.197806119918823464e-01,3.197545528411865345e-01,3.197285175323486550e-01,3.197024583816528431e-01,3.196764230728149636e-01,3.196503877639770286e-01,3.196243524551391491e-01,3.195983171463012695e-01,3.195723056793212669e-01,3.195462703704833873e-01,3.195202589035034402e-01,3.194942474365234375e-01,3.194682121276855580e-01,3.194422006607055553e-01
2.934196949005126731e-01,2.933977603912353294e-01,2.933758258819579856e-01,2.933539152145385742e-01,2.933319807052612305e-01,2.933100461959838867e-01,2.932881355285644753e-01,2.932662248611450084e-01,2.932443141937255970e-01,2.932224035263061301e-01,2.932004928588867188e-01,2.931785821914673074e-01,2.931566715240478405e-01,2.931347846984863059e-01,2.931128978729248269e-01,2.930910110473632924e-01,2.930691003799438255e-01,2.930472373962402233e-01,2.930253505706786887e-01,2.930034637451172097e-01,2.929816007614135520e-01,2.929597139358520730e-01,2.929378509521484153e-01,2.929159879684448131e-01,2.928941249847412109e-01,2.928722620010376088e-01,2.928504228591918834e-01,2.928285598754882812e-01,2.928067207336425559e-01,2.927848815917968861e-01,2.927629947662353516e-01,2.927411794662475586e-01,2.927193403244018333e-01,2.926975011825561634e-01,2.926756620407104381e-01,2.926538467407226451e-01,2.926320314407348522e-01,2.926102161407470592e-01,2.925884008407592662e-01,2.925665855407714733e-01,2.925447702407836803e-01,2.925229549407958873e-01,2.925011634826660267e-01,2.924793720245361106e-01,2.924575805664062500e-01,2.924357891082763894e-01,2.924139976501464733e-01,2.923922061920166127e-01,2.923703908920288197e-01,2.923486232757568359e-01,2.923268318176269753e-01,2.923050642013549916e-01,2.922832965850830078e-01,2.922615289688110241e-01,2.922397613525390403e-01,2.922180175781249889e-01,2.921962499618530051e-01,2.921745061874389537e-01,2.921527385711669700e-01,2.921309947967529186e-01,2.921092510223388672e-01,2.920875072479248158e-01,2.920657873153686412e-01,2.920440435409545898e-01,2.920223236083984153e-01,2.920005798339843639e-01,2.919788360595703125e-01,2.919571161270141380e-01,2.919353961944580189e-01,2.919136762619018444e-01,2.918919801712036022e-01,2.918702602386474831e-01,2.918485641479492410e-01,2.918268442153930664e-01,2.918051481246948242e-01,2.917834520339965820e-01,2.917617559432983398e-01,2.917400836944580300e-01,2.917183876037597878e-01,2.916967153549194225e-01
2.698436737060546653e-01,2.698251247406006081e-01,2.698065757751464955e-01,2.697880268096923828e-01,2.697694778442382701e-01,2.697509288787841575e-01,2.697324037551879772e-01,2.697138547897338645e-01,2.696953296661376842e-01,2.696767807006835715e-01,2.696582555770873912e-01,2.696397304534912109e-01,2.696212053298950306e-01,2.696026802062988503e-01,2.695841550827026145e-01,2.695656538009643666e-01,2.695471286773681863e-01,2.695286273956298828e-01,2.695101022720337025e-01,2.694916009902953991e-01,2.694730997085571511e-01,2.694546222686767800e-01,2.694361209869384766e-01,2.694176197052001731e-01,2.693991422653198020e-01,2.693806409835815541e-01,2.693621635437011830e-01,2.693436622619628795e-01,2.693251848220825084e-01,2.693067073822021373e-01,2.692882299423217662e-01,2.692697286605835183e-01,2.692512512207031472e-01,2.692327737808227761e-01,2.692143201828002819e-01,2.691958427429199108e-01,2.691773653030395397e-01,2.691589117050171009e-01,2.691404342651367299e-01,2.691219806671142356e-01,2.691035270690917969e-01,2.690850734710693581e-01,2.690666198730468639e-01,2.690481901168823020e-01,2.690297365188598633e-01,2.690113067626953014e-01,2.689928531646728627e-01,2.689744234085083008e-01,2.689559936523437389e-01,2.689375638961791770e-01,2.689191341400146706e-01,2.689007043838501088e-01,2.688822746276855469e-01,2.688638687133789174e-01,2.688454151153564231e-01,2.688270092010497936e-01,2.688085794448852317e-01,2.687901735305786022e-01,2.687717676162719727e-01,2.687533617019653431e-01,2.687349557876587136e-01,2.687165498733520286e-01,2.686981678009033314e-01,2.686797618865967019e-01,2.686613798141479492e-01,2.686429738998413197e-01,2.686245918273925670e-01,2.686062097549438699e-01,2.685878276824951172e-01,2.685694456100463645e-01,2.685510635375976674e-01,2.685326814651489147e-01,2.685142993927002175e-01,2.684959173202514648e-01,2.684775590896606445e-01,2.684591770172118919e-01,2.684408187866210715e-01,2.684224605560302512e-01,2.684041023254394309e-01,2.683857440948486106e-01
2.497745037078857311e-01,2.497586011886596680e-01,2.497427225112915095e-01,2.497268199920654186e-01,2.497109413146972601e-01,2.496950387954711970e-01,2.496791601181030384e-01,2.496632814407348522e-01,2.496474027633666937e-01,2.496315240859985352e-01,2.496156454086303766e-01,2.495997667312622181e-01,2.495838880538940319e-01,2.495680093765258734e-01,2.495521545410156194e-01,2.495362997055053655e-01,2.495204210281372070e-01,2.495045661926269531e-01,2.494887113571166992e-01,2.494728565216064453e-01,2.494569778442382868e-01,2.494411230087280329e-01,2.494252681732177790e-01,2.494094371795654297e-01,2.493935823440551758e-01,2.493777275085449219e-01,2.493618965148925726e-01,2.493460416793823187e-01,2.493302106857299694e-01,2.493143558502197155e-01,2.492985248565673939e-01,2.492826938629150446e-01,2.492668628692626953e-01,2.492510318756103460e-01,2.492351770401000921e-01,2.492193460464477428e-01,2.492035150527954213e-01,2.491877079010009766e-01,2.491718769073486273e-01,2.491560697555542103e-01,2.491402387619018610e-01,2.491244316101074163e-01,2.491086006164550670e-01,2.490927934646606501e-01,2.490769624710083008e-01,2.490611553192138561e-01,2.490453720092773438e-01,2.490295648574828991e-01,2.490137577056884821e-01,2.489979505538940374e-01,2.489821672439575251e-01,2.489663600921630804e-01,2.489505767822265681e-01,2.489347696304321234e-01,2.489189863204956110e-01,2.489032030105590709e-01,2.488874197006225586e-01,2.488716363906860463e-01,2.488558530807495062e-01,2.488400697708129938e-01,2.488242864608764537e-01,2.488085031509399414e-01,2.487927436828613337e-01,2.487769603729247936e-01,2.487612009048461859e-01,2.487454175949096735e-01,2.487296581268310658e-01,2.487138986587524303e-01,2.486981391906738226e-01,2.486823797225952148e-01,2.486666202545166071e-01,2.486508607864379994e-01,2.486351013183593639e-01,2.486193656921386608e-01,2.486036062240600530e-01,2.485878705978393499e-01,2.485721111297607422e-01,2.485563516616821345e-01,2.485406160354614313e-01,2.485248804092407282e-01
2.324839115142822155e-01,2.324701309204101618e-01,2.324563741683959850e-01,2.324425935745239313e-01,2.324288368225097545e-01,2.324150800704956055e-01,2.324012994766235241e-01,2.323875427246093750e-01,2.323737859725952259e-01,2.323600530624389537e-01,2.323462963104248047e-01,2.323325395584106556e-01,2.323187828063964788e-01,2.323050260543823298e-01,2.322912693023681530e-01,2.322775363922119085e-01,2.322637796401977595e-01,2.322500228881835826e-01,2.322362899780273382e-01,2.322225570678710938e-01,2.322088003158569447e-01,2.321950674057006725e-01,2.321813344955444280e-01,2.321676015853881836e-01,2.321538686752319391e-01,2.321401357650756947e-01,2.321264028549194225e-01,2.321126699447631780e-01,2.320989370346069336e-01,2.320852041244506891e-01,2.320714950561523493e-01,2.320577621459961049e-01,2.320440530776977650e-01,2.320303201675414928e-01,2.320166110992431530e-01,2.320029020309448131e-01,2.319891691207885687e-01,2.319754600524902288e-01,2.319617271423339844e-01,2.319480180740356445e-01,2.319343090057373047e-01,2.319206237792968694e-01,2.319069147109985296e-01,2.318932056427001898e-01,2.318794965744018499e-01,2.318658113479614147e-01,2.318521022796630748e-01,2.318383932113647350e-01,2.318246841430663951e-01,2.318109989166259877e-01,2.317973136901855524e-01,2.317836284637451172e-01,2.317699193954467773e-01,2.317562341690063421e-01,2.317425489425659069e-01,2.317288637161254994e-01,2.317152023315429688e-01,2.317015171051025335e-01,2.316878318786620983e-01,2.316741704940795954e-01,2.316604852676391602e-01,2.316468000411987249e-01,2.316331386566162220e-01,2.316194772720336914e-01,2.316057920455932562e-01,2.315921068191528209e-01,2.315784454345703181e-01,2.315647840499877874e-01,2.315511226654052845e-01,2.315374612808227539e-01,2.315237998962402233e-01,2.315101385116577204e-01,2.314964771270751898e-01,2.314828395843505915e-01,2.314691781997680609e-01,2.314555406570434626e-01,2.314418792724609319e-01,2.314282417297363337e-01,2.314145803451538030e-01,2.314009428024292048e-01
2.174321889877319225e-01,2.174201488494872936e-01,2.174081087112426647e-01,2.173960685729980358e-01,2.173840284347534069e-01,2.173719882965087780e-01,2.173599481582641491e-01,2.173479080200195201e-01,2.173358678817748912e-01,2.173238515853881947e-01,2.173118114471435658e-01,2.172997713088989369e-01,2.172877550125122126e-01,2.172757148742675837e-01,2.172636985778808594e-01,2.172516584396362305e-01,2.172396421432495062e-01,2.172276020050048773e-01,2.172155857086181530e-01,2.172035694122314564e-01,2.171915531158447321e-01,2.171795368194580078e-01,2.171675205230712835e-01,2.171555042266845592e-01,2.171434879302978627e-01,2.171314716339111384e-01,2.171194553375244141e-01,2.171074390411376898e-01,2.170954227447509655e-01,2.170834302902221735e-01,2.170714139938354492e-01,2.170594215393066295e-01,2.170474052429199330e-01,2.170354127883911133e-01,2.170233964920043890e-01,2.170114040374755970e-01,2.169994115829467773e-01,2.169873952865600530e-01,2.169754028320312611e-01,2.169634103775024414e-01,2.169514179229736217e-01,2.169394254684448298e-01,2.169274091720581055e-01,2.169154167175292858e-01,2.169034481048583984e-01,2.168914556503295787e-01,2.168794631958007868e-01,2.168674707412719671e-01,2.168555021286010798e-01,2.168435096740722601e-01,2.168315410614013727e-01,2.168195486068725530e-01,2.168075799942016657e-01,2.167955875396728460e-01,2.167836189270019587e-01,2.167716264724731390e-01,2.167596578598022516e-01,2.167476892471313366e-01,2.167357206344604492e-01,2.167237520217895619e-01,2.167117834091186468e-01,2.166998147964477595e-01,2.166878461837768444e-01,2.166759014129638616e-01,2.166639328002929743e-01,2.166519641876220592e-01,2.166400194168090765e-01,2.166280508041381891e-01,2.166160821914672741e-01,2.166041374206542913e-01,2.165921926498413086e-01,2.165802240371704213e-01,2.165682554244995062e-01,2.165563106536865234e-01,2.165443658828735407e-01,2.165324211120605580e-01,2.165204763412475475e-01,2.165085315704345648e-01,2.164965867996215820e-01,2.164846420288085993e-01
2.042109727859497126e-01,2.042003393173217884e-01,2.041897296905517689e-01,2.041790962219238170e-01,2.041684865951537975e-01,2.041578531265258734e-01,2.041472434997558538e-01,2.041366100311279297e-01,2.041260004043579102e-01,2.041153907775878906e-01,2.041047573089599665e-01,2.040941476821899470e-01,2.040835380554199274e-01,2.040729284286499079e-01,2.040623188018798884e-01,2.040517091751098688e-01,2.040410995483398493e-01,2.040304899215698298e-01,2.040198802947998102e-01,2.040092706680297907e-01,2.039986848831176758e-01,2.039880752563476562e-01,2.039774656295776367e-01,2.039668560028076172e-01,2.039562702178955023e-01,2.039456605911254827e-01,2.039350748062133678e-01,2.039244651794433483e-01,2.039138793945312611e-01,2.039032936096191462e-01,2.038926839828491266e-01,2.038820981979370117e-01,2.038715124130248968e-01,2.038609266281127819e-01,2.038503170013427623e-01,2.038397312164306752e-01,2.038291454315185602e-01,2.038185596466064453e-01,2.038079738616943304e-01,2.037973880767822155e-01,2.037868261337280329e-01,2.037762403488159180e-01,2.037656545639038030e-01,2.037550687789916881e-01,2.037445068359375056e-01,2.037339210510253906e-01,2.037233352661132757e-01,2.037127494812011608e-01,2.037021875381469782e-01,2.036916017532348633e-01,2.036810398101806530e-01,2.036704778671264704e-01,2.036598920822143555e-01,2.036493301391601451e-01,2.036387681961059626e-01,2.036282062530517523e-01,2.036176204681396373e-01,2.036070585250854548e-01,2.035964965820312444e-01,2.035859346389770619e-01,2.035753726959228516e-01,2.035648107528686412e-01,2.035542488098144587e-01,2.035436868667602484e-01,2.035331487655639704e-01,2.035225868225097601e-01,2.035120248794555775e-01,2.035014867782592718e-01,2.034909248352050892e-01,2.034803867340087835e-01,2.034698247909546009e-01,2.034592866897582952e-01,2.034487247467041127e-01,2.034381866455078069e-01,2.034276485443115290e-01,2.034170866012573187e-01,2.034065485000610407e-01,2.033959865570068304e-01,2.033854484558105524e-01,2.033749103546142467e-01
1.925054550170898493e-01,1.924960017204284668e-01,1.924865722656249889e-01,1.924771189689636341e-01,1.924676895141601562e-01,1.924582362174987737e-01,1.924488067626953236e-01,1.924393653869628795e-01,1.924299359321594294e-01,1.924204945564270131e-01,1.924110770225525013e-01,1.924016237258911188e-01,1.923922061920166071e-01,1.923827648162841908e-01,1.923733472824096791e-01,1.923639059066772350e-01,1.923544883728027233e-01,1.923450469970703069e-01,1.923356294631957952e-01,1.923262000083923451e-01,1.923167824745178334e-01,1.923073530197143555e-01,1.922979354858398438e-01,1.922885060310363659e-01,1.922791004180908203e-01,1.922696590423584040e-01,1.922602534294128307e-01,1.922508239746093806e-01,1.922414183616638073e-01,1.922319889068603571e-01,1.922225832939147838e-01,1.922131657600402721e-01,1.922037601470947266e-01,1.921943426132202148e-01,1.921849370002746693e-01,1.921755194664001576e-01,1.921661138534545843e-01,1.921566963195800726e-01,1.921473026275634655e-01,1.921378850936889537e-01,1.921284794807434082e-01,1.921190857887268011e-01,1.921096801757812556e-01,1.921002864837646484e-01,1.920908689498901367e-01,1.920814752578735296e-01,1.920720696449279841e-01,1.920626759529113770e-01,1.920532703399658314e-01,1.920438528060913197e-01,1.920344471931457464e-01,1.920250654220581055e-01,1.920156598091125599e-01,1.920062780380248912e-01,1.919968724250793457e-01,1.919874906539917048e-01,1.919780850410461315e-01,1.919687032699584905e-01,1.919593095779418834e-01,1.919499278068542425e-01,1.919405221939086970e-01,1.919311523437499944e-01,1.919217586517333873e-01,1.919123768806457464e-01,1.919029831886291393e-01,1.918935894966125599e-01,1.918842196464538574e-01,1.918748259544372503e-01,1.918654561042785756e-01,1.918560624122619684e-01,1.918466925621032659e-01,1.918373107910156250e-01,1.918279409408569225e-01,1.918185591697692816e-01,1.918091893196106068e-01,1.917998075485229381e-01,1.917904496192932018e-01,1.917810559272766224e-01,1.917716979980468861e-01,1.917623162269592174e-01
1.820690989494323786e-01,1.820606589317321777e-01,1.820522069931030384e-01,1.820437788963317760e-01,1.820353150367736705e-01,1.820268869400024359e-01,1.820184350013732966e-01,1.820100069046020619e-01,1.820015549659728948e-01,1.819931149482726940e-01,1.819846749305725209e-01,1.819762468338012584e-01,1.819677948951721191e-01,1.819593667984008845e-01,1.819509267807006836e-01,1.819424986839294489e-01,1.819340467453002819e-01,1.819256305694580134e-01,1.819171905517578125e-01,1.819087624549865778e-01,1.819003224372863770e-01,1.818919062614440807e-01,1.818834543228149414e-01,1.818750381469726451e-01,1.818665981292724720e-01,1.818581819534301758e-01,1.818497538566589411e-01,1.818413376808166448e-01,1.818328976631164440e-01,1.818244814872741755e-01,1.818160533905029408e-01,1.818076372146606445e-01,1.817992091178894098e-01,1.817907929420471136e-01,1.817823767662048451e-01,1.817739486694335826e-01,1.817655444145202526e-01,1.817571163177490179e-01,1.817487120628356878e-01,1.817402839660644531e-01,1.817318797111511230e-01,1.817234516143798884e-01,1.817150473594665583e-01,1.817066192626953236e-01,1.816982269287109319e-01,1.816897988319396973e-01,1.816813945770263672e-01,1.816729784011840709e-01,1.816645741462707409e-01,1.816561579704284723e-01,1.816477656364440807e-01,1.816393494606018122e-01,1.816309452056884821e-01,1.816225171089172474e-01,1.816141128540039174e-01,1.816057085990905873e-01,1.815973162651061956e-01,1.815889000892639271e-01,1.815805077552795355e-01,1.815720915794372670e-01,1.815637111663818415e-01,1.815552949905395452e-01,1.815469026565551813e-01,1.815384984016418513e-01,1.815301060676574596e-01,1.815217018127441295e-01,1.815133213996887318e-01,1.815049171447754017e-01,1.814965248107910101e-01,1.814881324768066462e-01,1.814797282218933161e-01,1.814713478088378906e-01,1.814629435539245605e-01,1.814545631408691351e-01,1.814461588859558050e-01,1.814377784729003795e-01,1.814293861389160156e-01,1.814210057258605902e-01,1.814126133918762263e-01,1.814042329788208008e-01
1.727061510086059515e-01,1.726985454559326061e-01,1.726909518241882269e-01,1.726833462715148815e-01,1.726757526397705023e-01,1.726681470870971569e-01,1.726605653762817438e-01,1.726529598236083984e-01,1.726453661918640192e-01,1.726377606391906738e-01,1.726301789283752330e-01,1.726225733757019154e-01,1.726149916648864746e-01,1.726073980331420954e-01,1.725998163223266546e-01,1.725922107696533092e-01,1.725846290588378962e-01,1.725770354270935170e-01,1.725694537162780762e-01,1.725618600845336970e-01,1.725542783737182562e-01,1.725466847419738770e-01,1.725391030311584362e-01,1.725315093994140569e-01,1.725239396095275823e-01,1.725163459777832031e-01,1.725087642669677623e-01,1.725011944770812877e-01,1.724936008453369085e-01,1.724860310554504339e-01,1.724784374237060547e-01,1.724708676338195801e-01,1.724632859230041393e-01,1.724557161331176647e-01,1.724481225013732855e-01,1.724405527114868109e-01,1.724329710006713978e-01,1.724254012107849232e-01,1.724178194999694824e-01,1.724102497100830078e-01,1.724026679992675670e-01,1.723951101303100586e-01,1.723875284194946178e-01,1.723799586296081432e-01,1.723723769187927302e-01,1.723648190498351940e-01,1.723572373390197809e-01,1.723496794700622448e-01,1.723420977592468317e-01,1.723345398902892955e-01,1.723269701004028209e-01,1.723194122314453125e-01,1.723118305206298717e-01,1.723042726516723633e-01,1.722967028617858887e-01,1.722891449928283802e-01,1.722815752029419056e-01,1.722740054130554310e-01,1.722664356231689564e-01,1.722588777542114202e-01,1.722513079643249456e-01,1.722437620162963756e-01,1.722361922264099010e-01,1.722286462783813588e-01,1.722210764884948841e-01,1.722135305404663141e-01,1.722059607505798395e-01,1.721984148025512695e-01,1.721908569335937611e-01,1.721833109855651911e-01,1.721757411956787165e-01,1.721681952476501465e-01,1.721606373786926381e-01,1.721530914306640681e-01,1.721455335617065319e-01,1.721379756927490234e-01,1.721304297447204534e-01,1.721228718757629450e-01,1.721153378486633412e-01,1.721077799797058050e-01
1.642590641975402721e-01,1.642521977424621638e-01,1.642453193664550892e-01,1.642384529113769531e-01,1.642315745353698786e-01,1.642247080802917425e-01,1.642178297042846680e-01,1.642109632492065319e-01,1.642040848731994573e-01,1.641972303390502874e-01,1.641903519630432129e-01,1.641834855079650768e-01,1.641766071319580023e-01,1.641697525978088323e-01,1.641628742218017578e-01,1.641560196876525879e-01,1.641491413116455134e-01,1.641422867774963434e-01,1.641354084014892689e-01,1.641285538673400990e-01,1.641216874122619629e-01,1.641148328781127930e-01,1.641079783439636230e-01,1.641011118888854869e-01,1.640942573547363170e-01,1.640873789787292425e-01,1.640805363655090388e-01,1.640736579895019642e-01,1.640668153762817327e-01,1.640599489212036244e-01,1.640530943870544545e-01,1.640462279319763184e-01,1.640393853187561146e-01,1.640325188636779785e-01,1.640256643295288086e-01,1.640188097953796387e-01,1.640119552612304688e-01,1.640051007270812988e-01,1.639982461929321289e-01,1.639913916587829590e-01,1.639845490455627552e-01,1.639776825904846191e-01,1.639708399772644154e-01,1.639639854431152455e-01,1.639571428298950140e-01,1.639502882957458441e-01,1.639434456825256403e-01,1.639365911483764704e-01,1.639297485351562389e-01,1.639228940010070690e-01,1.639160513877868652e-01,1.639091968536376953e-01,1.639023661613464300e-01,1.638955116271972601e-01,1.638886690139770563e-01,1.638818264007568248e-01,1.638749837875366211e-01,1.638681411743164174e-01,1.638612985610961859e-01,1.638544559478759821e-01,1.638476014137268122e-01,1.638407707214355469e-01,1.638339281082153431e-01,1.638270735740661732e-01,1.638202428817749079e-01,1.638134002685546764e-01,1.638065695762634388e-01,1.637997269630432073e-01,1.637928962707519420e-01,1.637860536575317383e-01,1.637792229652404730e-01,1.637723803520202692e-01,1.637655615806579701e-01,1.637587189674377386e-01,1.637518882751464733e-01,1.637450456619262695e-01,1.637382268905639704e-01,1.637313842773437389e-01,1.637245655059814398e-01,1.637177228927612360e-01
1.565997719764709584e-01,1.565935134887695424e-01,1.565872788429260309e-01,1.565810203552246149e-01,1.565747857093811035e-01,1.565685272216796875e-01,1.565622925758361761e-01,1.565560340881347601e-01,1.565497994422912487e-01,1.565435409545898326e-01,1.565373063087463490e-01,1.565310597419738714e-01,1.565248250961303600e-01,1.565185666084289440e-01,1.565123319625854603e-01,1.565060973167419489e-01,1.564998507499694713e-01,1.564936161041259877e-01,1.564873695373535101e-01,1.564811348915099987e-01,1.564748883247375488e-01,1.564686655998230036e-01,1.564624190330505260e-01,1.564561843872070424e-01,1.564499378204345648e-01,1.564437150955200195e-01,1.564374685287475697e-01,1.564312458038329967e-01,1.564249992370605469e-01,1.564187645912170355e-01,1.564125299453735241e-01,1.564063072204589788e-01,1.564000606536865290e-01,1.563938379287719838e-01,1.563875913619995062e-01,1.563813686370849609e-01,1.563751339912414495e-01,1.563689112663269043e-01,1.563626766204833929e-01,1.563564538955688477e-01,1.563502192497253362e-01,1.563439965248107910e-01,1.563377499580383412e-01,1.563315391540527344e-01,1.563253045082092230e-01,1.563190817832946777e-01,1.563128471374511663e-01,1.563066244125366211e-01,1.563004016876220759e-01,1.562941789627075306e-01,1.562879443168640192e-01,1.562817335128784124e-01,1.562754988670349010e-01,1.562692880630493220e-01,1.562630534172058105e-01,1.562568426132202037e-01,1.562506079673767201e-01,1.562443971633911133e-01,1.562381744384765681e-01,1.562319636344909612e-01,1.562257289886474498e-01,1.562195181846618708e-01,1.562132954597473256e-01,1.562070846557617188e-01,1.562008619308471735e-01,1.561946392059326283e-01,1.561884284019470215e-01,1.561822056770324763e-01,1.561759829521179310e-01,1.561697721481323242e-01,1.561635494232177790e-01,1.561573505401611384e-01,1.561511278152465931e-01,1.561449170112609863e-01,1.561386942863464411e-01,1.561324954032898005e-01,1.561262726783752552e-01,1.561200737953186146e-01,1.561138510704040416e-01,1.561076521873474010e-01
