6.195388793945312278e-01,6.352502822875976118e-01,6.517793655395507368e-01,6.691915512084960493e-01,6.875595569610595259e-01,7.069643974304199441e-01,7.274963855743408203e-01,7.492544651031494141e-01,7.723540782928466353e-01,7.969233989715576172e-01,8.231070518493652788e-01,8.510699272155761719e-01,8.809994697570801003e-01,9.131107330322265625e-01,9.476514816284179465e-01,9.849081039428710938e-01,1.000000000000000000e+00,1.000000000000000000e+00,1.000000000000000000e+00,1.000000000000000000e+00,1.000000000000000000e+00,1.000000000000000000e+00,1.000000000000000000e+00,1.000000000000000000e+00,1.000000000000000000e+00,1.000000000000000000e+00,1.000000000000000000e+00,1.000000000000000000e+00,1.000000000000000000e+00,1.000000000000000000e+00,1.000000000000000000e+00,1.000000000000000000e+00,1.000000000000000000e+00,1.000000000000000000e+00,1.000000000000000000e+00,1.000000000000000000e+00,1.000000000000000000e+00,1.000000000000000000e+00,1.000000000000000000e+00,1.000000000000000000e+00,1.000000000000000000e+00,1.000000000000000000e+00,1.000000000000000000e+00,1.000000000000000000e+00,1.000000000000000000e+00,1.000000000000000000e+00,1.000000000000000000e+00,1.000000000000000000e+00,1.000000000000000000e+00,1.000000000000000000e+00,1.000000000000000000e+00,1.000000000000000000e+00,1.000000000000000000e+00,1.000000000000000000e+00,1.000000000000000000e+00,1.000000000000000000e+00,1.000000000000000000e+00,1.000000000000000000e+00,1.000000000000000000e+00,1.000000000000000000e+00,1.000000000000000000e+00,1.000000000000000000e+00,1.000000000000000000e+00,2.806734800338744895e-01,2.700950384140014537e-01,2.299942493438720814e-01,2.205063581466674694e-01,2.151446342468261719e-01,2.576619625091552956e-01,2.562135219573974387e-01,2.560035943984985130e-01,2.607704877853393444e-01,2.646152973175048828e-01,2.564375400543212891e-01,2.487951755523681585e-01,2.436011314392089733e-01,2.390599250793457031e-01,2.346715450286865345e-01,2.304427862167358343e-01,2.288906097412109486e-01
6.195255756378174050e-01,6.352363586425781028e-01,6.517646789550781694e-01,6.691760063171386941e-01,6.875432014465332475e-01,7.069470882415771484e-01,7.274780750274658647e-01,7.492371559143066184e-01,7.723357677459716797e-01,7.969038009643554243e-01,8.230862617492675781e-01,8.510476112365722434e-01,8.809755325317383257e-01,9.130851745605468306e-01,9.476238250732421653e-01,9.848782539367675337e-01,1.000000000000000000e+00,1.000000000000000000e+00,1.000000000000000000e+00,1.000000000000000000e+00,1.000000000000000000e+00,1.000000000000000000e+00,1.000000000000000000e+00,1.000000000000000000e+00,1.000000000000000000e+00,1.000000000000000000e+00,1.000000000000000000e+00,1.000000000000000000e+00,1.000000000000000000e+00,1.000000000000000000e+00,1.000000000000000000e+00,1.000000000000000000e+00,1.000000000000000000e+00,1.000000000000000000e+00,1.000000000000000000e+00,1.000000000000000000e+00,1.000000000000000000e+00,1.000000000000000000e+00,1.000000000000000000e+00,1.000000000000000000e+00,1.000000000000000000e+00,1.000000000000000000e+00,1.000000000000000000e+00,1.000000000000000000e+00,1.000000000000000000e+00,1.000000000000000000e+00,1.000000000000000000e+00,1.000000000000000000e+00,1.000000000000000000e+00,1.000000000000000000e+00,1.000000000000000000e+00,1.000000000000000000e+00,1.000000000000000000e+00,1.000000000000000000e+00,1.000000000000000000e+00,1.000000000000000000e+00,1.000000000000000000e+00,1.000000000000000000e+00,1.000000000000000000e+00,1.000000000000000000e+00,1.000000000000000000e+00,1.000000000000000000e+00,1.000000000000000000e+00,2.821100234985351451e-01,2.716324329376220703e-01,2.286147594451904408e-01,2.618194103240966686e-01,2.602944374084472656e-01,2.588124990463256947e-01,2.573473691940307839e-01,2.582372426986694336e-01,2.628136396408081166e-01,9.079028129577636497e-01,2.571324110031127930e-01,2.494492053985595814e-01,2.433073282241821345e-01,2.387693166732788030e-01,2.342390537261963002e-01,2.300096273422241322e-01,2.270858049392700251e-01
6.195123195648193359e-01,6.352223396301269753e-01,6.517499446868896262e-01,6.691605091094970925e-01,6.875268459320068581e-01,7.069298267364502175e-01,7.274597167968750444e-01,7.492177486419677734e-01,7.723174571990967241e-01,7.968842983245849609e-01,8.230654716491698775e-01,8.510253906250000444e-01,8.809516906738281694e-01,9.130595207214355913e-01,9.475962638854980025e-01,9.848484992980957031e-01,1.000000000000000000e+00,1.000000000000000000e+00,1.000000000000000000e+00,1.000000000000000000e+00,1.000000000000000000e+00,1.000000000000000000e+00,1.000000000000000000e+00,1.000000000000000000e+00,1.000000000000000000e+00,1.000000000000000000e+00,1.000000000000000000e+00,1.000000000000000000e+00,1.000000000000000000e+00,1.000000000000000000e+00,1.000000000000000000e+00,1.000000000000000000e+00,1.000000000000000000e+00,1.000000000000000000e+00,1.000000000000000000e+00,1.000000000000000000e+00,1.000000000000000000e+00,1.000000000000000000e+00,1.000000000000000000e+00,1.000000000000000000e+00,1.000000000000000000e+00,1.000000000000000000e+00,1.000000000000000000e+00,1.000000000000000000e+00,1.000000000000000000e+00,1.000000000000000000e+00,1.000000000000000000e+00,1.000000000000000000e+00,1.000000000000000000e+00,1.000000000000000000e+00,1.000000000000000000e+00,1.000000000000000000e+00,1.000000000000000000e+00,1.000000000000000000e+00,1.000000000000000000e+00,1.000000000000000000e+00,1.000000000000000000e+00,1.000000000000000000e+00,1.000000000000000000e+00,1.000000000000000000e+00,1.000000000000000000e+00,1.000000000000000000e+00,1.000000000000000000e+00,2.839096307754516713e-01,2.731873989105224609e-01,2.665282964706420787e-01,2.631101608276367188e-01,2.614686727523803933e-01,2.599734067916870117e-01,2.584951162338257058e-01,2.606322765350341797e-01,2.649612188339233176e-01,9.079249382019043413e-01,2.586061239242553600e-01,2.504295587539672741e-01,2.430127382278442494e-01,2.382655382156372015e-01,2.336872816085815430e-01,2.295781373977661133e-01,2.261053800582885631e-01
6.194990158081055132e-01,6.352083683013916016e-01,6.517352581024169478e-01,6.691450595855712447e-01,6.875104427337646040e-01,7.069124698638915572e-01,7.274414062499999778e-01,7.491983413696289285e-01,7.722967147827148882e-01,7.968647956848144975e-01,8.230446815490722878e-01,8.510031700134277344e-01,8.809279441833496316e-01,9.130339622497558594e-01,9.475687026977539507e-01,9.848187446594238725e-01,1.000000000000000000e+00,1.000000000000000000e+00,1.000000000000000000e+00,1.000000000000000000e+00,1.000000000000000000e+00,1.000000000000000000e+00,1.000000000000000000e+00,1.000000000000000000e+00,1.000000000000000000e+00,1.000000000000000000e+00,1.000000000000000000e+00,1.000000000000000000e+00,1.000000000000000000e+00,1.000000000000000000e+00,1.000000000000000000e+00,1.000000000000000000e+00,1.000000000000000000e+00,1.000000000000000000e+00,1.000000000000000000e+00,1.000000000000000000e+00,1.000000000000000000e+00,1.000000000000000000e+00,1.000000000000000000e+00,1.000000000000000000e+00,1.000000000000000000e+00,1.000000000000000000e+00,1.000000000000000000e+00,1.000000000000000000e+00,1.000000000000000000e+00,1.000000000000000000e+00,1.000000000000000000e+00,1.000000000000000000e+00,1.000000000000000000e+00,1.000000000000000000e+00,1.000000000000000000e+00,1.000000000000000000e+00,1.000000000000000000e+00,1.000000000000000000e+00,1.000000000000000000e+00,1.000000000000000000e+00,1.000000000000000000e+00,1.000000000000000000e+00,1.000000000000000000e+00,1.000000000000000000e+00,1.000000000000000000e+00,1.000000000000000000e+00,1.000000000000000000e+00,2.855341196060180442e-01,2.747603178024292103e-01,2.678932905197143333e-01,2.644136905670165794e-01,2.626881837844848855e-01,2.611447334289550559e-01,2.596531391143798717e-01,2.630721569061279519e-01,9.376567840576172097e-01,9.079469680786133035e-01,8.800620079040527566e-01,2.518915653228759877e-01,2.439445972442627064e-01,2.376946687698364147e-01,2.331381082534789984e-01,2.291482448577880915e-01,2.256883621215820257e-01
6.194857120513915794e-01,6.351944446563720925e-01,6.517204761505126509e-01,6.691295146942138894e-01,6.874941349029540794e-01,7.068952083587646262e-01,7.274231433868407759e-01,7.491788387298583540e-01,7.722761154174804243e-01,7.968428611755371538e-01,8.230238914489745872e-01,8.509809494018554243e-01,8.809040069580078569e-01,9.130083084106445090e-01,9.475411415100097878e-01,9.847888946533203125e-01,1.000000000000000000e+00,1.000000000000000000e+00,1.000000000000000000e+00,1.000000000000000000e+00,1.000000000000000000e+00,1.000000000000000000e+00,1.000000000000000000e+00,1.000000000000000000e+00,1.000000000000000000e+00,1.000000000000000000e+00,1.000000000000000000e+00,1.000000000000000000e+00,1.000000000000000000e+00,1.000000000000000000e+00,1.000000000000000000e+00,1.000000000000000000e+00,1.000000000000000000e+00,1.000000000000000000e+00,1.000000000000000000e+00,1.000000000000000000e+00,1.000000000000000000e+00,1.000000000000000000e+00,1.000000000000000000e+00,1.000000000000000000e+00,1.000000000000000000e+00,1.000000000000000000e+00,1.000000000000000000e+00,1.000000000000000000e+00,1.000000000000000000e+00,1.000000000000000000e+00,1.000000000000000000e+00,1.000000000000000000e+00,1.000000000000000000e+00,1.000000000000000000e+00,1.000000000000000000e+00,1.000000000000000000e+00,1.000000000000000000e+00,1.000000000000000000e+00,1.000000000000000000e+00,1.000000000000000000e+00,1.000000000000000000e+00,1.000000000000000000e+00,1.000000000000000000e+00,1.000000000000000000e+00,1.000000000000000000e+00,1.000000000000000000e+00,1.000000000000000000e+00,2.871773004531860130e-01,2.763514041900634877e-01,2.692722797393798939e-01,2.657301664352417214e-01,2.639875173568725364e-01,2.623266935348510520e-01,2.608865022659301869e-01,2.651398420333862527e-01,9.376803398132323997e-01,9.079689025878906472e-01,8.800827026367187278e-01,8.538581848144530806e-01,2.451511859893798773e-01,2.373704910278320312e-01,2.325915336608886663e-01,2.287199497222900391e-01,2.252728939056396484e-01
6.194724082946777566e-01,6.351804256439208540e-01,6.517057895660400835e-01,6.691140174865722878e-01,6.874777793884276900e-01,7.068778514862060769e-01,7.274047374725342019e-01,7.491594314575195090e-01,7.722555160522460715e-01,7.968208312988280806e-01,8.230004310607910156e-01,8.509586334228516069e-01,8.808802604675293191e-01,9.129826545715331587e-01,9.475134849548340066e-01,9.847591400146484819e-01,1.000000000000000000e+00,1.000000000000000000e+00,1.000000000000000000e+00,1.000000000000000000e+00,1.000000000000000000e+00,1.000000000000000000e+00,1.000000000000000000e+00,1.000000000000000000e+00,1.000000000000000000e+00,1.000000000000000000e+00,1.000000000000000000e+00,1.000000000000000000e+00,1.000000000000000000e+00,1.000000000000000000e+00,1.000000000000000000e+00,1.000000000000000000e+00,1.000000000000000000e+00,1.000000000000000000e+00,1.000000000000000000e+00,1.000000000000000000e+00,1.000000000000000000e+00,1.000000000000000000e+00,1.000000000000000000e+00,1.000000000000000000e+00,1.000000000000000000e+00,1.000000000000000000e+00,1.000000000000000000e+00,1.000000000000000000e+00,1.000000000000000000e+00,1.000000000000000000e+00,1.000000000000000000e+00,1.000000000000000000e+00,1.000000000000000000e+00,1.000000000000000000e+00,1.000000000000000000e+00,1.000000000000000000e+00,1.000000000000000000e+00,1.000000000000000000e+00,1.000000000000000000e+00,1.000000000000000000e+00,1.000000000000000000e+00,1.000000000000000000e+00,1.000000000000000000e+00,1.000000000000000000e+00,1.000000000000000000e+00,1.000000000000000000e+00,1.000000000000000000e+00,2.888395071029662975e-01,2.779191017150878795e-01,2.706655502319336160e-01,2.670598745346069447e-01,2.652997732162475364e-01,2.635627269744872936e-01,2.633311510086059348e-01,2.671076774597168080e-01,9.377037048339843528e-01,9.079909324645996094e-01,8.801033020019530806e-01,8.538777351379394087e-01,2.471347570419311634e-01,2.385127782821655218e-01,2.320474863052368053e-01,2.282932758331298884e-01,2.248589754104614313e-01
6.194591522216796875e-01,6.351665019989013450e-01,6.516911506652831587e-01,6.690984725952148215e-01,6.874613761901855469e-01,7.068605899810791460e-01,7.273864746093750000e-01,7.491400241851806641e-01,7.722347736358642356e-01,7.967988491058349831e-01,8.229769706726074441e-01,8.509337425231933150e-01,8.808563232421875444e-01,9.129570960998535378e-01,9.474859237670898438e-01,9.847292900085449219e-01,1.000000000000000000e+00,1.000000000000000000e+00,1.000000000000000000e+00,1.000000000000000000e+00,1.000000000000000000e+00,1.000000000000000000e+00,1.000000000000000000e+00,1.000000000000000000e+00,1.000000000000000000e+00,1.000000000000000000e+00,1.000000000000000000e+00,1.000000000000000000e+00,1.000000000000000000e+00,1.000000000000000000e+00,1.000000000000000000e+00,1.000000000000000000e+00,1.000000000000000000e+00,1.000000000000000000e+00,1.000000000000000000e+00,1.000000000000000000e+00,1.000000000000000000e+00,1.000000000000000000e+00,1.000000000000000000e+00,1.000000000000000000e+00,1.000000000000000000e+00,1.000000000000000000e+00,1.000000000000000000e+00,1.000000000000000000e+00,1.000000000000000000e+00,1.000000000000000000e+00,1.000000000000000000e+00,1.000000000000000000e+00,1.000000000000000000e+00,1.000000000000000000e+00,1.000000000000000000e+00,1.000000000000000000e+00,1.000000000000000000e+00,1.000000000000000000e+00,1.000000000000000000e+00,1.000000000000000000e+00,1.000000000000000000e+00,1.000000000000000000e+00,1.000000000000000000e+00,1.000000000000000000e+00,1.000000000000000000e+00,1.000000000000000000e+00,1.000000000000000000e+00,2.905739784240722878e-01,2.795370340347290150e-01,2.721939086914062500e-01,2.681526660919189564e-01,2.664361000061035156e-01,2.647413492202758678e-01,2.653246641159057728e-01,2.691070795059203880e-01,9.377271652221679243e-01,9.080129623413085715e-01,8.801239967346191628e-01,8.538971900939941184e-01,8.291881561279297319e-01,2.412758588790893666e-01,2.327083349227905273e-01,2.277596712112426869e-01,2.243272304534912054e-01
6.194458961486816184e-01,6.351524829864502175e-01,6.516763687133788618e-01,6.690830230712890847e-01,6.874450206756591575e-01,7.068432807922363503e-01,7.273680686950683150e-01,7.491205692291259544e-01,7.722141742706298828e-01,7.967769145965576394e-01,8.229536056518554910e-01,8.509085655212402788e-01,8.808297157287597878e-01,9.129314422607421875e-01,9.474583625793456809e-01,9.846995353698730913e-01,1.000000000000000000e+00,1.000000000000000000e+00,1.000000000000000000e+00,1.000000000000000000e+00,1.000000000000000000e+00,1.000000000000000000e+00,1.000000000000000000e+00,1.000000000000000000e+00,1.000000000000000000e+00,1.000000000000000000e+00,1.000000000000000000e+00,1.000000000000000000e+00,1.000000000000000000e+00,1.000000000000000000e+00,1.000000000000000000e+00,1.000000000000000000e+00,1.000000000000000000e+00,1.000000000000000000e+00,1.000000000000000000e+00,1.000000000000000000e+00,1.000000000000000000e+00,1.000000000000000000e+00,1.000000000000000000e+00,1.000000000000000000e+00,1.000000000000000000e+00,1.000000000000000000e+00,1.000000000000000000e+00,1.000000000000000000e+00,1.000000000000000000e+00,1.000000000000000000e+00,1.000000000000000000e+00,1.000000000000000000e+00,1.000000000000000000e+00,1.000000000000000000e+00,1.000000000000000000e+00,1.000000000000000000e+00,1.000000000000000000e+00,1.000000000000000000e+00,1.000000000000000000e+00,1.000000000000000000e+00,1.000000000000000000e+00,1.000000000000000000e+00,1.000000000000000000e+00,1.000000000000000000e+00,1.000000000000000000e+00,1.000000000000000000e+00,1.000000000000000000e+00,1.000000000000000000e+00,2.813537836074829213e-01,2.737970352172851562e-01,2.690718889236450306e-01,2.673435688018798717e-01,2.656372785568237305e-01,2.673288822174072488e-01,2.708710908889770397e-01,9.377506256103516069e-01,9.080348968505859153e-01,8.801445960998535156e-01,8.539166450500488281e-01,8.292064666748046875e-01,2.444808721542358343e-01,2.355747222900390625e-01,2.274493455886840709e-01,2.243916034698486273e-01
6.194325447082519309e-01,6.351385116577148438e-01,6.516616821289062944e-01,6.690675258636474831e-01,6.874286174774170144e-01,7.068259716033935547e-01,7.273498058319092241e-01,7.491011619567871094e-01,7.721935749053955300e-01,7.967548847198486772e-01,8.229301452636719194e-01,8.508834838867187500e-01,8.808028221130370650e-01,9.129028320312500000e-01,9.474307060241698997e-01,9.846697807312011497e-01,1.000000000000000000e+00,1.000000000000000000e+00,1.000000000000000000e+00,1.000000000000000000e+00,1.000000000000000000e+00,1.000000000000000000e+00,1.000000000000000000e+00,1.000000000000000000e+00,1.000000000000000000e+00,1.000000000000000000e+00,1.000000000000000000e+00,1.000000000000000000e+00,1.000000000000000000e+00,1.000000000000000000e+00,1.000000000000000000e+00,1.000000000000000000e+00,1.000000000000000000e+00,1.000000000000000000e+00,1.000000000000000000e+00,1.000000000000000000e+00,1.000000000000000000e+00,1.000000000000000000e+00,1.000000000000000000e+00,1.000000000000000000e+00,1.000000000000000000e+00,1.000000000000000000e+00,1.000000000000000000e+00,1.000000000000000000e+00,1.000000000000000000e+00,1.000000000000000000e+00,1.000000000000000000e+00,1.000000000000000000e+00,1.000000000000000000e+00,1.000000000000000000e+00,1.000000000000000000e+00,1.000000000000000000e+00,1.000000000000000000e+00,1.000000000000000000e+00,1.000000000000000000e+00,1.000000000000000000e+00,1.000000000000000000e+00,1.000000000000000000e+00,1.000000000000000000e+00,1.000000000000000000e+00,1.000000000000000000e+00,1.000000000000000000e+00,1.000000000000000000e+00,1.000000000000000000e+00,2.834504842758178711e-01,2.753620862960815541e-01,2.703179597854614147e-01,2.682572126388549916e-01,2.665393114089965598e-01,2.693636178970336692e-01,9.695021629333495650e-01,9.377740859985351785e-01,9.080569267272948775e-01,8.801652908325194868e-01,8.539361000061035378e-01,8.292247772216796431e-01,8.059036254882812056e-01,2.382375478744506725e-01,2.278495073318481390e-01,2.246862888336181585e-01
6.194115638732909934e-01,6.351209163665771928e-01,6.516469478607177512e-01,6.690519809722900169e-01,6.874122619628906250e-01,7.068086624145507590e-01,7.273314952850341575e-01,7.490816593170166460e-01,7.721728801727294478e-01,7.967329502105713335e-01,8.229066848754882368e-01,8.508584976196289507e-01,8.807759284973144531e-01,9.128740310668945757e-01,9.473999977111816628e-01,9.846399307250977007e-01,1.000000000000000000e+00,1.000000000000000000e+00,1.000000000000000000e+00,1.000000000000000000e+00,1.000000000000000000e+00,1.000000000000000000e+00,1.000000000000000000e+00,1.000000000000000000e+00,1.000000000000000000e+00,1.000000000000000000e+00,1.000000000000000000e+00,1.000000000000000000e+00,1.000000000000000000e+00,1.000000000000000000e+00,1.000000000000000000e+00,1.000000000000000000e+00,1.000000000000000000e+00,1.000000000000000000e+00,1.000000000000000000e+00,1.000000000000000000e+00,1.000000000000000000e+00,1.000000000000000000e+00,1.000000000000000000e+00,1.000000000000000000e+00,1.000000000000000000e+00,1.000000000000000000e+00,1.000000000000000000e+00,1.000000000000000000e+00,1.000000000000000000e+00,1.000000000000000000e+00,1.000000000000000000e+00,1.000000000000000000e+00,1.000000000000000000e+00,1.000000000000000000e+00,1.000000000000000000e+00,1.000000000000000000e+00,1.000000000000000000e+00,1.000000000000000000e+00,1.000000000000000000e+00,1.000000000000000000e+00,1.000000000000000000e+00,1.000000000000000000e+00,1.000000000000000000e+00,1.000000000000000000e+00,1.000000000000000000e+00,1.000000000000000000e+00,1.000000000000000000e+00,1.000000000000000000e+00,2.855786800384521595e-01,2.768567562103271262e-01,2.716507673263549583e-01,2.691771745681762473e-01,2.675820350646972434e-01,2.710859537124633567e-01,9.695272445678710938e-01,9.377975463867187500e-01,9.080789566040039507e-01,8.801859855651855691e-01,8.539555549621582475e-01,8.292431831359863281e-01,8.059208869934082475e-01,2.400769948959350641e-01,2.285658121109008789e-01,2.254725933074951116e-01
6.193885803222656250e-01,6.350967407226562056e-01,6.516223907470702903e-01,6.690310478210449441e-01,6.873953342437744141e-01,7.067913532257079634e-01,7.273131370544433372e-01,7.490622520446776900e-01,7.721522331237793413e-01,7.967109680175781250e-01,8.228832244873046653e-01,8.508334159851074219e-01,8.807490348815918413e-01,9.128451347351074219e-01,9.473689079284668413e-01,9.846067428588867188e-01,1.000000000000000000e+00,1.000000000000000000e+00,1.000000000000000000e+00,1.000000000000000000e+00,1.000000000000000000e+00,1.000000000000000000e+00,1.000000000000000000e+00,1.000000000000000000e+00,1.000000000000000000e+00,1.000000000000000000e+00,1.000000000000000000e+00,1.000000000000000000e+00,1.000000000000000000e+00,1.000000000000000000e+00,1.000000000000000000e+00,1.000000000000000000e+00,1.000000000000000000e+00,1.000000000000000000e+00,1.000000000000000000e+00,1.000000000000000000e+00,1.000000000000000000e+00,1.000000000000000000e+00,1.000000000000000000e+00,1.000000000000000000e+00,1.000000000000000000e+00,1.000000000000000000e+00,1.000000000000000000e+00,1.000000000000000000e+00,1.000000000000000000e+00,1.000000000000000000e+00,1.000000000000000000e+00,1.000000000000000000e+00,1.000000000000000000e+00,1.000000000000000000e+00,1.000000000000000000e+00,1.000000000000000000e+00,1.000000000000000000e+00,1.000000000000000000e+00,1.000000000000000000e+00,1.000000000000000000e+00,1.000000000000000000e+00,1.000000000000000000e+00,1.000000000000000000e+00,1.000000000000000000e+00,1.000000000000000000e+00,1.000000000000000000e+00,1.000000000000000000e+00,1.000000000000000000e+00,2.873024225234985241e-01,2.783677339553832786e-01,2.729967594146728294e-01,2.701034069061279408e-01,2.696206569671630859e-01,2.724765539169311523e-01,9.695523262023926225e-01,9.378210067749023215e-01,9.081009864807129128e-01,8.802066802978515403e-01,8.539750099182128462e-01,8.292615890502930132e-01,8.059382438659667969e-01,2.393462181091308705e-01,2.293795585632324163e-01,2.262644290924072377e-01
6.193680286407470259e-01,6.350726604461669478e-01,6.515969753265380415e-01,6.690042495727539507e-01,6.873671054840088113e-01,7.067663192749022993e-01,7.272924900054931197e-01,7.490428924560547097e-01,7.721315383911132590e-01,7.966889381408691628e-01,8.228597640991210938e-01,8.508083343505858931e-01,8.807222366333007368e-01,9.128162384033202681e-01,9.473378181457519087e-01,9.845731735229492632e-01,1.000000000000000000e+00,1.000000000000000000e+00,1.000000000000000000e+00,1.000000000000000000e+00,1.000000000000000000e+00,1.000000000000000000e+00,1.000000000000000000e+00,1.000000000000000000e+00,1.000000000000000000e+00,1.000000000000000000e+00,1.000000000000000000e+00,1.000000000000000000e+00,1.000000000000000000e+00,1.000000000000000000e+00,1.000000000000000000e+00,1.000000000000000000e+00,1.000000000000000000e+00,1.000000000000000000e+00,1.000000000000000000e+00,1.000000000000000000e+00,1.000000000000000000e+00,1.000000000000000000e+00,1.000000000000000000e+00,1.000000000000000000e+00,1.000000000000000000e+00,1.000000000000000000e+00,1.000000000000000000e+00,1.000000000000000000e+00,1.000000000000000000e+00,1.000000000000000000e+00,1.000000000000000000e+00,1.000000000000000000e+00,1.000000000000000000e+00,1.000000000000000000e+00,1.000000000000000000e+00,1.000000000000000000e+00,1.000000000000000000e+00,1.000000000000000000e+00,1.000000000000000000e+00,1.000000000000000000e+00,1.000000000000000000e+00,1.000000000000000000e+00,1.000000000000000000e+00,1.000000000000000000e+00,1.000000000000000000e+00,1.000000000000000000e+00,1.000000000000000000e+00,1.000000000000000000e+00,2.888624668121337891e-01,2.798952817916869895e-01,2.743561744689941295e-01,2.714138031005859375e-01,2.713011741638183816e-01,2.738815546035766602e-01,9.695774078369140403e-01,9.378444671630858931e-01,9.081229209899902566e-01,8.802272796630858931e-01,8.539944648742675559e-01,8.292798995971679688e-01,8.059556007385253462e-01,2.377918720245361384e-01,2.301990985870361328e-01,2.269232273101806641e-01
6.193547725677490678e-01,6.350566864013671431e-01,6.515755176544189009e-01,6.689774036407470925e-01,6.873387813568114790e-01,7.067364692687988503e-01,7.272608280181884766e-01,7.490129470825195312e-01,7.721064090728759766e-01,7.966670036315918191e-01,8.228363037109375222e-01,8.507832527160644753e-01,8.806953430175781250e-01,9.127874374389648438e-01,9.473067283630370872e-01,9.845395088195800781e-01,1.000000000000000000e+00,1.000000000000000000e+00,1.000000000000000000e+00,1.000000000000000000e+00,1.000000000000000000e+00,1.000000000000000000e+00,1.000000000000000000e+00,1.000000000000000000e+00,1.000000000000000000e+00,1.000000000000000000e+00,1.000000000000000000e+00,1.000000000000000000e+00,1.000000000000000000e+00,1.000000000000000000e+00,1.000000000000000000e+00,1.000000000000000000e+00,1.000000000000000000e+00,1.000000000000000000e+00,1.000000000000000000e+00,1.000000000000000000e+00,1.000000000000000000e+00,1.000000000000000000e+00,1.000000000000000000e+00,1.000000000000000000e+00,1.000000000000000000e+00,1.000000000000000000e+00,1.000000000000000000e+00,1.000000000000000000e+00,1.000000000000000000e+00,1.000000000000000000e+00,1.000000000000000000e+00,1.000000000000000000e+00,1.000000000000000000e+00,1.000000000000000000e+00,1.000000000000000000e+00,1.000000000000000000e+00,1.000000000000000000e+00,1.000000000000000000e+00,1.000000000000000000e+00,1.000000000000000000e+00,1.000000000000000000e+00,1.000000000000000000e+00,1.000000000000000000e+00,1.000000000000000000e+00,1.000000000000000000e+00,1.000000000000000000e+00,1.000000000000000000e+00,2.989243745803832897e-01,2.902616024017333762e-01,2.816422700881958119e-01,2.758392095565795898e-01,2.726772546768188588e-01,2.735208749771118053e-01,2.759501457214355580e-01,9.696024894714355691e-01,9.378679275512695757e-01,9.081449508666992188e-01,8.802480697631835938e-01,8.540139198303222656e-01,8.292982101440429243e-01,8.059728622436523882e-01,2.362575769424438421e-01,2.310245275497436468e-01,2.272629976272582952e-01
6.193414688110351340e-01,6.350427150726318803e-01,6.515607833862304688e-01,6.689611434936523215e-01,6.873163223266601785e-01,7.067072391510009766e-01,7.272292137145995872e-01,7.489793300628662109e-01,7.720706939697266069e-01,7.966311931610107200e-01,8.228055000305175559e-01,8.507581710815429465e-01,8.806685447692871316e-01,9.127586364746094194e-01,9.472756385803222656e-01,9.845060348510742410e-01,1.000000000000000000e+00,1.000000000000000000e+00,1.000000000000000000e+00,1.000000000000000000e+00,1.000000000000000000e+00,1.000000000000000000e+00,1.000000000000000000e+00,1.000000000000000000e+00,1.000000000000000000e+00,1.000000000000000000e+00,1.000000000000000000e+00,1.000000000000000000e+00,1.000000000000000000e+00,1.000000000000000000e+00,1.000000000000000000e+00,1.000000000000000000e+00,1.000000000000000000e+00,1.000000000000000000e+00,1.000000000000000000e+00,1.000000000000000000e+00,1.000000000000000000e+00,1.000000000000000000e+00,1.000000000000000000e+00,1.000000000000000000e+00,1.000000000000000000e+00,1.000000000000000000e+00,1.000000000000000000e+00,1.000000000000000000e+00,1.000000000000000000e+00,1.000000000000000000e+00,1.000000000000000000e+00,1.000000000000000000e+00,1.000000000000000000e+00,1.000000000000000000e+00,1.000000000000000000e+00,1.000000000000000000e+00,1.000000000000000000e+00,1.000000000000000000e+00,1.000000000000000000e+00,1.000000000000000000e+00,1.000000000000000000e+00,1.000000000000000000e+00,1.000000000000000000e+00,1.000000000000000000e+00,1.000000000000000000e+00,1.000000000000000000e+00,1.000000000000000000e+00,2.979814052581787331e-01,2.897738695144653209e-01,2.828065156936645508e-01,2.779437065124511497e-01,2.739869594573974831e-01,2.764888525009155384e-01,1.000000000000000000e+00,9.696275711059569868e-01,9.378913879394531472e-01,9.081669807434081809e-01,8.802686691284179465e-01,8.540333747863769753e-01,8.293166160583496094e-01,8.059903144836425559e-01,2.351279973983764759e-01,2.314445734024047907e-01,2.276037931442260742e-01
6.193281650543213113e-01,6.350287914276122603e-01,6.515460968017577903e-01,6.689456939697265847e-01,6.873000144958496538e-01,7.066898822784424272e-01,7.272057056427001509e-01,7.489482402801513894e-01,7.720350742340087447e-01,7.965931415557860884e-01,8.227649688720702903e-01,8.507150650024414285e-01,8.806307792663574663e-01,9.127272605895996316e-01,9.472445487976074441e-01,9.844724655151366743e-01,1.000000000000000000e+00,1.000000000000000000e+00,1.000000000000000000e+00,1.000000000000000000e+00,1.000000000000000000e+00,1.000000000000000000e+00,1.000000000000000000e+00,1.000000000000000000e+00,1.000000000000000000e+00,1.000000000000000000e+00,1.000000000000000000e+00,1.000000000000000000e+00,1.000000000000000000e+00,1.000000000000000000e+00,1.000000000000000000e+00,1.000000000000000000e+00,1.000000000000000000e+00,1.000000000000000000e+00,1.000000000000000000e+00,1.000000000000000000e+00,1.000000000000000000e+00,1.000000000000000000e+00,1.000000000000000000e+00,1.000000000000000000e+00,1.000000000000000000e+00,1.000000000000000000e+00,1.000000000000000000e+00,1.000000000000000000e+00,1.000000000000000000e+00,1.000000000000000000e+00,1.000000000000000000e+00,1.000000000000000000e+00,1.000000000000000000e+00,1.000000000000000000e+00,1.000000000000000000e+00,1.000000000000000000e+00,1.000000000000000000e+00,1.000000000000000000e+00,1.000000000000000000e+00,1.000000000000000000e+00,1.000000000000000000e+00,1.000000000000000000e+00,1.000000000000000000e+00,1.000000000000000000e+00,1.000000000000000000e+00,1.000000000000000000e+00,3.065615415573120228e-01,2.974431991577148326e-01,2.906938076019286998e-01,2.860706806182861106e-01,2.807144403457641491e-01,2.799324989318847656e-01,2.845451116561889537e-01,1.000000000000000000e+00,9.696526527404785156e-01,9.379149436950683372e-01,9.081889152526855247e-01,8.802893638610840288e-01,8.540528297424316850e-01,8.293349266052245650e-01,8.060075759887694868e-01,2.356518507003784180e-01,2.315061092376708984e-01,2.275037288665771595e-01
6.193149089813232422e-01,6.350148677825927512e-01,6.515314579010009766e-01,6.689301490783691184e-01,6.872836589813232644e-01,7.066726207733153853e-01,7.271873474121093306e-01,7.489288330078125444e-01,7.720103740692139116e-01,7.965599536895752175e-01,8.227245330810546431e-01,8.506717681884765625e-01,8.805843353271484153e-01,9.126773834228515403e-01,9.471981048583983931e-01,9.844328880310058150e-01,1.000000000000000000e+00,1.000000000000000000e+00,1.000000000000000000e+00,1.000000000000000000e+00,1.000000000000000000e+00,1.000000000000000000e+00,1.000000000000000000e+00,1.000000000000000000e+00,1.000000000000000000e+00,1.000000000000000000e+00,1.000000000000000000e+00,1.000000000000000000e+00,1.000000000000000000e+00,1.000000000000000000e+00,1.000000000000000000e+00,1.000000000000000000e+00,1.000000000000000000e+00,1.000000000000000000e+00,1.000000000000000000e+00,1.000000000000000000e+00,1.000000000000000000e+00,1.000000000000000000e+00,1.000000000000000000e+00,1.000000000000000000e+00,1.000000000000000000e+00,1.000000000000000000e+00,1.000000000000000000e+00,1.000000000000000000e+00,1.000000000000000000e+00,1.000000000000000000e+00,1.000000000000000000e+00,1.000000000000000000e+00,1.000000000000000000e+00,1.000000000000000000e+00,1.000000000000000000e+00,1.000000000000000000e+00,1.000000000000000000e+00,1.000000000000000000e+00,1.000000000000000000e+00,1.000000000000000000e+00,1.000000000000000000e+00,1.000000000000000000e+00,1.000000000000000000e+00,1.000000000000000000e+00,1.000000000000000000e+00,1.000000000000000000e+00,3.055294990539551003e-01,2.992547273635864369e-01,2.936113119125366433e-01,2.903647661209106667e-01,2.858301162719726340e-01,1.000000000000000000e+00,1.000000000000000000e+00,1.000000000000000000e+00,9.696777343750000444e-01,9.379384040832519087e-01,9.082109451293944868e-01,8.803100585937500000e-01,8.540722846984862837e-01,8.293532371520996316e-01,8.060258865356445535e-01,2.355133771896362194e-01,2.313410282135009710e-01,2.274011850357055553e-01
6.193016529083251731e-01,6.350008487701416238e-01,6.515167713165282981e-01,6.689146995544433816e-01,6.872673511505127397e-01,7.066553592681884544e-01,7.271690845489502397e-01,7.489094734191894531e-01,7.719897747039794478e-01,7.965379238128662553e-01,8.226985931396484375e-01,8.506361007690429465e-01,8.805379867553710938e-01,9.126275062561035600e-01,9.471444129943847878e-01,9.843749046325683816e-01,1.000000000000000000e+00,1.000000000000000000e+00,1.000000000000000000e+00,1.000000000000000000e+00,1.000000000000000000e+00,1.000000000000000000e+00,1.000000000000000000e+00,1.000000000000000000e+00,1.000000000000000000e+00,1.000000000000000000e+00,1.000000000000000000e+00,1.000000000000000000e+00,1.000000000000000000e+00,1.000000000000000000e+00,1.000000000000000000e+00,1.000000000000000000e+00,1.000000000000000000e+00,1.000000000000000000e+00,1.000000000000000000e+00,1.000000000000000000e+00,1.000000000000000000e+00,1.000000000000000000e+00,1.000000000000000000e+00,1.000000000000000000e+00,1.000000000000000000e+00,1.000000000000000000e+00,1.000000000000000000e+00,1.000000000000000000e+00,1.000000000000000000e+00,1.000000000000000000e+00,1.000000000000000000e+00,1.000000000000000000e+00,1.000000000000000000e+00,1.000000000000000000e+00,1.000000000000000000e+00,1.000000000000000000e+00,1.000000000000000000e+00,1.000000000000000000e+00,1.000000000000000000e+00,1.000000000000000000e+00,1.000000000000000000e+00,1.000000000000000000e+00,1.000000000000000000e+00,1.000000000000000000e+00,1.000000000000000000e+00,3.233050584793090709e-01,3.082578897476196400e-01,3.019835233688354381e-01,2.982395172119140514e-01,2.947896718978881836e-01,3.039194107055663840e-01,1.000000000000000000e+00,1.000000000000000000e+00,1.000000000000000000e+00,9.697028160095214622e-01,9.379618644714355913e-01,9.082329750061035600e-01,8.803313255310059038e-01,8.540933609008789507e-01,8.293742179870605691e-01,8.060456275939941184e-01,2.364267110824584961e-01,2.311761379241943359e-01,2.273007154464721791e-01
6.192883968353271040e-01,6.349869251251221147e-01,6.515020847320556197e-01,6.688992023468017800e-01,6.872509479522704856e-01,7.066380977630615234e-01,7.271508216857910378e-01,7.488899707794189897e-01,7.719691753387450950e-01,7.965159893035889116e-01,8.226752281188964844e-01,8.506110191345215288e-01,8.805107116699218972e-01,9.125890731811523438e-01,9.470931053161620872e-01,9.843169212341308372e-01,1.000000000000000000e+00,1.000000000000000000e+00,1.000000000000000000e+00,1.000000000000000000e+00,1.000000000000000000e+00,1.000000000000000000e+00,1.000000000000000000e+00,1.000000000000000000e+00,1.000000000000000000e+00,1.000000000000000000e+00,1.000000000000000000e+00,1.000000000000000000e+00,1.000000000000000000e+00,1.000000000000000000e+00,1.000000000000000000e+00,1.000000000000000000e+00,1.000000000000000000e+00,1.000000000000000000e+00,1.000000000000000000e+00,1.000000000000000000e+00,1.000000000000000000e+00,1.000000000000000000e+00,1.000000000000000000e+00,1.000000000000000000e+00,1.000000000000000000e+00,1.000000000000000000e+00,1.000000000000000000e+00,1.000000000000000000e+00,1.000000000000000000e+00,1.000000000000000000e+00,1.000000000000000000e+00,1.000000000000000000e+00,1.000000000000000000e+00,1.000000000000000000e+00,1.000000000000000000e+00,1.000000000000000000e+00,1.000000000000000000e+00,1.000000000000000000e+00,1.000000000000000000e+00,1.000000000000000000e+00,1.000000000000000000e+00,1.000000000000000000e+00,1.000000000000000000e+00,1.000000000000000000e+00,1.000000000000000000e+00,3.204249382019043191e-01,3.109776496887207142e-01,3.049132823944091797e-01,3.019865036010742076e-01,3.025912761688232533e-01,1.000000000000000000e+00,1.000000000000000000e+00,1.000000000000000000e+00,1.000000000000000000e+00,9.697278976440429910e-01,9.379866600036621538e-01,9.082573890686035378e-01,8.803548812866210938e-01,8.541154861450195312e-01,8.293950080871581587e-01,8.060652732849120650e-01,2.373471975326538197e-01,2.310115098953247070e-01,2.272003412246704213e-01
6.192751407623291460e-01,6.349729537963867410e-01,6.514873504638671875e-01,6.688837528228759322e-01,6.872345924377440962e-01,7.066208362579345925e-01,7.271325111389159712e-01,7.488706111907958984e-01,7.719485759735107422e-01,7.964940547943115678e-01,8.226517677307129128e-01,8.505859375000000000e-01,8.804839134216309038e-01,9.125602722167969194e-01,9.470620155334472656e-01,9.842751502990723100e-01,1.000000000000000000e+00,1.000000000000000000e+00,1.000000000000000000e+00,1.000000000000000000e+00,1.000000000000000000e+00,1.000000000000000000e+00,1.000000000000000000e+00,1.000000000000000000e+00,1.000000000000000000e+00,1.000000000000000000e+00,1.000000000000000000e+00,1.000000000000000000e+00,1.000000000000000000e+00,1.000000000000000000e+00,1.000000000000000000e+00,1.000000000000000000e+00,1.000000000000000000e+00,1.000000000000000000e+00,1.000000000000000000e+00,1.000000000000000000e+00,1.000000000000000000e+00,1.000000000000000000e+00,1.000000000000000000e+00,1.000000000000000000e+00,1.000000000000000000e+00,1.000000000000000000e+00,1.000000000000000000e+00,1.000000000000000000e+00,1.000000000000000000e+00,1.000000000000000000e+00,1.000000000000000000e+00,1.000000000000000000e+00,1.000000000000000000e+00,1.000000000000000000e+00,1.000000000000000000e+00,1.000000000000000000e+00,1.000000000000000000e+00,1.000000000000000000e+00,1.000000000000000000e+00,1.000000000000000000e+00,1.000000000000000000e+00,1.000000000000000000e+00,1.000000000000000000e+00,1.000000000000000000e+00,1.000000000000000000e+00,3.205049276351928933e-01,3.137996912002563588e-01,3.081558465957641713e-01,3.051149845123291016e-01,3.104856491088867076e-01,1.000000000000000000e+00,1.000000000000000000e+00,1.000000000000000000e+00,1.000000000000000000e+00,9.697566032409667969e-01,9.380133628845215288e-01,9.082824707031249556e-01,8.803783416748046653e-01,8.541376113891601118e-01,8.294158935546874778e-01,8.060850143432617410e-01,2.382856845855712835e-01,2.308471202850341797e-01,2.271000385284423773e-01
6.192618370056152122e-01,6.349590301513672319e-01,6.514726638793945090e-01,6.688682556152343306e-01,6.872182846069335715e-01,7.066035270690917969e-01,7.271142482757568803e-01,7.488512039184570535e-01,7.719278812408447710e-01,7.964721202850342241e-01,8.226284027099609597e-01,8.505609512329102007e-01,8.804570198059081809e-01,9.125313758850097656e-01,9.470310211181640625e-01,9.842416763305663618e-01,1.000000000000000000e+00,1.000000000000000000e+00,1.000000000000000000e+00,1.000000000000000000e+00,1.000000000000000000e+00,1.000000000000000000e+00,1.000000000000000000e+00,1.000000000000000000e+00,1.000000000000000000e+00,1.000000000000000000e+00,1.000000000000000000e+00,1.000000000000000000e+00,1.000000000000000000e+00,1.000000000000000000e+00,1.000000000000000000e+00,1.000000000000000000e+00,1.000000000000000000e+00,1.000000000000000000e+00,1.000000000000000000e+00,1.000000000000000000e+00,1.000000000000000000e+00,1.000000000000000000e+00,1.000000000000000000e+00,1.000000000000000000e+00,1.000000000000000000e+00,1.000000000000000000e+00,1.000000000000000000e+00,1.000000000000000000e+00,1.000000000000000000e+00,1.000000000000000000e+00,1.000000000000000000e+00,1.000000000000000000e+00,1.000000000000000000e+00,1.000000000000000000e+00,1.000000000000000000e+00,1.000000000000000000e+00,1.000000000000000000e+00,1.000000000000000000e+00,1.000000000000000000e+00,1.000000000000000000e+00,1.000000000000000000e+00,1.000000000000000000e+00,1.000000000000000000e+00,1.000000000000000000e+00,1.000000000000000000e+00,3.234801530838012917e-01,3.167199373245239147e-01,3.114680528640746959e-01,3.094557285308837669e-01,1.000000000000000000e+00,1.000000000000000000e+00,1.000000000000000000e+00,1.000000000000000000e+00,1.000000000000000000e+00,9.697851181030273660e-01,9.380400657653809038e-01,9.083075523376464844e-01,8.804018020629882368e-01,8.541597366333008035e-01,8.294367790222167969e-01,8.061047554016113059e-01,2.392380475997924749e-01,2.307319879531860296e-01,2.269998311996460072e-01
6.192485809326171431e-01,6.349451065063476118e-01,6.514580249786376953e-01,6.688527584075927290e-01,6.872019290924071822e-01,7.065862655639648660e-01,7.270959854125976785e-01,7.488318443298339622e-01,7.719072818756103072e-01,7.964502334594726340e-01,8.226050376892090066e-01,8.505358695983886719e-01,8.804302215576171875e-01,9.125025749206543413e-01,9.469999313354492410e-01,9.842081069946289062e-01,1.000000000000000000e+00,1.000000000000000000e+00,1.000000000000000000e+00,1.000000000000000000e+00,1.000000000000000000e+00,1.000000000000000000e+00,1.000000000000000000e+00,1.000000000000000000e+00,1.000000000000000000e+00,1.000000000000000000e+00,1.000000000000000000e+00,1.000000000000000000e+00,1.000000000000000000e+00,1.000000000000000000e+00,1.000000000000000000e+00,1.000000000000000000e+00,1.000000000000000000e+00,1.000000000000000000e+00,1.000000000000000000e+00,1.000000000000000000e+00,1.000000000000000000e+00,1.000000000000000000e+00,1.000000000000000000e+00,1.000000000000000000e+00,1.000000000000000000e+00,1.000000000000000000e+00,1.000000000000000000e+00,1.000000000000000000e+00,1.000000000000000000e+00,1.000000000000000000e+00,1.000000000000000000e+00,1.000000000000000000e+00,1.000000000000000000e+00,1.000000000000000000e+00,1.000000000000000000e+00,1.000000000000000000e+00,1.000000000000000000e+00,1.000000000000000000e+00,1.000000000000000000e+00,1.000000000000000000e+00,1.000000000000000000e+00,1.000000000000000000e+00,1.000000000000000000e+00,1.000000000000000000e+00,3.420000553131103405e-01,3.267414808273315652e-01,3.197066545486449973e-01,3.148522853851318248e-01,3.173004865646362194e-01,1.000000000000000000e+00,1.000000000000000000e+00,1.000000000000000000e+00,1.000000000000000000e+00,1.000000000000000000e+00,9.698136329650879350e-01,9.380667686462402788e-01,9.083325386047362837e-01,8.804253578186035378e-01,8.541818618774413840e-01,8.294576644897461160e-01,8.061244010925292525e-01,2.401980400085449163e-01,2.306998014450073187e-01,2.269743204116821400e-01
6.192353248596191850e-01,6.349310874938964844e-01,6.514433383941650169e-01,6.688372611999511275e-01,6.871856212615966575e-01,7.065690040588379350e-01,7.270776271820068581e-01,7.488124370574951172e-01,7.718866825103759544e-01,7.964282035827636719e-01,8.225815773010254350e-01,8.505108833312988725e-01,8.804034233093261941e-01,9.124737739562988059e-01,9.469689369201660378e-01,9.841746330261230691e-01,1.000000000000000000e+00,1.000000000000000000e+00,1.000000000000000000e+00,1.000000000000000000e+00,1.000000000000000000e+00,1.000000000000000000e+00,1.000000000000000000e+00,1.000000000000000000e+00,1.000000000000000000e+00,1.000000000000000000e+00,1.000000000000000000e+00,1.000000000000000000e+00,1.000000000000000000e+00,1.000000000000000000e+00,1.000000000000000000e+00,1.000000000000000000e+00,1.000000000000000000e+00,1.000000000000000000e+00,1.000000000000000000e+00,1.000000000000000000e+00,1.000000000000000000e+00,1.000000000000000000e+00,1.000000000000000000e+00,1.000000000000000000e+00,1.000000000000000000e+00,1.000000000000000000e+00,1.000000000000000000e+00,1.000000000000000000e+00,1.000000000000000000e+00,1.000000000000000000e+00,1.000000000000000000e+00,1.000000000000000000e+00,1.000000000000000000e+00,1.000000000000000000e+00,1.000000000000000000e+00,1.000000000000000000e+00,1.000000000000000000e+00,1.000000000000000000e+00,1.000000000000000000e+00,1.000000000000000000e+00,1.000000000000000000e+00,1.000000000000000000e+00,1.000000000000000000e+00,1.000000000000000000e+00,3.415290355682373269e-01,3.302177190780639648e-01,3.231021404266357644e-01,3.191410064697265403e-01,1.000000000000000000e+00,1.000000000000000000e+00,1.000000000000000000e+00,1.000000000000000000e+00,1.000000000000000000e+00,1.000000000000000000e+00,9.698421478271483931e-01,9.380934715270996538e-01,9.083575248718261941e-01,8.804488182067871094e-01,8.542039871215820757e-01,8.294785499572754350e-01,8.061441421508789285e-01,2.414515018463134766e-01,2.308727025985717884e-01,2.271416902542114369e-01
6.192220687866211160e-01,6.349171638488769753e-01,6.514286518096923384e-01,6.688218116760253906e-01,6.871692180633545144e-01,7.065517425537108931e-01,7.270593166351317915e-01,7.487929821014404075e-01,7.718660831451416016e-01,7.964062690734863281e-01,8.225581169128417525e-01,8.504858016967773438e-01,8.803766250610352007e-01,9.124449729919433816e-01,9.469379425048828347e-01,9.841410636901855025e-01,1.000000000000000000e+00,1.000000000000000000e+00,1.000000000000000000e+00,1.000000000000000000e+00,1.000000000000000000e+00,1.000000000000000000e+00,1.000000000000000000e+00,1.000000000000000000e+00,1.000000000000000000e+00,1.000000000000000000e+00,1.000000000000000000e+00,1.000000000000000000e+00,1.000000000000000000e+00,1.000000000000000000e+00,1.000000000000000000e+00,1.000000000000000000e+00,1.000000000000000000e+00,1.000000000000000000e+00,1.000000000000000000e+00,1.000000000000000000e+00,1.000000000000000000e+00,1.000000000000000000e+00,1.000000000000000000e+00,1.000000000000000000e+00,1.000000000000000000e+00,1.000000000000000000e+00,1.000000000000000000e+00,1.000000000000000000e+00,1.000000000000000000e+00,1.000000000000000000e+00,1.000000000000000000e+00,1.000000000000000000e+00,1.000000000000000000e+00,1.000000000000000000e+00,1.000000000000000000e+00,1.000000000000000000e+00,1.000000000000000000e+00,1.000000000000000000e+00,1.000000000000000000e+00,1.000000000000000000e+00,1.000000000000000000e+00,1.000000000000000000e+00,1.000000000000000000e+00,1.000000000000000000e+00,3.414434432983398660e-01,3.338396310806274192e-01,3.278516530990600586e-01,3.257171154022217019e-01,1.000000000000000000e+00,1.000000000000000000e+00,1.000000000000000000e+00,1.000000000000000000e+00,1.000000000000000000e+00,1.000000000000000000e+00,9.698706626892089622e-01,9.381201744079590288e-01,9.083826065063476118e-01,8.804723739624022993e-01,8.542262077331542747e-01,8.294994354248046431e-01,8.061638832092284934e-01,7.841054439544677956e-01,2.310458660125732366e-01,2.273092985153198353e-01
6.192088127136230469e-01,6.349032402038574663e-01,6.514139175415039062e-01,6.688063621520996538e-01,6.871529102325439897e-01,7.065344810485839622e-01,7.270410537719727007e-01,7.487735748291015625e-01,7.718454837799072488e-01,7.963843345642089844e-01,8.225347518920897993e-01,8.504608154296875444e-01,8.803498268127440962e-01,9.124161720275878462e-01,9.469068527221680132e-01,9.710157394409180132e-01,9.707743644714355025e-01,9.705330848693847212e-01,9.702919006347656694e-01,9.700509071350097434e-01,9.698100090026855469e-01,9.695692062377929688e-01,9.693284034729003906e-01,9.690878868103027788e-01,9.688474655151366743e-01,9.686070442199706809e-01,9.683669090270996538e-01,9.681267738342285156e-01,9.678868293762207253e-01,9.676469802856445535e-01,9.674072265625000000e-01,9.671676635742187944e-01,9.669281005859374778e-01,9.666887283325195090e-01,9.664494514465331587e-01,9.662103652954101562e-01,9.659712791442871538e-01,9.657323837280273882e-01,9.654935836791992410e-01,9.652548789978027122e-01,9.650163650512695312e-01,9.647779464721679688e-01,9.645396232604980247e-01,9.643013954162598100e-01,9.640633583068847212e-01,9.638254165649413618e-01,9.635874748229980025e-01,9.633498191833496094e-01,9.631122589111328347e-01,9.628746986389160600e-01,9.626373291015625222e-01,9.624000549316406028e-01,9.621629714965820312e-01,9.619258880615234597e-01,9.616889953613281250e-01,9.614521980285644087e-01,9.612154960632324219e-01,9.609788894653320535e-01,9.607424736022949219e-01,9.605061531066894087e-01,3.509383440017700417e-01,3.375800132751464733e-01,3.329265356063842995e-01,9.595620155334472212e-01,9.593262672424316406e-01,9.590906143188476785e-01,9.588551521301269531e-01,9.586196899414062278e-01,9.583844184875488503e-01,9.581493377685547097e-01,9.579142570495605691e-01,9.381468772888184038e-01,9.084076881408691406e-01,8.804959297180176003e-01,8.542483329772949663e-01,8.295203208923339622e-01,8.061836242675781694e-01,7.841240406036377175e-01,2.312192916870117188e-01,2.274771451950073353e-01
6.191954612731933594e-01,6.348892688751220925e-01,6.513992786407470925e-01,6.687909126281738059e-01,6.871365547180176003e-01,7.065171241760254128e-01,7.270227909088134988e-01,7.487542152404784712e-01,7.542504787445067915e-01,7.541048526763916016e-01,7.539592266082764116e-01,7.538136482238769753e-01,7.536682128906250222e-01,7.535227298736572044e-01,7.533773422241211160e-01,7.532320499420166460e-01,7.530867576599120650e-01,7.529415130615234597e-01,7.527964115142822266e-01,7.526512622833252397e-01,7.525062561035156250e-01,7.523612499237060103e-01,7.522162914276122603e-01,7.520714759826659934e-01,7.519266128540038618e-01,7.517817974090575950e-01,7.516371726989745650e-01,7.514924526214599165e-01,7.513478279113769975e-01,7.512033462524414507e-01,7.510588169097900391e-01,7.509143829345703569e-01,7.507700443267821822e-01,7.506256580352783647e-01,7.504814624786376731e-01,7.503372192382812278e-01,7.501930236816406472e-01,7.500489711761474387e-01,7.499049186706543413e-01,7.497608661651611328e-01,7.496170043945312722e-01,7.494730949401855469e-01,7.493292331695556863e-01,7.491855144500731978e-01,7.490417957305908203e-01,7.488980770111084428e-01,7.487545490264893022e-01,7.486109733581542969e-01,7.484675407409667747e-01,7.483240604400634988e-01,7.481806278228759766e-01,7.480373859405518022e-01,7.478940963745117632e-01,7.477508068084717241e-01,7.476077079772949219e-01,7.474646091461181197e-01,7.473214626312255637e-01,7.471785545349121094e-01,7.470355510711670366e-01,7.468926429748534712e-01,3.504438400268554688e-01,3.439569234848022239e-01,3.405704975128173717e-01,7.463216781616210938e-01,7.461790084838867410e-01,7.460365295410156250e-01,7.458939552307128906e-01,7.457514762878417747e-01,7.456091403961181419e-01,7.454667568206787553e-01,7.453244209289551225e-01,7.451822757720947266e-01,7.450400352478027122e-01,7.448978900909424272e-01,7.447558403015136497e-01,7.446137905120849831e-01,7.444718837738036887e-01,7.443299770355225053e-01,2.321197271347045787e-01,2.276452541351318415e-01
6.167001724243164062e-01,6.166028022766113503e-01,6.165054798126220481e-01,6.164081096649169922e-01,6.163108348846435547e-01,6.162136077880859819e-01,6.161163330078125444e-01,6.160192012786864790e-01,6.159219741821289062e-01,6.158248424530029519e-01,6.157277584075927512e-01,6.156306743621826616e-01,6.155336380004883257e-01,6.154366016387939897e-01,6.153396129608154075e-01,6.152427196502685547e-01,6.151457309722900835e-01,6.150488376617431197e-01,6.149519920349121316e-01,6.148551464080810325e-01,6.147583484649657981e-01,6.146615982055664285e-01,6.145648479461669478e-01,6.144680976867675781e-01,6.143714427947998269e-01,6.142747879028320757e-01,6.141782283782959428e-01,6.140816211700439453e-01,6.139850139617919478e-01,6.138885498046875444e-01,6.137919902801514116e-01,6.136955261230468972e-01,6.135991096496582475e-01,6.135026931762694868e-01,6.134062767028808372e-01,6.133100032806396706e-01,6.132136344909667747e-01,6.131173610687256081e-01,6.130211353302001953e-01,6.129249095916747825e-01,6.128287315368652344e-01,6.127325534820556863e-01,6.126364231109618919e-01,6.125403404235839622e-01,6.124442577362060325e-01,6.123481750488281028e-01,6.122521877288817915e-01,6.121562004089355913e-01,6.120602130889892800e-01,6.119643211364745872e-01,6.118684291839600053e-01,6.117725372314453125e-01,6.116767406463623491e-01,6.115808963775635210e-01,6.114851951599120650e-01,6.113893985748291016e-01,6.112936496734618919e-01,6.111980438232421653e-01,6.111023426055908203e-01,6.110066890716552290e-01,3.495352745056152233e-01,3.427238941192626842e-01,3.402795791625976562e-01,6.106245517730712891e-01,6.105290412902831809e-01,6.104335784912109375e-01,6.103382110595703125e-01,6.102427959442138228e-01,6.101474761962890625e-01,6.100521087646484375e-01,6.099568367004394309e-01,6.098615646362304243e-01,6.097663402557372825e-01,6.096711158752441406e-01,6.095759868621826172e-01,6.094808101654052290e-01,6.093856811523437056e-01,6.092905998229980469e-01,2.331936359405517578e-01,2.278060197830200084e-01
5.210243225097656028e-01,5.209547996520995650e-01,5.208853244781493919e-01,5.208158493041992188e-01,5.207463741302490456e-01,5.206768989562988725e-01,5.206075191497803178e-01,5.205380916595458984e-01,5.204687118530273438e-01,5.203993797302246538e-01,5.203300476074218528e-01,5.202607154846191628e-01,5.201913833618163618e-01,5.201220989227295366e-01,5.200528144836426003e-01,5.199835300445556641e-01,5.199143409729003462e-01,5.198451042175292747e-01,5.197759151458740678e-01,5.197067260742187500e-01,5.196375846862792969e-01,5.195684432983398438e-01,5.194993019104003906e-01,5.194302082061768022e-01,5.193611145019531028e-01,5.192920207977295144e-01,5.192229747772216797e-01,5.191539764404297097e-01,5.190849304199218750e-01,5.190159320831299050e-01,5.189469814300536887e-01,5.188779830932617188e-01,5.188090801239013672e-01,5.187401294708251509e-01,5.186712265014647993e-01,5.186023712158203125e-01,5.185334682464599609e-01,5.184646129608154741e-01,5.183958053588867410e-01,5.183269977569580078e-01,5.182581901550292747e-01,5.181894302368164062e-01,5.181206703186035378e-01,5.180519104003906694e-01,5.179831981658935547e-01,5.179144859313964400e-01,5.178458213806151900e-01,5.177771568298339400e-01,5.177084922790526900e-01,5.176398754119873047e-01,5.175712585449219194e-01,5.175026416778564231e-01,5.174341201782226562e-01,5.173655033111572710e-01,5.172969818115233931e-01,5.172284603118896262e-01,5.171599388122558594e-01,5.170915126800537109e-01,5.170230388641356978e-01,5.169545650482177956e-01,3.467699289321899414e-01,3.411114931106567494e-01,3.382334232330322377e-01,5.166809558868408203e-01,5.166125774383545366e-01,5.165442466735840066e-01,5.164759635925293413e-01,5.164076328277588113e-01,5.163393497467041460e-01,5.162710666656493697e-01,5.162028312683105691e-01,5.161345958709716575e-01,5.160664081573486106e-01,5.159981727600098100e-01,5.159300327301025169e-01,5.158618450164794700e-01,5.157937049865722878e-01,5.157256126403808594e-01,2.350748300552368275e-01,2.279620885848999134e-01
4.510479927062988059e-01,4.509959220886230469e-01,4.509438037872314231e-01,4.508917331695556641e-01,4.508396625518799050e-01,4.507876396179198997e-01,4.507356166839599498e-01,4.506835460662841908e-01,4.506315231323242410e-01,4.505795478820801003e-01,4.505275726318359597e-01,4.504755973815918191e-01,4.504236221313476785e-01,4.503716945648193470e-01,4.503197669982910156e-01,4.502678394317626842e-01,4.502159118652343528e-01,4.501639842987060769e-01,4.501121044158935547e-01,4.500602245330810325e-01,4.500083446502685658e-01,4.499565124511718528e-01,4.499046802520751953e-01,4.498528480529785378e-01,4.498010158538818248e-01,4.497492313385009766e-01,4.496973991394043191e-01,4.496456623077392800e-01,4.495938777923583762e-01,4.495420932769775280e-01,4.494903564453124889e-01,4.494386196136474498e-01,4.493868827819824108e-01,4.493351936340331809e-01,4.492834568023681419e-01,4.492318153381347767e-01,4.491801261901855469e-01,4.491284370422363170e-01,4.490767955780029519e-01,4.490251541137695312e-01,4.489735126495361106e-01,4.489219188690185547e-01,4.488702774047851340e-01,4.488186836242675781e-01,4.487671375274658314e-01,4.487155437469482200e-01,4.486639976501464733e-01,4.486124515533447266e-01,4.485609054565429799e-01,4.485094070434570424e-01,4.484578609466552956e-01,4.484063625335693581e-01,4.483549118041992299e-01,4.483034133911132924e-01,4.482519626617431641e-01,4.482005119323730358e-01,4.481490612030029075e-01,4.480976104736328347e-01,4.480462074279785156e-01,4.479948043823241965e-01,4.479434013366699330e-01,3.382001399993896373e-01,3.359922647476196178e-01,3.349860906600952148e-01,4.477379798889160045e-01,4.476866245269775502e-01,4.476353168487549050e-01,4.475840091705322044e-01,4.475327014923095592e-01,4.474814414978027233e-01,4.474301338195800781e-01,4.473788738250732422e-01,4.473276138305664062e-01,4.472764015197753795e-01,4.472251415252685436e-01,4.471739292144775169e-01,4.471227169036865456e-01,4.470715522766113281e-01,2.374130010604858509e-01,2.281183719635009877e-01
3.976425170898437722e-01,3.976020336151123158e-01,3.975615262985229270e-01,3.975210666656494030e-01,3.974805593490600697e-01,3.974401235580444225e-01,3.973996877670288308e-01,3.973592281341552512e-01,3.973188161849975364e-01,3.972784042358398215e-01,3.972379446029662975e-01,3.971975564956665150e-01,3.971571445465088002e-01,3.971167564392089622e-01,3.970763921737671120e-01,3.970359802246093972e-01,3.969956874847412331e-01,3.969552993774413951e-01,3.969149589538574219e-01,3.968746185302734486e-01,3.968342542648315430e-01,3.967939615249633789e-01,3.967536449432372825e-01,3.967133045196533092e-01,3.966730356216430775e-01,3.966327428817749134e-01,3.965924263000488170e-01,3.965521812438964622e-01,3.965119123458862305e-01,3.964716196060180664e-01,3.964313983917236439e-01,3.963911533355712891e-01,3.963508844375610574e-01,3.963106870651245117e-01,3.962704896926879661e-01,3.962302446365356667e-01,3.961900472640991211e-01,3.961498737335205078e-01,3.961096525192260853e-01,3.960694789886474720e-01,3.960293292999267356e-01,3.959891796112060547e-01,3.959490060806274414e-01,3.959088563919067605e-01,3.958687305450439564e-01,3.958285808563232200e-01,3.957884788513183483e-01,3.957483768463134766e-01,3.957082271575927956e-01,3.956681489944458008e-01,3.956280708312988059e-01,3.955879688262939342e-01,3.955479145050048717e-01,3.955078601837158092e-01,3.954677820205688699e-01,3.954277276992798074e-01,3.953877210617065541e-01,3.953476428985595592e-01,3.953076362609863059e-01,3.952676296234131081e-01,3.952275991439819225e-01,3.353854894638061412e-01,3.335739612579345925e-01,3.306576490402221569e-01,3.313611507415771262e-01,3.950277090072631947e-01,3.949877023696899414e-01,3.949477672576904297e-01,3.949078559875488503e-01,3.948679208755493386e-01,3.948279619216918945e-01,3.947880744934081920e-01,3.947481632232666127e-01,3.947082281112671009e-01,3.946683645248413308e-01,3.946284770965576283e-01,3.945885658264159934e-01,3.945487260818481556e-01,3.945088624954223855e-01,2.297428369522094838e-01
3.555449008941650169e-01,3.555125236511230691e-01,3.554801464080810658e-01,3.554477930068969949e-01,3.554154634475708008e-01,3.553830862045287975e-01,3.553507566452026589e-01,3.553184032440185325e-01,3.552860736846923939e-01,3.552537679672241322e-01,3.552214145660400613e-01,3.551891326904296764e-01,3.551568269729614147e-01,3.551244974136352761e-01,3.550922155380248912e-01,3.550599098205566295e-01,3.550276279449463002e-01,3.549953699111938477e-01,3.549630880355835183e-01,3.549308300018310658e-01,3.548985719680786133e-01,3.548663377761840931e-01,3.548341035842895730e-01,3.548018217086791881e-01,3.547696113586426003e-01,3.547374010086059570e-01,3.547051429748535045e-01,3.546729326248169167e-01,3.546407222747802734e-01,3.546085119247436301e-01,3.545763015747070424e-01,3.545441389083862083e-01,3.545119047164916881e-01,3.544797420501709095e-01,3.544475793838500755e-01,3.544153690338134877e-01,3.543832302093505859e-01,3.543510675430298074e-01,3.543189048767089733e-01,3.542867660522460715e-01,3.542546272277832253e-01,3.542224645614623912e-01,3.541903495788574219e-01,3.541582345962524525e-01,3.541260957717895508e-01,3.540939807891845814e-01,3.540618896484374889e-01,3.540297985076904519e-01,3.539976835250854270e-01,3.539656162261962669e-01,3.539335250854492299e-01,3.539014339447021373e-01,3.538693666458129772e-01,3.538373231887817494e-01,3.538052320480346569e-01,3.537731885910034291e-01,3.537411451339721458e-01,3.537090778350829856e-01,3.536770582199096902e-01,3.536450386047363392e-01,3.536129713058471791e-01,3.535809755325317605e-01,3.535489797592162864e-01,3.278554439544677512e-01,3.254339933395385964e-01,3.534529685974120983e-01,3.534209489822387473e-01,3.533889770507812611e-01,3.533570051193237194e-01,3.533250093460083008e-01,3.532930374145507590e-01,3.532610893249511497e-01,3.532291173934936634e-01,3.531971693038940541e-01,3.531652450561523215e-01,3.531333208084106445e-01,3.531013727188110352e-01,3.530694484710693581e-01,3.530375480651855580e-01,2.295297145843505915e-01
3.215075254440307728e-01,3.214810609817504994e-01,3.214545965194702259e-01,3.214281320571899525e-01,3.214016914367675559e-01,3.213752031326294056e-01,3.213487863540649414e-01,3.213223218917846680e-01,3.212958812713623269e-01,3.212694644927978627e-01,3.212430000305175892e-01,3.212165832519531250e-01,3.211901664733886608e-01,3.211637258529663197e-01,3.211373329162597878e-01,3.211108922958373912e-01,3.210844993591308594e-01,3.210581302642822044e-01,3.210316896438598633e-01,3.210053205490112083e-01,3.209789514541626088e-01,3.209525346755981445e-01,3.209261655807494895e-01,3.208997964859008900e-01,3.208734512329101674e-01,3.208470821380615123e-01,3.208207130432129128e-01,3.207943677902221902e-01,3.207680225372314675e-01,3.207416534423828125e-01,3.207153081893920898e-01,3.206889867782592995e-01,3.206626176834106445e-01,3.206362962722778542e-01,3.206099987030029408e-01,3.205836534500122181e-01,3.205573320388793723e-01,3.205310344696045144e-01,3.205047130584716686e-01,3.204784154891967551e-01,3.204521179199218972e-01,3.204257965087890514e-01,3.203995227813720703e-01,3.203732490539550892e-01,3.203469276428222434e-01,3.203206777572631947e-01,3.202944040298462136e-01,3.202681064605713002e-01,3.202418565750121959e-01,3.202156066894531472e-01,3.201893329620361106e-01,3.201630830764770619e-01,3.201368570327758900e-01,3.201106071472167858e-01,3.200843572616577370e-01,3.200581312179565652e-01,3.200319051742553933e-01,3.200056552886962891e-01,3.199794292449951172e-01,3.199532270431518777e-01,3.199270009994507058e-01,3.199007987976074108e-01,3.198745965957641713e-01,3.198483705520629994e-01,3.198221921920776367e-01,3.197960138320922741e-01,3.197697877883911022e-01,3.197436094284057395e-01,3.197174549102783092e-01,3.196912527084350697e-01,3.196650981903076394e-01,3.196389436721801536e-01,3.196127414703369141e-01,3.195866107940673606e-01,3.195604562759399303e-01,3.195342779159545676e-01,3.195081472396850697e-01,3.194820165634155162e-01,3.194558620452880859e-01,2.299178123474120983e-01
2.934177875518798606e-01,2.933957338333129661e-01,2.933736801147460715e-01,2.933516502380371094e-01,2.933296203613281472e-01,2.933075666427612527e-01,2.932855367660522350e-01,2.932635307312011497e-01,2.932414770126342551e-01,2.932194709777832253e-01,2.931974411010742076e-01,2.931754350662231223e-01,2.931534290313720925e-01,2.931313991546630748e-01,2.931094169616699219e-01,2.930874109268188366e-01,2.930654048919677512e-01,2.930434226989745983e-01,2.930214166641235130e-01,2.929994344711303600e-01,2.929774522781372070e-01,2.929554462432861217e-01,2.929334878921509011e-01,2.929115056991576926e-01,2.928895235061645397e-01,2.928675651550293191e-01,2.928455829620361106e-01,2.928236484527587669e-01,2.928016901016235463e-01,2.927797317504882701e-01,2.927577972412109264e-01,2.927358627319335826e-01,2.927139043807983620e-01,2.926919698715210183e-01,2.926700353622436745e-01,2.926480770111083984e-01,2.926261663436889870e-01,2.926042318344116433e-01,2.925822973251342995e-01,2.925603866577148326e-01,2.925384759902954213e-01,2.925165414810180775e-01,2.924946308135986106e-01,2.924727439880371316e-01,2.924508094787597878e-01,2.924289226531982533e-01,2.924070358276367188e-01,2.923851251602173074e-01,2.923632383346557728e-01,2.923413515090942383e-01,2.923194646835327037e-01,2.922975778579711692e-01,2.922757148742675670e-01,2.922538280487060325e-01,2.922319650650024303e-01,2.922101020812988281e-01,2.921882390975952259e-01,2.921663522720336914e-01,2.921445131301879661e-01,2.921226501464843639e-01,2.921007871627807617e-01,2.920789480209350364e-01,2.920571088790893666e-01,2.920352458953857644e-01,2.920134067535400391e-01,2.919915914535522461e-01,2.919697284698486439e-01,2.919479131698608509e-01,2.919260978698730580e-01,2.919042587280273326e-01,2.918824434280395397e-01,2.918606281280517467e-01,2.918388128280639537e-01,2.918169975280761608e-01,2.917952060699463002e-01,2.917733907699585072e-01,2.917515993118285911e-01,2.917298078536987305e-01,2.371935844421386719e-01,2.297400712966918834e-01
2.698419809341430775e-01,2.698233366012573464e-01,2.698046922683715598e-01,2.697860479354858287e-01,2.697674036026000977e-01,2.697487592697143666e-01,2.697301387786865123e-01,2.697115182876587136e-01,2.696928739547729270e-01,2.696742534637451283e-01,2.696556091308593972e-01,2.696369886398315430e-01,2.696183919906616211e-01,2.695997476577758900e-01,2.695811510086059681e-01,2.695625543594360463e-01,2.695439338684081920e-01,2.695253372192382701e-01,2.695067167282104714e-01,2.694881200790405495e-01,2.694695472717285045e-01,2.694509267807007058e-01,2.694323301315307839e-01,2.694137573242187389e-01,2.693951606750488170e-01,2.693765878677368275e-01,2.693579912185669056e-01,2.693394184112548606e-01,2.693208456039428711e-01,2.693022489547729492e-01,2.692836761474609597e-01,2.692651271820068470e-01,2.692465543746948020e-01,2.692280054092407449e-01,2.692094564437866322e-01,2.691908836364745872e-01,2.691723346710205300e-01,2.691537857055664174e-01,2.691352128982543723e-01,2.691166639328003152e-01,2.690981388092040794e-01,2.690795660018920898e-01,2.690610408782959095e-01,2.690425157546997292e-01,2.690239667892456166e-01,2.690054416656494363e-01,2.689869165420532005e-01,2.689683675765991433e-01,2.689498424530029075e-01,2.689313411712646595e-01,2.689127922058105469e-01,2.688942909240722434e-01,2.688757658004760631e-01,2.688572406768798828e-01,2.688387393951415794e-01,2.688202381134033314e-01,2.688017129898071511e-01,2.687832355499267800e-01,2.687647342681884766e-01,2.687462091445922963e-01,2.687277317047119252e-01,2.687092542648315541e-01,2.686907529830932506e-01,2.686722517013550027e-01,2.686537742614746316e-01,2.686352968215942605e-01,2.686168193817138894e-01,2.685983419418335183e-01,2.685798645019531472e-01,2.685613870620727761e-01,2.685429096221924050e-01,2.685244560241699108e-01,2.685059785842895397e-01,2.684875249862671009e-01,2.684690713882446067e-01,2.684505939483642356e-01,2.684321403503417969e-01,2.684137105941772350e-01,2.683952331542968639e-01,2.299415826797485407e-01
2.497730016708374079e-01,2.497570276260376032e-01,2.497410535812377985e-01,2.497250795364379938e-01,2.497091054916381891e-01,2.496931314468383845e-01,2.496771812438964844e-01,2.496612071990966797e-01,2.496452331542968750e-01,2.496292829513549749e-01,2.496133327484130748e-01,2.495973587036132701e-01,2.495814085006713978e-01,2.495654582977294977e-01,2.495495080947875977e-01,2.495335578918456976e-01,2.495176076889037975e-01,2.495016813278198298e-01,2.494857311248779297e-01,2.494697809219360296e-01,2.494538545608520619e-01,2.494379043579101618e-01,2.494219779968261663e-01,2.494060516357421986e-01,2.493901014328002985e-01,2.493741989135742076e-01,2.493582725524902399e-01,2.493423461914062444e-01,2.493264198303222767e-01,2.493104934692382812e-01,2.492945671081542858e-01,2.492786645889282227e-01,2.492627382278442272e-01,2.492468357086181641e-01,2.492309331893921009e-01,2.492150306701660101e-01,2.491991281509399470e-01,2.491832256317138561e-01,2.491673231124877930e-01,2.491514444351196345e-01,2.491355419158935436e-01,2.491196393966674805e-01,2.491037368774414174e-01,2.490878582000732311e-01,2.490719556808471680e-01,2.490560770034790095e-01,2.490401983261108509e-01,2.490243196487426647e-01,2.490084409713745062e-01,2.489925622940063477e-01,2.489766836166381891e-01,2.489608049392700306e-01,2.489449501037597767e-01,2.489290475845336859e-01,2.489131927490234319e-01,2.488973379135131780e-01,2.488814592361450195e-01,2.488656044006347656e-01,2.488497495651245117e-01,2.488338708877563532e-01,2.488180160522460993e-01,2.488021850585937500e-01,2.487863063812255915e-01,2.487704753875732422e-01,2.487546205520629883e-01,2.487387657165527344e-01,2.487229347229003851e-01,2.487071037292480358e-01,2.486912488937377819e-01,2.486754179000854603e-01,2.486595869064331110e-01,2.486437559127807617e-01,2.486279010772705078e-01,2.486120939254760631e-01,2.485962629318237416e-01,2.485804319381713923e-01,2.485646009445190430e-01,2.485487937927245983e-01,2.485329627990722767e-01,2.485171556472778320e-01
2.324825525283813477e-01,2.324687242507934570e-01,2.324548959732055664e-01,2.324410438537597712e-01,2.324272155761718806e-01,2.324133634567260853e-01,2.323995351791381947e-01,2.323857069015503041e-01,2.323718786239624134e-01,2.323580503463745228e-01,2.323442220687866322e-01,2.323303937911987416e-01,2.323165655136108509e-01,2.323027372360229603e-01,2.322889328002929743e-01,2.322751045227050837e-01,2.322612762451171931e-01,2.322474718093872070e-01,2.322336673736572210e-01,2.322198390960693304e-01,2.322060346603393444e-01,2.321922302246093861e-01,2.321784257888794001e-01,2.321646213531494141e-01,2.321508169174194280e-01,2.321370124816894420e-01,2.321232080459594838e-01,2.321094036102294977e-01,2.320956230163574163e-01,2.320818185806274303e-01,2.320680141448974720e-01,2.320542335510253906e-01,2.320404291152954046e-01,2.320266485214233509e-01,2.320128679275512695e-01,2.319990634918212835e-01,2.319853067398071345e-01,2.319715261459350530e-01,2.319577455520629994e-01,2.319439649581909180e-01,2.319301843643188366e-01,2.319164037704467829e-01,2.319026470184326061e-01,2.318888664245605524e-01,2.318750858306884710e-01,2.318613290786743220e-01,2.318475723266601451e-01,2.318337917327880915e-01,2.318200349807739147e-01,2.318062782287597656e-01,2.317924976348876842e-01,2.317787408828735352e-01,2.317650079727172907e-01,2.317512273788452093e-01,2.317374944686889648e-01,2.317237377166748158e-01,2.317099809646606390e-01,2.316962242126464899e-01,2.316824913024902455e-01,2.316687345504760687e-01,2.316550016403198242e-01,2.316412687301635798e-01,2.316275119781494030e-01,2.316137790679931585e-01,2.316000461578369141e-01,2.315862894058227650e-01,2.315725803375244252e-01,2.315588474273681530e-01,2.315450906753540039e-01,2.315313816070556641e-01,2.315176486968994196e-01,2.315039396286010798e-01,2.314902067184448353e-01,2.314764738082885631e-01,2.314627647399902233e-01,2.314490318298339788e-01,2.314353227615356390e-01,2.314216136932372991e-01,2.314078807830810547e-01,2.313941717147827148e-01
2.174309730529785101e-01,2.174188613891601674e-01,2.174067735671997015e-01,2.173946619033813588e-01,2.173825502395629883e-01,2.173704624176025502e-01,2.173583507537841797e-01,2.173462629318237416e-01,2.173341512680053711e-01,2.173220634460449330e-01,2.173099756240844671e-01,2.172978639602661244e-01,2.172857761383056585e-01,2.172736883163452204e-01,2.172616004943847545e-01,2.172495126724243164e-01,2.172374248504638783e-01,2.172253370285034124e-01,2.172132492065429743e-01,2.172011613845825084e-01,2.171890974044799749e-01,2.171770095825195368e-01,2.171649217605590709e-01,2.171528577804565374e-01,2.171407699584960993e-01,2.171287059783935658e-01,2.171166181564330999e-01,2.171045541763305664e-01,2.170924901962280329e-01,2.170804262161254994e-01,2.170683383941650335e-01,2.170562744140625000e-01,2.170442104339599665e-01,2.170321464538574330e-01,2.170200824737548717e-01,2.170080184936523382e-01,2.169959545135498047e-01,2.169839143753051758e-01,2.169718503952026423e-01,2.169597864151001088e-01,2.169477224349975475e-01,2.169356822967529186e-01,2.169236421585082897e-01,2.169115781784057562e-01,2.168995380401611273e-01,2.168874979019164984e-01,2.168754339218139648e-01,2.168633937835693359e-01,2.168513536453247070e-01,2.168393135070800781e-01,2.168272733688354492e-01,2.168152332305908203e-01,2.168032169342040960e-01,2.167911529541015625e-01,2.167791366577148382e-01,2.167670965194702093e-01,2.167550563812255804e-01,2.167430400848388561e-01,2.167309999465942272e-01,2.167189598083495983e-01,2.167069435119629017e-01,2.166949272155761774e-01,2.166828870773315485e-01,2.166708707809448242e-01,2.166588544845580999e-01,2.166468143463134710e-01,2.166347980499267467e-01,2.166227817535400502e-01,2.166107654571533259e-01,2.165987491607666016e-01,2.165867328643798773e-01,2.165747165679931530e-01,2.165627241134643610e-01,2.165507078170776367e-01,2.165386915206909124e-01,2.165266990661621205e-01,2.165146827697753962e-01,2.165026903152465765e-01,2.164906740188598522e-01,2.164786815643310602e-01
2.042098522186279186e-01,2.041991710662841852e-01,2.041884899139404241e-01,2.041778087615966908e-01,2.041671276092529297e-01,2.041564702987671009e-01,2.041457891464233398e-01,2.041351079940795787e-01,2.041244268417358454e-01,2.041137695312499889e-01,2.041031122207641602e-01,2.040924310684203991e-01,2.040817737579345703e-01,2.040710926055908092e-01,2.040604352951049805e-01,2.040497779846191517e-01,2.040390968322753906e-01,2.040284395217895619e-01,2.040177822113037054e-01,2.040071249008178766e-01,2.039964675903320201e-01,2.039858102798461914e-01,2.039751529693603627e-01,2.039644956588745062e-01,2.039538383483886774e-01,2.039431810379028209e-01,2.039325475692748968e-01,2.039218902587890681e-01,2.039112329483032116e-01,2.039005994796752874e-01,2.038899421691894587e-01,2.038793087005615345e-01,2.038686513900756780e-01,2.038579940795898493e-01,2.038473606109619252e-01,2.038367271423339733e-01,2.038260698318481445e-01,2.038154363632202204e-01,2.038048028945922963e-01,2.037941694259643444e-01,2.037835121154785156e-01,2.037729024887084961e-01,2.037622690200805720e-01,2.037516117095947155e-01,2.037410020828246959e-01,2.037303686141967718e-01,2.037197351455688477e-01,2.037091255187988281e-01,2.036984920501709040e-01,2.036878585815429799e-01,2.036772489547729603e-01,2.036666154861450084e-01,2.036559820175170843e-01,2.036453723907470648e-01,2.036347627639770452e-01,2.036241531372070257e-01,2.036135196685791016e-01,2.036029100418090820e-01,2.035923004150390625e-01,2.035816669464111384e-01,2.035710573196411188e-01,2.035604476928710993e-01,2.035498380661010798e-01,2.035392284393310602e-01,2.035286188125610407e-01,2.035180091857910212e-01,2.035073995590210016e-01,2.034967899322509821e-01,2.034861803054809626e-01,2.034755945205688477e-01,2.034649848937988281e-01,2.034543752670288086e-01,2.034437894821166937e-01,2.034331798553466741e-01,2.034225702285766546e-01,2.034119844436645397e-01,2.034013986587524525e-01,2.033907890319824330e-01,2.033802032470703181e-01,2.033696174621582031e-01
1.925044178962707631e-01,1.924949169158935436e-01,1.924854516983032227e-01,1.924759507179260309e-01,1.924664497375488392e-01,1.924569845199584905e-01,1.924474835395812988e-01,1.924379944801330455e-01,1.924285292625427246e-01,1.924190402030944713e-01,1.924095511436462458e-01,1.924000620841979925e-01,1.923905968666076716e-01,1.923811078071594183e-01,1.923716306686401312e-01,1.923621654510498102e-01,1.923526763916015569e-01,1.923431992530822698e-01,1.923337340354919489e-01,1.923242568969726618e-01,1.923147797584533747e-01,1.923053264617919922e-01,1.922958493232727051e-01,1.922863721847534180e-01,1.922769188880920355e-01,1.922674417495727484e-01,1.922579646110534612e-01,1.922484874725341741e-01,1.922390460968017578e-01,1.922295689582824707e-01,1.922201037406921498e-01,1.922106504440307673e-01,1.922011852264404186e-01,1.921917200088500977e-01,1.921822667121887152e-01,1.921728014945983942e-01,1.921633362770080455e-01,1.921538949012756292e-01,1.921444416046142467e-01,1.921349763870239258e-01,1.921255350112915095e-01,1.921160817146301270e-01,1.921066164970398060e-01,1.920971632003784235e-01,1.920877218246460072e-01,1.920782685279846247e-01,1.920688152313232422e-01,1.920593738555908259e-01,1.920499205589294434e-01,1.920404911041259655e-01,1.920310378074646107e-01,1.920216083526611328e-01,1.920121669769287165e-01,1.920027136802673340e-01,1.919932842254638561e-01,1.919838428497314398e-01,1.919743895530700573e-01,1.919649720191955455e-01,1.919555306434631292e-01,1.919460773468017467e-01,1.919366598129272350e-01,1.919272184371948187e-01,1.919177770614624023e-01,1.919083595275878906e-01,1.918989300727844127e-01,1.918894886970519964e-01,1.918800711631774847e-01,1.918706297874450684e-01,1.918612003326415905e-01,1.918517827987670787e-01,1.918423533439636286e-01,1.918329238891601507e-01,1.918235063552856390e-01,1.918140769004821888e-01,1.918046474456787109e-01,1.917952418327331654e-01,1.917858123779296875e-01,1.917763948440551758e-01,1.917669892311096302e-01,1.917575597763061523e-01
1.820681571960449108e-01,1.820596575736999623e-01,1.820511817932128906e-01,1.820426821708679144e-01,1.820341944694519043e-01,1.820257186889648326e-01,1.820172309875488226e-01,1.820087432861328125e-01,1.820002675056457409e-01,1.819917798042297308e-01,1.819832921028137207e-01,1.819748044013977106e-01,1.819663286209106390e-01,1.819578528404235951e-01,1.819493651390075573e-01,1.819409012794494518e-01,1.819324135780334417e-01,1.819239258766174316e-01,1.819154739379882924e-01,1.819069862365722545e-01,1.818985104560852106e-01,1.818900465965271052e-01,1.818815708160400335e-01,1.818730950355529896e-01,1.818646311759948841e-01,1.818561553955078125e-01,1.818476796150207409e-01,1.818392038345336970e-01,1.818307518959045299e-01,1.818222761154174860e-01,1.818138003349304144e-01,1.818053483963012751e-01,1.817968845367431696e-01,1.817884087562560980e-01,1.817799568176269587e-01,1.817714929580688532e-01,1.817630171775817816e-01,1.817545771598815807e-01,1.817461133003234752e-01,1.817376494407653698e-01,1.817291975021362305e-01,1.817207336425781250e-01,1.817122697830200195e-01,1.817038297653198187e-01,1.816953659057617132e-01,1.816869020462036077e-01,1.816784501075744684e-01,1.816700100898742676e-01,1.816615462303161621e-01,1.816530942916870228e-01,1.816446542739868220e-01,1.816362023353576549e-01,1.816277384757995494e-01,1.816193103790283148e-01,1.816108703613281139e-01,1.816024184226989746e-01,1.815939664840698353e-01,1.815855383872985729e-01,1.815770864486694336e-01,1.815686345100402943e-01,1.815602064132690319e-01,1.815517544746398926e-01,1.815433144569396917e-01,1.815348863601684570e-01,1.815264344215393177e-01,1.815179944038391169e-01,1.815095663070678822e-01,1.815011262893676813e-01,1.814926862716674805e-01,1.814842581748962458e-01,1.814758181571960449e-01,1.814673781394958441e-01,1.814589619636535756e-01,1.814505219459533747e-01,1.814420819282531738e-01,1.814336657524108776e-01,1.814252257347107045e-01,1.814167976379394420e-01,1.814083814620971735e-01,1.813999414443969727e-01
1.727052569389343206e-01,1.726976156234741322e-01,1.726899862289428822e-01,1.726823449134826660e-01,1.726747035980224498e-01,1.726670861244201660e-01,1.726594448089599498e-01,1.726518034934997614e-01,1.726441740989685114e-01,1.726365447044372614e-01,1.726289033889770452e-01,1.726212859153747614e-01,1.726136445999145452e-01,1.726060032844543568e-01,1.725983738899231068e-01,1.725907564163207952e-01,1.725831270217895452e-01,1.725754857063293568e-01,1.725678682327270452e-01,1.725602388381957952e-01,1.725526094436645452e-01,1.725449919700622614e-01,1.725373625755310114e-01,1.725297331809997614e-01,1.725221276283264160e-01,1.725144982337951660e-01,1.725068688392639160e-01,1.724992632865905706e-01,1.724916338920593206e-01,1.724840044975280706e-01,1.724763870239257868e-01,1.724687814712524414e-01,1.724611520767211914e-01,1.724535346031189076e-01,1.724459290504455622e-01,1.724382996559143122e-01,1.724306821823120006e-01,1.724230766296386830e-01,1.724154591560363714e-01,1.724078416824340876e-01,1.724002480506897084e-01,1.723926305770873968e-01,1.723850131034851130e-01,1.723774075508117676e-01,1.723698019981384222e-01,1.723621845245361384e-01,1.723545670509338268e-01,1.723469734191894476e-01,1.723393559455871638e-01,1.723317503929138184e-01,1.723241567611694391e-01,1.723165392875671276e-01,1.723089337348938099e-01,1.723013401031494030e-01,1.722937345504760853e-01,1.722861289978027399e-01,1.722785353660583607e-01,1.722709417343139537e-01,1.722633361816406361e-01,1.722557306289672907e-01,1.722481489181518499e-01,1.722405433654785045e-01,1.722329378128051869e-01,1.722253561019897461e-01,1.722177505493164007e-01,1.722101569175720215e-01,1.722025632858276423e-01,1.721949696540832631e-01,1.721873641014099177e-01,1.721797943115234431e-01,1.721721887588500977e-01,1.721645951271057184e-01,1.721570134162902777e-01,1.721494197845458984e-01,1.721418261528015192e-01,1.721342444419860784e-01,1.721266508102416992e-01,1.721190571784973200e-01,1.721114873886108454e-01,1.721038937568664662e-01
1.642582535743713490e-01,1.642513275146484375e-01,1.642444372177123968e-01,1.642375230789184515e-01,1.642306089401245062e-01,1.642237067222595270e-01,1.642168045043945201e-01,1.642098903656005748e-01,1.642029881477355957e-01,1.641960859298706166e-01,1.641891717910766713e-01,1.641822814941406306e-01,1.641753792762756237e-01,1.641684651374816784e-01,1.641615629196166992e-01,1.641546726226806585e-01,1.641477584838867132e-01,1.641408562660217341e-01,1.641339659690856934e-01,1.641270637512207142e-01,1.641201615333557073e-01,1.641132712364196666e-01,1.641063690185546875e-01,1.640994668006897084e-01,1.640925884246826061e-01,1.640856862068176270e-01,1.640787839889526478e-01,1.640718936920166071e-01,1.640650033950805664e-01,1.640581011772155873e-01,1.640511989593505804e-01,1.640443205833435059e-01,1.640374183654785267e-01,1.640305280685424860e-01,1.640236496925354115e-01,1.640167593955993708e-01,1.640098571777343639e-01,1.640029788017272894e-01,1.639960885047912487e-01,1.639891982078552357e-01,1.639823198318481334e-01,1.639754295349121205e-01,1.639685392379760798e-01,1.639616608619690052e-01,1.639547705650329645e-01,1.639478802680969238e-01,1.639409899711608831e-01,1.639341235160827748e-01,1.639272332191467341e-01,1.639203429222106934e-01,1.639134764671325573e-01,1.639065861701965443e-01,1.638997077941894420e-01,1.638928413391113337e-01,1.638859510421752930e-01,1.638790726661682184e-01,1.638722062110900823e-01,1.638653159141540416e-01,1.638584375381469671e-01,1.638515710830688588e-01,1.638447046279907227e-01,1.638378262519836481e-01,1.638309478759765736e-01,1.638240814208984375e-01,1.638172030448913630e-01,1.638103246688842884e-01,1.638034701347351185e-01,1.637965917587280162e-01,1.637897133827209417e-01,1.637828588485717718e-01,1.637759804725646973e-01,1.637691020965576227e-01,1.637622475624084528e-01,1.637553691864013783e-01,1.637485027313232422e-01,1.637416481971740723e-01,1.637347698211669977e-01,1.637279033660888616e-01,1.637210488319396917e-01,1.637141823768615834e-01
1.565989971160888783e-01,1.565927147865295299e-01,1.565864443778991755e-01,1.565801620483398549e-01,1.565738797187805065e-01,1.565676093101501520e-01,1.565613269805908314e-01,1.565550446510314830e-01,1.565487742424011286e-01,1.565424919128418080e-01,1.565362095832824596e-01,1.565299510955810436e-01,1.565236687660217230e-01,1.565173864364624023e-01,1.565111279487609863e-01,1.565048456192016657e-01,1.564985632896423451e-01,1.564922928810119629e-01,1.564860343933105469e-01,1.564797520637512263e-01,1.564734816551208441e-01,1.564672231674194280e-01,1.564609408378601074e-01,1.564546704292297252e-01,1.564484119415283092e-01,1.564421415328979548e-01,1.564358592033386341e-01,1.564296007156372181e-01,1.564233303070068359e-01,1.564170598983764537e-01,1.564108133316040039e-01,1.564045429229736217e-01,1.563982725143432673e-01,1.563920021057128851e-01,1.563857436180114691e-01,1.563794732093811146e-01,1.563732147216796986e-01,1.563669562339782826e-01,1.563606858253479004e-01,1.563544273376464844e-01,1.563481688499450684e-01,1.563419103622436523e-01,1.563356399536132701e-01,1.563293933868408203e-01,1.563231348991394043e-01,1.563168644905090221e-01,1.563106179237365723e-01,1.563043594360351562e-01,1.562981009483337402e-01,1.562918305397033580e-01,1.562855839729309082e-01,1.562793254852294922e-01,1.562730669975280762e-01,1.562668204307556263e-01,1.562605619430542103e-01,1.562543034553527943e-01,1.562480688095092829e-01,1.562418103218078669e-01,1.562355518341064509e-01,1.562293171882629395e-01,1.562230587005615234e-01,1.562168002128601074e-01,1.562105655670165960e-01,1.562043070793151800e-01,1.561980724334716686e-01,1.561918139457702526e-01,1.561855792999267689e-01,1.561793208122253529e-01,1.561730742454528753e-01,1.561668395996093639e-01,1.561605930328369141e-01,1.561543345451354980e-01,1.561480998992919866e-01,1.561418533325195368e-01,1.561356067657470592e-01,1.561293721199035756e-01,1.561231255531310980e-01,1.561168789863586481e-01,1.561106443405151367e-01,1.561043977737426869e-01
1.496222138404846302e-01,1.496164679527282604e-01,1.496107459068298229e-01,1.496050119400024470e-01,1.495992779731750433e-01,1.495935559272766058e-01,1.495878219604492299e-01,1.495820879936218262e-01,1.495763659477233887e-01,1.495706319808959850e-01,1.495648980140686091e-01,1.495591759681701716e-01,1.495534420013427679e-01,1.495477080345153920e-01,1.495419859886169545e-01,1.495362639427185170e-01,1.495305299758911133e-01,1.495247960090637096e-01,1.495190858840942383e-01,1.495133519172668346e-01,1.495076179504394587e-01,1.495019078254699596e-01,1.494961738586425837e-01,1.494904518127441462e-01,1.494847416877746471e-01,1.494790077209472712e-01,1.494732856750488337e-01,1.494675755500793346e-01,1.494618415832519587e-01,1.494561195373535212e-01,1.494504094123840221e-01,1.494446873664855846e-01,1.494389653205871471e-01,1.494332551956176758e-01,1.494275212287902721e-01,1.494217991828918346e-01,1.494160771369933971e-01,1.494103789329528920e-01,1.494046568870544545e-01,1.493989348411560170e-01,1.493932247161865179e-01,1.493875026702880804e-01,1.493817806243896429e-01,1.493760824203491100e-01,1.493703603744506725e-01,1.493646383285522350e-01,1.493589401245117299e-01,1.493532180786132924e-01,1.493475079536437933e-01,1.493417978286743220e-01,1.493360877037048229e-01,1.493303656578063854e-01,1.493246555328369141e-01,1.493189454078674427e-01,1.493132352828979437e-01,1.493075251579284723e-01,1.493018269538879395e-01,1.492961049079895020e-01,1.492903947830200306e-01,1.492846965789794977e-01,1.492789864540099987e-01,1.492732763290405273e-01,1.492675781249999944e-01,1.492618680000305231e-01,1.492561578750610241e-01,1.492504596710205189e-01,1.492447495460510198e-01,1.492390394210815485e-01,1.492333531379699818e-01,1.492276549339294489e-01,1.492219448089599498e-01,1.492162346839904785e-01,1.492105484008789118e-01,1.492048382759094127e-01,1.491991400718689076e-01,1.491934418678283747e-01,1.491877436637878418e-01,1.491820335388183705e-01,1.491763472557067760e-01,1.491706371307373047e-01
1.432405710220336914e-01,1.432353258132934570e-01,1.432300567626953181e-01,1.432247996330261175e-01,1.432195425033569447e-01,1.432142972946167103e-01,1.432090401649475098e-01,1.432037949562072754e-01,1.431985497474670410e-01,1.431932926177978405e-01,1.431880354881286677e-01,1.431827902793884333e-01,1.431775331497192327e-01,1.431722879409789984e-01,1.431670427322387640e-01,1.431617856025695912e-01,1.431565403938293568e-01,1.431512951850891224e-01,1.431460499763488881e-01,1.431407928466796875e-01,1.431355476379394531e-01,1.431303024291992188e-01,1.431250572204589844e-01,1.431198000907897838e-01,1.431145668029785156e-01,1.431093215942382812e-01,1.431040644645690807e-01,1.430988311767578125e-01,1.430935859680175781e-01,1.430883407592773438e-01,1.430830955505371094e-01,1.430778503417968750e-01,1.430726051330566406e-01,1.430673718452453724e-01,1.430621266365051381e-01,1.430568814277649037e-01,1.430516362190246693e-01,1.430464029312133734e-01,1.430411577224731390e-01,1.430359125137329046e-01,1.430306911468505748e-01,1.430254459381103405e-01,1.430202007293701061e-01,1.430149674415588379e-01,1.430097341537475697e-01,1.430044889450073353e-01,1.429992556571960394e-01,1.429940223693847712e-01,1.429887771606445368e-01,1.429835438728332409e-01,1.429783105850219727e-01,1.429730653762817383e-01,1.429678320884704701e-01,1.429625988006591741e-01,1.429573655128479059e-01,1.429521322250366100e-01,1.429468989372253418e-01,1.429416656494140736e-01,1.429364323616027777e-01,1.429312109947204479e-01,1.429259657859802135e-01,1.429207324981689453e-01,1.429155111312866155e-01,1.429102778434753473e-01,1.429050445556640514e-01,1.428998231887817494e-01,1.428945899009704534e-01,1.428893566131591852e-01,1.428841233253478893e-01,1.428789019584655873e-01,1.428736686706542913e-01,1.428684473037719616e-01,1.428632259368896595e-01,1.428580045700073298e-01,1.428527712821960338e-01,1.428475499153137318e-01,1.428423166275024359e-01,1.428370952606201061e-01,1.428318738937378041e-01,1.428266525268554743e-01
1.373810291290283314e-01,1.373762011528015248e-01,1.373713731765747181e-01,1.373665332794189453e-01,1.373616933822631725e-01,1.373568773269653320e-01,1.373520374298095592e-01,1.373471975326538141e-01,1.373423814773559459e-01,1.373375415802002009e-01,1.373327136039733942e-01,1.373278856277465876e-01,1.373230576515197809e-01,1.373182177543640081e-01,1.373134016990661677e-01,1.373085618019103948e-01,1.373037338256835882e-01,1.372989177703857477e-01,1.372940897941589411e-01,1.372892498970031683e-01,1.372844219207763616e-01,1.372796058654785212e-01,1.372747778892517145e-01,1.372699379920959417e-01,1.372651219367981013e-01,1.372602939605712946e-01,1.372554659843444880e-01,1.372506499290466198e-01,1.372458219528198131e-01,1.372409939765930065e-01,1.372361779212951660e-01,1.372313499450683594e-01,1.372265219688415527e-01,1.372217059135437123e-01,1.372168898582458441e-01,1.372120618820190374e-01,1.372072339057922308e-01,1.372024178504943903e-01,1.371975898742675837e-01,1.371927738189697155e-01,1.371879577636718750e-01,1.371831297874450684e-01,1.371783137321472279e-01,1.371734976768493597e-01,1.371686816215515192e-01,1.371638536453247126e-01,1.371590495109558105e-01,1.371542215347290039e-01,1.371494054794311634e-01,1.371445894241332952e-01,1.371397733688354548e-01,1.371349573135375866e-01,1.371301293373107799e-01,1.371253252029419056e-01,1.371205091476440374e-01,1.371156811714172308e-01,1.371108770370483287e-01,1.371060609817504883e-01,1.371012449264526478e-01,1.370964407920837458e-01,1.370916247367858776e-01,1.370867967605590709e-01,1.370819926261901966e-01,1.370771765708923284e-01,1.370723605155944880e-01,1.370675563812255859e-01,1.370627522468566839e-01,1.370579361915588434e-01,1.370531320571899414e-01,1.370483160018921009e-01,1.370434999465942327e-01,1.370386838912963923e-01,1.370338797569274902e-01,1.370290756225585882e-01,1.370242595672607477e-01,1.370194673538208119e-01,1.370146632194519098e-01,1.370098471641540416e-01,1.370050430297851674e-01,1.370002388954162653e-01
1.319820523262023870e-01,1.319775938987731989e-01,1.319731354713439830e-01,1.319686651229858287e-01,1.319642186164856068e-01,1.319597482681274525e-01,1.319552898406982366e-01,1.319508314132690485e-01,1.319463729858398326e-01,1.319419145584106445e-01,1.319374561309814564e-01,1.319329977035522405e-01,1.319285392761230524e-01,1.319240808486938366e-01,1.319196224212646484e-01,1.319151639938354603e-01,1.319107055664062444e-01,1.319062590599059948e-01,1.319018006324768066e-01,1.318973422050476185e-01,1.318928956985473688e-01,1.318884372711181530e-01,1.318839788436889648e-01,1.318795204162597767e-01,1.318750739097595270e-01,1.318706154823303112e-01,1.318661570549011230e-01,1.318617105484008734e-01,1.318572521209716852e-01,1.318527936935424694e-01,1.318483591079711859e-01,1.318439006805419977e-01,1.318394422531127819e-01,1.318349957466125599e-01,1.318305492401123102e-01,1.318260908126830944e-01,1.318216443061828724e-01,1.318171977996826227e-01,1.318127393722534069e-01,1.318082928657531849e-01,1.318038463592529352e-01,1.317993879318237194e-01,1.317949414253234974e-01,1.317904949188232477e-01,1.317860484123229980e-01,1.317816019058227484e-01,1.317771553993224987e-01,1.317727088928222767e-01,1.317682504653930609e-01,1.317638158798217773e-01,1.317593693733215277e-01,1.317549109458923395e-01,1.317504763603210560e-01,1.317460298538208063e-01,1.317415833473205566e-01,1.317371368408203069e-01,1.317326903343200573e-01,1.317282438278198353e-01,1.317237973213195856e-01,1.317193627357483021e-01,1.317149162292480524e-01,1.317104697227478027e-01,1.317060351371765192e-01,1.317015886306762695e-01,1.316971421241760198e-01,1.316927075386047363e-01,1.316882610321044866e-01,1.316838145256042369e-01,1.316793799400329534e-01,1.316749453544616699e-01,1.316704988479614202e-01,1.316660523414611705e-01,1.316616177558898870e-01,1.316571831703186035e-01,1.316527366638183538e-01,1.316483020782470703e-01,1.316438674926757868e-01,1.316394209861755371e-01,1.316349864006042536e-01,1.316305637359619085e-01
1.269913673400878962e-01,1.269872426986694280e-01,1.269831180572509877e-01,1.269789814949035534e-01,1.269748568534851130e-01,1.269707202911377064e-01,1.269665956497192383e-01,1.269624590873718317e-01,1.269583463668823298e-01,1.269542098045349232e-01,1.269500732421874889e-01,1.269459605216979869e-01,1.269418239593505804e-01,1.269376993179321400e-01,1.269335746765136719e-01,1.269294500350952037e-01,1.269253134727477972e-01,1.269212007522582952e-01,1.269170761108398549e-01,1.269129395484924205e-01,1.269088268280029186e-01,1.269047021865844782e-01,1.269005656242370716e-01,1.268964409828186035e-01,1.268923282623291016e-01,1.268882036209106334e-01,1.268840670585632269e-01,1.268799543380737249e-01,1.268758296966552845e-01,1.268717050552368164e-01,1.268675923347473145e-01,1.268634676933288463e-01,1.268593430519104059e-01,1.268552184104919378e-01,1.268510937690734974e-01,1.268469691276550293e-01,1.268428564071655273e-01,1.268387317657470592e-01,1.268346190452575573e-01,1.268305063247680553e-01,1.268263816833496149e-01,1.268222570419311468e-01,1.268181324005127064e-01,1.268140196800232045e-01,1.268098950386047363e-01,1.268057823181152344e-01,1.268016695976257324e-01,1.267975449562072643e-01,1.267934203147888239e-01,1.267893195152282604e-01,1.267851948738098200e-01,1.267810702323913519e-01,1.267769694328308161e-01,1.267728447914123480e-01,1.267687320709228460e-01,1.267646193504333441e-01,1.267604947090149037e-01,1.267563819885254017e-01,1.267522692680358998e-01,1.267481565475463978e-01,1.267440438270568959e-01,1.267399191856384277e-01,1.267358183860778920e-01,1.267316937446594238e-01,1.267275810241699219e-01,1.267234683036804199e-01,1.267193555831909180e-01,1.267152428627014160e-01,1.267111420631408802e-01,1.267070174217224121e-01,1.267029047012329102e-01,1.266988039016723744e-01,1.266946911811828724e-01,1.266905784606933705e-01,1.266864657402038685e-01,1.266823530197143666e-01,1.266782402992248646e-01,1.266741275787353627e-01,1.266700267791747991e-01,1.266659140586852972e-01
