6.200042724609374778e-01,6.357393264770507812e-01,6.522938251495361550e-01,6.697334766387939009e-01,6.881297111511230913e-01,7.075647830963134322e-01,7.281297206878661887e-01,7.499258518218994141e-01,7.730670928955077903e-01,7.976820468902587891e-01,8.239160537719726340e-01,8.519342422485352007e-01,8.819252014160156028e-01,9.141047477722168413e-01,9.487214088439941406e-01,9.860631942749022993e-01,1.000000000000000000e+00,1.000000000000000000e+00,1.000000000000000000e+00,1.000000000000000000e+00,1.000000000000000000e+00,1.000000000000000000e+00,1.000000000000000000e+00,1.000000000000000000e+00,1.000000000000000000e+00,1.995325326919555609e-01,1.964494824409484808e-01,1.919699549674987737e-01,1.000000000000000000e+00,1.955180883407592884e-01,1.000000000000000000e+00,1.999632477760314997e-01,1.954035162925720215e-01,1.920011639595031738e-01,1.892360806465148981e-01,1.864467382431030384e-01,1.862394809722900391e-01,1.868468403816223034e-01,1.874581813812255804e-01,1.880735397338867132e-01,1.964095473289489691e-01,2.131874084472656361e-01,2.143200874328613226e-01,2.152541875839233398e-01,2.215785503387451283e-01,1.000000000000000000e+00,1.000000000000000000e+00,1.000000000000000000e+00,1.000000000000000000e+00,2.427639245986938366e-01,2.378290176391601451e-01,2.285314559936523493e-01,1.000000000000000000e+00,1.000000000000000000e+00,1.000000000000000000e+00,1.000000000000000000e+00,1.000000000000000000e+00,1.000000000000000000e+00,1.000000000000000000e+00,1.000000000000000000e+00,1.000000000000000000e+00,1.000000000000000000e+00,1.000000000000000000e+00,1.000000000000000000e+00,1.000000000000000000e+00,1.000000000000000000e+00,1.000000000000000000e+00,1.000000000000000000e+00,1.000000000000000000e+00,1.000000000000000000e+00,9.681767463684082253e-01,9.365342140197754350e-01,9.068946838378906250e-01,8.790736198425292969e-01,8.529087066650390403e-01,8.282563209533690962e-01,8.049890518188476118e-01,7.829932212829590066e-01,7.621675014495850053e-01,7.424209594726562944e-01
6.199909687042236550e-01,6.357253551483154075e-01,6.522791385650634766e-01,6.697180747985840288e-01,6.881150722503661665e-01,7.075494289398193137e-01,7.281134605407715288e-01,7.499085903167724831e-01,7.730487346649169700e-01,7.976625442504883257e-01,8.238951683044433150e-01,8.519120216369628906e-01,8.819013595581054465e-01,9.140790939331054910e-01,9.486938476562499778e-01,9.860334396362304688e-01,1.000000000000000000e+00,1.000000000000000000e+00,1.000000000000000000e+00,1.000000000000000000e+00,1.000000000000000000e+00,1.000000000000000000e+00,1.000000000000000000e+00,1.000000000000000000e+00,1.000000000000000000e+00,1.992285966873169056e-01,1.954501748085021862e-01,1.909323334693908691e-01,1.000000000000000000e+00,1.000000000000000000e+00,1.000000000000000000e+00,2.012570858001709040e-01,1.966929316520690807e-01,1.928665995597839411e-01,1.900767207145691029e-01,1.872999548912048229e-01,1.859452962875366155e-01,1.862117290496826116e-01,1.868189215660095159e-01,1.874300718307495006e-01,1.945910811424255427e-01,2.131560325622558483e-01,2.144616127014160045e-01,2.154627323150634655e-01,2.213667392730712946e-01,1.000000000000000000e+00,1.000000000000000000e+00,1.000000000000000000e+00,1.000000000000000000e+00,2.477591753005981556e-01,2.419069290161132701e-01,2.345695257186889704e-01,2.269636154174804743e-01,1.000000000000000000e+00,1.000000000000000000e+00,1.000000000000000000e+00,1.000000000000000000e+00,1.000000000000000000e+00,1.000000000000000000e+00,1.000000000000000000e+00,1.000000000000000000e+00,1.000000000000000000e+00,1.000000000000000000e+00,1.000000000000000000e+00,1.000000000000000000e+00,1.000000000000000000e+00,1.000000000000000000e+00,1.000000000000000000e+00,1.000000000000000000e+00,1.000000000000000000e+00,9.682050704956054465e-01,9.365608215332030806e-01,9.069195747375488059e-01,8.790969848632812500e-01,8.529307365417480025e-01,8.282770156860351785e-01,8.050086021423339400e-01,7.830117702484130637e-01,7.621850967407226562e-01,7.424375534057616743e-01
6.199777603149414507e-01,6.357114315032958984e-01,6.522644042968750444e-01,6.697025299072265625e-01,6.880987167358398882e-01,7.075340747833251953e-01,7.280972003936767578e-01,7.498913288116455522e-01,7.730304718017577681e-01,7.976429939270019975e-01,8.238743782043457253e-01,8.518898010253905806e-01,8.818774223327636719e-01,9.140534400939941406e-01,9.486661911010741965e-01,9.860035896301269087e-01,1.000000000000000000e+00,1.000000000000000000e+00,1.000000000000000000e+00,1.000000000000000000e+00,1.000000000000000000e+00,1.000000000000000000e+00,1.000000000000000000e+00,1.000000000000000000e+00,1.000000000000000000e+00,1.984283804893493541e-01,1.945395112037658636e-01,1.901253700256347601e-01,1.000000000000000000e+00,1.000000000000000000e+00,1.000000000000000000e+00,1.000000000000000000e+00,1.981378555297851618e-01,1.938977479934692327e-01,1.909248471260070745e-01,1.881610155105590820e-01,1.859466910362243541e-01,1.856567263603210449e-01,1.861839890480041504e-01,1.867909789085388239e-01,1.928059577941894642e-01,2.131246805191039928e-01,2.144298553466796875e-01,2.156716585159301758e-01,2.212726354598998912e-01,1.000000000000000000e+00,1.000000000000000000e+00,1.000000000000000000e+00,1.000000000000000000e+00,1.000000000000000000e+00,2.459855079650878906e-01,2.396793365478515625e-01,2.331980943679809459e-01,1.000000000000000000e+00,1.000000000000000000e+00,1.000000000000000000e+00,1.000000000000000000e+00,1.000000000000000000e+00,1.000000000000000000e+00,1.000000000000000000e+00,1.000000000000000000e+00,1.000000000000000000e+00,1.000000000000000000e+00,1.000000000000000000e+00,1.000000000000000000e+00,1.000000000000000000e+00,1.000000000000000000e+00,1.000000000000000000e+00,1.000000000000000000e+00,1.000000000000000000e+00,9.682333946228027788e-01,9.365873336791992188e-01,9.069443702697753684e-01,8.791203498840332031e-01,8.529526710510253462e-01,8.282977104187011497e-01,8.050281524658202681e-01,7.830303192138672319e-01,7.622034549713134766e-01,7.424561023712158425e-01
6.199644565582275169e-01,6.356974601745605247e-01,6.522497653961181197e-01,6.696871280670165794e-01,6.880824089050292525e-01,7.075167655944823997e-01,7.280809402465819868e-01,7.498740673065185103e-01,7.730121612548828125e-01,7.976234436035156694e-01,8.238535881042480247e-01,8.518674850463867632e-01,8.818535804748535156e-01,9.140277862548827903e-01,9.486386299133300337e-01,9.859737396240234597e-01,1.000000000000000000e+00,1.000000000000000000e+00,1.000000000000000000e+00,1.000000000000000000e+00,1.000000000000000000e+00,1.000000000000000000e+00,1.000000000000000000e+00,1.000000000000000000e+00,1.000000000000000000e+00,1.978234052658081055e-01,1.936538696289062389e-01,1.905356645584106445e-01,1.000000000000000000e+00,1.000000000000000000e+00,1.000000000000000000e+00,1.000000000000000000e+00,1.996042013168334850e-01,1.953017830848693959e-01,1.917805910110473577e-01,1.890218138694763073e-01,1.859481215476989635e-01,1.856581211090087835e-01,1.855533599853515514e-01,1.861562490463256891e-01,1.910533189773559459e-01,2.130933284759521373e-01,2.143981456756591797e-01,2.157190322875976451e-01,2.218441247940063366e-01,1.000000000000000000e+00,1.000000000000000000e+00,1.000000000000000000e+00,1.000000000000000000e+00,1.000000000000000000e+00,2.460254907608032116e-01,2.397688388824462946e-01,1.000000000000000000e+00,1.000000000000000000e+00,1.000000000000000000e+00,1.000000000000000000e+00,1.000000000000000000e+00,1.000000000000000000e+00,1.000000000000000000e+00,1.000000000000000000e+00,1.000000000000000000e+00,1.000000000000000000e+00,1.000000000000000000e+00,1.000000000000000000e+00,1.000000000000000000e+00,1.000000000000000000e+00,1.000000000000000000e+00,1.000000000000000000e+00,1.000000000000000000e+00,1.000000000000000000e+00,9.682617187500000000e-01,9.366137504577636275e-01,9.069692611694335493e-01,8.791437149047851562e-01,8.529747009277344194e-01,8.283188819885254350e-01,8.050494194030761719e-01,7.830516338348388894e-01,7.622241497039794478e-01,7.424757480621337891e-01
6.199512481689453125e-01,6.356834888458251509e-01,6.522350788116455522e-01,6.696716308593749778e-01,6.880660533905029741e-01,7.074995040893554688e-01,7.280626773834228960e-01,7.498568058013915794e-01,7.729938030242919922e-01,7.976040363311767134e-01,8.238327026367187056e-01,8.518452644348144531e-01,8.818297386169433594e-01,9.140021324157714400e-01,9.486109733581542525e-01,9.859439849853515181e-01,1.000000000000000000e+00,1.000000000000000000e+00,1.000000000000000000e+00,1.000000000000000000e+00,1.000000000000000000e+00,1.000000000000000000e+00,1.000000000000000000e+00,1.000000000000000000e+00,1.000000000000000000e+00,1.974211573600768987e-01,1.932526826858520508e-01,1.000000000000000000e+00,1.000000000000000000e+00,1.000000000000000000e+00,1.000000000000000000e+00,1.000000000000000000e+00,2.007027149200439342e-01,1.967262744903564564e-01,1.926440119743347279e-01,1.898605227470397949e-01,1.867799401283264105e-01,1.856595396995544545e-01,1.853704690933227484e-01,1.855258226394653209e-01,1.893322229385376032e-01,1.963881731033325084e-01,2.144713401794433594e-01,2.158004045486450195e-01,2.220146417617797907e-01,1.000000000000000000e+00,1.000000000000000000e+00,1.000000000000000000e+00,1.000000000000000000e+00,1.000000000000000000e+00,1.000000000000000000e+00,1.000000000000000000e+00,1.000000000000000000e+00,1.000000000000000000e+00,1.000000000000000000e+00,1.000000000000000000e+00,1.000000000000000000e+00,1.000000000000000000e+00,1.000000000000000000e+00,1.000000000000000000e+00,1.000000000000000000e+00,1.000000000000000000e+00,1.000000000000000000e+00,1.000000000000000000e+00,1.000000000000000000e+00,1.000000000000000000e+00,1.000000000000000000e+00,1.000000000000000000e+00,1.000000000000000000e+00,1.000000000000000000e+00,9.682900428771972212e-01,9.366403579711913840e-01,9.069940567016601118e-01,8.791684150695801003e-01,8.529994010925292525e-01,8.283432006835937944e-01,8.050724983215331587e-01,7.830734729766846147e-01,7.622447490692139116e-01,7.424952983856201172e-01
6.199379444122314897e-01,6.356695652008056419e-01,6.522204399108886275e-01,6.696561813354492410e-01,6.880496978759765847e-01,7.074821949005126731e-01,7.280443668365478294e-01,7.498374462127685991e-01,7.729755401611327903e-01,7.975844860076903853e-01,8.238119125366211160e-01,8.518229484558105247e-01,8.818058967590332031e-01,9.139765739440918191e-01,9.485834121704102007e-01,9.859141349792480691e-01,1.000000000000000000e+00,1.000000000000000000e+00,1.000000000000000000e+00,1.000000000000000000e+00,1.000000000000000000e+00,1.000000000000000000e+00,1.000000000000000000e+00,1.000000000000000000e+00,1.000000000000000000e+00,1.000000000000000000e+00,1.000000000000000000e+00,1.000000000000000000e+00,1.000000000000000000e+00,1.000000000000000000e+00,1.000000000000000000e+00,1.000000000000000000e+00,1.000000000000000000e+00,1.979587793350219838e-01,1.939301729202270452e-01,1.907067418098449818e-01,1.876362204551696722e-01,1.856609582901000977e-01,1.853718519210815485e-01,1.850836753845214733e-01,1.875689625740051270e-01,1.942686438560485840e-01,2.146604299545288030e-01,2.159918308258056696e-01,2.208459377288818359e-01,1.000000000000000000e+00,1.000000000000000000e+00,1.000000000000000000e+00,1.000000000000000000e+00,1.000000000000000000e+00,1.000000000000000000e+00,1.000000000000000000e+00,1.000000000000000000e+00,1.000000000000000000e+00,1.000000000000000000e+00,1.000000000000000000e+00,1.000000000000000000e+00,1.000000000000000000e+00,1.000000000000000000e+00,1.000000000000000000e+00,1.000000000000000000e+00,1.000000000000000000e+00,1.000000000000000000e+00,1.000000000000000000e+00,1.000000000000000000e+00,1.000000000000000000e+00,1.000000000000000000e+00,1.000000000000000000e+00,1.000000000000000000e+00,1.000000000000000000e+00,9.683193206787109597e-01,9.366694450378417747e-01,9.070231437683105025e-01,8.791958808898925337e-01,8.530253410339355691e-01,8.283677101135253906e-01,8.050954818725586382e-01,7.830953121185302290e-01,7.622654438018798828e-01,7.425149440765380637e-01
6.199247360229491743e-01,6.356555938720702681e-01,6.522057056427001953e-01,6.696406841278076394e-01,6.880333900451660600e-01,7.074649810791016069e-01,7.280260086059570090e-01,7.498180389404296431e-01,7.729548931121825728e-01,7.975649833679199219e-01,8.237911224365234153e-01,8.518007278442383257e-01,8.817820549011230469e-01,9.139509201049804688e-01,9.485558509826660378e-01,9.858843803405761275e-01,1.000000000000000000e+00,1.000000000000000000e+00,1.000000000000000000e+00,1.000000000000000000e+00,1.000000000000000000e+00,1.000000000000000000e+00,1.000000000000000000e+00,1.000000000000000000e+00,1.000000000000000000e+00,1.000000000000000000e+00,1.000000000000000000e+00,1.000000000000000000e+00,1.000000000000000000e+00,1.000000000000000000e+00,1.000000000000000000e+00,1.000000000000000000e+00,1.000000000000000000e+00,1.988768815994262640e-01,1.952888250350952037e-01,1.915604948997497448e-01,1.885003805160522516e-01,1.856623530387878362e-01,1.853732705116271917e-01,1.850850582122802734e-01,1.856703639030456432e-01,1.921943902969360241e-01,2.148498535156249944e-01,2.161835908889770397e-01,2.196894884109497070e-01,1.000000000000000000e+00,1.000000000000000000e+00,1.000000000000000000e+00,1.000000000000000000e+00,1.000000000000000000e+00,1.000000000000000000e+00,1.000000000000000000e+00,1.000000000000000000e+00,1.000000000000000000e+00,1.000000000000000000e+00,1.000000000000000000e+00,1.000000000000000000e+00,1.000000000000000000e+00,1.000000000000000000e+00,1.000000000000000000e+00,1.000000000000000000e+00,1.000000000000000000e+00,1.000000000000000000e+00,1.000000000000000000e+00,1.000000000000000000e+00,1.000000000000000000e+00,1.000000000000000000e+00,1.000000000000000000e+00,1.000000000000000000e+00,1.000000000000000000e+00,9.683526039123535600e-01,9.367006301879883257e-01,9.070524215698242410e-01,8.792234420776366965e-01,8.530511856079101562e-01,8.283920288085937500e-01,8.051185607910156250e-01,7.831171512603759544e-01,7.622861385345458540e-01,7.425345897674560103e-01
6.199114322662353516e-01,6.356417179107666238e-01,6.521910667419433816e-01,6.696251869201660378e-01,6.880170345306396706e-01,7.074476718902588113e-01,7.280077934265136719e-01,7.497986793518066628e-01,7.729342460632324663e-01,7.975430965423584428e-01,8.237703323364258257e-01,8.517784118652343972e-01,8.817582130432128906e-01,9.139253616333007368e-01,9.485281944274902566e-01,9.858545303344726785e-01,1.000000000000000000e+00,1.000000000000000000e+00,1.000000000000000000e+00,1.000000000000000000e+00,1.000000000000000000e+00,1.000000000000000000e+00,1.000000000000000000e+00,1.000000000000000000e+00,1.000000000000000000e+00,1.000000000000000000e+00,1.000000000000000000e+00,1.000000000000000000e+00,1.000000000000000000e+00,1.000000000000000000e+00,1.000000000000000000e+00,1.000000000000000000e+00,1.000000000000000000e+00,1.998035192489623912e-01,1.961822509765625000e-01,1.925777077674865612e-01,1.893725275993347057e-01,1.863326072692871038e-01,1.852843999862670843e-01,1.848951101303100697e-01,1.850903987884521540e-01,1.909343361854553278e-01,2.148987531661987194e-01,2.163757085800170898e-01,2.185451030731201116e-01,1.000000000000000000e+00,1.000000000000000000e+00,1.000000000000000000e+00,1.000000000000000000e+00,1.000000000000000000e+00,1.000000000000000000e+00,1.000000000000000000e+00,1.000000000000000000e+00,1.000000000000000000e+00,1.000000000000000000e+00,1.000000000000000000e+00,1.000000000000000000e+00,1.000000000000000000e+00,1.000000000000000000e+00,1.000000000000000000e+00,1.000000000000000000e+00,1.000000000000000000e+00,1.000000000000000000e+00,1.000000000000000000e+00,1.000000000000000000e+00,1.000000000000000000e+00,1.000000000000000000e+00,1.000000000000000000e+00,1.000000000000000000e+00,1.000000000000000000e+00,9.683859825134277788e-01,9.367319107055663840e-01,9.070816993713378684e-01,8.792509078979492410e-01,8.530770301818847434e-01,8.284165382385253462e-01,8.051416397094726118e-01,7.831388950347900613e-01,7.623067378997803178e-01,7.425541400909423384e-01
6.198981285095215288e-01,6.356277465820312500e-01,6.521763801574707031e-01,6.696097373962401900e-01,6.880007266998291460e-01,7.074303627014160156e-01,7.279894828796387163e-01,7.497792243957519531e-01,7.729136943817138672e-01,7.975211620330810991e-01,8.237469673156738725e-01,8.517561912536620872e-01,8.817343711853027344e-01,9.138997077941894975e-01,9.485006332397460938e-01,9.858247756958007368e-01,1.000000000000000000e+00,1.000000000000000000e+00,1.000000000000000000e+00,1.000000000000000000e+00,1.000000000000000000e+00,1.000000000000000000e+00,1.000000000000000000e+00,1.000000000000000000e+00,1.000000000000000000e+00,1.000000000000000000e+00,1.000000000000000000e+00,1.000000000000000000e+00,1.000000000000000000e+00,1.000000000000000000e+00,1.000000000000000000e+00,1.000000000000000000e+00,1.000000000000000000e+00,1.000000000000000000e+00,1.970839142799377386e-01,1.935671925544738825e-01,1.903236508369445801e-01,1.872917652130126898e-01,1.857831954956054576e-01,1.850652217864990345e-01,1.845140576362609974e-01,1.899133443832397572e-01,2.147252559661865234e-01,2.165681838989257924e-01,2.179234027862548828e-01,1.000000000000000000e+00,1.000000000000000000e+00,1.000000000000000000e+00,1.000000000000000000e+00,1.000000000000000000e+00,1.000000000000000000e+00,1.000000000000000000e+00,1.000000000000000000e+00,1.000000000000000000e+00,1.000000000000000000e+00,1.000000000000000000e+00,1.000000000000000000e+00,1.000000000000000000e+00,1.000000000000000000e+00,1.000000000000000000e+00,1.000000000000000000e+00,1.000000000000000000e+00,1.000000000000000000e+00,1.000000000000000000e+00,1.000000000000000000e+00,1.000000000000000000e+00,1.000000000000000000e+00,1.000000000000000000e+00,1.000000000000000000e+00,1.000000000000000000e+00,9.684193611145019975e-01,9.367630958557129350e-01,9.071108818054198775e-01,8.792784690856934038e-01,8.531029701232910600e-01,8.284408569335937056e-01,8.051647186279297097e-01,7.831607341766357866e-01,7.623274326324462891e-01,7.425737857818603960e-01
6.198849201202392134e-01,6.356138229370117410e-01,6.521616935729980247e-01,6.695942401885985884e-01,6.879843711853027566e-01,7.074131488800048384e-01,7.279712200164795144e-01,7.497598171234131081e-01,7.728930473327636497e-01,7.974991798400878906e-01,8.237236022949219194e-01,8.517313957214355247e-01,8.817105293273925781e-01,9.138740539550781472e-01,9.484730720520019309e-01,9.857949256896972878e-01,1.000000000000000000e+00,1.000000000000000000e+00,1.000000000000000000e+00,1.000000000000000000e+00,1.000000000000000000e+00,1.000000000000000000e+00,1.000000000000000000e+00,1.000000000000000000e+00,1.000000000000000000e+00,1.000000000000000000e+00,1.000000000000000000e+00,1.000000000000000000e+00,1.000000000000000000e+00,1.000000000000000000e+00,1.000000000000000000e+00,1.000000000000000000e+00,1.000000000000000000e+00,1.000000000000000000e+00,1.981450438499450795e-01,1.946300148963928112e-01,1.913133025169372614e-01,1.879624366760253851e-01,1.863523840904235951e-01,1.856277823448181097e-01,1.858226299285888616e-01,1.905930876731872503e-01,2.145520210266113337e-01,2.166083097457885687e-01,2.181186437606811579e-01,1.000000000000000000e+00,1.000000000000000000e+00,1.000000000000000000e+00,1.000000000000000000e+00,1.000000000000000000e+00,1.000000000000000000e+00,1.000000000000000000e+00,1.000000000000000000e+00,1.000000000000000000e+00,1.000000000000000000e+00,1.000000000000000000e+00,1.000000000000000000e+00,1.000000000000000000e+00,1.000000000000000000e+00,1.000000000000000000e+00,1.000000000000000000e+00,1.000000000000000000e+00,1.000000000000000000e+00,1.000000000000000000e+00,1.000000000000000000e+00,1.000000000000000000e+00,1.000000000000000000e+00,1.000000000000000000e+00,1.000000000000000000e+00,1.000000000000000000e+00,9.684526443481444868e-01,9.367943763732909934e-01,9.071402549743652344e-01,8.793059349060058372e-01,8.531288146972656472e-01,8.284652709960937944e-01,8.051877975463866965e-01,7.831825733184814009e-01,7.623481273651122603e-01,7.425933837890624778e-01
6.198716163635253906e-01,6.355998516082763672e-01,6.521470546722412109e-01,6.695787906646728516e-01,6.879680156707763672e-01,7.073958396911621538e-01,7.279529094696044478e-01,7.497404575347900169e-01,7.728724479675292969e-01,7.974771976470946822e-01,8.237001419067382368e-01,8.517063140869141069e-01,8.816839218139648215e-01,9.138484954833984153e-01,9.484454154968261497e-01,9.857650756835937278e-01,1.000000000000000000e+00,1.000000000000000000e+00,1.000000000000000000e+00,1.000000000000000000e+00,1.000000000000000000e+00,1.000000000000000000e+00,1.000000000000000000e+00,1.000000000000000000e+00,1.000000000000000000e+00,1.000000000000000000e+00,1.000000000000000000e+00,1.000000000000000000e+00,1.000000000000000000e+00,1.000000000000000000e+00,1.000000000000000000e+00,1.000000000000000000e+00,1.000000000000000000e+00,1.000000000000000000e+00,1.990450024604797363e-01,1.950217247009277399e-01,1.911215782165527344e-01,1.885769605636596624e-01,1.872539401054382213e-01,1.863493204116821178e-01,1.873146533966064398e-01,1.923980474472045954e-01,2.143790960311889593e-01,2.164320468902588002e-01,2.183142185211181530e-01,1.000000000000000000e+00,1.000000000000000000e+00,1.000000000000000000e+00,1.000000000000000000e+00,1.000000000000000000e+00,1.000000000000000000e+00,1.000000000000000000e+00,1.000000000000000000e+00,1.000000000000000000e+00,1.000000000000000000e+00,1.000000000000000000e+00,1.000000000000000000e+00,1.000000000000000000e+00,1.000000000000000000e+00,1.000000000000000000e+00,1.000000000000000000e+00,1.000000000000000000e+00,1.000000000000000000e+00,1.000000000000000000e+00,1.000000000000000000e+00,1.000000000000000000e+00,1.000000000000000000e+00,1.000000000000000000e+00,1.000000000000000000e+00,1.000000000000000000e+00,9.684861183166504350e-01,9.368255615234375444e-01,9.071694374084472434e-01,8.793334007263183816e-01,8.531547546386718528e-01,8.284897804260253906e-01,8.052107810974120650e-01,7.832043170928955078e-01,7.623687267303467241e-01,7.426130294799804243e-01
6.198584079742431863e-01,6.355858802795409934e-01,6.521323204040527788e-01,6.695632934570312500e-01,6.879517078399658425e-01,7.073786258697509766e-01,7.279345989227294922e-01,7.497210025787353072e-01,7.728518009185790794e-01,7.974553108215332031e-01,8.236767768859862837e-01,8.516813278198241965e-01,8.816571235656738281e-01,9.138199806213378462e-01,9.484178543090819868e-01,9.857353210449218972e-01,1.000000000000000000e+00,1.000000000000000000e+00,1.000000000000000000e+00,1.000000000000000000e+00,1.000000000000000000e+00,1.000000000000000000e+00,1.000000000000000000e+00,1.000000000000000000e+00,1.000000000000000000e+00,1.000000000000000000e+00,1.000000000000000000e+00,1.000000000000000000e+00,1.000000000000000000e+00,1.000000000000000000e+00,1.000000000000000000e+00,1.000000000000000000e+00,1.000000000000000000e+00,1.000000000000000000e+00,1.989902019500732477e-01,1.945684432983398326e-01,1.913579225540161244e-01,1.890489935874938854e-01,1.885301351547241100e-01,1.876506090164184459e-01,1.895268082618713490e-01,1.946806311607360840e-01,2.144320726394653431e-01,2.163643121719360241e-01,2.183453083038330023e-01,1.000000000000000000e+00,1.000000000000000000e+00,1.000000000000000000e+00,1.000000000000000000e+00,1.000000000000000000e+00,1.000000000000000000e+00,1.000000000000000000e+00,1.000000000000000000e+00,1.000000000000000000e+00,1.000000000000000000e+00,1.000000000000000000e+00,1.000000000000000000e+00,1.000000000000000000e+00,1.000000000000000000e+00,1.000000000000000000e+00,1.000000000000000000e+00,1.000000000000000000e+00,1.000000000000000000e+00,1.000000000000000000e+00,1.000000000000000000e+00,1.000000000000000000e+00,1.000000000000000000e+00,1.000000000000000000e+00,1.000000000000000000e+00,1.000000000000000000e+00,9.685194015502929243e-01,9.368567466735839844e-01,9.071988105773926003e-01,8.793609619140625444e-01,8.531805992126464400e-01,8.285140991210937500e-01,8.052338600158691628e-01,7.832261562347412331e-01,7.623894214630126953e-01,7.426325798034667525e-01
6.198374748229980025e-01,6.355684280395508257e-01,6.521176815032958540e-01,6.695477962493896484e-01,6.879353523254394531e-01,7.073613166809081809e-01,7.279163360595702903e-01,7.497016906738280806e-01,7.728311538696288618e-01,7.974333286285399947e-01,8.236534118652343306e-01,8.516562461853027788e-01,8.816303253173828347e-01,9.137911796569824219e-01,9.483872413635253684e-01,9.857054710388183372e-01,1.000000000000000000e+00,1.000000000000000000e+00,1.000000000000000000e+00,1.000000000000000000e+00,1.000000000000000000e+00,1.000000000000000000e+00,1.000000000000000000e+00,1.000000000000000000e+00,1.000000000000000000e+00,1.000000000000000000e+00,1.000000000000000000e+00,1.000000000000000000e+00,1.000000000000000000e+00,1.000000000000000000e+00,1.000000000000000000e+00,1.000000000000000000e+00,1.000000000000000000e+00,1.000000000000000000e+00,1.984842061996459905e-01,1.940491199493408203e-01,1.914298534393310547e-01,1.898700833320617620e-01,1.898865342140197698e-01,1.889943361282348522e-01,1.918062210083007757e-01,1.989860653877258412e-01,2.155063390731811468e-01,2.175498962402343806e-01,2.195389986038208119e-01,1.000000000000000000e+00,1.000000000000000000e+00,1.000000000000000000e+00,1.000000000000000000e+00,1.000000000000000000e+00,1.000000000000000000e+00,1.000000000000000000e+00,1.000000000000000000e+00,1.000000000000000000e+00,1.000000000000000000e+00,1.000000000000000000e+00,1.000000000000000000e+00,1.000000000000000000e+00,1.000000000000000000e+00,1.000000000000000000e+00,1.000000000000000000e+00,1.000000000000000000e+00,1.000000000000000000e+00,1.000000000000000000e+00,1.000000000000000000e+00,1.000000000000000000e+00,1.000000000000000000e+00,1.000000000000000000e+00,1.000000000000000000e+00,1.000000000000000000e+00,9.685528755187988725e-01,9.368880271911621538e-01,9.072279930114746094e-01,8.793884277343749778e-01,8.532065391540527566e-01,8.285386085510253462e-01,8.052569389343261497e-01,7.832480430603027122e-01,7.624101638793945312e-01,7.426522254943848100e-01
6.198144435882568803e-01,6.355442523956298384e-01,6.520931720733642578e-01,6.695269584655761941e-01,6.879185676574707253e-01,7.073440551757812500e-01,7.278980255126953347e-01,7.496822357177734819e-01,7.728106021881103738e-01,7.974114418029785156e-01,8.236299514770507590e-01,8.516312599182128684e-01,8.816034317016601118e-01,9.137622833251952681e-01,9.483561515808105469e-01,9.856724739074707031e-01,1.000000000000000000e+00,1.000000000000000000e+00,1.000000000000000000e+00,1.000000000000000000e+00,1.000000000000000000e+00,1.000000000000000000e+00,1.000000000000000000e+00,1.000000000000000000e+00,1.000000000000000000e+00,1.000000000000000000e+00,1.000000000000000000e+00,1.000000000000000000e+00,1.000000000000000000e+00,1.000000000000000000e+00,1.000000000000000000e+00,1.000000000000000000e+00,1.000000000000000000e+00,1.000000000000000000e+00,1.979437947273254284e-01,1.940734624862670843e-01,1.918934226036071722e-01,1.909468412399291937e-01,1.912625908851623424e-01,1.903574466705322266e-01,1.941411137580871527e-01,2.151223897933959850e-01,2.165149688720703069e-01,2.186815500259399470e-01,1.000000000000000000e+00,1.000000000000000000e+00,1.000000000000000000e+00,1.000000000000000000e+00,1.000000000000000000e+00,1.000000000000000000e+00,1.000000000000000000e+00,1.000000000000000000e+00,1.000000000000000000e+00,1.000000000000000000e+00,1.000000000000000000e+00,1.000000000000000000e+00,1.000000000000000000e+00,1.000000000000000000e+00,1.000000000000000000e+00,1.000000000000000000e+00,1.000000000000000000e+00,1.000000000000000000e+00,1.000000000000000000e+00,1.000000000000000000e+00,1.000000000000000000e+00,1.000000000000000000e+00,1.000000000000000000e+00,1.000000000000000000e+00,1.000000000000000000e+00,1.000000000000000000e+00,9.685861587524413618e-01,9.369192123413085938e-01,9.072572708129882368e-01,8.794159889221191406e-01,8.532324790954589622e-01,8.285630226135254350e-01,8.052800178527832475e-01,7.832697868347168191e-01,7.624307632446288840e-01,7.426718711853027566e-01
6.197937011718750444e-01,6.355200290679932085e-01,6.520677089691162553e-01,6.695001125335693359e-01,6.878902435302733931e-01,7.073191165924072044e-01,7.278775691986083540e-01,7.496628761291503906e-01,7.727899551391601562e-01,7.973894596099853072e-01,8.236064910888671875e-01,8.516061782836914507e-01,8.815766334533691184e-01,9.137334823608398438e-01,9.483251571655273438e-01,9.856389999389648660e-01,1.000000000000000000e+00,1.000000000000000000e+00,1.000000000000000000e+00,1.000000000000000000e+00,1.000000000000000000e+00,1.000000000000000000e+00,1.000000000000000000e+00,1.000000000000000000e+00,1.000000000000000000e+00,1.000000000000000000e+00,1.000000000000000000e+00,1.000000000000000000e+00,1.000000000000000000e+00,1.000000000000000000e+00,1.000000000000000000e+00,1.000000000000000000e+00,1.000000000000000000e+00,1.000000000000000000e+00,1.974062800407409557e-01,1.941474318504333441e-01,1.926268100738525446e-01,1.920358419418334850e-01,1.924765944480895941e-01,1.917403340339660645e-01,1.977556228637695201e-01,2.173119306564331166e-01,2.189593076705932673e-01,2.208551645278930553e-01,1.000000000000000000e+00,1.000000000000000000e+00,1.000000000000000000e+00,1.000000000000000000e+00,1.000000000000000000e+00,1.000000000000000000e+00,1.000000000000000000e+00,1.000000000000000000e+00,1.000000000000000000e+00,1.000000000000000000e+00,1.000000000000000000e+00,1.000000000000000000e+00,1.000000000000000000e+00,1.000000000000000000e+00,1.000000000000000000e+00,1.000000000000000000e+00,1.000000000000000000e+00,1.000000000000000000e+00,1.000000000000000000e+00,1.000000000000000000e+00,1.000000000000000000e+00,1.000000000000000000e+00,1.000000000000000000e+00,1.000000000000000000e+00,1.000000000000000000e+00,1.000000000000000000e+00,9.686195373535155806e-01,9.369503974914550337e-01,9.072866439819335938e-01,8.794434547424316850e-01,8.532583236694335493e-01,8.285873413085937944e-01,8.053030967712402344e-01,7.832916259765625444e-01,7.624514579772949663e-01,7.426914215087890847e-01
6.197803974151611106e-01,6.355039119720459206e-01,6.520460128784180132e-01,6.694732666015624778e-01,6.878618717193603072e-01,7.072891712188720259e-01,7.278458595275878462e-01,7.496330738067626953e-01,7.727649688720703569e-01,7.973675727844238281e-01,8.235831260681152344e-01,8.515811920166015403e-01,8.815498352050781250e-01,9.137046813964844194e-01,9.482941627502441406e-01,9.856054306030272993e-01,1.000000000000000000e+00,1.000000000000000000e+00,1.000000000000000000e+00,1.000000000000000000e+00,1.000000000000000000e+00,1.000000000000000000e+00,1.000000000000000000e+00,1.000000000000000000e+00,1.000000000000000000e+00,1.000000000000000000e+00,1.000000000000000000e+00,1.000000000000000000e+00,1.000000000000000000e+00,1.000000000000000000e+00,1.000000000000000000e+00,1.000000000000000000e+00,1.000000000000000000e+00,2.039892196655273549e-01,1.968717217445373480e-01,1.948247671127319447e-01,1.933658003807067760e-01,1.931373596191406361e-01,1.935832023620605580e-01,1.936045765876769909e-01,2.046592473983764593e-01,2.207305908203124889e-01,2.221835851669311523e-01,2.239863395690918080e-01,1.000000000000000000e+00,1.000000000000000000e+00,1.000000000000000000e+00,1.000000000000000000e+00,1.000000000000000000e+00,1.000000000000000000e+00,1.000000000000000000e+00,1.000000000000000000e+00,1.000000000000000000e+00,1.000000000000000000e+00,1.000000000000000000e+00,1.000000000000000000e+00,1.000000000000000000e+00,1.000000000000000000e+00,1.000000000000000000e+00,1.000000000000000000e+00,1.000000000000000000e+00,1.000000000000000000e+00,1.000000000000000000e+00,1.000000000000000000e+00,1.000000000000000000e+00,1.000000000000000000e+00,1.000000000000000000e+00,1.000000000000000000e+00,1.000000000000000000e+00,1.000000000000000000e+00,9.686529159545897993e-01,9.369816780090332031e-01,9.073158264160156028e-01,8.794709205627441184e-01,8.532842636108398660e-01,8.286118507385253906e-01,8.053261756896972212e-01,7.833134651184081587e-01,7.624721527099609375e-01,7.427110671997070312e-01
6.197670459747314231e-01,6.354898929595946822e-01,6.520312786102294700e-01,6.694567680358887163e-01,6.878392219543456587e-01,7.072597026824951616e-01,7.278141021728515847e-01,7.495994091033935103e-01,7.727292060852051225e-01,7.973317623138427290e-01,8.235525131225586160e-01,8.515562057495117410e-01,8.815229415893555132e-01,9.136758804321288840e-01,9.482630729675293191e-01,9.855718612670898438e-01,1.000000000000000000e+00,1.000000000000000000e+00,1.000000000000000000e+00,1.000000000000000000e+00,1.000000000000000000e+00,1.000000000000000000e+00,1.000000000000000000e+00,1.000000000000000000e+00,1.000000000000000000e+00,1.000000000000000000e+00,1.000000000000000000e+00,1.000000000000000000e+00,1.000000000000000000e+00,1.000000000000000000e+00,1.000000000000000000e+00,1.000000000000000000e+00,1.000000000000000000e+00,2.032527923583984375e-01,1.970734477043151744e-01,1.955807685852050670e-01,1.941105127334594727e-01,1.942515611648559515e-01,1.947025656700134277e-01,1.965402603149414007e-01,2.261415004730224498e-01,2.270562648773193359e-01,1.000000000000000000e+00,1.000000000000000000e+00,1.000000000000000000e+00,1.000000000000000000e+00,1.000000000000000000e+00,1.000000000000000000e+00,1.000000000000000000e+00,1.000000000000000000e+00,1.000000000000000000e+00,1.000000000000000000e+00,1.000000000000000000e+00,1.000000000000000000e+00,1.000000000000000000e+00,1.000000000000000000e+00,1.000000000000000000e+00,1.000000000000000000e+00,1.000000000000000000e+00,1.000000000000000000e+00,1.000000000000000000e+00,1.000000000000000000e+00,1.000000000000000000e+00,1.000000000000000000e+00,1.000000000000000000e+00,1.000000000000000000e+00,1.000000000000000000e+00,1.000000000000000000e+00,1.000000000000000000e+00,1.000000000000000000e+00,9.686862945556640181e-01,9.370128631591796431e-01,9.073451995849609597e-01,8.794984817504882812e-01,8.533101081848144531e-01,8.286362648010253684e-01,8.053491592407227007e-01,7.833352565765381303e-01,7.624928474426269087e-01,7.427307128906249778e-01
6.197536945343017356e-01,6.354758739471435547e-01,6.520164966583251731e-01,6.694412231445312500e-01,6.878228187561035156e-01,7.072423458099365012e-01,7.277903556823730469e-01,7.495680332183838335e-01,7.726934432983398882e-01,7.972936630249023438e-01,8.235118865966797319e-01,8.515130996704101118e-01,8.814853668212890847e-01,9.136447906494140625e-01,9.482319831848144975e-01,9.855383872985840066e-01,1.000000000000000000e+00,1.000000000000000000e+00,1.000000000000000000e+00,1.000000000000000000e+00,1.000000000000000000e+00,1.000000000000000000e+00,1.000000000000000000e+00,1.000000000000000000e+00,1.000000000000000000e+00,1.000000000000000000e+00,1.000000000000000000e+00,1.000000000000000000e+00,1.000000000000000000e+00,1.000000000000000000e+00,1.000000000000000000e+00,1.000000000000000000e+00,1.000000000000000000e+00,2.031829833984374889e-01,1.978339314460754450e-01,1.963187217712402399e-01,1.948307752609252930e-01,1.950391173362731878e-01,1.954675912857055664e-01,1.992270946502685547e-01,2.327857732772827259e-01,1.000000000000000000e+00,1.000000000000000000e+00,1.000000000000000000e+00,1.000000000000000000e+00,1.000000000000000000e+00,1.000000000000000000e+00,1.000000000000000000e+00,1.000000000000000000e+00,1.000000000000000000e+00,1.000000000000000000e+00,1.000000000000000000e+00,1.000000000000000000e+00,1.000000000000000000e+00,1.000000000000000000e+00,1.000000000000000000e+00,1.000000000000000000e+00,1.000000000000000000e+00,1.000000000000000000e+00,1.000000000000000000e+00,1.000000000000000000e+00,1.000000000000000000e+00,1.000000000000000000e+00,1.000000000000000000e+00,1.000000000000000000e+00,1.000000000000000000e+00,1.000000000000000000e+00,1.000000000000000000e+00,1.000000000000000000e+00,1.000000000000000000e+00,9.687196731567382368e-01,9.370441436767578125e-01,9.073744773864745872e-01,8.795259475708008257e-01,8.533359527587890403e-01,8.286606788635253462e-01,8.053723335266113059e-01,7.833570957183837447e-01,7.625130653381347878e-01,7.427487373352050781e-01
6.197403907775879128e-01,6.354618549346924272e-01,6.520017623901367410e-01,6.694256305694580300e-01,6.878064155578613725e-01,7.072249889373779519e-01,7.277719497680663618e-01,7.495485305786132590e-01,7.726685047149658425e-01,7.972601413726806419e-01,8.234712600708007368e-01,8.514696121215820090e-01,8.814388275146484153e-01,9.135948181152343528e-01,9.481856346130370650e-01,9.854990005493163840e-01,1.000000000000000000e+00,1.000000000000000000e+00,1.000000000000000000e+00,1.000000000000000000e+00,1.000000000000000000e+00,1.000000000000000000e+00,1.000000000000000000e+00,1.000000000000000000e+00,1.000000000000000000e+00,1.000000000000000000e+00,1.000000000000000000e+00,1.000000000000000000e+00,1.000000000000000000e+00,1.000000000000000000e+00,1.000000000000000000e+00,1.000000000000000000e+00,1.000000000000000000e+00,2.048711299896240345e-01,1.985205888748168834e-01,1.969948530197143666e-01,1.955164194107055775e-01,1.953653454780578669e-01,1.957952499389648549e-01,1.995505094528198242e-01,1.000000000000000000e+00,1.000000000000000000e+00,1.000000000000000000e+00,1.000000000000000000e+00,1.000000000000000000e+00,1.000000000000000000e+00,1.000000000000000000e+00,1.000000000000000000e+00,1.000000000000000000e+00,1.000000000000000000e+00,1.000000000000000000e+00,1.000000000000000000e+00,1.000000000000000000e+00,1.000000000000000000e+00,1.000000000000000000e+00,1.000000000000000000e+00,1.000000000000000000e+00,1.000000000000000000e+00,1.000000000000000000e+00,1.000000000000000000e+00,1.000000000000000000e+00,1.000000000000000000e+00,1.000000000000000000e+00,1.000000000000000000e+00,1.000000000000000000e+00,1.000000000000000000e+00,1.000000000000000000e+00,1.000000000000000000e+00,1.000000000000000000e+00,1.000000000000000000e+00,9.687530517578124556e-01,9.370753288269042525e-01,9.074036598205565962e-01,8.795535087585448775e-01,8.533618927001953569e-01,8.286850929260254350e-01,8.053941726684570312e-01,7.833765029907227007e-01,7.625307559967040572e-01,7.427655220031738059e-01
6.197270393371582253e-01,6.354478359222411887e-01,6.519869804382324441e-01,6.694100856781005637e-01,6.877899646759033647e-01,7.072076320648192915e-01,7.277535915374755415e-01,7.495290279388427956e-01,7.726477622985840066e-01,7.972380638122558150e-01,8.234451293945312944e-01,8.514336585998535378e-01,8.813922882080078569e-01,9.135448455810546431e-01,9.481318473815918413e-01,9.854408264160156028e-01,1.000000000000000000e+00,1.000000000000000000e+00,1.000000000000000000e+00,1.000000000000000000e+00,1.000000000000000000e+00,1.000000000000000000e+00,1.000000000000000000e+00,1.000000000000000000e+00,1.000000000000000000e+00,1.000000000000000000e+00,1.000000000000000000e+00,1.000000000000000000e+00,1.000000000000000000e+00,1.000000000000000000e+00,1.000000000000000000e+00,1.000000000000000000e+00,2.608150720596313366e-01,2.064336299896240290e-01,1.992120027542114147e-01,1.976757049560546875e-01,1.962069034576416071e-01,1.956926703453064076e-01,1.961240530014038141e-01,1.998749852180480846e-01,1.000000000000000000e+00,1.000000000000000000e+00,1.000000000000000000e+00,1.000000000000000000e+00,1.000000000000000000e+00,1.000000000000000000e+00,1.000000000000000000e+00,1.000000000000000000e+00,1.000000000000000000e+00,1.000000000000000000e+00,1.000000000000000000e+00,1.000000000000000000e+00,1.000000000000000000e+00,1.000000000000000000e+00,1.000000000000000000e+00,1.000000000000000000e+00,1.000000000000000000e+00,1.000000000000000000e+00,1.000000000000000000e+00,1.000000000000000000e+00,1.000000000000000000e+00,1.000000000000000000e+00,1.000000000000000000e+00,1.000000000000000000e+00,1.000000000000000000e+00,1.000000000000000000e+00,1.000000000000000000e+00,1.000000000000000000e+00,1.000000000000000000e+00,1.000000000000000000e+00,9.687864303588866743e-01,9.371066093444824219e-01,9.074330329895019531e-01,8.795803070068359819e-01,8.533856391906737837e-01,8.287060737609863725e-01,8.054138183593749778e-01,7.833951473236083762e-01,7.625483036041259544e-01,7.427822589874267800e-01
6.197136878967285378e-01,6.354338169097900613e-01,6.519722461700439009e-01,6.693945407867432085e-01,6.877735614776611106e-01,7.071902751922607422e-01,7.277351856231689675e-01,7.495095252990722212e-01,7.726270675659179243e-01,7.972160339355468528e-01,8.234215736389159934e-01,8.514084815979003906e-01,8.813648223876953125e-01,9.135059356689453347e-01,9.480800628662109375e-01,9.853826522827148215e-01,1.000000000000000000e+00,1.000000000000000000e+00,1.000000000000000000e+00,1.000000000000000000e+00,1.000000000000000000e+00,1.000000000000000000e+00,1.000000000000000000e+00,1.000000000000000000e+00,1.000000000000000000e+00,1.000000000000000000e+00,1.000000000000000000e+00,1.000000000000000000e+00,1.000000000000000000e+00,1.000000000000000000e+00,1.000000000000000000e+00,1.000000000000000000e+00,2.574937820434570201e-01,2.074637889862060436e-01,1.999082803726196234e-01,1.983612418174743597e-01,1.969023108482360895e-01,1.961557388305664174e-01,1.964539289474487305e-01,2.002005100250244252e-01,1.000000000000000000e+00,1.000000000000000000e+00,1.000000000000000000e+00,1.000000000000000000e+00,1.000000000000000000e+00,1.000000000000000000e+00,1.000000000000000000e+00,1.000000000000000000e+00,1.000000000000000000e+00,1.000000000000000000e+00,1.000000000000000000e+00,1.000000000000000000e+00,1.000000000000000000e+00,1.000000000000000000e+00,1.000000000000000000e+00,1.000000000000000000e+00,1.000000000000000000e+00,1.000000000000000000e+00,1.000000000000000000e+00,1.000000000000000000e+00,1.000000000000000000e+00,1.000000000000000000e+00,1.000000000000000000e+00,1.000000000000000000e+00,1.000000000000000000e+00,1.000000000000000000e+00,1.000000000000000000e+00,1.000000000000000000e+00,1.000000000000000000e+00,1.000000000000000000e+00,9.688198089599608931e-01,9.371360778808593972e-01,9.074588775634765403e-01,8.796037673950195535e-01,8.534076690673828569e-01,8.287268638610839622e-01,8.054334640502929243e-01,7.834137916564941628e-01,7.625659942626953347e-01,7.427989482879638894e-01
6.197003841400146040e-01,6.354197978973388228e-01,6.519574642181396040e-01,6.693789958953857422e-01,6.877571105957031028e-01,7.071729183197021928e-01,7.277167797088622825e-01,7.494900226593017578e-01,7.726063251495360884e-01,7.971939563751220259e-01,8.233980178833008035e-01,8.513833045959472434e-01,8.813378334045409712e-01,9.134769439697265625e-01,9.480488777160644975e-01,9.853404998779297097e-01,1.000000000000000000e+00,1.000000000000000000e+00,1.000000000000000000e+00,1.000000000000000000e+00,1.000000000000000000e+00,1.000000000000000000e+00,1.000000000000000000e+00,1.000000000000000000e+00,1.000000000000000000e+00,1.000000000000000000e+00,1.000000000000000000e+00,1.000000000000000000e+00,1.000000000000000000e+00,1.000000000000000000e+00,1.000000000000000000e+00,2.691417217254638561e-01,2.572895526885986550e-01,2.085043191909790039e-01,2.006094217300415095e-01,1.990552067756652943e-01,1.976026415824890248e-01,1.966934919357299916e-01,1.967849135398864746e-01,2.005270719528198242e-01,1.000000000000000000e+00,1.000000000000000000e+00,1.000000000000000000e+00,1.000000000000000000e+00,1.000000000000000000e+00,1.000000000000000000e+00,1.000000000000000000e+00,1.000000000000000000e+00,1.000000000000000000e+00,1.000000000000000000e+00,1.000000000000000000e+00,1.000000000000000000e+00,1.000000000000000000e+00,1.000000000000000000e+00,1.000000000000000000e+00,1.000000000000000000e+00,1.000000000000000000e+00,1.000000000000000000e+00,1.000000000000000000e+00,1.000000000000000000e+00,1.000000000000000000e+00,1.000000000000000000e+00,1.000000000000000000e+00,1.000000000000000000e+00,1.000000000000000000e+00,1.000000000000000000e+00,1.000000000000000000e+00,1.000000000000000000e+00,1.000000000000000000e+00,1.000000000000000000e+00,9.688483238220214622e-01,9.371626853942871538e-01,9.074839591979980691e-01,8.796272277832031250e-01,8.534297943115234375e-01,8.287477493286132812e-01,8.054532051086426003e-01,7.834323406219482200e-01,7.625836849212646040e-01,7.428157329559326172e-01
6.196870326995849165e-01,6.354057788848876953e-01,6.519427299499511719e-01,6.693634033203125222e-01,6.877407073974609597e-01,7.071555137634277788e-01,7.276984214782714622e-01,7.494705200195312944e-01,7.725855827331542525e-01,7.971718788146973100e-01,8.233745574951172319e-01,8.513581275939940962e-01,8.813108444213867410e-01,9.134480476379394087e-01,9.480175971984863281e-01,9.853068351745605247e-01,1.000000000000000000e+00,1.000000000000000000e+00,1.000000000000000000e+00,1.000000000000000000e+00,1.000000000000000000e+00,1.000000000000000000e+00,1.000000000000000000e+00,1.000000000000000000e+00,1.000000000000000000e+00,1.000000000000000000e+00,1.000000000000000000e+00,1.000000000000000000e+00,1.000000000000000000e+00,1.000000000000000000e+00,1.000000000000000000e+00,2.647652387619018333e-01,2.594699859619140625e-01,2.095553159713745006e-01,2.013154983520507868e-01,1.997709870338439941e-01,1.983079671859741266e-01,1.972341537475585938e-01,1.971170067787170466e-01,2.007876873016357366e-01,1.000000000000000000e+00,1.000000000000000000e+00,1.000000000000000000e+00,1.000000000000000000e+00,1.000000000000000000e+00,1.000000000000000000e+00,1.000000000000000000e+00,1.000000000000000000e+00,1.000000000000000000e+00,1.000000000000000000e+00,1.000000000000000000e+00,1.000000000000000000e+00,1.000000000000000000e+00,1.000000000000000000e+00,1.000000000000000000e+00,1.000000000000000000e+00,1.000000000000000000e+00,1.000000000000000000e+00,1.000000000000000000e+00,1.000000000000000000e+00,1.000000000000000000e+00,1.000000000000000000e+00,1.000000000000000000e+00,1.000000000000000000e+00,1.000000000000000000e+00,1.000000000000000000e+00,1.000000000000000000e+00,1.000000000000000000e+00,1.000000000000000000e+00,1.000000000000000000e+00,9.688768386840820312e-01,9.371892929077147993e-01,9.075089454650878684e-01,8.796506881713866965e-01,8.534519195556640181e-01,8.287685394287109819e-01,8.054728507995605469e-01,7.834510326385497603e-01,7.626012802124023660e-01,7.428324222564697266e-01
6.196736812591552290e-01,6.353917598724365678e-01,6.519279479980468750e-01,6.693478584289550559e-01,6.877243041992187056e-01,7.071381568908691184e-01,7.276800155639648882e-01,7.494510173797607200e-01,7.725648880004882812e-01,7.971498012542724831e-01,8.233510017395019309e-01,8.513329505920410600e-01,8.812838554382323997e-01,9.134190559387207475e-01,9.479864120483398882e-01,9.852730751037597212e-01,1.000000000000000000e+00,1.000000000000000000e+00,1.000000000000000000e+00,1.000000000000000000e+00,1.000000000000000000e+00,1.000000000000000000e+00,1.000000000000000000e+00,1.000000000000000000e+00,1.000000000000000000e+00,1.000000000000000000e+00,1.000000000000000000e+00,1.000000000000000000e+00,1.000000000000000000e+00,1.000000000000000000e+00,1.000000000000000000e+00,2.659845113754272239e-01,2.616268634796142800e-01,2.106169700622558538e-01,2.020265817642211970e-01,2.004918813705444391e-01,1.990183472633361705e-01,1.977778315544128362e-01,1.976157784461975153e-01,2.009011030197143666e-01,1.000000000000000000e+00,1.000000000000000000e+00,1.000000000000000000e+00,1.000000000000000000e+00,1.000000000000000000e+00,1.000000000000000000e+00,1.000000000000000000e+00,1.000000000000000000e+00,1.000000000000000000e+00,1.000000000000000000e+00,1.000000000000000000e+00,1.000000000000000000e+00,1.000000000000000000e+00,1.000000000000000000e+00,1.000000000000000000e+00,1.000000000000000000e+00,1.000000000000000000e+00,1.000000000000000000e+00,1.000000000000000000e+00,1.000000000000000000e+00,1.000000000000000000e+00,1.000000000000000000e+00,1.000000000000000000e+00,1.000000000000000000e+00,1.000000000000000000e+00,1.000000000000000000e+00,1.000000000000000000e+00,1.000000000000000000e+00,1.000000000000000000e+00,1.000000000000000000e+00,9.689052581787109819e-01,9.372159957885741743e-01,9.075339317321777788e-01,8.796742439270019975e-01,8.534740447998047097e-01,8.287894248962401900e-01,8.054925918579101118e-01,7.834696769714355469e-01,7.626189231872558816e-01,7.428492069244384544e-01
6.196603775024414062e-01,6.353777408599853294e-01,6.519132137298584428e-01,6.693323135375977007e-01,6.877078533172606978e-01,7.071208000183105691e-01,7.276616573333740678e-01,7.494315147399902566e-01,7.725441455841064453e-01,7.971277713775635210e-01,8.233274459838867410e-01,8.513078689575195312e-01,8.812569618225097878e-01,9.133900642395019753e-01,9.479552268981933372e-01,9.852394104003906472e-01,1.000000000000000000e+00,1.000000000000000000e+00,1.000000000000000000e+00,1.000000000000000000e+00,1.000000000000000000e+00,1.000000000000000000e+00,1.000000000000000000e+00,1.000000000000000000e+00,1.000000000000000000e+00,1.000000000000000000e+00,1.000000000000000000e+00,1.000000000000000000e+00,1.000000000000000000e+00,2.886667013168334739e-01,2.775901317596435325e-01,2.682256698608398438e-01,2.639931201934814231e-01,2.633565425872802512e-01,2.027426958084106445e-01,2.012180328369140569e-01,1.997338652610778920e-01,1.983245253562927191e-01,1.981615781784057673e-01,2.010217189788818248e-01,1.000000000000000000e+00,1.000000000000000000e+00,1.000000000000000000e+00,1.000000000000000000e+00,1.000000000000000000e+00,1.000000000000000000e+00,1.000000000000000000e+00,1.000000000000000000e+00,1.000000000000000000e+00,1.000000000000000000e+00,1.000000000000000000e+00,1.000000000000000000e+00,1.000000000000000000e+00,1.000000000000000000e+00,1.000000000000000000e+00,1.000000000000000000e+00,1.000000000000000000e+00,1.000000000000000000e+00,1.000000000000000000e+00,1.000000000000000000e+00,1.000000000000000000e+00,1.000000000000000000e+00,1.000000000000000000e+00,1.000000000000000000e+00,1.000000000000000000e+00,1.000000000000000000e+00,1.000000000000000000e+00,1.000000000000000000e+00,1.000000000000000000e+00,1.000000000000000000e+00,9.689337730407714400e-01,9.372426033020019309e-01,9.075589179992675781e-01,8.796977043151855691e-01,8.534960746765136719e-01,8.288102149963378906e-01,8.055122375488281694e-01,7.834882259368896040e-01,7.626365184783935325e-01,7.428659915924071822e-01
6.196470260620117188e-01,6.353637218475342019e-01,6.518984317779541460e-01,6.693167686462402344e-01,6.876914501190185547e-01,7.071034431457519087e-01,7.276432514190673828e-01,7.494120121002196822e-01,7.725234508514404741e-01,7.971056938171386941e-01,8.233038902282714400e-01,8.512826919555663840e-01,8.812299728393554465e-01,9.133610725402832031e-01,9.479240417480468972e-01,9.852056503295898438e-01,1.000000000000000000e+00,1.000000000000000000e+00,1.000000000000000000e+00,1.000000000000000000e+00,1.000000000000000000e+00,1.000000000000000000e+00,1.000000000000000000e+00,1.000000000000000000e+00,1.000000000000000000e+00,1.000000000000000000e+00,1.000000000000000000e+00,1.000000000000000000e+00,1.000000000000000000e+00,2.856159687042236217e-01,2.760338068008422741e-01,2.736688137054443248e-01,2.682465076446532981e-01,2.717672109603881947e-01,2.036964178085327037e-01,2.019927501678466797e-01,2.005194664001464788e-01,1.990843892097473034e-01,1.991342782974243053e-01,2.015045166015624889e-01,1.000000000000000000e+00,1.000000000000000000e+00,1.000000000000000000e+00,1.000000000000000000e+00,1.000000000000000000e+00,1.000000000000000000e+00,1.000000000000000000e+00,1.000000000000000000e+00,1.000000000000000000e+00,1.000000000000000000e+00,1.000000000000000000e+00,1.000000000000000000e+00,1.000000000000000000e+00,1.000000000000000000e+00,1.000000000000000000e+00,1.000000000000000000e+00,1.000000000000000000e+00,1.000000000000000000e+00,1.000000000000000000e+00,1.000000000000000000e+00,1.000000000000000000e+00,1.000000000000000000e+00,1.000000000000000000e+00,1.000000000000000000e+00,1.000000000000000000e+00,1.000000000000000000e+00,1.000000000000000000e+00,1.000000000000000000e+00,1.000000000000000000e+00,1.000000000000000000e+00,9.689622879028320090e-01,9.372693061828613059e-01,9.075839042663573775e-01,8.797211647033691406e-01,8.535182952880859819e-01,8.288311004638672097e-01,8.055319786071777344e-01,7.835069179534912553e-01,7.626542091369629128e-01,7.428826808929442915e-01
6.196337223052978960e-01,6.353497028350829634e-01,6.518836975097656028e-01,6.693012237548827681e-01,6.876749992370605469e-01,7.070860862731933594e-01,7.276248931884765625e-01,7.493925094604492188e-01,7.725027084350586382e-01,7.970836162567138672e-01,8.232803344726562500e-01,8.512575149536132368e-01,8.812029838562012163e-01,9.133321762084960493e-01,9.478928565979003462e-01,9.710075378417968306e-01,9.707657814025878462e-01,9.705242156982422097e-01,9.702827453613280806e-01,9.700413703918456809e-01,9.698001861572265181e-01,9.695590972900390847e-01,9.693181037902831587e-01,9.690773010253905806e-01,9.688365936279297319e-01,9.685958862304687722e-01,9.683553695678710493e-01,9.681150436401366743e-01,9.678747177124022993e-01,2.847686767578124778e-01,2.764601469039916770e-01,2.745347499847411998e-01,9.669148445129394087e-01,9.666751861572265847e-01,2.054342031478881836e-01,2.028518199920654186e-01,2.013660192489624134e-01,1.999413371086120605e-01,2.002588510513305664e-01,2.019896268844604548e-01,9.650008201599120650e-01,9.647621154785156472e-01,9.645235061645507368e-01,9.642849922180175559e-01,9.640465736389159934e-01,9.638083457946777788e-01,9.635702133178710715e-01,9.633322715759277122e-01,9.630943298339843528e-01,9.628565788269043413e-01,9.626189231872558372e-01,9.623813629150390625e-01,9.621438980102539062e-01,9.619066238403319868e-01,9.616694450378417969e-01,9.614322662353516069e-01,9.611953735351562722e-01,9.609584808349609375e-01,9.607217788696289507e-01,9.604851722717284712e-01,9.602487564086914507e-01,9.600123405456543191e-01,9.597761154174804243e-01,9.595398902893066406e-01,9.593038558959960938e-01,9.590680122375487837e-01,9.588321685791015847e-01,9.585965156555176225e-01,9.583609580993652788e-01,9.581254959106445535e-01,9.578901290893554465e-01,9.372959136962890625e-01,9.076088905334472878e-01,8.797446250915527122e-01,8.535403251647949441e-01,8.288518905639647993e-01,8.055516242980956809e-01,7.835254669189453125e-01,7.626718997955321822e-01,7.428994655609131303e-01
6.196203708648682085e-01,6.353356838226318359e-01,6.518689632415771706e-01,6.692856311798095481e-01,6.876585960388184038e-01,7.070687294006348100e-01,7.276064872741698775e-01,7.493730068206787553e-01,7.542469024658202681e-01,7.541011333465575950e-01,7.539553165435790572e-01,7.538095951080322488e-01,7.536638736724853294e-01,7.535182476043701394e-01,7.533727645874023215e-01,7.532272338867187500e-01,7.530817508697509322e-01,7.529363632202148438e-01,7.527910709381103738e-01,7.526457786560059038e-01,7.525005340576171875e-01,7.523553371429443359e-01,7.522102355957031028e-01,7.520652294158935991e-01,7.519202232360839844e-01,7.517752647399902344e-01,7.516303539276123491e-01,7.514855861663818359e-01,7.513407707214355691e-01,7.511960506439209206e-01,2.752074480056762584e-01,2.754878759384155051e-01,7.507622241973876953e-01,7.506176948547362837e-01,2.072018861770629772e-01,2.037182331085204967e-01,2.022197723388671764e-01,2.008057355880737416e-01,2.013962268829345703e-01,2.024770975112915039e-01,7.496077060699463113e-01,7.494637012481689675e-01,7.493196964263916238e-01,7.491757392883300337e-01,7.490318298339844194e-01,7.488880634307861772e-01,7.487442493438720703e-01,7.486005306243896928e-01,7.484568595886230691e-01,7.483132839202880637e-01,7.481697082519531694e-01,7.480261802673340288e-01,7.478827476501465066e-01,7.477393150329589844e-01,7.475960731506348100e-01,7.474527835845947710e-01,7.473094940185547319e-01,7.471662998199463113e-01,7.470231533050537553e-01,7.468801975250244363e-01,7.467371463775634988e-01,7.465941905975341797e-01,7.464512825012207253e-01,7.463084697723388894e-01,7.461656570434570535e-01,7.460229396820068359e-01,7.458802223205566184e-01,7.457376480102538840e-01,7.455950736999511497e-01,7.454525470733642800e-01,7.453100204467772993e-01,7.451675891876220481e-01,7.450253009796142800e-01,7.448830127716064009e-01,7.447407245635986328e-01,7.445985317230224831e-01,7.444564342498779519e-01,7.443143367767334206e-01,7.441722869873046431e-01,7.429162025451659934e-01
6.166988372802734153e-01,6.166013717651367410e-01,6.165039062499999556e-01,6.164064407348632812e-01,6.163090705871582253e-01,6.162117481231689231e-01,6.161143779754638672e-01,6.160170555114745650e-01,6.159197330474853738e-01,6.158224582672119363e-01,6.157252788543701172e-01,6.156280517578125444e-01,6.155308723449707253e-01,6.154337406158447710e-01,6.153367042541504350e-01,6.152396202087402344e-01,6.151425361633300337e-01,6.150454998016356978e-01,6.149485111236572266e-01,6.148516178131103738e-01,6.147546768188476562e-01,6.146577835083008035e-01,6.145608901977539507e-01,6.144640922546387163e-01,6.143672943115234819e-01,6.142704963684082475e-01,6.141737461090087669e-01,6.140770435333251509e-01,6.139804363250732644e-01,6.138837337493896484e-01,2.744814395904541238e-01,2.761788845062255748e-01,6.135940074920653853e-01,6.134974956512451172e-01,2.090002775192260631e-01,2.045920848846435602e-01,2.030900239944458119e-01,2.016776084899902233e-01,2.023892164230346735e-01,2.029669284820556641e-01,6.128226280212402122e-01,6.127264022827147993e-01,6.126301288604736328e-01,6.125339031219482200e-01,6.124377250671386719e-01,6.123415470123291238e-01,6.122454643249511941e-01,6.121493339538573997e-01,6.120532512664794700e-01,6.119571685791015403e-01,6.118612289428710938e-01,6.117652416229247825e-01,6.116692543029784712e-01,6.115733146667480247e-01,6.114774227142334428e-01,6.113816261291503684e-01,6.112857818603515403e-01,6.111899375915527122e-01,6.110941886901855025e-01,6.109984874725341575e-01,6.109027385711669478e-01,6.108070373535156028e-01,6.107113838195801225e-01,6.106158256530761497e-01,6.105202198028564231e-01,6.104246616363525613e-01,6.103291034698485884e-01,6.102335929870605913e-01,6.101381301879882368e-01,6.100427150726318581e-01,6.099472999572753684e-01,6.098518848419189897e-01,6.097565174102783647e-01,6.096612453460693581e-01,6.095659255981444868e-01,6.094706535339355913e-01,6.093754291534423384e-01,6.092802524566650613e-01,6.091850757598876731e-01,6.090899467468261497e-01
5.210234165191650613e-01,5.209537982940674050e-01,5.208842277526855025e-01,5.208147048950195757e-01,5.207451343536376731e-01,5.206756114959716353e-01,5.206061363220214622e-01,5.205366611480712891e-01,5.204671382904052512e-01,5.203977584838866965e-01,5.203283309936523882e-01,5.202589035034179688e-01,5.201895236968994141e-01,5.201201438903808594e-01,5.200507640838623047e-01,5.199814796447753684e-01,5.199121475219726785e-01,5.198428153991698775e-01,5.197735309600830522e-01,5.197042942047118697e-01,5.196350097656250444e-01,5.195657730102538618e-01,5.194965839385986550e-01,5.194273948669433372e-01,5.193582534790038840e-01,5.192890644073486772e-01,5.192199230194092241e-01,5.191507816314697710e-01,5.190817356109619363e-01,2.751946210861205833e-01,2.736483573913573997e-01,2.767992019653320312e-01,2.860868215560913308e-01,5.187365055084228738e-01,2.105228662490844782e-01,2.054734468460082952e-01,2.039819002151489202e-01,2.025570869445800781e-01,2.029422283172607477e-01,2.035503625869750921e-01,5.182539463043213113e-01,5.181850910186767134e-01,5.181162357330322266e-01,5.180474281311034934e-01,5.179786205291747603e-01,5.179098129272461382e-01,5.178410530090331587e-01,5.177722930908202903e-01,5.177035808563232866e-01,5.176348686218261719e-01,5.175661563873290572e-01,5.174974918365478072e-01,5.174288272857665572e-01,5.173601627349853072e-01,5.172915458679199219e-01,5.172229766845702903e-01,5.171543598175049050e-01,5.170857906341552734e-01,5.170172691345215066e-01,5.169486999511718750e-01,5.168802261352538618e-01,5.168117046356200950e-01,5.167432308197021928e-01,5.166747570037841797e-01,5.166063308715820312e-01,5.165379047393798828e-01,5.164695262908935991e-01,5.164011001586914507e-01,5.163327217102050559e-01,5.162643909454345259e-01,5.161960601806641069e-01,5.161277294158935769e-01,5.160594463348389116e-01,5.159912109375000000e-01,5.159229278564453347e-01,5.158546924591064231e-01,5.157864570617676225e-01,5.157182693481445757e-01,5.156500816345215288e-01,5.155818939208984819e-01
4.510473728179931752e-01,4.509952068328857422e-01,4.509430408477783092e-01,4.508909225463867410e-01,4.508388042449951172e-01,4.507866859436034934e-01,4.507346153259277344e-01,4.506824970245361106e-01,4.506304740905761608e-01,4.505784034729004017e-01,4.505263328552245872e-01,4.504743099212646373e-01,4.504222869873046875e-01,4.503702640533447377e-01,4.503182888031005970e-01,4.502663135528564564e-01,4.502143383026123158e-01,4.501623630523681752e-01,4.501103878021240345e-01,4.500584125518798939e-01,4.500065326690673717e-01,4.499546051025390403e-01,4.499026775360107644e-01,4.498507976531982422e-01,4.497989177703857200e-01,4.497470378875732533e-01,4.496951580047607311e-01,4.496433258056640736e-01,4.495914936065673606e-01,2.732923507690429576e-01,2.727472782135009766e-01,2.770766735076904408e-01,2.837395906448364480e-01,4.493325233459472545e-01,2.119068622589111439e-01,2.063624382019043080e-01,2.048816442489624079e-01,2.034442901611328014e-01,2.034982681274414007e-01,2.047255277633666937e-01,4.489703655242919811e-01,4.489186763763427512e-01,4.488670349121093861e-01,4.488153934478759655e-01,4.487637519836426003e-01,4.487121105194091797e-01,4.486604690551757590e-01,4.486088752746582031e-01,4.485572814941406472e-01,4.485056877136230358e-01,4.484540939331054799e-01,4.484025478363037331e-01,4.483510017395019309e-01,4.482994556427001842e-01,4.482479095458984375e-01,4.481964111328125000e-01,4.481449127197265625e-01,4.480934143066406250e-01,4.480419635772704967e-01,4.479904651641845592e-01,4.479390621185302956e-01,4.478876113891601674e-01,4.478361606597900391e-01,4.477847099304199108e-01,4.477333068847656472e-01,4.476819515228271373e-01,4.476305484771728738e-01,4.475791454315185547e-01,4.475277900695801003e-01,4.474764823913573997e-01,4.474251270294189453e-01,4.473737716674804910e-01,4.473224639892577903e-01,4.472711563110351451e-01,4.472198963165283092e-01,4.471686363220214733e-01,4.471173286437988281e-01,4.470660686492919922e-01,4.470148563385009655e-01,4.469635963439941295e-01
3.976420402526855691e-01,3.976015090942383035e-01,3.975609540939331055e-01,3.975204467773437722e-01,3.974799633026123158e-01,3.974394321441650502e-01,3.973989486694335938e-01,3.973584651947021373e-01,3.973179578781128041e-01,3.972774982452392800e-01,3.972370624542236328e-01,3.971965789794921764e-01,3.971561431884765847e-01,3.971157312393188699e-01,3.970752716064452903e-01,3.970348596572875755e-01,3.969944715499877930e-01,3.969540834426880105e-01,3.969136476516723633e-01,3.968732595443725808e-01,3.968328952789306752e-01,3.967925071716308372e-01,3.967521429061889870e-01,3.967117547988891491e-01,3.966714382171631081e-01,3.966310977935790794e-01,3.965907335281372292e-01,3.965504407882690652e-01,3.965101003646850364e-01,2.721581220626830833e-01,2.716984748840332031e-01,2.767689943313598744e-01,2.823397874832153098e-01,3.963086128234863392e-01,2.133091926574706976e-01,2.072601318359375000e-01,2.057893514633178655e-01,2.043392658233642578e-01,2.040573596954345648e-01,2.059143304824829213e-01,3.960269451141357200e-01,3.959867000579834206e-01,3.959465265274048074e-01,3.959063529968261941e-01,3.958661317825317161e-01,3.958259582519531028e-01,3.957857608795166127e-01,3.957456111907958762e-01,3.957054853439331277e-01,3.956653118133545144e-01,3.956251859664917103e-01,3.955850362777709739e-01,3.955449342727661022e-01,3.955048322677612305e-01,3.954646825790405495e-01,3.954246044158935547e-01,3.953845500946044922e-01,3.953444242477416881e-01,3.953043699264526256e-01,3.952642917633056863e-01,3.952242374420166238e-01,3.951842069625854381e-01,3.951441526412963756e-01,3.951041221618652455e-01,3.950640678405761830e-01,3.950240850448608620e-01,3.949840784072876088e-01,3.949440479278564231e-01,3.949040889739990345e-01,3.948640823364257812e-01,3.948241233825683372e-01,3.947841644287109486e-01,3.947441816329956277e-01,3.947042465209961160e-01,3.946643114089966042e-01,3.946243524551391602e-01,3.945844411849975808e-01,3.945445060729980691e-01,3.945045948028564342e-01,3.944647073745727317e-01
3.555445432662963645e-01,3.555121183395385520e-01,3.554797172546386719e-01,3.554473400115966686e-01,3.554149389266967884e-01,3.553825616836547852e-01,3.553501844406127819e-01,3.553177833557129017e-01,3.552854299545288308e-01,3.552531003952026367e-01,3.552206993103027566e-01,3.551883697509765625e-01,3.551560401916503684e-01,3.551236867904662975e-01,3.550913572311401589e-01,3.550590515136718972e-01,3.550266981124877708e-01,3.549943923950195090e-01,3.549621105194091797e-01,3.549297809600829856e-01,3.548974990844726562e-01,3.548652172088623269e-01,3.548329353332519420e-01,3.548006296157836803e-01,3.547683715820312278e-01,3.547361135482788308e-01,3.547038316726684459e-01,3.546715736389159934e-01,3.546393156051635964e-01,2.700269699096679576e-01,2.695018768310546986e-01,2.745814800262451061e-01,3.545103788375854603e-01,3.544781446456909402e-01,3.544459342956542969e-01,3.544137239456176536e-01,2.083819150924682562e-01,2.077082872390746959e-01,2.077183246612548939e-01,3.542849302291870006e-01,3.542527675628662220e-01,3.542205572128295787e-01,3.541883945465088002e-01,3.541562557220458984e-01,3.541240692138671875e-01,3.540919303894042858e-01,3.540597677230835072e-01,3.540276288986206055e-01,3.539955139160156361e-01,3.539633750915527344e-01,3.539312601089477650e-01,3.538991212844848633e-01,3.538670063018798939e-01,3.538349151611328014e-01,3.538028001785278320e-01,3.537707328796386719e-01,3.537386178970337025e-01,3.537065505981445424e-01,3.536744832992553822e-01,3.536423921585082897e-01,3.536103248596191295e-01,3.535782814025879017e-01,3.535462141036987416e-01,3.535141706466674583e-01,3.534821033477782981e-01,3.534500837326050027e-01,3.534180879592895286e-01,3.533860206604003684e-01,3.533540248870849498e-01,3.533219814300537220e-01,3.532899856567383035e-01,3.532580137252807617e-01,3.532259941101074108e-01,3.531940221786499245e-01,3.531620025634765736e-01,3.531300544738769642e-01,3.530981063842773549e-01,3.530661106109619363e-01,3.530341625213623269e-01,3.530022144317627175e-01
3.215072631835937389e-01,3.214807510375976562e-01,3.214542865753173828e-01,3.214277744293213002e-01,3.214012861251830944e-01,3.213748216629028209e-01,3.213483095169067383e-01,3.213218450546264648e-01,3.212953805923461914e-01,3.212688922882079856e-01,3.212424516677856445e-01,3.212160110473633035e-01,3.211895227432250977e-01,3.211630821228027566e-01,3.211366653442382924e-01,3.211102008819580189e-01,3.210837602615356223e-01,3.210573434829712136e-01,3.210309028625488170e-01,3.210044860839843528e-01,3.209780931472778209e-01,3.209516525268554799e-01,3.209252595901489480e-01,3.208988428115844838e-01,3.208724737167358287e-01,3.208460569381713645e-01,3.208196640014648326e-01,3.207932949066162331e-01,3.207668781280517689e-01,3.207405090332031139e-01,2.674407720565795676e-01,3.206877708435058594e-01,3.206614017486572044e-01,3.206350088119506725e-01,3.206086635589599498e-01,2.180342912673950140e-01,2.091226339340210016e-01,2.079728126525878795e-01,2.075294494628906194e-01,2.105048894882202148e-01,3.204506158828735463e-01,3.204242706298828236e-01,3.203979492187499778e-01,3.203716278076171875e-01,3.203453063964843972e-01,3.203190088272094838e-01,3.202926874160766380e-01,3.202663898468017800e-01,3.202401161193847434e-01,3.202137947082519531e-01,3.201875209808349720e-01,3.201612234115600586e-01,3.201349496841430775e-01,3.201086997985839733e-01,3.200824022293090598e-01,3.200561523437500111e-01,3.200298547744750977e-01,3.200036048889159934e-01,3.199773550033569447e-01,3.199510812759399636e-01,3.199248552322387917e-01,3.198985815048217551e-01,3.198723793029785156e-01,3.198461532592773438e-01,3.198199033737182395e-01,3.197936773300170676e-01,3.197674751281738281e-01,3.197412490844726562e-01,3.197150468826294167e-01,3.196888208389282449e-01,3.196626186370849498e-01,3.196364402770995872e-01,3.196102142333984153e-01,3.195840358734131081e-01,3.195578336715698131e-01,3.195316791534423828e-01,3.195055007934570201e-01,3.194792985916137806e-01,3.194531440734863503e-01,3.194269657135009877e-01
2.934175729751586914e-01,2.933955192565917969e-01,2.933734178543090931e-01,2.933513641357421986e-01,2.933293104171753041e-01,2.933072328567504772e-01,2.932851791381835826e-01,2.932631492614746205e-01,2.932410717010497936e-01,2.932190418243408314e-01,2.931970119476318137e-01,2.931749343872070424e-01,2.931529045104980247e-01,2.931308984756469949e-01,2.931088447570801003e-01,2.930868387222290150e-01,2.930648088455199973e-01,2.930427789688110352e-01,2.930207729339599498e-01,2.929987668991088645e-01,2.929767370223999023e-01,2.929547309875488170e-01,2.929327487945556641e-01,2.929107189178467019e-01,2.928887367248534934e-01,2.928667545318603405e-01,2.928447484970092551e-01,2.928227901458740345e-01,2.928007841110229492e-01,2.927788257598876731e-01,2.927568197250366433e-01,2.927348613739013672e-01,2.927129030227660911e-01,2.926909208297729381e-01,2.926689624786377175e-01,2.160333871841430553e-01,2.095163345336913951e-01,2.079357147216796819e-01,2.068744182586669811e-01,2.070639848709106556e-01,2.925372362136841042e-01,2.925153017044067605e-01,2.924933671951294167e-01,2.924714088439941406e-01,2.924494981765747292e-01,2.924275636672973855e-01,2.924056291580200417e-01,2.923837184906005748e-01,2.923617839813232311e-01,2.923398733139038197e-01,2.923179864883422852e-01,2.922960519790649414e-01,2.922741651535034069e-01,2.922522544860839955e-01,2.922303438186645286e-01,2.922084569931030495e-01,2.921865463256835826e-01,2.921646833419799805e-01,2.921427965164184459e-01,2.921209096908569114e-01,2.920990228652954324e-01,2.920771360397338978e-01,2.920552730560302956e-01,2.920334100723266380e-01,2.920115470886230358e-01,2.919896841049194336e-01,2.919677972793578991e-01,2.919459581375122292e-01,2.919241189956665039e-01,2.919022560119629017e-01,2.918804168701171764e-01,2.918585777282715066e-01,2.918367385864257812e-01,2.918148994445800559e-01,2.917930603027343861e-01,2.917712211608886608e-01,2.917494058609008678e-01,2.917275667190551980e-01,2.917057514190674050e-01,2.916839361190796120e-01
2.698418378829955944e-01,2.698231458663940541e-01,2.698044776916503906e-01,2.697858333587646595e-01,2.697671651840209961e-01,2.697484970092773326e-01,2.697298526763916016e-01,2.697111845016479381e-01,2.696925401687622070e-01,2.696738958358764759e-01,2.696552515029907449e-01,2.696366071701049583e-01,2.696179866790771595e-01,2.695993185043334961e-01,2.695806980133056419e-01,2.695620775222778431e-01,2.695434331893921120e-01,2.695248126983642578e-01,2.695061922073364036e-01,2.694875478744506725e-01,2.694689512252807506e-01,2.694503307342529519e-01,2.694317102432250977e-01,2.694131135940551758e-01,2.693945169448852539e-01,2.693758964538573997e-01,2.693572998046874778e-01,2.693387031555175559e-01,2.693200826644897572e-01,2.693014860153198353e-01,2.692829132080077903e-01,2.692643165588378684e-01,2.692457437515258789e-01,2.692271471023559570e-01,2.692085742950439675e-01,2.158843994140625111e-01,2.090725183486938366e-01,2.066139221191406194e-01,2.048365592956543080e-01,2.038794517517089899e-01,2.046814441680908092e-01,2.690785408020019420e-01,2.690599918365478294e-01,2.690414190292358398e-01,2.690228700637817272e-01,2.690043210983276145e-01,2.689857482910156250e-01,2.689671993255615123e-01,2.689486503601073997e-01,2.689301013946533425e-01,2.689115762710571067e-01,2.688930034637451172e-01,2.688744783401489369e-01,2.688559293746948242e-01,2.688374042510986439e-01,2.688188791275024636e-01,2.688003540039062278e-01,2.687818288803100475e-01,2.687632799148559348e-01,2.687447786331176869e-01,2.687262773513793834e-01,2.687077283859252708e-01,2.686892271041870228e-01,2.686707258224487194e-01,2.686522006988525391e-01,2.686337232589721680e-01,2.686151981353759877e-01,2.685966968536376842e-01,2.685782194137573131e-01,2.685596942901611328e-01,2.685412168502807617e-01,2.685227155685424583e-01,2.685042381286620872e-01,2.684857606887817161e-01,2.684672594070434681e-01,2.684487819671630970e-01,2.684303283691406028e-01,2.684118270874023549e-01,2.683933734893798606e-01,2.683748960494994895e-01
2.497728586196899525e-01,2.497568845748901478e-01,2.497408866882324108e-01,2.497248888015747015e-01,2.497089147567748968e-01,2.496929168701171875e-01,2.496769189834594782e-01,2.496609449386596735e-01,2.496449708938598688e-01,2.496289968490600641e-01,2.496130228042602595e-01,2.495970487594604548e-01,2.495810747146606501e-01,2.495651006698608454e-01,2.495491504669189453e-01,2.495331525802612360e-01,2.495172023773193359e-01,2.495012521743774359e-01,2.494852781295776312e-01,2.494693279266357311e-01,2.494533777236938588e-01,2.494374036788940541e-01,2.494214534759521540e-01,2.494055271148681585e-01,2.493895530700683538e-01,2.493736267089843861e-01,2.493576765060424860e-01,2.493417263031005859e-01,2.493257999420165905e-01,2.493098497390747181e-01,2.492939233779907227e-01,2.492779731750488226e-01,2.492620706558227595e-01,2.492461204528808594e-01,2.492302179336547963e-01,2.155858278274536133e-01,2.094184398651122991e-01,2.053236246109008678e-01,2.031658887863159180e-01,2.019747972488403209e-01,2.015794515609741211e-01,2.021910905838012751e-01,2.491028547286987249e-01,2.490869283676147572e-01,2.490710496902465709e-01,2.490551233291626032e-01,2.490392208099365123e-01,2.490233182907104492e-01,2.490074157714843861e-01,2.489915370941161998e-01,2.489756345748901367e-01,2.489597320556640736e-01,2.489438533782958873e-01,2.489279508590698242e-01,2.489120721817016657e-01,2.488961935043335072e-01,2.488802909851074163e-01,2.488644123077392578e-01,2.488485336303710993e-01,2.488326549530029408e-01,2.488168001174926869e-01,2.488008975982665960e-01,2.487850427627563421e-01,2.487691879272460882e-01,2.487533092498779297e-01,2.487374305725097712e-01,2.487215757369995173e-01,2.487057209014892634e-01,2.486898660659790095e-01,2.486739873886108509e-01,2.486581325531005970e-01,2.486422777175903431e-01,2.486264228820800892e-01,2.486105918884277399e-01,2.485947370529174860e-01,2.485789060592651367e-01,2.485630512237548828e-01,2.485472202301025335e-01,2.485313892364501842e-01,2.485155344009399303e-01
2.324824571609497015e-01,2.324686050415039062e-01,2.324547529220581110e-01,2.324409008026123158e-01,2.324270486831664928e-01,2.324131965637206976e-01,2.323993444442749023e-01,2.323854923248291071e-01,2.323716402053833119e-01,2.323578119277954213e-01,2.323439598083495983e-01,2.323301076889038030e-01,2.323162794113159124e-01,2.323024511337280218e-01,2.322885990142822266e-01,2.322747707366943359e-01,2.322609424591064453e-01,2.322471141815185547e-01,2.322332859039306641e-01,2.322194576263427734e-01,2.322056293487548828e-01,2.321918010711669922e-01,2.321779966354370062e-01,2.321641683578491155e-01,2.321503400802612249e-01,2.321365356445312389e-01,2.321227073669433483e-01,2.321089029312133900e-01,2.320950984954834040e-01,2.320812702178955134e-01,2.320674657821655273e-01,2.320536613464355413e-01,2.320398330688476507e-01,2.320260524749755970e-01,2.320122480392456110e-01,2.319984436035156250e-01,2.096488952636718639e-01,2.034615278244018555e-01,2.011662244796753041e-01,1.996886610984802135e-01,1.990318775177001842e-01,1.987924814224243109e-01,1.995835900306701660e-01,1.999073863029479925e-01,2.318742990493774525e-01,2.318605184555053711e-01,2.318467378616332897e-01,2.318329572677612360e-01,2.318191766738891546e-01,2.318053960800171009e-01,2.317916154861450195e-01,2.317778348922729381e-01,2.317640781402587891e-01,2.317502975463867076e-01,2.317365169525146540e-01,2.317227602005004772e-01,2.317089796066284235e-01,2.316952228546142467e-01,2.316814422607421931e-01,2.316677093505859486e-01,2.316539525985717718e-01,2.316401720046997181e-01,2.316264152526855413e-01,2.316126585006713923e-01,2.315989017486572155e-01,2.315851688385009710e-01,2.315714120864868220e-01,2.315576553344726451e-01,2.315438985824584961e-01,2.315301656723022516e-01,2.315164327621460072e-01,2.315026760101318304e-01,2.314889430999755859e-01,2.314752101898193415e-01,2.314614534378051647e-01,2.314477205276489202e-01,2.314339876174926758e-01,2.314202547073364313e-01,2.314065217971801869e-01,2.313927888870239147e-01
2.174309015274047963e-01,2.174187898635864258e-01,2.174066543579101507e-01,2.173945426940918080e-01,2.173824310302734375e-01,2.173702955245971624e-01,2.173581838607788197e-01,2.173460721969604492e-01,2.173339605331420787e-01,2.173218488693237360e-01,2.173097372055053655e-01,2.172976493835449274e-01,2.172855377197265569e-01,2.172734260559082142e-01,2.172613143920898438e-01,2.172492265701294056e-01,2.172371149063110352e-01,2.172250270843505970e-01,2.172129392623901312e-01,2.172008275985717884e-01,2.171887397766113226e-01,2.171766519546508845e-01,2.171645402908325140e-01,2.171524524688720759e-01,2.171403646469116100e-01,2.171282768249511719e-01,2.171161890029907338e-01,2.171041011810302679e-01,2.170920133590698298e-01,2.170799493789672963e-01,2.170678615570068304e-01,2.170557737350463923e-01,2.170437097549438588e-01,2.170316219329833929e-01,2.170195341110229548e-01,2.170074701309204213e-01,2.169954061508178600e-01,2.169833183288574219e-01,1.982341766357421931e-01,1.964605093002319280e-01,1.958695173263549916e-01,1.953941106796264759e-01,1.959222912788391169e-01,1.943052530288696400e-01,1.960050582885742299e-01,2.168868064880370983e-01,2.168747425079345648e-01,2.168626785278320312e-01,2.168506145477294977e-01,2.168385744094848688e-01,2.168265104293823353e-01,2.168144464492797741e-01,2.168024063110351451e-01,2.167903423309326116e-01,2.167783021926879827e-01,2.167662382125854492e-01,2.167541980743408203e-01,2.167421579360961914e-01,2.167301177978515625e-01,2.167180776596069336e-01,2.167060375213623047e-01,2.166939735412597712e-01,2.166819572448730469e-01,2.166698932647705134e-01,2.166578769683837891e-01,2.166458368301391602e-01,2.166337966918945312e-01,2.166217803955078069e-01,2.166097402572631780e-01,2.165977001190185491e-01,2.165856838226318248e-01,2.165736436843871959e-01,2.165616273880004994e-01,2.165495872497558705e-01,2.165375709533691462e-01,2.165255546569824219e-01,2.165135145187377930e-01,2.165015220642089733e-01,2.164895057678222767e-01,2.164774656295776478e-01
2.042098045349121094e-01,2.041990995407104437e-01,2.041884183883667103e-01,2.041777133941650446e-01,2.041670322418212835e-01,2.041563510894775502e-01,2.041456699371337891e-01,2.041349649429321234e-01,2.041242837905883900e-01,2.041136026382446289e-01,2.041029214859008678e-01,2.040922403335571345e-01,2.040815591812133734e-01,2.040708780288696400e-01,2.040601968765258789e-01,2.040495157241821178e-01,2.040388584136962891e-01,2.040281772613525280e-01,2.040174961090087946e-01,2.040068387985229381e-01,2.039961576461792048e-01,2.039855003356933483e-01,2.039748191833496149e-01,2.039641618728637584e-01,2.039534807205200251e-01,2.039428234100341686e-01,2.039321660995483398e-01,2.039215087890625111e-01,2.039108514785766546e-01,2.039001941680908259e-01,2.038895130157470648e-01,2.038788557052612360e-01,2.038682222366333119e-01,2.038575410842895508e-01,2.038469076156616266e-01,2.038362503051757701e-01,2.038255929946899414e-01,2.038149356842041127e-01,1.988019704818725641e-01,1.942235112190246471e-01,1.918420433998107855e-01,1.923756361007690485e-01,1.915925979614257757e-01,1.913226723670959362e-01,1.923401594161987249e-01,1.925280928611755316e-01,2.037191390991210938e-01,2.037085056304931696e-01,2.036978483200073131e-01,2.036872148513793890e-01,2.036765813827514648e-01,2.036659479141235407e-01,2.036553144454956166e-01,2.036446809768676647e-01,2.036340475082397405e-01,2.036234140396118164e-01,2.036127805709838923e-01,2.036021471023559681e-01,2.035915136337280162e-01,2.035809040069579967e-01,2.035702466964721680e-01,2.035596370697021484e-01,2.035490274429321289e-01,2.035383939743042048e-01,2.035277605056762806e-01,2.035171508789062611e-01,2.035065174102783092e-01,2.034959077835082897e-01,2.034852981567382701e-01,2.034746646881103460e-01,2.034640550613403265e-01,2.034534454345703069e-01,2.034428358078002874e-01,2.034322023391723633e-01,2.034216165542602484e-01,2.034110069274902288e-01,2.034003973007202093e-01,2.033897876739501898e-01,2.033791780471801702e-01,2.033685684204101507e-01
1.925043702125549261e-01,1.924948811531067006e-01,1.924853801727294811e-01,1.924758553504943848e-01,1.924663662910461315e-01,1.924568653106689398e-01,1.924473762512207142e-01,1.924378871917724609e-01,1.924283981323242076e-01,1.924188852310180775e-01,1.924093961715698242e-01,1.923999071121215709e-01,1.923904180526733454e-01,1.923809289932250921e-01,1.923714280128479004e-01,1.923619389533996471e-01,1.923524618148803600e-01,1.923429727554321345e-01,1.923334956169128473e-01,1.923240184783935602e-01,1.923145174980163685e-01,1.923050403594970814e-01,1.922955632209777943e-01,1.922860860824585072e-01,1.922766089439392201e-01,1.922671318054199330e-01,1.922576308250427135e-01,1.922481656074523926e-01,1.922386884689331055e-01,1.922292232513427845e-01,1.922197461128234974e-01,1.922102808952331487e-01,1.922007918357849232e-01,1.921913146972656361e-01,1.921818494796752874e-01,1.921723842620849665e-01,1.921629190444946178e-01,1.921534657478332631e-01,1.921439766883850098e-01,1.921345114707946888e-01,1.921250462532043402e-01,1.900356054306030218e-01,1.901781320571899470e-01,1.898783087730407659e-01,1.907167196273803766e-01,1.920777440071105846e-01,1.920682787895202637e-01,1.920588254928588812e-01,1.920493721961974987e-01,1.920399188995361439e-01,1.920304656028747614e-01,1.920210242271423451e-01,1.920115709304809626e-01,1.920020937919616755e-01,1.919926524162292591e-01,1.919831991195678766e-01,1.919737577438354603e-01,1.919643163681030162e-01,1.919548511505126953e-01,1.919453978538513128e-01,1.919359564781188965e-01,1.919265151023864802e-01,1.919170737266540638e-01,1.919076204299926813e-01,1.918981790542602650e-01,1.918887376785278209e-01,1.918793082237243708e-01,1.918698668479919545e-01,1.918604135513305720e-01,1.918509721755981556e-01,1.918415427207946777e-01,1.918321132659911998e-01,1.918226838111877497e-01,1.918132305145263672e-01,1.918038010597228893e-01,1.917943716049194391e-01,1.917849421501159612e-01,1.917755126953125111e-01,1.917660713195800670e-01,1.917566418647766169e-01
1.820681095123291016e-01,1.820596218109130915e-01,1.820511221885681152e-01,1.820426225662231390e-01,1.820341348648071289e-01,1.820256233215332142e-01,1.820171356201171764e-01,1.820086359977722279e-01,1.820001482963561901e-01,1.819916605949401800e-01,1.819831728935241699e-01,1.819746613502502552e-01,1.819661736488342174e-01,1.819576859474182073e-01,1.819492101669311634e-01,1.819407224655151256e-01,1.819322347640991155e-01,1.819237351417541393e-01,1.819152474403381292e-01,1.819067716598510853e-01,1.818982839584350475e-01,1.818898081779480036e-01,1.818813085556030273e-01,1.818728327751159557e-01,1.818643569946289118e-01,1.818558812141418402e-01,1.818474054336547963e-01,1.818389296531677246e-01,1.818304300308227484e-01,1.818219661712646429e-01,1.818134903907775990e-01,1.818050146102905273e-01,1.817965507507324219e-01,1.817880749702453502e-01,1.817795872688293402e-01,1.817711114883422963e-01,1.817626476287841908e-01,1.817541837692260853e-01,1.817457199096679799e-01,1.817372560501098744e-01,1.817287683486938366e-01,1.817203044891357311e-01,1.817118406295776256e-01,1.817033767700195201e-01,1.816949129104614147e-01,1.816864490509033092e-01,1.816779732704162653e-01,1.816695213317870983e-01,1.816610574722289928e-01,1.816526055335998535e-01,1.816441416740417480e-01,1.816356897354126088e-01,1.816272139549255371e-01,1.816187739372253362e-01,1.816103219985961970e-01,1.816018462181091253e-01,1.815933942794799860e-01,1.815849423408508190e-01,1.815765023231506459e-01,1.815680503845214788e-01,1.815595746040344349e-01,1.815511345863342341e-01,1.815426826477050670e-01,1.815342307090759277e-01,1.815257906913757269e-01,1.815173268318176214e-01,1.815088748931884821e-01,1.815004348754882812e-01,1.814919948577880804e-01,1.814835548400878795e-01,1.814750909805297741e-01,1.814666509628296009e-01,1.814582109451294001e-01,1.814497709274291992e-01,1.814413309097289984e-01,1.814329028129577637e-01,1.814244389533996582e-01,1.814160108566284235e-01,1.814075708389282227e-01,1.813991427421569880e-01
1.727052450180053822e-01,1.726975798606872614e-01,1.726899385452270452e-01,1.726822972297668568e-01,1.726746559143066406e-01,1.726670145988464244e-01,1.726593732833862360e-01,1.726517081260681152e-01,1.726440668106078991e-01,1.726364374160766491e-01,1.726287961006164606e-01,1.726211547851562444e-01,1.726135253906249944e-01,1.726058721542358398e-01,1.725982308387756237e-01,1.725906014442443737e-01,1.725829601287841852e-01,1.725753307342529352e-01,1.725676894187927191e-01,1.725600481033325306e-01,1.725524187088012806e-01,1.725447773933410645e-01,1.725371479988098145e-01,1.725295186042785645e-01,1.725218772888183483e-01,1.725142478942870983e-01,1.725066184997558483e-01,1.724989891052245983e-01,1.724913716316223145e-01,1.724837422370910645e-01,1.724761009216308483e-01,1.724684715270995983e-01,1.724608540534973145e-01,1.724532246589660645e-01,1.724456071853637806e-01,1.724379897117614691e-01,1.724303483963012806e-01,1.724227309226989691e-01,1.724151134490966852e-01,1.724074840545654352e-01,1.723998665809631237e-01,1.723922491073608398e-01,1.723846197128295898e-01,1.723770022392273060e-01,1.723693847656249944e-01,1.723617792129516491e-01,1.723541617393493652e-01,1.723465442657470814e-01,1.723389148712158314e-01,1.723313093185424860e-01,1.723236918449401744e-01,1.723160862922668568e-01,1.723084688186645452e-01,1.723008632659911998e-01,1.722932338714599498e-01,1.722856283187866322e-01,1.722780227661132868e-01,1.722704172134399414e-01,1.722628116607665960e-01,1.722552061080932506e-01,1.722476005554199330e-01,1.722399950027465876e-01,1.722323894500732422e-01,1.722247719764709584e-01,1.722171664237976130e-01,1.722095727920532338e-01,1.722019672393798884e-01,1.721943736076355091e-01,1.721867561340331976e-01,1.721791505813598522e-01,1.721715569496154730e-01,1.721639633178710938e-01,1.721563577651977484e-01,1.721487522125244030e-01,1.721411585807800237e-01,1.721335530281066784e-01,1.721259593963622991e-01,1.721183657646179199e-01,1.721107602119445745e-01,1.721031665802001953e-01
1.642582297325134166e-01,1.642513155937194713e-01,1.642444014549255260e-01,1.642374753952026423e-01,1.642305612564086970e-01,1.642236471176147516e-01,1.642167329788208063e-01,1.642098188400268610e-01,1.642029166221618541e-01,1.641959905624389704e-01,1.641890764236450251e-01,1.641821742057800182e-01,1.641752600669860729e-01,1.641683578491210938e-01,1.641614437103271484e-01,1.641545176506042369e-01,1.641476154327392578e-01,1.641407132148742787e-01,1.641338109970092718e-01,1.641269087791442927e-01,1.641199946403503473e-01,1.641130805015564020e-01,1.641061782836913951e-01,1.640992760658264160e-01,1.640923738479614369e-01,1.640854716300964300e-01,1.640785574913024847e-01,1.640716552734375056e-01,1.640647530555724987e-01,1.640578627586364857e-01,1.640509605407714788e-01,1.640440702438354381e-01,1.640371561050414928e-01,1.640302538871765137e-01,1.640233635902404730e-01,1.640164613723754938e-01,1.640095710754394531e-01,1.640026807785034124e-01,1.639957666397094671e-01,1.639888763427734264e-01,1.639819860458374134e-01,1.639750957489013727e-01,1.639682054519653320e-01,1.639613151550292913e-01,1.639544010162353460e-01,1.639475107192993053e-01,1.639406204223632924e-01,1.639337420463561901e-01,1.639268517494201771e-01,1.639199614524841364e-01,1.639130592346191295e-01,1.639061689376831166e-01,1.638992905616760143e-01,1.638924002647400013e-01,1.638855218887328991e-01,1.638786315917968861e-01,1.638717412948608454e-01,1.638648509979248047e-01,1.638579726219177302e-01,1.638510942459106556e-01,1.638442158699035534e-01,1.638373255729675404e-01,1.638304471969604381e-01,1.638235688209533636e-01,1.638166904449462891e-01,1.638098001480102484e-01,1.638029217720031738e-01,1.637960433959960993e-01,1.637891650199890248e-01,1.637822985649108887e-01,1.637754082679748480e-01,1.637685298919677734e-01,1.637616515159606989e-01,1.637547850608825628e-01,1.637479066848754883e-01,1.637410163879394476e-01,1.637341499328613392e-01,1.637272834777832031e-01,1.637204051017761286e-01,1.637135386466979925e-01
1.565989851951599121e-01,1.565927028656005915e-01,1.565864086151123047e-01,1.565801262855529841e-01,1.565738439559936634e-01,1.565675497055053766e-01,1.565612673759460560e-01,1.565549850463867076e-01,1.565487027168273870e-01,1.565424203872680664e-01,1.565361380577087458e-01,1.565298438072204590e-01,1.565235614776611384e-01,1.565172910690307562e-01,1.565110087394714355e-01,1.565047264099121149e-01,1.564984560012817327e-01,1.564921617507934459e-01,1.564858794212341253e-01,1.564796090126037709e-01,1.564733266830444225e-01,1.564670562744140681e-01,1.564607858657836859e-01,1.564544916152953991e-01,1.564482212066650446e-01,1.564419507980346624e-01,1.564356684684753418e-01,1.564293980598449596e-01,1.564231276512146052e-01,1.564168453216552845e-01,1.564105749130249023e-01,1.564043045043945201e-01,1.563980340957641657e-01,1.563917636871337835e-01,1.563854813575744629e-01,1.563792109489440807e-01,1.563729524612426647e-01,1.563666820526123102e-01,1.563604116439819280e-01,1.563541531562805120e-01,1.563478708267211914e-01,1.563416004180908092e-01,1.563353419303893932e-01,1.563290715217590388e-01,1.563228130340576227e-01,1.563165426254272405e-01,1.563102722167968861e-01,1.563040137290954701e-01,1.562977433204650879e-01,1.562914848327636719e-01,1.562852263450622559e-01,1.562789678573608398e-01,1.562726974487304576e-01,1.562664389610290416e-01,1.562601685523986872e-01,1.562539219856262096e-01,1.562476634979247936e-01,1.562414050102233776e-01,1.562351346015930231e-01,1.562288761138916071e-01,1.562226176261901911e-01,1.562163591384887751e-01,1.562101125717162975e-01,1.562038540840148815e-01,1.561976075172424316e-01,1.561913490295410156e-01,1.561851024627685658e-01,1.561788320541381836e-01,1.561725735664367676e-01,1.561663269996643177e-01,1.561600804328918402e-01,1.561538338661193903e-01,1.561475634574890081e-01,1.561413168907165583e-01,1.561350703239440807e-01,1.561288237571716309e-01,1.561225771903991810e-01,1.561163306236267034e-01,1.561100602149963490e-01,1.561038136482238714e-01
1.496222138404846302e-01,1.496164560317993220e-01,1.496107220649719183e-01,1.496049880981445424e-01,1.495992541313171387e-01,1.495935082435607966e-01,1.495877742767333929e-01,1.495820283889770508e-01,1.495762944221496471e-01,1.495705604553222712e-01,1.495648264884948675e-01,1.495590925216674916e-01,1.495533585548400879e-01,1.495476126670837458e-01,1.495418906211853083e-01,1.495361566543579046e-01,1.495304226875305287e-01,1.495246887207031250e-01,1.495189666748046875e-01,1.495132207870483454e-01,1.495074868202209417e-01,1.495017647743225042e-01,1.494960308074951283e-01,1.494903087615966908e-01,1.494845747947692871e-01,1.494788408279418834e-01,1.494731068611145075e-01,1.494673848152160700e-01,1.494616627693176325e-01,1.494559288024902288e-01,1.494502067565917913e-01,1.494444727897644154e-01,1.494387507438659779e-01,1.494330286979675404e-01,1.494273066520691029e-01,1.494215726852416992e-01,1.494158387184142955e-01,1.494101166725158580e-01,1.494043946266174205e-01,1.493986845016479492e-01,1.493929624557495117e-01,1.493872404098510742e-01,1.493815064430236705e-01,1.493757843971252330e-01,1.493700623512267955e-01,1.493643522262573242e-01,1.493586301803588867e-01,1.493529081344604492e-01,1.493471860885620117e-01,1.493414640426635742e-01,1.493357539176941029e-01,1.493300318717956654e-01,1.493243217468261663e-01,1.493186116218566950e-01,1.493128776550292913e-01,1.493071675300598200e-01,1.493014454841613825e-01,1.492957353591918834e-01,1.492900252342224121e-01,1.492843151092529408e-01,1.492785930633545033e-01,1.492728710174560658e-01,1.492671608924865667e-01,1.492614507675170954e-01,1.492557406425475963e-01,1.492500305175781250e-01,1.492443084716796875e-01,1.492386102676391546e-01,1.492329120635986217e-01,1.492272019386291504e-01,1.492214798927307129e-01,1.492157697677612416e-01,1.492100715637207087e-01,1.492043614387512096e-01,1.491986513137817383e-01,1.491929411888122670e-01,1.491872310638427679e-01,1.491815328598022350e-01,1.491758227348327637e-01,1.491701245307922308e-01
1.432405710220336914e-01,1.432353138923644909e-01,1.432300448417663519e-01,1.432247757911682129e-01,1.432195186614990123e-01,1.432142615318298395e-01,1.432090044021606390e-01,1.432037472724914662e-01,1.431985020637512318e-01,1.431932330131530651e-01,1.431879758834838923e-01,1.431827187538146917e-01,1.431774616241455189e-01,1.431722164154052845e-01,1.431669592857360840e-01,1.431616902351379450e-01,1.431564450263977106e-01,1.431511878967285101e-01,1.431459307670593373e-01,1.431406855583191029e-01,1.431354284286499023e-01,1.431301712989807018e-01,1.431249141693115290e-01,1.431196689605712946e-01,1.431144237518310602e-01,1.431091666221618597e-01,1.431039214134216253e-01,1.430986642837524525e-01,1.430934071540832520e-01,1.430881619453430176e-01,1.430829167366027832e-01,1.430776715278625488e-01,1.430724263191223145e-01,1.430671691894531139e-01,1.430619239807128795e-01,1.430566787719726451e-01,1.430514335632324108e-01,1.430461883544921764e-01,1.430409431457519420e-01,1.430356860160827692e-01,1.430304408073425348e-01,1.430251955986023005e-01,1.430199503898620661e-01,1.430147171020507701e-01,1.430094599723815973e-01,1.430042147636413630e-01,1.429989814758300670e-01,1.429937362670898326e-01,1.429884910583495983e-01,1.429832577705383301e-01,1.429780006408691295e-01,1.429727673530578613e-01,1.429675221443176270e-01,1.429622888565063588e-01,1.429570555686950628e-01,1.429518103599548284e-01,1.429465651512145941e-01,1.429413199424743597e-01,1.429360866546630915e-01,1.429308533668517955e-01,1.429256200790405273e-01,1.429203867912292591e-01,1.429151296615600586e-01,1.429098963737487904e-01,1.429046630859374944e-01,1.428994297981262263e-01,1.428941965103149303e-01,1.428889632225036621e-01,1.428837180137634277e-01,1.428784847259521595e-01,1.428732514381408636e-01,1.428680300712585338e-01,1.428627967834472656e-01,1.428575634956359974e-01,1.428523302078247015e-01,1.428470969200134333e-01,1.428418755531311035e-01,1.428366303443908691e-01,1.428313970565796009e-01,1.428261756896972712e-01
