6.194521903991698775e-01,6.351591587066650613e-01,6.516833305358886719e-01,6.690902709960937500e-01,6.874526977539062722e-01,7.068513393402099387e-01,7.273766994476318359e-01,7.491295814514160600e-01,7.722237586975098100e-01,7.967909336090087669e-01,8.229728698730468528e-01,8.509340286254882812e-01,8.808618545532226340e-01,9.129716873168944868e-01,9.475111007690429910e-01,9.847665786743163840e-01,1.000000000000000000e+00,1.000000000000000000e+00,1.000000000000000000e+00,1.000000000000000000e+00,1.000000000000000000e+00,1.000000000000000000e+00,1.000000000000000000e+00,1.000000000000000000e+00,1.000000000000000000e+00,1.000000000000000000e+00,1.000000000000000000e+00,1.000000000000000000e+00,1.000000000000000000e+00,1.000000000000000000e+00,1.000000000000000000e+00,1.000000000000000000e+00,1.000000000000000000e+00,1.000000000000000000e+00,1.000000000000000000e+00,1.000000000000000000e+00,1.000000000000000000e+00,1.000000000000000000e+00,1.000000000000000000e+00,1.000000000000000000e+00,1.000000000000000000e+00,1.000000000000000000e+00,1.000000000000000000e+00,1.000000000000000000e+00,1.000000000000000000e+00,1.000000000000000000e+00,1.000000000000000000e+00,1.000000000000000000e+00,1.000000000000000000e+00,1.000000000000000000e+00,1.000000000000000000e+00,1.000000000000000000e+00,1.000000000000000000e+00,1.000000000000000000e+00,4.774734497070312611e-01,4.746095180511474831e-01,4.621162414550781250e-01,4.551211357116698997e-01,4.510598182678222656e-01,4.478814125061035267e-01,4.472482681274413951e-01,4.480068683624267578e-01,4.509091377258300781e-01,4.813358783721923828e-01,4.726963520050048717e-01,4.694267749786377175e-01,1.000000000000000000e+00,1.000000000000000000e+00,1.000000000000000000e+00,1.000000000000000000e+00,9.693508148193359375e-01,9.376326560974120872e-01,9.079244613647461382e-01,8.800410270690918191e-01,8.538191795349121538e-01,8.291148185729980691e-01,8.057998657226562722e-01,7.837602138519287331e-01,7.628942012786865678e-01,7.431102752685546653e-01
6.194388866424560547e-01,6.351451873779296875e-01,6.516686439514159934e-01,6.690748691558837669e-01,6.874363899230957475e-01,7.068341255187988725e-01,7.273583889007568803e-01,7.491102695465088335e-01,7.722031593322753462e-01,7.967650890350341797e-01,8.229452133178710715e-01,8.509043693542480691e-01,8.808301925659179910e-01,9.129376411437988281e-01,9.474743843078613503e-01,9.847269058227539062e-01,1.000000000000000000e+00,1.000000000000000000e+00,1.000000000000000000e+00,1.000000000000000000e+00,1.000000000000000000e+00,1.000000000000000000e+00,1.000000000000000000e+00,1.000000000000000000e+00,1.000000000000000000e+00,1.000000000000000000e+00,1.000000000000000000e+00,1.000000000000000000e+00,1.000000000000000000e+00,1.000000000000000000e+00,1.000000000000000000e+00,1.000000000000000000e+00,1.000000000000000000e+00,1.000000000000000000e+00,1.000000000000000000e+00,1.000000000000000000e+00,1.000000000000000000e+00,1.000000000000000000e+00,1.000000000000000000e+00,1.000000000000000000e+00,1.000000000000000000e+00,1.000000000000000000e+00,1.000000000000000000e+00,1.000000000000000000e+00,1.000000000000000000e+00,1.000000000000000000e+00,1.000000000000000000e+00,1.000000000000000000e+00,1.000000000000000000e+00,1.000000000000000000e+00,1.000000000000000000e+00,1.000000000000000000e+00,1.000000000000000000e+00,1.000000000000000000e+00,4.751481533050537220e-01,4.709331989288330078e-01,4.641789436340332253e-01,4.559404373168945424e-01,4.513549804687500000e-01,4.492768287658691628e-01,4.483254909515380637e-01,4.488045692443847767e-01,4.515315532684326394e-01,4.589988708496093861e-01,4.714911460876464733e-01,4.666024208068847434e-01,4.684362411499023438e-01,1.000000000000000000e+00,1.000000000000000000e+00,1.000000000000000000e+00,9.693759918212890847e-01,9.376562118530273882e-01,9.079465866088867188e-01,8.800618171691894087e-01,8.538388252258301003e-01,8.291332244873046431e-01,8.058172225952148215e-01,7.837766647338867410e-01,7.629097461700439231e-01,7.431251049041748269e-01
6.194256782531738503e-01,6.351312637329101785e-01,6.516540527343750444e-01,6.690593719482421653e-01,6.874200820922851118e-01,7.068168640136718306e-01,7.273401260375976785e-01,7.490908622741698775e-01,7.721825599670409934e-01,7.967432498931884544e-01,8.229175567626952903e-01,8.508747100830078569e-01,8.807984352111816184e-01,9.129034996032714400e-01,9.474375724792480913e-01,9.846872329711914285e-01,1.000000000000000000e+00,1.000000000000000000e+00,1.000000000000000000e+00,1.000000000000000000e+00,1.000000000000000000e+00,1.000000000000000000e+00,1.000000000000000000e+00,1.000000000000000000e+00,1.000000000000000000e+00,1.000000000000000000e+00,1.000000000000000000e+00,1.000000000000000000e+00,1.000000000000000000e+00,1.000000000000000000e+00,1.000000000000000000e+00,1.000000000000000000e+00,1.000000000000000000e+00,1.000000000000000000e+00,1.000000000000000000e+00,1.000000000000000000e+00,1.000000000000000000e+00,1.000000000000000000e+00,1.000000000000000000e+00,1.000000000000000000e+00,1.000000000000000000e+00,1.000000000000000000e+00,1.000000000000000000e+00,1.000000000000000000e+00,1.000000000000000000e+00,1.000000000000000000e+00,1.000000000000000000e+00,1.000000000000000000e+00,1.000000000000000000e+00,1.000000000000000000e+00,1.000000000000000000e+00,1.000000000000000000e+00,1.000000000000000000e+00,1.000000000000000000e+00,4.721258640289306419e-01,4.675116062164306752e-01,4.613815307617187278e-01,4.488729476928711160e-01,4.435622215270996205e-01,4.496276378631591797e-01,4.512940883636474831e-01,4.533092498779296986e-01,4.536437034606933816e-01,4.562430858612060436e-01,4.742934226989746205e-01,4.660673618316650280e-01,4.630738735198974831e-01,1.000000000000000000e+00,1.000000000000000000e+00,1.000000000000000000e+00,9.694011688232422319e-01,9.376797676086425781e-01,9.079686164855956809e-01,8.800825119018554910e-01,8.538582801818848100e-01,8.291516304016113281e-01,8.058345794677734819e-01,7.837931632995605025e-01,7.629253387451171431e-01,7.431398391723632590e-01
6.194124221801757812e-01,6.351173877716064231e-01,6.516393661499023660e-01,6.690439701080321822e-01,6.874037742614745872e-01,7.067996025085448997e-01,7.273219108581543413e-01,7.490714550018310325e-01,7.721620082855225053e-01,7.967213153839111106e-01,8.228941917419433372e-01,8.508451461791992632e-01,8.807665824890136275e-01,9.128694534301757812e-01,9.474008560180664507e-01,9.846475601196289507e-01,1.000000000000000000e+00,1.000000000000000000e+00,1.000000000000000000e+00,1.000000000000000000e+00,1.000000000000000000e+00,1.000000000000000000e+00,1.000000000000000000e+00,1.000000000000000000e+00,1.000000000000000000e+00,1.000000000000000000e+00,1.000000000000000000e+00,1.000000000000000000e+00,1.000000000000000000e+00,1.000000000000000000e+00,1.000000000000000000e+00,1.000000000000000000e+00,1.000000000000000000e+00,1.000000000000000000e+00,1.000000000000000000e+00,1.000000000000000000e+00,1.000000000000000000e+00,1.000000000000000000e+00,1.000000000000000000e+00,1.000000000000000000e+00,1.000000000000000000e+00,1.000000000000000000e+00,1.000000000000000000e+00,1.000000000000000000e+00,1.000000000000000000e+00,1.000000000000000000e+00,1.000000000000000000e+00,1.000000000000000000e+00,1.000000000000000000e+00,1.000000000000000000e+00,1.000000000000000000e+00,1.000000000000000000e+00,1.000000000000000000e+00,1.000000000000000000e+00,4.702703475952148549e-01,4.644564628601074441e-01,4.534989833831787331e-01,4.414776325225829856e-01,4.363160133361816406e-01,4.344711303710937500e-01,4.408629894256591575e-01,4.544193267822265736e-01,4.516600608825683816e-01,4.520443916320801003e-01,1.000000000000000000e+00,4.653966903686523326e-01,4.596504688262939564e-01,1.000000000000000000e+00,1.000000000000000000e+00,1.000000000000000000e+00,9.694263458251952681e-01,9.377033233642577681e-01,9.079907417297363725e-01,8.801033020019530806e-01,8.538778305053711382e-01,8.291700363159180132e-01,8.058519363403320312e-01,7.838096141815185103e-01,7.629409313201904741e-01,7.431546211242675559e-01
6.193992137908935769e-01,6.351034164428710493e-01,6.516247749328613059e-01,6.690285205841064453e-01,6.873874187469481978e-01,7.067823886871338335e-01,7.273036003112792747e-01,7.490521430969238059e-01,7.721414089202880415e-01,7.966994285583496316e-01,8.228708267211913840e-01,8.508201599121093528e-01,8.807349205017089844e-01,9.128353118896483931e-01,9.473641395568848100e-01,9.846077919006347434e-01,1.000000000000000000e+00,1.000000000000000000e+00,1.000000000000000000e+00,1.000000000000000000e+00,1.000000000000000000e+00,1.000000000000000000e+00,1.000000000000000000e+00,1.000000000000000000e+00,1.000000000000000000e+00,1.000000000000000000e+00,1.000000000000000000e+00,1.000000000000000000e+00,1.000000000000000000e+00,1.000000000000000000e+00,1.000000000000000000e+00,1.000000000000000000e+00,1.000000000000000000e+00,1.000000000000000000e+00,1.000000000000000000e+00,1.000000000000000000e+00,1.000000000000000000e+00,1.000000000000000000e+00,1.000000000000000000e+00,1.000000000000000000e+00,1.000000000000000000e+00,1.000000000000000000e+00,1.000000000000000000e+00,1.000000000000000000e+00,1.000000000000000000e+00,1.000000000000000000e+00,1.000000000000000000e+00,1.000000000000000000e+00,1.000000000000000000e+00,1.000000000000000000e+00,1.000000000000000000e+00,1.000000000000000000e+00,1.000000000000000000e+00,1.000000000000000000e+00,4.674105167388916127e-01,4.604420661926269531e-01,4.497128963470459206e-01,4.377120971679687722e-01,4.328172683715820201e-01,4.295426845550537331e-01,4.345127105712890403e-01,4.514842987060546653e-01,4.483610153198241965e-01,4.479986667633056863e-01,4.565926074981689342e-01,1.000000000000000000e+00,4.605854034423828014e-01,1.000000000000000000e+00,1.000000000000000000e+00,1.000000000000000000e+00,9.694514274597167969e-01,9.377268791198730691e-01,9.080127716064453347e-01,8.801239967346191628e-01,8.538973808288574663e-01,8.291884422302245872e-01,8.058693885803223100e-01,7.838260173797607644e-01,7.629565715789794478e-01,7.431694507598877175e-01
6.193859577178955078e-01,6.350894927978515403e-01,6.516100883483886275e-01,6.690130233764648438e-01,6.873711585998535378e-01,7.067651271820067915e-01,7.272853851318359375e-01,7.490327358245849609e-01,7.721209049224853072e-01,7.966774940490722878e-01,8.228474617004394309e-01,8.507951736450195535e-01,8.807081222534179910e-01,9.128011703491211160e-01,9.473274230957031694e-01,9.845681190490722656e-01,1.000000000000000000e+00,1.000000000000000000e+00,1.000000000000000000e+00,1.000000000000000000e+00,1.000000000000000000e+00,1.000000000000000000e+00,1.000000000000000000e+00,1.000000000000000000e+00,1.000000000000000000e+00,1.000000000000000000e+00,1.000000000000000000e+00,1.000000000000000000e+00,1.000000000000000000e+00,1.000000000000000000e+00,1.000000000000000000e+00,1.000000000000000000e+00,1.000000000000000000e+00,1.000000000000000000e+00,1.000000000000000000e+00,1.000000000000000000e+00,1.000000000000000000e+00,1.000000000000000000e+00,1.000000000000000000e+00,1.000000000000000000e+00,1.000000000000000000e+00,1.000000000000000000e+00,1.000000000000000000e+00,1.000000000000000000e+00,1.000000000000000000e+00,1.000000000000000000e+00,1.000000000000000000e+00,1.000000000000000000e+00,1.000000000000000000e+00,1.000000000000000000e+00,1.000000000000000000e+00,1.000000000000000000e+00,1.000000000000000000e+00,1.000000000000000000e+00,4.683725833892822266e-01,4.603209495544433594e-01,4.489361286163330300e-01,4.347407817840576172e-01,4.295927047729491965e-01,4.251624584197998269e-01,4.296391010284423828e-01,4.500380516052245872e-01,4.473688602447509766e-01,4.466734886169433372e-01,4.554296493530273215e-01,1.000000000000000000e+00,4.536211490631103516e-01,4.536823272705078347e-01,1.000000000000000000e+00,1.000000000000000000e+00,9.694766998291015625e-01,9.377504348754882590e-01,9.080348968505859153e-01,8.801447868347167525e-01,8.539169311523437944e-01,8.292068481445312722e-01,8.058867454528808594e-01,7.838425159454345259e-01,7.629720687866210493e-01,7.431842803955077681e-01
6.193727016448974387e-01,6.350756168365478960e-01,6.515954017639160600e-01,6.689976215362548606e-01,6.873548507690430132e-01,7.067479610443114790e-01,7.272671222686767356e-01,7.490133762359618697e-01,7.721002578735352007e-01,7.966555595397949441e-01,8.228240966796874778e-01,8.507701873779296431e-01,8.806813240051269975e-01,9.127722740173339622e-01,9.472906112670897993e-01,9.845284461975097878e-01,1.000000000000000000e+00,1.000000000000000000e+00,1.000000000000000000e+00,1.000000000000000000e+00,1.000000000000000000e+00,1.000000000000000000e+00,1.000000000000000000e+00,1.000000000000000000e+00,1.000000000000000000e+00,1.000000000000000000e+00,1.000000000000000000e+00,1.000000000000000000e+00,1.000000000000000000e+00,1.000000000000000000e+00,1.000000000000000000e+00,1.000000000000000000e+00,1.000000000000000000e+00,1.000000000000000000e+00,1.000000000000000000e+00,1.000000000000000000e+00,1.000000000000000000e+00,1.000000000000000000e+00,1.000000000000000000e+00,1.000000000000000000e+00,1.000000000000000000e+00,1.000000000000000000e+00,1.000000000000000000e+00,1.000000000000000000e+00,1.000000000000000000e+00,1.000000000000000000e+00,1.000000000000000000e+00,1.000000000000000000e+00,1.000000000000000000e+00,1.000000000000000000e+00,1.000000000000000000e+00,1.000000000000000000e+00,1.000000000000000000e+00,1.000000000000000000e+00,1.000000000000000000e+00,4.547104358673095814e-01,4.527616977691650280e-01,4.328719139099120872e-01,4.268250465393066406e-01,4.217259407043457142e-01,4.247025966644287220e-01,4.495324134826660378e-01,4.471974372863769531e-01,4.465058326721191295e-01,4.557257652282714622e-01,1.000000000000000000e+00,4.508306980133056641e-01,4.510008335113525613e-01,1.000000000000000000e+00,1.000000000000000000e+00,9.695017814636230913e-01,9.377739906311035600e-01,9.080569267272948775e-01,8.801655769348144531e-01,8.539363861083983931e-01,8.292252540588378462e-01,8.059041976928711382e-01,7.838589668273925337e-01,7.629877090454101340e-01,7.431990146636963113e-01
6.193699359893798384e-01,6.350666046142577903e-01,6.515807628631591353e-01,6.689821720123291238e-01,6.873385906219482422e-01,7.067306995391845481e-01,7.272488117218017800e-01,7.489940643310546431e-01,7.720796585083007368e-01,7.966337203979492188e-01,8.228007316589355247e-01,8.507452011108398438e-01,8.806545257568358931e-01,9.127434730529785378e-01,9.472594261169433594e-01,9.844887733459473100e-01,1.000000000000000000e+00,1.000000000000000000e+00,1.000000000000000000e+00,1.000000000000000000e+00,1.000000000000000000e+00,1.000000000000000000e+00,1.000000000000000000e+00,1.000000000000000000e+00,1.000000000000000000e+00,1.000000000000000000e+00,1.000000000000000000e+00,1.000000000000000000e+00,1.000000000000000000e+00,1.000000000000000000e+00,1.000000000000000000e+00,1.000000000000000000e+00,1.000000000000000000e+00,1.000000000000000000e+00,1.000000000000000000e+00,1.000000000000000000e+00,1.000000000000000000e+00,1.000000000000000000e+00,1.000000000000000000e+00,1.000000000000000000e+00,1.000000000000000000e+00,1.000000000000000000e+00,1.000000000000000000e+00,1.000000000000000000e+00,1.000000000000000000e+00,1.000000000000000000e+00,1.000000000000000000e+00,1.000000000000000000e+00,1.000000000000000000e+00,1.000000000000000000e+00,1.000000000000000000e+00,1.000000000000000000e+00,1.000000000000000000e+00,1.000000000000000000e+00,1.000000000000000000e+00,4.508651256561279075e-01,4.492034912109375000e-01,4.347131729125976451e-01,4.234007835388183816e-01,4.183169364929198997e-01,4.202880382537841908e-01,4.490366935729980247e-01,4.470999240875244141e-01,4.463383197784424050e-01,1.000000000000000000e+00,1.000000000000000000e+00,1.000000000000000000e+00,4.652132987976074219e-01,1.000000000000000000e+00,1.000000000000000000e+00,9.695270538330078569e-01,9.377975463867187500e-01,9.080790519714355691e-01,8.801862716674804243e-01,8.539559364318847212e-01,8.292437553405761497e-01,8.059215545654296875e-01,7.838754653930664062e-01,7.630033016204833540e-01,7.432137966156006081e-01
6.193698883056640847e-01,6.350666046142577903e-01,6.515795230865478738e-01,6.689741611480712891e-01,6.873229980468750222e-01,7.067133903503417525e-01,7.272306442260741965e-01,7.489746570587157981e-01,7.720591545104980025e-01,7.966117858886718750e-01,8.227773666381835715e-01,8.507203102111816628e-01,8.806277275085448997e-01,9.127147674560547319e-01,9.472285270690917747e-01,9.844550132751465066e-01,1.000000000000000000e+00,1.000000000000000000e+00,1.000000000000000000e+00,1.000000000000000000e+00,1.000000000000000000e+00,1.000000000000000000e+00,1.000000000000000000e+00,1.000000000000000000e+00,1.000000000000000000e+00,1.000000000000000000e+00,1.000000000000000000e+00,1.000000000000000000e+00,1.000000000000000000e+00,1.000000000000000000e+00,1.000000000000000000e+00,1.000000000000000000e+00,1.000000000000000000e+00,1.000000000000000000e+00,1.000000000000000000e+00,1.000000000000000000e+00,1.000000000000000000e+00,1.000000000000000000e+00,1.000000000000000000e+00,1.000000000000000000e+00,1.000000000000000000e+00,1.000000000000000000e+00,1.000000000000000000e+00,1.000000000000000000e+00,1.000000000000000000e+00,1.000000000000000000e+00,1.000000000000000000e+00,1.000000000000000000e+00,1.000000000000000000e+00,1.000000000000000000e+00,1.000000000000000000e+00,1.000000000000000000e+00,1.000000000000000000e+00,1.000000000000000000e+00,4.655437469482421875e-01,4.525856494903564564e-01,1.000000000000000000e+00,4.373632907867431863e-01,4.208097457885742188e-01,4.149626731872558816e-01,4.158245563507080300e-01,4.488424301147461160e-01,4.465972900390625111e-01,4.463511466979980247e-01,1.000000000000000000e+00,1.000000000000000000e+00,1.000000000000000000e+00,1.000000000000000000e+00,4.492168426513671875e-01,1.000000000000000000e+00,9.695521354675292747e-01,9.378211021423339400e-01,9.081011772155761497e-01,8.802070617675781250e-01,8.539754867553710493e-01,8.292621612548828347e-01,8.059390068054199663e-01,7.838918685913085493e-01,7.630189418792724387e-01,7.432286262512206587e-01
6.193666458129882812e-01,6.350665092468261719e-01,6.515795230865478738e-01,6.689741134643554243e-01,6.873229503631591575e-01,7.067067146301269087e-01,7.272154808044433150e-01,7.489553451538085715e-01,7.720385551452636497e-01,7.965899467468261497e-01,8.227540016174316184e-01,8.506952285766601340e-01,8.806010246276855247e-01,9.126860618591308150e-01,9.471975326538085715e-01,9.844215393066406694e-01,1.000000000000000000e+00,1.000000000000000000e+00,1.000000000000000000e+00,1.000000000000000000e+00,1.000000000000000000e+00,1.000000000000000000e+00,1.000000000000000000e+00,1.000000000000000000e+00,1.000000000000000000e+00,1.000000000000000000e+00,1.000000000000000000e+00,1.000000000000000000e+00,1.000000000000000000e+00,1.000000000000000000e+00,1.000000000000000000e+00,1.000000000000000000e+00,1.000000000000000000e+00,1.000000000000000000e+00,1.000000000000000000e+00,1.000000000000000000e+00,1.000000000000000000e+00,1.000000000000000000e+00,1.000000000000000000e+00,1.000000000000000000e+00,1.000000000000000000e+00,1.000000000000000000e+00,1.000000000000000000e+00,1.000000000000000000e+00,1.000000000000000000e+00,1.000000000000000000e+00,1.000000000000000000e+00,1.000000000000000000e+00,1.000000000000000000e+00,1.000000000000000000e+00,1.000000000000000000e+00,1.000000000000000000e+00,1.000000000000000000e+00,1.000000000000000000e+00,1.000000000000000000e+00,4.487226009368896484e-01,1.000000000000000000e+00,4.429001808166503906e-01,4.205852508544921653e-01,4.121768474578857422e-01,4.110114097595214955e-01,4.184268474578857200e-01,4.462892532348632924e-01,4.452963352203369030e-01,1.000000000000000000e+00,1.000000000000000000e+00,1.000000000000000000e+00,1.000000000000000000e+00,1.000000000000000000e+00,1.000000000000000000e+00,9.695774078369140403e-01,9.378446578979492410e-01,9.081233024597168413e-01,8.802277565002440962e-01,8.539949417114257590e-01,8.292805671691894087e-01,8.059563636779785156e-01,7.839083194732665572e-01,7.630344390869140403e-01,7.432433605194092019e-01
6.193534374237060769e-01,6.350553512573242632e-01,6.515740871429442915e-01,6.689740180969238059e-01,6.873228549957275391e-01,7.067066192626952903e-01,7.272154331207275613e-01,7.489501476287842019e-01,7.720241546630859375e-01,7.965680122375488059e-01,8.227306365966796653e-01,8.506702423095703347e-01,8.805742263793945312e-01,9.126573562622070090e-01,9.471665382385253684e-01,9.843881607055664507e-01,1.000000000000000000e+00,1.000000000000000000e+00,1.000000000000000000e+00,1.000000000000000000e+00,1.000000000000000000e+00,1.000000000000000000e+00,1.000000000000000000e+00,1.000000000000000000e+00,1.000000000000000000e+00,1.000000000000000000e+00,1.000000000000000000e+00,1.000000000000000000e+00,1.000000000000000000e+00,1.000000000000000000e+00,1.000000000000000000e+00,1.000000000000000000e+00,1.000000000000000000e+00,1.000000000000000000e+00,1.000000000000000000e+00,1.000000000000000000e+00,1.000000000000000000e+00,1.000000000000000000e+00,1.000000000000000000e+00,1.000000000000000000e+00,1.000000000000000000e+00,1.000000000000000000e+00,1.000000000000000000e+00,1.000000000000000000e+00,1.000000000000000000e+00,1.000000000000000000e+00,1.000000000000000000e+00,1.000000000000000000e+00,1.000000000000000000e+00,1.000000000000000000e+00,1.000000000000000000e+00,1.000000000000000000e+00,1.000000000000000000e+00,1.000000000000000000e+00,1.000000000000000000e+00,1.000000000000000000e+00,1.000000000000000000e+00,1.000000000000000000e+00,4.233351230621337780e-01,4.108982086181640625e-01,4.091865539550781361e-01,4.117009639739990234e-01,4.458450317382812722e-01,4.441594123840332253e-01,1.000000000000000000e+00,1.000000000000000000e+00,1.000000000000000000e+00,1.000000000000000000e+00,1.000000000000000000e+00,1.000000000000000000e+00,9.696024894714355691e-01,9.378682136535644309e-01,9.081453323364258035e-01,8.802484512329101785e-01,8.540145874023437056e-01,8.292989730834960938e-01,8.059738159179687944e-01,7.839248180389404297e-01,7.630500793457031250e-01,7.432581901550292525e-01
6.193401813507080078e-01,6.350414276123046431e-01,6.515594482421874778e-01,6.689597606658935769e-01,6.873149394989013228e-01,7.067057609558105025e-01,7.272154331207275613e-01,7.489500999450683372e-01,7.720240592956543191e-01,7.965649604797363503e-01,8.227171897888183594e-01,8.506453514099121538e-01,8.805475234985351562e-01,9.126285552978515847e-01,9.471355438232421653e-01,9.843545913696288840e-01,1.000000000000000000e+00,1.000000000000000000e+00,1.000000000000000000e+00,1.000000000000000000e+00,1.000000000000000000e+00,1.000000000000000000e+00,1.000000000000000000e+00,1.000000000000000000e+00,1.000000000000000000e+00,1.000000000000000000e+00,1.000000000000000000e+00,1.000000000000000000e+00,1.000000000000000000e+00,1.000000000000000000e+00,1.000000000000000000e+00,1.000000000000000000e+00,1.000000000000000000e+00,1.000000000000000000e+00,1.000000000000000000e+00,1.000000000000000000e+00,1.000000000000000000e+00,1.000000000000000000e+00,1.000000000000000000e+00,1.000000000000000000e+00,1.000000000000000000e+00,1.000000000000000000e+00,1.000000000000000000e+00,1.000000000000000000e+00,1.000000000000000000e+00,1.000000000000000000e+00,1.000000000000000000e+00,1.000000000000000000e+00,1.000000000000000000e+00,1.000000000000000000e+00,1.000000000000000000e+00,1.000000000000000000e+00,1.000000000000000000e+00,1.000000000000000000e+00,1.000000000000000000e+00,1.000000000000000000e+00,1.000000000000000000e+00,1.000000000000000000e+00,4.260334491729736439e-01,4.115527629852294700e-01,4.095176696777343972e-01,4.123615264892578347e-01,4.449362754821777344e-01,4.439019203186035378e-01,1.000000000000000000e+00,1.000000000000000000e+00,1.000000000000000000e+00,1.000000000000000000e+00,1.000000000000000000e+00,1.000000000000000000e+00,9.696277618408203347e-01,9.378917694091797319e-01,9.081673622131347656e-01,8.802692413330077681e-01,8.540340423583984153e-01,8.293173789978027788e-01,8.059911727905273438e-01,7.839413166046143022e-01,7.630657196044922097e-01,7.432730197906494141e-01
6.193269729614258035e-01,6.350275516510009988e-01,6.515447616577147993e-01,6.689442634582519753e-01,6.872985839843750444e-01,7.066884994506835715e-01,7.272042274475097878e-01,7.489467144012451616e-01,7.720239639282227007e-01,7.965648651123047319e-01,8.227171897888183594e-01,8.506449699401855691e-01,8.805355072021484597e-01,9.126031875610352007e-01,9.471046447753905806e-01,9.843212127685546653e-01,1.000000000000000000e+00,1.000000000000000000e+00,1.000000000000000000e+00,1.000000000000000000e+00,1.000000000000000000e+00,1.000000000000000000e+00,1.000000000000000000e+00,1.000000000000000000e+00,1.000000000000000000e+00,1.000000000000000000e+00,1.000000000000000000e+00,1.000000000000000000e+00,1.000000000000000000e+00,1.000000000000000000e+00,1.000000000000000000e+00,1.000000000000000000e+00,1.000000000000000000e+00,1.000000000000000000e+00,1.000000000000000000e+00,1.000000000000000000e+00,1.000000000000000000e+00,1.000000000000000000e+00,1.000000000000000000e+00,1.000000000000000000e+00,1.000000000000000000e+00,1.000000000000000000e+00,1.000000000000000000e+00,1.000000000000000000e+00,1.000000000000000000e+00,1.000000000000000000e+00,1.000000000000000000e+00,1.000000000000000000e+00,1.000000000000000000e+00,1.000000000000000000e+00,1.000000000000000000e+00,1.000000000000000000e+00,1.000000000000000000e+00,1.000000000000000000e+00,1.000000000000000000e+00,1.000000000000000000e+00,1.000000000000000000e+00,1.000000000000000000e+00,4.241910457611083873e-01,4.149726867675781472e-01,4.135426998138427845e-01,4.485029697418213002e-01,4.447662830352783203e-01,4.439866065979004017e-01,1.000000000000000000e+00,1.000000000000000000e+00,1.000000000000000000e+00,1.000000000000000000e+00,1.000000000000000000e+00,1.000000000000000000e+00,9.696528434753417525e-01,9.379153251647949219e-01,9.081894874572753462e-01,8.802900314331054688e-01,8.540535926818847434e-01,8.293357849121093528e-01,8.060085296630858931e-01,7.839576721191405806e-01,7.630816459655761497e-01,7.432888984680176003e-01
6.193137168884277344e-01,6.350135803222656250e-01,6.515301704406738503e-01,6.689288616180419922e-01,6.872823238372802734e-01,7.066712856292725053e-01,7.271859645843505859e-01,7.489273548126220703e-01,7.720088958740234375e-01,7.965583801269531250e-01,8.227170944213867410e-01,8.506448745727539507e-01,8.805354118347168413e-01,9.126030921936034712e-01,9.470946311950683150e-01,9.842959403991698997e-01,1.000000000000000000e+00,1.000000000000000000e+00,1.000000000000000000e+00,1.000000000000000000e+00,1.000000000000000000e+00,1.000000000000000000e+00,1.000000000000000000e+00,1.000000000000000000e+00,1.000000000000000000e+00,1.000000000000000000e+00,1.000000000000000000e+00,1.000000000000000000e+00,1.000000000000000000e+00,1.000000000000000000e+00,1.000000000000000000e+00,1.000000000000000000e+00,1.000000000000000000e+00,1.000000000000000000e+00,1.000000000000000000e+00,1.000000000000000000e+00,1.000000000000000000e+00,1.000000000000000000e+00,1.000000000000000000e+00,1.000000000000000000e+00,1.000000000000000000e+00,1.000000000000000000e+00,1.000000000000000000e+00,1.000000000000000000e+00,1.000000000000000000e+00,1.000000000000000000e+00,1.000000000000000000e+00,1.000000000000000000e+00,1.000000000000000000e+00,1.000000000000000000e+00,1.000000000000000000e+00,1.000000000000000000e+00,1.000000000000000000e+00,1.000000000000000000e+00,1.000000000000000000e+00,1.000000000000000000e+00,1.000000000000000000e+00,1.000000000000000000e+00,4.269528388977050781e-01,4.203026771545410045e-01,4.205470085144042969e-01,4.499059677124023215e-01,4.470184326171874889e-01,1.000000000000000000e+00,1.000000000000000000e+00,1.000000000000000000e+00,1.000000000000000000e+00,1.000000000000000000e+00,1.000000000000000000e+00,1.000000000000000000e+00,9.696781158447265181e-01,9.379388809204101118e-01,9.082116127014160378e-01,8.803108215332031694e-01,8.540731430053710715e-01,8.293542861938476562e-01,8.060268402099609597e-01,7.839758396148681641e-01,7.630991935729980469e-01,7.433055877685547097e-01
6.193005084991455300e-01,6.349997043609618697e-01,6.515154838562011719e-01,6.689134120941162553e-01,6.872660160064697488e-01,7.066540241241454634e-01,7.271677494049072488e-01,7.489080429077148438e-01,7.719883441925048384e-01,7.965364933013916460e-01,8.226970672607422097e-01,8.506344795227051003e-01,8.805353164672851118e-01,9.126029014587402344e-01,9.470946311950683150e-01,9.842957496643066628e-01,1.000000000000000000e+00,1.000000000000000000e+00,1.000000000000000000e+00,1.000000000000000000e+00,1.000000000000000000e+00,1.000000000000000000e+00,1.000000000000000000e+00,1.000000000000000000e+00,1.000000000000000000e+00,1.000000000000000000e+00,1.000000000000000000e+00,1.000000000000000000e+00,1.000000000000000000e+00,1.000000000000000000e+00,1.000000000000000000e+00,1.000000000000000000e+00,1.000000000000000000e+00,1.000000000000000000e+00,1.000000000000000000e+00,1.000000000000000000e+00,1.000000000000000000e+00,1.000000000000000000e+00,1.000000000000000000e+00,1.000000000000000000e+00,1.000000000000000000e+00,1.000000000000000000e+00,1.000000000000000000e+00,1.000000000000000000e+00,1.000000000000000000e+00,1.000000000000000000e+00,1.000000000000000000e+00,1.000000000000000000e+00,1.000000000000000000e+00,1.000000000000000000e+00,1.000000000000000000e+00,1.000000000000000000e+00,1.000000000000000000e+00,1.000000000000000000e+00,1.000000000000000000e+00,1.000000000000000000e+00,1.000000000000000000e+00,1.000000000000000000e+00,4.308481216430664062e-01,4.255618095397949441e-01,4.302263259887695312e-01,4.541633605957031139e-01,4.518739223480224831e-01,1.000000000000000000e+00,1.000000000000000000e+00,1.000000000000000000e+00,1.000000000000000000e+00,1.000000000000000000e+00,1.000000000000000000e+00,1.000000000000000000e+00,9.697032928466796653e-01,9.379624366760254128e-01,9.082337379455566184e-01,8.803319931030273438e-01,8.540941238403320090e-01,8.293749809265136275e-01,8.060463905334472878e-01,7.839944362640380859e-01,7.631167888641356978e-01,7.433222293853759544e-01
6.192872524261474609e-01,6.349857807159423606e-01,6.515008926391601118e-01,6.688980102539062722e-01,6.872497558593749778e-01,7.066368579864501509e-01,7.271494865417480469e-01,7.488886356353759988e-01,7.719677448272704856e-01,7.965146064758300559e-01,8.226737022399902566e-01,8.506094932556151900e-01,8.805091857910156694e-01,9.125874519348144975e-01,9.470912933349608931e-01,9.842957496643066628e-01,1.000000000000000000e+00,1.000000000000000000e+00,1.000000000000000000e+00,1.000000000000000000e+00,1.000000000000000000e+00,1.000000000000000000e+00,1.000000000000000000e+00,1.000000000000000000e+00,1.000000000000000000e+00,1.000000000000000000e+00,1.000000000000000000e+00,1.000000000000000000e+00,1.000000000000000000e+00,1.000000000000000000e+00,1.000000000000000000e+00,1.000000000000000000e+00,1.000000000000000000e+00,1.000000000000000000e+00,1.000000000000000000e+00,1.000000000000000000e+00,1.000000000000000000e+00,1.000000000000000000e+00,1.000000000000000000e+00,1.000000000000000000e+00,1.000000000000000000e+00,1.000000000000000000e+00,1.000000000000000000e+00,1.000000000000000000e+00,1.000000000000000000e+00,1.000000000000000000e+00,1.000000000000000000e+00,1.000000000000000000e+00,1.000000000000000000e+00,1.000000000000000000e+00,1.000000000000000000e+00,1.000000000000000000e+00,1.000000000000000000e+00,1.000000000000000000e+00,1.000000000000000000e+00,1.000000000000000000e+00,1.000000000000000000e+00,4.456897735595702903e-01,4.341774940490722434e-01,4.291391849517822155e-01,4.347059726715087891e-01,4.595288276672363503e-01,4.627834320068359153e-01,1.000000000000000000e+00,1.000000000000000000e+00,1.000000000000000000e+00,1.000000000000000000e+00,1.000000000000000000e+00,1.000000000000000000e+00,1.000000000000000000e+00,9.697284698486328125e-01,9.379872322082519753e-01,9.082580566406249778e-01,8.803554534912109153e-01,8.541161537170409712e-01,8.293957710266113281e-01,8.060660362243652344e-01,7.840129375457763894e-01,7.631344318389892134e-01,7.433389663696289285e-01
6.192740440368652566e-01,6.349719047546387163e-01,6.514862060546875444e-01,6.688825607299804243e-01,6.872334003448485884e-01,7.066195964813232200e-01,7.271312713623047097e-01,7.488693237304687722e-01,7.719472408294677512e-01,7.964927673339843306e-01,8.226503372192383035e-01,8.505845069885253906e-01,8.804823875427245650e-01,9.125587463378905806e-01,9.470603942871094194e-01,9.842735290527343528e-01,1.000000000000000000e+00,1.000000000000000000e+00,1.000000000000000000e+00,1.000000000000000000e+00,1.000000000000000000e+00,1.000000000000000000e+00,1.000000000000000000e+00,1.000000000000000000e+00,1.000000000000000000e+00,1.000000000000000000e+00,1.000000000000000000e+00,1.000000000000000000e+00,1.000000000000000000e+00,1.000000000000000000e+00,1.000000000000000000e+00,1.000000000000000000e+00,1.000000000000000000e+00,1.000000000000000000e+00,1.000000000000000000e+00,1.000000000000000000e+00,1.000000000000000000e+00,1.000000000000000000e+00,1.000000000000000000e+00,1.000000000000000000e+00,1.000000000000000000e+00,1.000000000000000000e+00,1.000000000000000000e+00,1.000000000000000000e+00,1.000000000000000000e+00,1.000000000000000000e+00,1.000000000000000000e+00,1.000000000000000000e+00,1.000000000000000000e+00,1.000000000000000000e+00,1.000000000000000000e+00,1.000000000000000000e+00,1.000000000000000000e+00,1.000000000000000000e+00,1.000000000000000000e+00,1.000000000000000000e+00,1.000000000000000000e+00,4.493057727813720703e-01,4.376999855041504017e-01,4.338962554931640736e-01,4.661567687988281139e-01,4.629308223724365456e-01,1.000000000000000000e+00,1.000000000000000000e+00,1.000000000000000000e+00,1.000000000000000000e+00,1.000000000000000000e+00,1.000000000000000000e+00,1.000000000000000000e+00,1.000000000000000000e+00,9.697568893432617632e-01,9.380137443542480025e-01,9.082829475402831587e-01,8.803788185119628684e-01,8.541382789611816628e-01,8.294165611267090288e-01,8.060856819152831809e-01,7.840315341949463113e-01,7.631519317626953569e-01,7.433555603027344194e-01
6.192607879638671875e-01,6.349579334259033425e-01,6.514716148376464844e-01,6.688671588897705522e-01,6.872171401977539285e-01,7.066023826599121538e-01,7.271130084991455078e-01,7.488499641418456809e-01,7.719266414642333984e-01,7.964708328247069868e-01,8.226270675659179688e-01,8.505595207214355913e-01,8.804556846618651900e-01,9.125299453735351562e-01,9.470293998718262163e-01,9.842400550842285156e-01,1.000000000000000000e+00,1.000000000000000000e+00,1.000000000000000000e+00,1.000000000000000000e+00,1.000000000000000000e+00,1.000000000000000000e+00,1.000000000000000000e+00,1.000000000000000000e+00,1.000000000000000000e+00,1.000000000000000000e+00,1.000000000000000000e+00,1.000000000000000000e+00,1.000000000000000000e+00,1.000000000000000000e+00,1.000000000000000000e+00,1.000000000000000000e+00,1.000000000000000000e+00,1.000000000000000000e+00,1.000000000000000000e+00,1.000000000000000000e+00,1.000000000000000000e+00,1.000000000000000000e+00,1.000000000000000000e+00,1.000000000000000000e+00,1.000000000000000000e+00,1.000000000000000000e+00,1.000000000000000000e+00,1.000000000000000000e+00,1.000000000000000000e+00,1.000000000000000000e+00,1.000000000000000000e+00,1.000000000000000000e+00,1.000000000000000000e+00,1.000000000000000000e+00,1.000000000000000000e+00,1.000000000000000000e+00,1.000000000000000000e+00,1.000000000000000000e+00,1.000000000000000000e+00,1.000000000000000000e+00,1.000000000000000000e+00,4.530953407287597878e-01,4.412800788879394642e-01,4.385583877563476451e-01,4.680624485015869030e-01,4.649285316467285378e-01,1.000000000000000000e+00,1.000000000000000000e+00,1.000000000000000000e+00,1.000000000000000000e+00,1.000000000000000000e+00,1.000000000000000000e+00,1.000000000000000000e+00,1.000000000000000000e+00,9.697853088378906028e-01,9.380403518676757590e-01,9.083078384399414507e-01,8.804022789001464400e-01,8.541602134704590066e-01,8.294373512268066184e-01,8.061053276062011275e-01,7.840501308441162331e-01,7.631695747375488725e-01,7.433722972869872825e-01
6.192475795745849831e-01,6.349440574645995872e-01,6.514569282531738059e-01,6.688516616821289507e-01,6.872008323669434038e-01,7.065851211547851118e-01,7.270947933197021706e-01,7.488306522369384544e-01,7.719061374664306641e-01,7.964489936828613725e-01,8.226037025451660156e-01,8.505346298217772993e-01,8.804288864135741965e-01,9.125012397766113503e-01,9.469985008239746316e-01,9.842066764831542969e-01,1.000000000000000000e+00,1.000000000000000000e+00,1.000000000000000000e+00,1.000000000000000000e+00,1.000000000000000000e+00,1.000000000000000000e+00,1.000000000000000000e+00,1.000000000000000000e+00,1.000000000000000000e+00,1.000000000000000000e+00,1.000000000000000000e+00,1.000000000000000000e+00,1.000000000000000000e+00,1.000000000000000000e+00,1.000000000000000000e+00,1.000000000000000000e+00,1.000000000000000000e+00,1.000000000000000000e+00,1.000000000000000000e+00,1.000000000000000000e+00,1.000000000000000000e+00,1.000000000000000000e+00,1.000000000000000000e+00,1.000000000000000000e+00,1.000000000000000000e+00,1.000000000000000000e+00,1.000000000000000000e+00,1.000000000000000000e+00,1.000000000000000000e+00,1.000000000000000000e+00,1.000000000000000000e+00,1.000000000000000000e+00,1.000000000000000000e+00,1.000000000000000000e+00,1.000000000000000000e+00,1.000000000000000000e+00,1.000000000000000000e+00,1.000000000000000000e+00,1.000000000000000000e+00,1.000000000000000000e+00,1.000000000000000000e+00,4.574149608612060325e-01,4.457243442535400169e-01,4.435039043426513561e-01,4.699838161468505859e-01,4.681602001190185436e-01,1.000000000000000000e+00,1.000000000000000000e+00,1.000000000000000000e+00,1.000000000000000000e+00,1.000000000000000000e+00,1.000000000000000000e+00,1.000000000000000000e+00,1.000000000000000000e+00,9.698136329650879350e-01,9.380669593811035156e-01,9.083328247070312500e-01,8.804257392883301225e-01,8.541822433471679688e-01,8.294581413269043191e-01,8.061248779296874556e-01,7.840686321258545366e-01,7.631871223449706587e-01,7.433889865875243919e-01
6.192343235015869141e-01,6.349301338195800781e-01,6.514423370361328569e-01,6.688362598419189675e-01,6.871845722198486328e-01,7.065679550170897993e-01,7.270765304565429688e-01,7.488112926483154741e-01,7.718855381011963113e-01,7.964270591735840288e-01,8.225803375244140625e-01,8.505096435546875000e-01,8.804021835327148215e-01,9.124725341796875444e-01,9.469676017761230469e-01,9.841732025146484597e-01,1.000000000000000000e+00,1.000000000000000000e+00,1.000000000000000000e+00,1.000000000000000000e+00,1.000000000000000000e+00,1.000000000000000000e+00,1.000000000000000000e+00,1.000000000000000000e+00,1.000000000000000000e+00,1.000000000000000000e+00,1.000000000000000000e+00,1.000000000000000000e+00,1.000000000000000000e+00,1.000000000000000000e+00,1.000000000000000000e+00,1.000000000000000000e+00,1.000000000000000000e+00,1.000000000000000000e+00,1.000000000000000000e+00,1.000000000000000000e+00,1.000000000000000000e+00,1.000000000000000000e+00,1.000000000000000000e+00,1.000000000000000000e+00,1.000000000000000000e+00,1.000000000000000000e+00,1.000000000000000000e+00,1.000000000000000000e+00,1.000000000000000000e+00,1.000000000000000000e+00,1.000000000000000000e+00,1.000000000000000000e+00,1.000000000000000000e+00,1.000000000000000000e+00,1.000000000000000000e+00,1.000000000000000000e+00,1.000000000000000000e+00,1.000000000000000000e+00,1.000000000000000000e+00,1.000000000000000000e+00,1.000000000000000000e+00,4.618177413940429688e-01,4.499838829040527233e-01,4.486717700958252064e-01,4.720627784729004017e-01,1.000000000000000000e+00,1.000000000000000000e+00,1.000000000000000000e+00,1.000000000000000000e+00,1.000000000000000000e+00,1.000000000000000000e+00,1.000000000000000000e+00,1.000000000000000000e+00,1.000000000000000000e+00,9.698420524597167747e-01,9.380934715270996538e-01,9.083577156066894309e-01,8.804491043090820757e-01,8.542043685913085493e-01,8.294788360595702903e-01,8.061445236206055132e-01,7.840872287750244585e-01,7.632047176361084206e-01,7.434056282043457475e-01
6.192211151123047097e-01,6.349162578582763228e-01,6.514276504516601785e-01,6.688208103179931197e-01,6.871682167053222434e-01,7.065506935119628684e-01,7.270583152770996316e-01,7.487919807434082475e-01,7.718650341033935769e-01,7.964052200317383035e-01,8.225569725036621094e-01,8.504846572875977007e-01,8.803754806518554465e-01,9.124438285827636275e-01,9.469366073608398438e-01,9.841398239135742410e-01,1.000000000000000000e+00,1.000000000000000000e+00,1.000000000000000000e+00,1.000000000000000000e+00,1.000000000000000000e+00,1.000000000000000000e+00,1.000000000000000000e+00,1.000000000000000000e+00,1.000000000000000000e+00,1.000000000000000000e+00,1.000000000000000000e+00,1.000000000000000000e+00,1.000000000000000000e+00,1.000000000000000000e+00,1.000000000000000000e+00,1.000000000000000000e+00,1.000000000000000000e+00,1.000000000000000000e+00,1.000000000000000000e+00,1.000000000000000000e+00,1.000000000000000000e+00,1.000000000000000000e+00,1.000000000000000000e+00,1.000000000000000000e+00,1.000000000000000000e+00,1.000000000000000000e+00,1.000000000000000000e+00,1.000000000000000000e+00,1.000000000000000000e+00,1.000000000000000000e+00,1.000000000000000000e+00,1.000000000000000000e+00,1.000000000000000000e+00,1.000000000000000000e+00,1.000000000000000000e+00,1.000000000000000000e+00,1.000000000000000000e+00,1.000000000000000000e+00,1.000000000000000000e+00,1.000000000000000000e+00,1.000000000000000000e+00,1.000000000000000000e+00,4.543256759643554688e-01,4.549852848052978738e-01,4.742551326751708873e-01,1.000000000000000000e+00,1.000000000000000000e+00,1.000000000000000000e+00,1.000000000000000000e+00,1.000000000000000000e+00,1.000000000000000000e+00,1.000000000000000000e+00,1.000000000000000000e+00,1.000000000000000000e+00,9.698704719543457253e-01,9.381200790405272993e-01,9.083826065063476118e-01,8.804724693298340288e-01,8.542263984680176225e-01,8.294996261596679910e-01,8.061641693115234597e-01,7.841058254241943803e-01,7.632223606109619363e-01,7.434223651885986106e-01
6.192078590393066406e-01,6.349023342132568137e-01,6.514130592346191184e-01,6.688054084777832475e-01,6.871520042419433372e-01,7.065334796905518022e-01,7.270400524139404297e-01,7.487725734710692915e-01,7.718444347381592241e-01,7.963832855224609597e-01,8.225337028503417747e-01,8.504597663879394087e-01,8.803486824035644531e-01,9.124151229858398215e-01,9.469057083129882590e-01,9.710179328918456809e-01,9.707766532897948997e-01,9.705356597900390847e-01,9.702946662902831587e-01,9.700537681579589622e-01,9.698131561279297319e-01,9.695725440979003906e-01,9.693320274353027788e-01,9.690917015075684038e-01,9.688514709472656472e-01,9.686112403869628906e-01,9.683712959289551003e-01,9.681314468383789285e-01,9.678915977478027566e-01,9.676519393920898215e-01,9.674124717712402344e-01,9.671730995178222656e-01,9.669337272644042969e-01,9.666945457458495650e-01,9.664555549621581809e-01,9.662165641784667969e-01,9.659777641296386497e-01,9.657390594482422319e-01,9.655004501342773215e-01,9.652620315551757590e-01,9.650237083435058150e-01,9.647853851318359819e-01,9.645472526550292747e-01,9.643093109130859153e-01,9.640713691711425559e-01,9.638336181640625444e-01,9.635960578918456587e-01,9.633584976196288840e-01,9.631210327148437278e-01,9.628837585449219194e-01,9.626465797424316184e-01,9.624094963073730469e-01,9.621726036071777122e-01,9.619357109069823775e-01,9.616990089416503906e-01,9.614624977111816406e-01,9.612258911132812722e-01,9.609895706176757590e-01,4.598269462585449219e-01,4.800354003906249778e-01,4.800899505615234264e-01,9.600453376770019531e-01,9.598095893859863725e-01,9.595738410949706809e-01,9.593383789062499556e-01,9.591029167175293413e-01,9.588675498962402344e-01,9.586323738098144753e-01,9.583972930908203347e-01,9.581623077392578125e-01,9.579275131225586382e-01,9.381465911865234375e-01,9.084074974060059038e-01,8.804959297180176003e-01,8.542484283447265847e-01,8.295204162597655806e-01,8.061838150024414062e-01,7.841243267059325728e-01,7.632398605346679688e-01,7.434390544891357200e-01
6.191946983337401900e-01,6.348884582519531694e-01,6.513983726501464400e-01,6.687899589538573997e-01,6.871356487274169478e-01,7.065162181854247603e-01,7.270218372344970925e-01,7.487533092498779297e-01,7.542489528656005637e-01,7.541034221649169922e-01,7.539579391479491743e-01,7.538125514984130859e-01,7.536671161651611328e-01,7.535218238830566628e-01,7.533765792846679465e-01,7.532313823699950950e-01,7.530862331390381081e-01,7.529411792755127397e-01,7.527960777282715066e-01,7.526510715484618919e-01,7.525062084197997603e-01,7.523613452911377397e-01,7.522165298461913618e-01,7.520718097686767134e-01,7.519270420074463113e-01,7.517824172973632812e-01,7.516378402709961160e-01,7.514933109283447044e-01,7.513488292694091575e-01,7.512044429779052290e-01,7.510601043701171653e-01,7.509157180786132368e-01,7.507714748382567915e-01,7.506272792816162109e-01,7.504831314086913840e-01,7.503390789031982866e-01,7.501950263977050781e-01,7.500510215759277344e-01,7.499071121215820090e-01,7.497632503509521484e-01,7.496194362640380415e-01,7.494757175445556641e-01,7.493319988250732866e-01,7.491882801055907981e-01,7.490447044372559038e-01,7.489011764526367632e-01,7.487576961517333762e-01,7.486143112182617188e-01,7.484709262847900613e-01,7.483275413513184038e-01,7.481842994689941184e-01,7.480411052703856978e-01,7.478980064392090066e-01,7.477549076080322044e-01,7.476119041442871316e-01,7.474689006805419478e-01,7.473258972167968750e-01,7.471830368041991743e-01,4.552544116973876731e-01,4.532614231109619030e-01,7.467547893524170144e-01,7.466121196746826616e-01,7.464694499969481978e-01,7.463269233703613281e-01,7.461844444274902122e-01,7.460420131683349609e-01,7.458996295928954634e-01,7.457572937011718306e-01,7.456149578094481978e-01,7.454727172851562944e-01,7.453305721282958984e-01,7.451884746551513672e-01,7.450464248657227007e-01,7.449044227600097878e-01,7.447623729705810103e-01,7.446205139160155806e-01,7.444786548614501509e-01,7.443368911743164507e-01,7.441951751708983931e-01,7.434556961059570757e-01
6.166972637176513228e-01,6.165999412536621316e-01,6.165026187896728294e-01,6.164053916931152566e-01,6.163082122802734375e-01,6.162109851837158647e-01,6.161138534545897993e-01,6.160167694091797097e-01,6.159196853637695090e-01,6.158226490020751731e-01,6.157256126403808372e-01,6.156285762786865012e-01,6.155316352844237837e-01,6.154346942901611772e-01,6.153378009796142134e-01,6.152409553527832253e-01,6.151441097259521262e-01,6.150473117828368919e-01,6.149505138397216575e-01,6.148537635803222878e-01,6.147570610046386719e-01,6.146603584289550559e-01,6.145637035369873047e-01,6.144670963287353072e-01,6.143704414367675559e-01,6.142738819122314231e-01,6.141773700714111550e-01,6.140808582305907759e-01,6.139843940734863725e-01,6.138879776000976118e-01,6.137915134429932085e-01,6.136951446533203125e-01,6.135987758636474165e-01,6.135024547576903853e-01,6.134061813354492188e-01,6.133099555969238059e-01,6.132136344909667747e-01,6.131174564361572266e-01,6.130213260650634322e-01,6.129251956939697488e-01,6.128290653228759544e-01,6.127330303192138894e-01,6.126368999481200950e-01,6.125409126281737837e-01,6.124449253082275835e-01,6.123489379882812722e-01,6.122530460357665794e-01,6.121571540832519975e-01,6.120612621307373047e-01,6.119653701782226118e-01,6.118695735931396484e-01,6.117738246917724387e-01,6.116780757904052290e-01,6.115823745727538840e-01,6.114866733551025391e-01,6.113909721374511941e-01,6.112953662872314675e-01,4.576530456542968750e-01,4.497507095336913951e-01,4.471724987030029075e-01,6.109131336212157981e-01,6.108176231384276900e-01,6.107221603393554465e-01,6.106267452239990678e-01,6.105313777923584428e-01,6.104360103607178178e-01,6.103406906127929465e-01,6.102453231811523215e-01,6.101500988006591797e-01,6.100548267364501731e-01,6.099596500396728960e-01,6.098644733428955078e-01,6.097692966461181197e-01,6.096742153167724609e-01,6.095790863037109375e-01,6.094840049743652788e-01,6.093889713287353738e-01,6.092939853668213335e-01,6.091989994049071822e-01,6.091040611267090066e-01
5.210212707519531472e-01,5.209518432617187278e-01,5.208823680877685547e-01,5.208129405975341353e-01,5.207435607910155806e-01,5.206741809844970259e-01,5.206048488616943359e-01,5.205354690551757812e-01,5.204661369323730913e-01,5.203968524932861550e-01,5.203275203704833540e-01,5.202582836151122825e-01,5.201890468597412109e-01,5.201198101043701394e-01,5.200506210327148215e-01,5.199814319610596147e-01,5.199122428894042969e-01,5.198430538177489790e-01,5.197739124298095259e-01,5.197048187255859375e-01,5.196357250213623491e-01,5.195666313171386497e-01,5.194975852966308150e-01,5.194284915924072266e-01,5.193594932556152566e-01,5.192904949188232866e-01,5.192214965820312056e-01,5.191524982452392356e-01,5.190835952758788840e-01,5.190145969390869141e-01,5.189456939697265625e-01,5.188767910003662109e-01,5.188079357147217241e-01,5.187390804290771262e-01,5.186702251434326394e-01,5.186013698577880415e-01,5.185325622558594194e-01,5.184638023376464400e-01,5.183949947357178178e-01,5.183262825012207031e-01,5.182575225830078347e-01,5.181888103485107200e-01,5.181200981140137163e-01,5.180514335632324663e-01,5.179827690124512163e-01,5.179141521453857200e-01,5.178454875946044700e-01,5.177769184112548384e-01,5.177083015441894531e-01,5.176397323608398215e-01,5.175711631774901900e-01,5.175026416778564231e-01,5.174341201782226562e-01,5.173656463623046431e-01,5.172971248626708762e-01,5.172286987304687278e-01,5.171602249145508257e-01,5.170917987823486772e-01,4.441855907440185325e-01,4.393282413482665905e-01,4.644345760345459095e-01,5.168182849884033203e-01,5.167499542236327903e-01,5.166816711425781250e-01,5.166133403778075950e-01,5.165450572967529297e-01,5.164768218994140181e-01,5.164085388183593528e-01,5.163403034210205522e-01,5.162721157073975053e-01,5.162039279937744585e-01,5.161357402801514116e-01,5.160676002502441184e-01,5.159994602203369363e-01,5.159313201904296431e-01,5.158632278442383257e-01,5.157951354980468972e-01,5.157270908355713335e-01,5.156590461730956587e-01,5.155910015106200950e-01
4.510450363159179688e-01,4.509929656982422097e-01,4.509409427642822044e-01,4.508889198303222545e-01,4.508368968963623047e-01,4.507848739624023549e-01,4.507328987121582142e-01,4.506809234619140736e-01,4.506289482116699330e-01,4.505769729614257924e-01,4.505250453948974609e-01,4.504731178283691295e-01,4.504211902618407981e-01,4.503693103790283314e-01,4.503173828125000000e-01,4.502655029296874778e-01,4.502136230468750111e-01,4.501617908477782981e-01,4.501099109649658314e-01,4.500580787658691184e-01,4.500062942504882701e-01,4.499544620513916127e-01,4.499026775360107644e-01,4.498508930206298606e-01,4.497991085052490123e-01,4.497473239898681641e-01,4.496955871582031250e-01,4.496438503265380859e-01,4.495921134948730469e-01,4.495404243469238170e-01,4.494886875152587780e-01,4.494369983673095481e-01,4.493853569030761830e-01,4.493336677551269531e-01,4.492820262908935325e-01,4.492303848266601674e-01,4.491787433624267467e-01,4.491271018981933816e-01,4.490755081176757701e-01,4.490239143371582142e-01,4.489723205566406028e-01,4.489207267761230469e-01,4.488691806793213002e-01,4.488176345825195535e-01,4.487660884857177512e-01,4.487145900726318137e-01,4.486630916595458762e-01,4.486115455627441295e-01,4.485600471496581920e-01,4.485085964202880637e-01,4.484571456909179910e-01,4.484056949615478627e-01,4.483542442321777344e-01,4.483027935028076061e-01,4.482513904571533425e-01,4.481999874114990234e-01,4.481485843658447044e-01,4.480971813201904408e-01,4.480458259582519309e-01,4.479944705963134766e-01,4.479431152343750222e-01,4.478917598724365123e-01,4.478404521942138672e-01,4.477891445159912220e-01,4.477378368377685769e-01,4.476865768432617410e-01,4.476352691650390403e-01,4.475840091705322044e-01,4.475327491760253684e-01,4.474814891815185325e-01,4.474302768707275613e-01,4.473790645599365345e-01,4.473278522491455078e-01,4.472766399383544811e-01,4.472254753112793191e-01,4.471743106842041016e-01,4.471231460571288840e-01,4.470719814300537220e-01,4.470208168029785045e-01,4.469696998596191517e-01
3.976396322250366211e-01,3.975992202758789062e-01,3.975587368011474498e-01,3.975183486938476674e-01,3.974778890609741433e-01,3.974374532699584961e-01,3.973970651626587136e-01,3.973566293716430664e-01,3.973162651062011608e-01,3.972758531570434459e-01,3.972354650497436634e-01,3.971951246261596902e-01,3.971547365188598522e-01,3.971143722534179465e-01,3.970740318298339733e-01,3.970336914062500000e-01,3.969933271408080944e-01,3.969530344009399303e-01,3.969127178192138894e-01,3.968724250793457253e-01,3.968321084976196289e-01,3.967917919158935325e-01,3.967515468597412331e-01,3.967112541198730691e-01,3.966710090637207142e-01,3.966307401657104270e-01,3.965905189514160045e-01,3.965502500534057728e-01,3.965100049972534180e-01,3.964698076248168723e-01,3.964295625686645730e-01,3.963893890380859597e-01,3.963491678237914817e-01,3.963089942932128684e-01,3.962687969207763783e-01,3.962285995483398326e-01,3.961884498596191517e-01,3.961482763290405384e-01,3.961081504821777344e-01,3.960680007934570535e-01,3.960278272628784402e-01,3.959877252578735130e-01,3.959475994110107644e-01,3.959075212478637695e-01,3.958673954010009655e-01,3.958273172378540261e-01,3.957872152328490989e-01,3.957471132278442272e-01,3.957070827484130970e-01,3.956669807434082253e-01,3.956269502639770397e-01,3.955868959426879772e-01,3.955468893051147239e-01,3.955068349838256614e-01,3.954667806625365989e-01,3.954267978668212780e-01,3.953867912292480247e-01,3.953468084335327037e-01,3.953068017959594505e-01,3.952667951583862527e-01,3.952268600463867410e-01,3.951868772506713645e-01,3.951469421386718528e-01,3.951069593429565319e-01,3.950670480728149525e-01,3.950271129608154408e-01,3.949871540069579967e-01,3.949472665786742942e-01,3.949073314666747825e-01,3.948674678802490123e-01,3.948275566101074330e-01,3.947876453399657981e-01,3.947478055953979603e-01,3.947079181671142578e-01,3.946680784225463645e-01,3.946282148361205944e-01,3.945883989334106334e-01,3.945485353469848633e-01,3.945086956024169700e-01,3.944688796997070090e-01
3.555421829223632812e-01,3.555098533630370872e-01,3.554774999618530162e-01,3.554451704025268777e-01,3.554128646850586160e-01,3.553805351257324219e-01,3.553482055664062278e-01,3.553158998489379661e-01,3.552835941314697044e-01,3.552513122558593750e-01,3.552190065383911133e-01,3.551867246627807839e-01,3.551544666290283314e-01,3.551221847534179465e-01,3.550899028778076172e-01,3.550576448440551647e-01,3.550253868103027122e-01,3.549931526184081920e-01,3.549608945846557395e-01,3.549286365509033425e-01,3.548964262008666992e-01,3.548641920089721791e-01,3.548319578170776589e-01,3.547997713088989480e-01,3.547675371170043723e-01,3.547353744506835938e-01,3.547031641006469505e-01,3.546709537506103627e-01,3.546387910842895286e-01,3.546065807342529408e-01,3.545744419097900391e-01,3.545422554016113281e-01,3.545101165771484264e-01,3.544779539108276478e-01,3.544457912445068137e-01,3.544136524200439675e-01,3.543815135955810658e-01,3.543493986129760964e-01,3.543172597885131947e-01,3.542851209640502930e-01,3.542530298233032005e-01,3.542208909988403542e-01,3.541888236999511941e-01,3.541567087173461692e-01,3.541246414184570090e-01,3.540925264358520397e-01,3.540604352951050027e-01,3.540283918380737194e-01,3.539963006973266824e-01,3.539642572402953991e-01,3.539321899414062389e-01,3.539001703262328880e-01,3.538681030273437278e-01,3.538360357284545676e-01,3.538040399551391491e-01,3.537719964981079213e-01,3.537400007247925027e-01,3.537079572677612194e-01,3.536759376525878684e-01,3.536439418792724498e-01,3.536119461059570312e-01,3.535799741744994895e-01,3.535479545593261941e-01,3.535160064697265847e-01,3.534840106964111106e-01,3.534520387649536244e-01,3.534200906753540150e-01,3.533881187438964733e-01,3.533561944961547963e-01,3.533242225646972545e-01,3.532922744750976451e-01,3.532603502273559681e-01,3.532284021377563588e-01,3.531965017318725586e-01,3.531645774841308816e-01,3.531326770782470814e-01,3.531007766723632812e-01,3.530688524246216042e-01,3.530369758605956809e-01,3.530050754547119363e-01
3.215049743652343972e-01,3.214785099029541238e-01,3.214520692825317272e-01,3.214256286621093861e-01,3.213991880416869895e-01,3.213727712631225808e-01,3.213463544845581166e-01,3.213199138641357200e-01,3.212935209274291881e-01,3.212670803070068470e-01,3.212406873703003152e-01,3.212142705917358509e-01,3.211878776550293191e-01,3.211614847183227317e-01,3.211350917816161998e-01,3.211086988449096680e-01,3.210823297500610130e-01,3.210559368133544811e-01,3.210295915603637584e-01,3.210031986236572266e-01,3.209768295288085715e-01,3.209504842758178489e-01,3.209241151809692494e-01,3.208977460861205944e-01,3.208714246749878041e-01,3.208450555801391491e-01,3.208187103271484264e-01,3.207923889160156361e-01,3.207660436630249134e-01,3.207397460937500000e-01,3.207134246826172097e-01,3.206871032714843639e-01,3.206607818603515736e-01,3.206344604492187278e-01,3.206081867218017467e-01,3.205818653106689564e-01,3.205555915832519753e-01,3.205292940139770619e-01,3.205030202865600808e-01,3.204767227172851674e-01,3.204504251480102539e-01,3.204241752624511497e-01,3.203979015350341686e-01,3.203716516494751199e-01,3.203453779220580833e-01,3.203191041946411022e-01,3.202928781509399303e-01,3.202666044235229492e-01,3.202404022216797097e-01,3.202141284942626731e-01,3.201879262924194336e-01,3.201616764068603294e-01,3.201354503631591575e-01,3.201092481613159180e-01,3.200829982757568137e-01,3.200568199157715066e-01,3.200305938720703347e-01,3.200043678283691628e-01,3.199781894683838002e-01,3.199519634246826283e-01,3.199258089065551980e-01,3.198996067047119030e-01,3.198734283447265403e-01,3.198472499847412331e-01,3.198210477828979381e-01,3.197948932647705078e-01,3.197687149047851451e-01,3.197425842285156472e-01,3.197164058685302845e-01,3.196902751922607311e-01,3.196641206741333008e-01,3.196379661560058705e-01,3.196118354797363170e-01,3.195856809616088867e-01,3.195595741271972656e-01,3.195334196090698353e-01,3.195072889328002819e-01,3.194812059402465931e-01,3.194550752639770397e-01,3.194289684295654186e-01
2.934153318405151589e-01,2.933933258056640736e-01,2.933712959289550559e-01,2.933492898941040261e-01,2.933272600173950084e-01,2.933052301406860463e-01,2.932832479476928933e-01,2.932612180709838756e-01,2.932392120361327903e-01,2.932172060012817605e-01,2.931951999664306752e-01,2.931732177734375222e-01,2.931512355804443137e-01,2.931292295455932839e-01,2.931072473526000755e-01,2.930852651596069225e-01,2.930632829666137695e-01,2.930413246154784934e-01,2.930193424224853405e-01,2.929973840713501199e-01,2.929754018783569114e-01,2.929534435272216908e-01,2.929314851760864147e-01,2.929095268249511941e-01,2.928875684738159180e-01,2.928656339645385742e-01,2.928436756134032981e-01,2.928217172622680775e-01,2.927997827529907338e-01,2.927778482437133900e-01,2.927559375762939231e-01,2.927340030670165794e-01,2.927120447158813588e-01,2.926901578903198242e-01,2.926682233810424805e-01,2.926463127136230691e-01,2.926244020462036022e-01,2.926024913787841908e-01,2.925805807113647239e-01,2.925586700439453125e-01,2.925367832183837780e-01,2.925148725509643666e-01,2.924930095672607644e-01,2.924710988998412975e-01,2.924492120742797630e-01,2.924273490905761608e-01,2.924054622650146262e-01,2.923835992813110241e-01,2.923617124557494895e-01,2.923398494720458873e-01,2.923179864883422852e-01,2.922960996627807506e-01,2.922742605209350808e-01,2.922523975372314231e-01,2.922305583953857533e-01,2.922086954116821511e-01,2.921868324279784934e-01,2.921650171279907005e-01,2.921431541442870983e-01,2.921213388442993053e-01,2.920994997024536355e-01,2.920776844024658425e-01,2.920558452606201172e-01,2.920340061187743919e-01,2.920121908187865989e-01,2.919903755187988059e-01,2.919685602188110130e-01,2.919467449188232200e-01,2.919249534606933594e-01,2.919031381607055664e-01,2.918813228607177734e-01,2.918595552444457897e-01,2.918377399444579967e-01,2.918159723281860130e-01,2.917941570281982200e-01,2.917723655700683594e-01,2.917505979537963756e-01,2.917288064956665150e-01,2.917070627212524636e-01,2.916852712631225475e-01
2.698396682739258035e-01,2.698210477828979492e-01,2.698024272918700950e-01,2.697837829589843639e-01,2.697651863098144420e-01,2.697465419769287109e-01,2.697279214859008567e-01,2.697093248367309348e-01,2.696907043457031361e-01,2.696720838546752819e-01,2.696534872055053600e-01,2.696348667144775613e-01,2.696162939071655162e-01,2.695976734161377175e-01,2.695790767669677956e-01,2.695605039596557506e-01,2.695418834686279519e-01,2.695232868194580300e-01,2.695047140121459850e-01,2.694861173629760631e-01,2.694675683975219505e-01,2.694489717483520286e-01,2.694303989410400391e-01,2.694118261337280495e-01,2.693932533264160045e-01,2.693746805191040150e-01,2.693561315536499023e-01,2.693375587463379128e-01,2.693190097808838002e-01,2.693004369735717551e-01,2.692818641662597656e-01,2.692633152008056530e-01,2.692447662353515403e-01,2.692262172698974831e-01,2.692076921463012473e-01,2.691891193389892578e-01,2.691705942153930775e-01,2.691520452499389648e-01,2.691335201263427845e-01,2.691149950027466042e-01,2.690964460372924916e-01,2.690779447555541881e-01,2.690593957901000755e-01,2.690408706665038951e-01,2.690223693847656472e-01,2.690038442611694114e-01,2.689853429794311634e-01,2.689668178558349831e-01,2.689483165740966797e-01,2.689297914505004994e-01,2.689112901687621959e-01,2.688927888870239480e-01,2.688742876052856445e-01,2.688558101654052734e-01,2.688373088836669700e-01,2.688188076019287220e-01,2.688003301620483509e-01,2.687818288803100475e-01,2.687633514404296764e-01,2.687448501586914285e-01,2.687263965606689342e-01,2.687079191207885631e-01,2.686894178390503152e-01,2.686709642410278209e-01,2.686524868011474498e-01,2.686340332031250111e-01,2.686155557632446400e-01,2.685971021652221458e-01,2.685786485671997070e-01,2.685601711273193359e-01,2.685417413711547741e-01,2.685232877731323353e-01,2.685048341751098411e-01,2.684863805770874023e-01,2.684679269790649636e-01,2.684494972229004017e-01,2.684310436248779075e-01,2.684126377105712780e-01,2.683941841125488392e-01,2.683757781982422097e-01
2.497708082199096569e-01,2.497548580169677845e-01,2.497388839721679799e-01,2.497229337692260798e-01,2.497069835662841797e-01,2.496910333633422796e-01,2.496750831604003795e-01,2.496591091156005748e-01,2.496431827545166071e-01,2.496272325515747070e-01,2.496112823486328069e-01,2.495953321456909069e-01,2.495794057846069391e-01,2.495634794235229437e-01,2.495475292205810436e-01,2.495315790176391713e-01,2.495156526565551758e-01,2.494997262954711803e-01,2.494837999343872126e-01,2.494678735733032171e-01,2.494519472122192494e-01,2.494360446929931585e-01,2.494201183319091908e-01,2.494041919708251953e-01,2.493882656097411998e-01,2.493723630905151367e-01,2.493564367294311412e-01,2.493405342102050781e-01,2.493246316909790150e-01,2.493087291717529241e-01,2.492928266525268610e-01,2.492769002914428655e-01,2.492610216140747070e-01,2.492451190948486439e-01,2.492292165756225530e-01,2.492133378982543945e-01,2.491974353790283314e-01,2.491815328598022405e-01,2.491656541824340820e-01,2.491497755050659235e-01,2.491338968276977650e-01,2.491180181503295787e-01,2.491021156311035156e-01,2.490862607955932617e-01,2.490703821182251032e-01,2.490545034408569447e-01,2.490386247634887584e-01,2.490227699279785045e-01,2.490068912506103460e-01,2.489910364151000921e-01,2.489751815795898382e-01,2.489593029022216797e-01,2.489434719085693304e-01,2.489275932312011719e-01,2.489117622375488226e-01,2.488958835601806641e-01,2.488800287246704102e-01,2.488641977310180609e-01,2.488483428955078069e-01,2.488325119018554576e-01,2.488166570663452037e-01,2.488008022308349498e-01,2.487849950790405329e-01,2.487691402435302790e-01,2.487533092498779297e-01,2.487374782562255804e-01,2.487216472625732311e-01,2.487058162689209095e-01,2.486899852752685602e-01,2.486741781234741155e-01,2.486583471298217662e-01,2.486425399780273493e-01,2.486267089843750000e-01,2.486109018325805553e-01,2.485950946807861384e-01,2.485792636871337891e-01,2.485634565353393444e-01,2.485476493835449274e-01,2.485318660736083873e-01,2.485160350799560658e-01
2.324804782867431752e-01,2.324666500091552845e-01,2.324528217315673939e-01,2.324389934539795033e-01,2.324251890182495173e-01,2.324113607406616266e-01,2.323975324630737360e-01,2.323837041854858454e-01,2.323698997497558594e-01,2.323560714721679688e-01,2.323422670364379827e-01,2.323284387588500921e-01,2.323146343231201061e-01,2.323008298873901478e-01,2.322870254516601618e-01,2.322732210159301758e-01,2.322594165802001898e-01,2.322456121444702037e-01,2.322318077087402455e-01,2.322180032730102595e-01,2.322041988372802734e-01,2.321904182434081920e-01,2.321766138076782338e-01,2.321628332138061523e-01,2.321490287780761663e-01,2.321352481842041127e-01,2.321214437484741266e-01,2.321076631546020452e-01,2.320938825607299916e-01,2.320801019668579102e-01,2.320663213729858287e-01,2.320525407791137751e-01,2.320387601852416937e-01,2.320249795913696400e-01,2.320111989974975586e-01,2.319974184036254772e-01,2.319836616516113281e-01,2.319698810577392467e-01,2.319561004638671931e-01,2.319423437118530162e-01,2.319285869598388672e-01,2.319148302078247181e-01,2.319010496139526367e-01,2.318872928619384877e-01,2.318735361099243109e-01,2.318597793579101618e-01,2.318460226058959850e-01,2.318322658538818359e-01,2.318185091018676869e-01,2.318047761917114147e-01,2.317910194396972656e-01,2.317772865295410212e-01,2.317635297775268444e-01,2.317497968673705999e-01,2.317360401153564509e-01,2.317223072052002064e-01,2.317085742950439342e-01,2.316948175430297852e-01,2.316810846328735407e-01,2.316673517227172963e-01,2.316536188125610241e-01,2.316399097442626842e-01,2.316261768341064398e-01,2.316124439239501953e-01,2.315987110137939509e-01,2.315850019454956110e-01,2.315712690353393666e-01,2.315575361251830944e-01,2.315438270568847545e-01,2.315301179885864147e-01,2.315164089202880748e-01,2.315026760101318304e-01,2.314889907836913951e-01,2.314752578735351507e-01,2.314615488052368109e-01,2.314478397369384710e-01,2.314341306686401312e-01,2.314204454421996959e-01,2.314067363739013561e-01,2.313930273056030162e-01
2.174289941787719838e-01,2.174169063568115179e-01,2.174048185348510798e-01,2.173927068710327093e-01,2.173806190490722712e-01,2.173685312271118053e-01,2.173564434051513672e-01,2.173443555831909291e-01,2.173322677612304632e-01,2.173201799392700251e-01,2.173080921173095592e-01,2.172960042953491211e-01,2.172839164733886830e-01,2.172718524932861217e-01,2.172597646713256836e-01,2.172477006912231501e-01,2.172356128692626842e-01,2.172235250473022461e-01,2.172114610671997126e-01,2.171993970870971791e-01,2.171873092651367132e-01,2.171752452850341797e-01,2.171631813049316462e-01,2.171511173248291127e-01,2.171390533447265514e-01,2.171269893646240179e-01,2.171149253845214844e-01,2.171028614044189509e-01,2.170907974243164174e-01,2.170787334442138561e-01,2.170666933059692272e-01,2.170546293258666937e-01,2.170425653457641602e-01,2.170305252075195312e-01,2.170184850692749023e-01,2.170064210891723688e-01,2.169943571090698353e-01,2.169823169708252064e-01,2.169702768325805775e-01,2.169582366943359486e-01,2.169461727142333873e-01,2.169341325759887584e-01,2.169220924377441295e-01,2.169100522994995006e-01,2.168980121612548717e-01,2.168859720230102428e-01,2.168739318847656139e-01,2.168618917465209850e-01,2.168498754501342884e-01,2.168378353118896595e-01,2.168258190155029352e-01,2.168137788772583063e-01,2.168017625808715820e-01,2.167897224426269531e-01,2.167777061462402288e-01,2.167656898498535045e-01,2.167536497116088756e-01,2.167416334152221791e-01,2.167296171188354548e-01,2.167176008224487305e-01,2.167055845260620062e-01,2.166935682296752819e-01,2.166815519332885853e-01,2.166695356369018610e-01,2.166575431823730413e-01,2.166455268859863170e-01,2.166335105895996205e-01,2.166214942932128962e-01,2.166095018386840765e-01,2.165974855422973522e-01,2.165854930877685602e-01,2.165735006332397405e-01,2.165614843368530162e-01,2.165494680404663197e-01,2.165374994277954046e-01,2.165254831314086803e-01,2.165134906768798884e-01,2.165014982223510687e-01,2.164895057678222767e-01,2.164775133132934570e-01
2.042079448699951061e-01,2.041972875595092773e-01,2.041866064071655162e-01,2.041759490966796875e-01,2.041652917861938588e-01,2.041546106338500977e-01,2.041439533233642689e-01,2.041332960128784124e-01,2.041226387023925837e-01,2.041119575500488226e-01,2.041013002395629938e-01,2.040906429290771373e-01,2.040799856185913086e-01,2.040693283081054799e-01,2.040586709976196234e-01,2.040480136871337946e-01,2.040373802185058705e-01,2.040267229080200140e-01,2.040160655975341852e-01,2.040054321289062611e-01,2.039947748184204046e-01,2.039841175079345759e-01,2.039734840393066517e-01,2.039628267288207952e-01,2.039521932601928711e-01,2.039415359497070424e-01,2.039309024810790905e-01,2.039202690124511663e-01,2.039096117019653376e-01,2.038989782333374134e-01,2.038883447647094616e-01,2.038777112960815374e-01,2.038670778274536133e-01,2.038564443588256891e-01,2.038457870483398326e-01,2.038351774215698131e-01,2.038245439529418890e-01,2.038139104843139648e-01,2.038032770156860407e-01,2.037926435470581166e-01,2.037820339202880970e-01,2.037714004516601451e-01,2.037607669830322210e-01,2.037501573562622015e-01,2.037395238876342773e-01,2.037288904190063532e-01,2.037182807922363337e-01,2.037076711654663141e-01,2.036970376968383900e-01,2.036864280700683705e-01,2.036758184432983509e-01,2.036652088165283314e-01,2.036545753479003795e-01,2.036439657211303600e-01,2.036333560943603405e-01,2.036227464675903209e-01,2.036121368408203014e-01,2.036015272140502819e-01,2.035909414291381947e-01,2.035803318023681752e-01,2.035697221755981556e-01,2.035591125488281361e-01,2.035485029220581166e-01,2.035379171371460016e-01,2.035273075103759821e-01,2.035166978836059626e-01,2.035061120986938477e-01,2.034955263137817327e-01,2.034849166870117132e-01,2.034743309020995983e-01,2.034637451171875111e-01,2.034531354904174916e-01,2.034425497055053766e-01,2.034319639205932617e-01,2.034213781356811468e-01,2.034107923507690319e-01,2.034002065658569447e-01,2.033896207809448298e-01,2.033790349960327148e-01,2.033684492111205999e-01
1.925026059150695690e-01,1.924931287765502819e-01,1.924836635589599609e-01,1.924741625785827692e-01,1.924646854400634821e-01,1.924552202224731334e-01,1.924457192420959417e-01,1.924362540245056208e-01,1.924267888069152721e-01,1.924173116683959850e-01,1.924078226089477595e-01,1.923983573913574108e-01,1.923889040946960560e-01,1.923794150352478027e-01,1.923699498176574818e-01,1.923604846000671331e-01,1.923510074615478460e-01,1.923415422439575251e-01,1.923320889472961426e-01,1.923225998878478893e-01,1.923131465911865345e-01,1.923036932945251520e-01,1.922942161560058649e-01,1.922847628593444824e-01,1.922753095626830999e-01,1.922658562660217174e-01,1.922563791275024303e-01,1.922469258308410756e-01,1.922374725341796931e-01,1.922280073165893444e-01,1.922185540199279896e-01,1.922091126441955455e-01,1.921996474266052246e-01,1.921901941299438421e-01,1.921807527542114258e-01,1.921712875366211049e-01,1.921618461608886608e-01,1.921524047851562444e-01,1.921429395675659235e-01,1.921334981918335072e-01,1.921240568161010631e-01,1.921146273612976130e-01,1.921051621437072643e-01,1.920957326889038141e-01,1.920862913131713978e-01,1.920768380165100153e-01,1.920674085617065374e-01,1.920579671859741211e-01,1.920485138893127386e-01,1.920390844345092884e-01,1.920296549797058105e-01,1.920202016830444280e-01,1.920107841491699163e-01,1.920013546943664662e-01,1.919919013977050837e-01,1.919824838638305720e-01,1.919730544090270941e-01,1.919636368751525823e-01,1.919541835784911998e-01,1.919447660446166881e-01,1.919353485107421764e-01,1.919259071350097601e-01,1.919164896011352484e-01,1.919070720672607366e-01,1.918976306915283203e-01,1.918882131576538086e-01,1.918787956237792969e-01,1.918693900108337513e-01,1.918599486351013073e-01,1.918505311012267955e-01,1.918411254882812500e-01,1.918316960334777721e-01,1.918222784996032604e-01,1.918128728866577148e-01,1.918034672737121693e-01,1.917940378189086914e-01,1.917846322059631459e-01,1.917752265930175726e-01,1.917658090591430609e-01,1.917564034461975153e-01
1.820664286613464244e-01,1.820579409599304144e-01,1.820494651794433705e-01,1.820409893989562988e-01,1.820324897766113226e-01,1.820240259170532171e-01,1.820155501365661732e-01,1.820070624351501354e-01,1.819985866546630915e-01,1.819901227951049860e-01,1.819816470146179144e-01,1.819731593132019043e-01,1.819646954536437988e-01,1.819562315940856934e-01,1.819477438926696833e-01,1.819392800331115778e-01,1.819308161735534723e-01,1.819223284721374623e-01,1.819138765335082952e-01,1.819054126739501898e-01,1.818969249725341797e-01,1.818884730339050404e-01,1.818800091743469349e-01,1.818715333938598633e-01,1.818630695343017578e-01,1.818546175956726185e-01,1.818461656570434515e-01,1.818376898765564076e-01,1.818292379379272405e-01,1.818207740783691351e-01,1.818123102188110296e-01,1.818038582801818903e-01,1.817954063415527233e-01,1.817869305610656794e-01,1.817784786224365123e-01,1.817700386047363392e-01,1.817615628242492676e-01,1.817531228065490667e-01,1.817446708679199274e-01,1.817362070083618220e-01,1.817277669906616211e-01,1.817193150520324818e-01,1.817108750343322809e-01,1.817024111747741755e-01,1.816939711570739746e-01,1.816855311393737737e-01,1.816770672798156683e-01,1.816686272621154674e-01,1.816601872444152943e-01,1.816517353057861273e-01,1.816432952880859264e-01,1.816348552703857533e-01,1.816264033317565862e-01,1.816179752349853516e-01,1.816095352172851507e-01,1.816010832786560114e-01,1.815926551818847767e-01,1.815842151641845759e-01,1.815757751464843750e-01,1.815673351287841741e-01,1.815589070320129395e-01,1.815504789352417048e-01,1.815420389175415039e-01,1.815336108207702692e-01,1.815251827239990345e-01,1.815167307853698675e-01,1.815083146095275990e-01,1.814998865127563366e-01,1.814914703369140681e-01,1.814830183982849010e-01,1.814746022224426325e-01,1.814661860466003362e-01,1.814577460289001354e-01,1.814493179321289007e-01,1.814409017562866322e-01,1.814324855804443359e-01,1.814240455627441351e-01,1.814156293869018666e-01,1.814072251319885365e-01,1.813987851142883356e-01
1.727036118507385143e-01,1.726959824562072643e-01,1.726883411407470759e-01,1.726807117462158259e-01,1.726730823516845759e-01,1.726654410362243597e-01,1.726578235626220759e-01,1.726502060890197643e-01,1.726425647735595759e-01,1.726349353790283259e-01,1.726273179054260143e-01,1.726197004318237305e-01,1.726120591163635143e-01,1.726044416427612305e-01,1.725968241691589466e-01,1.725891947746276966e-01,1.725815773010253851e-01,1.725739598274231013e-01,1.725663304328918513e-01,1.725587129592895397e-01,1.725510954856872559e-01,1.725434660911560059e-01,1.725358605384826605e-01,1.725282430648803766e-01,1.725206136703491266e-01,1.725130081176757812e-01,1.725054025650024359e-01,1.724977850914001520e-01,1.724901676177978405e-01,1.724825501441955566e-01,1.724749445915222112e-01,1.724673271179199274e-01,1.724597215652465820e-01,1.724521160125732366e-01,1.724444866180419866e-01,1.724368929862976074e-01,1.724292874336242620e-01,1.724216699600219782e-01,1.724140644073486328e-01,1.724064588546752874e-01,1.723988413810730036e-01,1.723912477493286244e-01,1.723836421966552790e-01,1.723760485649108998e-01,1.723684310913085882e-01,1.723608374595642090e-01,1.723532438278198298e-01,1.723456263542175182e-01,1.723380327224731390e-01,1.723304390907287598e-01,1.723228216171264759e-01,1.723152279853820690e-01,1.723076462745666559e-01,1.723000288009643444e-01,1.722924351692199652e-01,1.722848534584045521e-01,1.722772479057312067e-01,1.722696542739868275e-01,1.722620606422424205e-01,1.722544670104980413e-01,1.722468733787536621e-01,1.722392916679382213e-01,1.722316980361938421e-01,1.722241044044494629e-01,1.722165107727050837e-01,1.722089290618896429e-01,1.722013354301452637e-01,1.721937537193298229e-01,1.721861720085144098e-01,1.721785664558410645e-01,1.721709847450256237e-01,1.721634149551391491e-01,1.721558332443237360e-01,1.721482396125793568e-01,1.721406579017639160e-01,1.721330761909484752e-01,1.721254825592040960e-01,1.721179127693176214e-01,1.721103429794311468e-01,1.721027612686157338e-01
1.642566561698913519e-01,1.642497539520263727e-01,1.642428636550903320e-01,1.642359495162963867e-01,1.642290472984314076e-01,1.642221570014953669e-01,1.642152428627014216e-01,1.642083406448364147e-01,1.642014503479004017e-01,1.641945362091064564e-01,1.641876459121704157e-01,1.641807556152343750e-01,1.641738653182983343e-01,1.641669511795043890e-01,1.641600608825683483e-01,1.641531705856323353e-01,1.641462683677673284e-01,1.641393780708312877e-01,1.641324877738952748e-01,1.641255855560302679e-01,1.641186952590942272e-01,1.641118168830871527e-01,1.641049146652221735e-01,1.640980243682861328e-01,1.640911340713500921e-01,1.640842437744140514e-01,1.640773534774780384e-01,1.640704751014709362e-01,1.640635848045349232e-01,1.640566945075988825e-01,1.640498042106628418e-01,1.640429258346557673e-01,1.640360355377197266e-01,1.640291452407836859e-01,1.640222668647766113e-01,1.640153765678405706e-01,1.640084981918334961e-01,1.640016198158264216e-01,1.639947295188903809e-01,1.639878511428833063e-01,1.639809727668762318e-01,1.639740824699401911e-01,1.639672040939331166e-01,1.639603376388549805e-01,1.639534592628479059e-01,1.639465689659118652e-01,1.639396905899047907e-01,1.639328241348266546e-01,1.639259338378906139e-01,1.639190673828125056e-01,1.639122009277343694e-01,1.639053106307983287e-01,1.638984441757202204e-01,1.638915657997131459e-01,1.638846874237060436e-01,1.638778209686279352e-01,1.638709545135497991e-01,1.638640761375427246e-01,1.638572096824645885e-01,1.638503432273864802e-01,1.638434648513794056e-01,1.638365983963012695e-01,1.638297319412231334e-01,1.638228535652160589e-01,1.638159871101379506e-01,1.638091325759887806e-01,1.638022661209106445e-01,1.637953877449035700e-01,1.637885332107544001e-01,1.637816667556762640e-01,1.637748003005981556e-01,1.637679338455200195e-01,1.637610793113708496e-01,1.637542247772216797e-01,1.637473464012146052e-01,1.637404918670654352e-01,1.637336373329162653e-01,1.637267708778381292e-01,1.637199163436889593e-01,1.637130618095397894e-01
1.565974712371826227e-01,1.565911889076233021e-01,1.565849184989929199e-01,1.565786480903625377e-01,1.565723657608032171e-01,1.565660953521728627e-01,1.565598368644714466e-01,1.565535545349120983e-01,1.565472841262817438e-01,1.565410137176513616e-01,1.565347313880920410e-01,1.565284729003906250e-01,1.565222024917602428e-01,1.565159440040588268e-01,1.565096616744995062e-01,1.565034031867980902e-01,1.564971327781677357e-01,1.564908623695373535e-01,1.564846038818359375e-01,1.564783334732055553e-01,1.564720630645752009e-01,1.564658045768737848e-01,1.564595460891723688e-01,1.564532637596130482e-01,1.564470052719116322e-01,1.564407467842102162e-01,1.564344763755798340e-01,1.564282178878784180e-01,1.564219594001770020e-01,1.564157128334045521e-01,1.564094424247741699e-01,1.564031839370727539e-01,1.563969254493713379e-01,1.563906550407409557e-01,1.563844084739685059e-01,1.563781499862670898e-01,1.563718795776367076e-01,1.563656330108642578e-01,1.563593745231628418e-01,1.563531160354614258e-01,1.563468575477600098e-01,1.563406109809875599e-01,1.563343524932861439e-01,1.563280940055847279e-01,1.563218474388122503e-01,1.563156008720398005e-01,1.563093423843383845e-01,1.563030958175659069e-01,1.562968492507934570e-01,1.562905788421630748e-01,1.562843322753906250e-01,1.562780976295471136e-01,1.562718272209167591e-01,1.562655925750732477e-01,1.562593460083007701e-01,1.562530875205993541e-01,1.562468409538269043e-01,1.562406063079833929e-01,1.562343478202819769e-01,1.562281012535095270e-01,1.562218666076660156e-01,1.562156200408935658e-01,1.562093734741210882e-01,1.562031269073486384e-01,1.561968803405761608e-01,1.561906337738037109e-01,1.561843991279601995e-01,1.561781525611877497e-01,1.561719059944152721e-01,1.561656713485717884e-01,1.561594367027282770e-01,1.561531901359557994e-01,1.561469554901123158e-01,1.561407208442688044e-01,1.561344742774963268e-01,1.561282396316528431e-01,1.561220049858093317e-01,1.561157703399658203e-01,1.561095237731933705e-01,1.561033010482787975e-01
1.496207475662231501e-01,1.496150135993957464e-01,1.496092796325683705e-01,1.496035575866699330e-01,1.495978355407714955e-01,1.495921015739440918e-01,1.495863795280456543e-01,1.495806574821472168e-01,1.495749235153198131e-01,1.495692014694213756e-01,1.495634794235229381e-01,1.495577454566955622e-01,1.495520234107971247e-01,1.495463132858276256e-01,1.495405912399291881e-01,1.495348572731018122e-01,1.495291471481323131e-01,1.495234251022338756e-01,1.495176911354064997e-01,1.495119810104370006e-01,1.495062589645385631e-01,1.495005369186401256e-01,1.494948148727416881e-01,1.494891047477722168e-01,1.494833827018737793e-01,1.494776606559753418e-01,1.494719505310058705e-01,1.494662284851074330e-01,1.494605183601379339e-01,1.494547963142394964e-01,1.494490861892700251e-01,1.494433641433715876e-01,1.494376540184020885e-01,1.494319438934326172e-01,1.494262218475341797e-01,1.494205117225647084e-01,1.494148015975952093e-01,1.494090795516967718e-01,1.494033694267273005e-01,1.493976712226867676e-01,1.493919491767883301e-01,1.493862390518188588e-01,1.493805289268493597e-01,1.493748188018798884e-01,1.493691086769103893e-01,1.493634104728698841e-01,1.493577003479003851e-01,1.493519783020019476e-01,1.493462800979614147e-01,1.493405818939209095e-01,1.493348598480224720e-01,1.493291616439819391e-01,1.493234515190124401e-01,1.493177413940429688e-01,1.493120431900024359e-01,1.493063449859619030e-01,1.493006229400634655e-01,1.492949247360229603e-01,1.492892265319824274e-01,1.492835164070129284e-01,1.492778182029724232e-01,1.492721199989318903e-01,1.492664217948913574e-01,1.492607116699218861e-01,1.492550134658813532e-01,1.492493152618408203e-01,1.492436051368713490e-01,1.492379188537597545e-01,1.492322087287902832e-01,1.492265105247497503e-01,1.492208242416381836e-01,1.492151260375976507e-01,1.492094159126281794e-01,1.492037296295166127e-01,1.491980314254760798e-01,1.491923332214355469e-01,1.491866350173950140e-01,1.491809487342834473e-01,1.491752505302429144e-01,1.491695523262023815e-01
1.432391524314880482e-01,1.432339072227478138e-01,1.432286500930786133e-01,1.432233929634094127e-01,1.432181477546691784e-01,1.432129144668579102e-01,1.432076573371887096e-01,1.432024121284484752e-01,1.431971669197082409e-01,1.431919097900390681e-01,1.431866645812988337e-01,1.431814193725585993e-01,1.431761741638183649e-01,1.431709289550781306e-01,1.431656837463378962e-01,1.431604504585266002e-01,1.431551933288574274e-01,1.431499481201171931e-01,1.431447148323058971e-01,1.431394577026367243e-01,1.431342244148254284e-01,1.431289911270141602e-01,1.431237339973449596e-01,1.431185007095336914e-01,1.431132555007934570e-01,1.431080102920532227e-01,1.431027770042419545e-01,1.430975437164306585e-01,1.430922865867614857e-01,1.430870532989501898e-01,1.430818200111389216e-01,1.430765867233276256e-01,1.430713415145873912e-01,1.430661082267761230e-01,1.430608749389648549e-01,1.430556297302246205e-01,1.430503964424133245e-01,1.430451631546020563e-01,1.430399179458618220e-01,1.430346846580505260e-01,1.430294513702392578e-01,1.430242061614990234e-01,1.430189847946166937e-01,1.430137515068054255e-01,1.430085062980651911e-01,1.430032849311828613e-01,1.429980516433715931e-01,1.429928183555602972e-01,1.429875850677490290e-01,1.429823517799377330e-01,1.429771304130554310e-01,1.429718852043151966e-01,1.429666638374328669e-01,1.429614305496215709e-01,1.429561972618103027e-01,1.429509758949279730e-01,1.429457426071167048e-01,1.429405093193054088e-01,1.429352879524231068e-01,1.429300665855407770e-01,1.429248213768005427e-01,1.429196000099182129e-01,1.429143786430358831e-01,1.429091572761535534e-01,1.429039239883422852e-01,1.428987026214599554e-01,1.428934812545776256e-01,1.428882479667663574e-01,1.428830265998840277e-01,1.428778052330016979e-01,1.428725719451904297e-01,1.428673505783080999e-01,1.428621292114257701e-01,1.428569078445434681e-01,1.428516864776611384e-01,1.428464651107788086e-01,1.428412437438964788e-01,1.428360223770141491e-01,1.428308010101318470e-01,1.428255796432495173e-01
1.373796582221984974e-01,1.373748302459716908e-01,1.373700141906738226e-01,1.373651862144470159e-01,1.373603463172912709e-01,1.373555183410644642e-01,1.373507022857665960e-01,1.373458623886108509e-01,1.373410463333129827e-01,1.373362183570861761e-01,1.373313784599304310e-01,1.373265624046325628e-01,1.373217344284057562e-01,1.373169064521789495e-01,1.373120903968811091e-01,1.373072624206543024e-01,1.373024463653564342e-01,1.372976064682006891e-01,1.372927904129028209e-01,1.372879743576049805e-01,1.372831463813781738e-01,1.372783184051513672e-01,1.372735023498535267e-01,1.372686743736267201e-01,1.372638583183288519e-01,1.372590422630310114e-01,1.372542142868042048e-01,1.372493982315063366e-01,1.372445821762084961e-01,1.372397541999816895e-01,1.372349381446838490e-01,1.372301220893859808e-01,1.372253060340881403e-01,1.372204780578613337e-01,1.372156620025634655e-01,1.372108459472656250e-01,1.372060179710388184e-01,1.372012138366699163e-01,1.371963977813720759e-01,1.371915698051452692e-01,1.371867537498474010e-01,1.371819496154785267e-01,1.371771216392517201e-01,1.371723175048828181e-01,1.371675014495849498e-01,1.371626734733581432e-01,1.371578693389892689e-01,1.371530532836914007e-01,1.371482491493224987e-01,1.371434211730956920e-01,1.371386170387268177e-01,1.371338129043579157e-01,1.371289849281311091e-01,1.371241807937622070e-01,1.371193766593933050e-01,1.371145486831664984e-01,1.371097445487975963e-01,1.371049404144287220e-01,1.371001243591308538e-01,1.370953202247619518e-01,1.370905160903930775e-01,1.370856881141662709e-01,1.370808839797973688e-01,1.370760798454284668e-01,1.370712757110595648e-01,1.370664596557617243e-01,1.370616555213928223e-01,1.370568513870239202e-01,1.370520472526550182e-01,1.370472431182861439e-01,1.370424389839172419e-01,1.370376229286193737e-01,1.370328187942504994e-01,1.370280265808105358e-01,1.370232105255126953e-01,1.370184063911437933e-01,1.370136022567748912e-01,1.370087981224060170e-01,1.370039939880371149e-01,1.369992017745971791e-01
1.319807291030883900e-01,1.319762706756591741e-01,1.319718122482299860e-01,1.319673538208007701e-01,1.319629073143005482e-01,1.319584488868713323e-01,1.319539904594421442e-01,1.319495439529418945e-01,1.319450736045837402e-01,1.319406270980834905e-01,1.319361805915832409e-01,1.319317102432250866e-01,1.319272637367248646e-01,1.319228172302246149e-01,1.319183468818664606e-01,1.319139003753662109e-01,1.319094538688659612e-01,1.319050073623657116e-01,1.319005489349365234e-01,1.318961024284362737e-01,1.318916440010070856e-01,1.318871855735778698e-01,1.318827390670776478e-01,1.318782925605773981e-01,1.318738341331481823e-01,1.318693876266479603e-01,1.318649411201477106e-01,1.318604826927184948e-01,1.318560481071472112e-01,1.318516016006469616e-01,1.318471431732177734e-01,1.318426966667175237e-01,1.318382501602172741e-01,1.318338036537170521e-01,1.318293571472168024e-01,1.318249106407165527e-01,1.318204641342163030e-01,1.318160176277160534e-01,1.318115711212158314e-01,1.318071246147155817e-01,1.318026781082153320e-01,1.317982316017150823e-01,1.317937970161437988e-01,1.317893385887146107e-01,1.317849040031432994e-01,1.317804574966430775e-01,1.317760109901428278e-01,1.317715644836425781e-01,1.317671298980712946e-01,1.317626833915710449e-01,1.317582368850707952e-01,1.317538022994995117e-01,1.317493557929992620e-01,1.317449092864990123e-01,1.317404747009277288e-01,1.317360401153564453e-01,1.317315936088561956e-01,1.317271471023559459e-01,1.317227125167846624e-01,1.317182660102844127e-01,1.317138314247131292e-01,1.317093968391418457e-01,1.317049503326415960e-01,1.317005157470703125e-01,1.316960811614990290e-01,1.316916465759277455e-01,1.316872000694274958e-01,1.316827654838562123e-01,1.316783308982849010e-01,1.316738843917846791e-01,1.316694498062133678e-01,1.316650152206420843e-01,1.316605806350708008e-01,1.316561460494995173e-01,1.316517114639282338e-01,1.316472768783569225e-01,1.316428422927856390e-01,1.316384077072143555e-01,1.316339731216430720e-01,1.316295385360717884e-01
1.269900918006897084e-01,1.269859671592712402e-01,1.269818305969238337e-01,1.269777178764343317e-01,1.269735932350158636e-01,1.269694685935974232e-01,1.269653320312499889e-01,1.269612193107604869e-01,1.269570946693420466e-01,1.269529581069946400e-01,1.269488453865051381e-01,1.269447207450866699e-01,1.269405841827392634e-01,1.269364714622497614e-01,1.269323468208312933e-01,1.269282221794128529e-01,1.269240975379943848e-01,1.269199848175048828e-01,1.269158601760864147e-01,1.269117355346679743e-01,1.269076108932495062e-01,1.269034981727600042e-01,1.268993735313415638e-01,1.268952488899230957e-01,1.268911361694335938e-01,1.268870115280151256e-01,1.268828868865966852e-01,1.268787741661071833e-01,1.268746495246887152e-01,1.268705368041992132e-01,1.268664121627807728e-01,1.268622875213623047e-01,1.268581748008728027e-01,1.268540620803833008e-01,1.268499493598937988e-01,1.268458247184753307e-01,1.268417119979858287e-01,1.268375992774963268e-01,1.268334746360778864e-01,1.268293619155883845e-01,1.268252491950988825e-01,1.268211245536804144e-01,1.268170118331909124e-01,1.268128991127014105e-01,1.268087744712829701e-01,1.268046617507934681e-01,1.268005609512329046e-01,1.267964363098144642e-01,1.267923235893249623e-01,1.267882108688354603e-01,1.267840981483459584e-01,1.267799854278564564e-01,1.267758727073669545e-01,1.267717599868774525e-01,1.267676472663879506e-01,1.267635345458984486e-01,1.267594218254089466e-01,1.267553091049194447e-01,1.267511963844299427e-01,1.267470955848693792e-01,1.267429709434509388e-01,1.267388701438903753e-01,1.267347574234008734e-01,1.267306447029113714e-01,1.267265319824218694e-01,1.267224311828613337e-01,1.267183184623718317e-01,1.267142057418823298e-01,1.267101049423217662e-01,1.267059922218322643e-01,1.267018795013427623e-01,1.266977787017822266e-01,1.266936779022216908e-01,1.266895651817321888e-01,1.266854524612426869e-01,1.266813516616821234e-01,1.266772389411926214e-01,1.266731381416320856e-01,1.266690373420715221e-01,1.266649365425109863e-01
1.223631381988525418e-01,1.223592996597289984e-01,1.223554730415344211e-01,1.223516464233398438e-01,1.223478078842163141e-01,1.223439812660217230e-01,1.223401546478271457e-01,1.223363161087036161e-01,1.223324894905090388e-01,1.223286628723144476e-01,1.223248362541198703e-01,1.223210096359252930e-01,1.223171830177307157e-01,1.223133444786071722e-01,1.223095178604125949e-01,1.223056912422180176e-01,1.223018646240234403e-01,1.222980380058288630e-01,1.222942113876342718e-01,1.222903847694396945e-01,1.222865581512451172e-01,1.222827315330505399e-01,1.222789049148559626e-01,1.222750782966613714e-01,1.222712516784667941e-01,1.222674250602722168e-01,1.222635984420776395e-01,1.222597718238830622e-01,1.222559571266174372e-01,1.222521185874938937e-01,1.222483038902282687e-01,1.222444772720336914e-01,1.222406506538391141e-01,1.222368240356445368e-01,1.222330093383789118e-01,1.222291946411132868e-01,1.222253561019897433e-01,1.222215414047241183e-01,1.222177147865295410e-01,1.222138881683349637e-01,1.222100734710693387e-01,1.222062587738037137e-01,1.222024321556091364e-01,1.221986055374145452e-01,1.221947908401489202e-01,1.221909642219543429e-01,1.221871495246887179e-01,1.221833229064941406e-01,1.221794962882995633e-01,1.221756815910339383e-01,1.221718668937683133e-01,1.221680521965026883e-01,1.221642255783081110e-01,1.221604108810424860e-01,1.221565961837768610e-01,1.221527695655822698e-01,1.221489548683166448e-01,1.221451401710510198e-01,1.221413135528564425e-01,1.221374988555908175e-01,1.221336841583251925e-01,1.221298575401306152e-01,1.221260547637939425e-01,1.221222400665283175e-01,1.221184134483337402e-01,1.221145987510681152e-01,1.221107840538024902e-01,1.221069693565368652e-01,1.221031546592712402e-01,1.220993399620056152e-01,1.220955252647399902e-01,1.220917105674743652e-01,1.220878958702087402e-01,1.220840811729431152e-01,1.220802664756774902e-01,1.220764517784118652e-01,1.220726490020751925e-01,1.220688223838806152e-01,1.220650196075439425e-01,1.220612049102783175e-01
1.180614948272705050e-01,1.180579185485839816e-01,1.180543541908264105e-01,1.180507898330688532e-01,1.180472254753112821e-01,1.180436611175537109e-01,1.180400967597961398e-01,1.180365324020385687e-01,1.180329680442810114e-01,1.180294036865234403e-01,1.180258393287658691e-01,1.180222630500793457e-01,1.180187106132507269e-01,1.180151462554931696e-01,1.180115699768066462e-01,1.180080175399780273e-01,1.180044531822204562e-01,1.180008888244628851e-01,1.179973244667053278e-01,1.179937601089477567e-01,1.179902076721191378e-01,1.179866313934326144e-01,1.179830789566040095e-01,1.179795145988464383e-01,1.179759502410888672e-01,1.179723858833312961e-01,1.179688334465026911e-01,1.179652690887451200e-01,1.179617166519165011e-01,1.179581522941589300e-01,1.179545879364013727e-01,1.179510354995727539e-01,1.179474711418151828e-01,1.179439067840576116e-01,1.179403543472290067e-01,1.179367899894714355e-01,1.179332375526428167e-01,1.179296731948852595e-01,1.179261207580566406e-01,1.179225564002990695e-01,1.179189920425414984e-01,1.179154396057128934e-01,1.179118871688842746e-01,1.179083228111267034e-01,1.179047703742980985e-01,1.179012179374694796e-01,1.178976535797119085e-01,1.178941011428833036e-01,1.178905487060546847e-01,1.178869843482971136e-01,1.178834319114685086e-01,1.178798794746398898e-01,1.178763270378112848e-01,1.178727626800537137e-01,1.178692102432250949e-01,1.178656578063964899e-01,1.178620934486389188e-01,1.178585410118103000e-01,1.178549885749816950e-01,1.178514361381530762e-01,1.178478837013244573e-01,1.178443312644958524e-01,1.178407669067382812e-01,1.178372144699096624e-01,1.178336739540100098e-01,1.178301215171813909e-01,1.178265571594238337e-01,1.178230047225952148e-01,1.178194642066955622e-01,1.178158998489379911e-01,1.178123474121093722e-01,1.178088068962097196e-01,1.178052425384521484e-01,1.178017020225524958e-01,1.177981495857238770e-01,1.177945971488952581e-01,1.177910447120666532e-01,1.177874922752380343e-01,1.177839398384094294e-01,1.177803993225097628e-01
