6.199184894561767800e-01,6.356490612030029075e-01,6.521987438201903853e-01,6.696333408355712447e-01,6.880255699157714622e-01,7.074566364288330522e-01,7.280204296112060547e-01,7.498157024383544922e-01,7.729563236236571822e-01,7.975706577301024947e-01,8.238041877746582475e-01,8.518222808837890847e-01,8.818132400512694868e-01,9.139930725097655806e-01,9.486105918884277788e-01,9.859535217285155806e-01,1.000000000000000000e+00,1.000000000000000000e+00,1.000000000000000000e+00,3.253029108047485463e-01,3.255510330200195312e-01,3.363760709762573242e-01,3.431456327438354714e-01,3.434898138046264537e-01,3.443123102188110352e-01,3.470010995864868386e-01,3.497322320938110463e-01,3.531944274902343861e-01,3.574311494827270286e-01,3.638039112091064342e-01,4.014121055603027122e-01,1.000000000000000000e+00,1.000000000000000000e+00,1.000000000000000000e+00,1.000000000000000000e+00,1.000000000000000000e+00,1.000000000000000000e+00,1.000000000000000000e+00,1.000000000000000000e+00,1.000000000000000000e+00,1.000000000000000000e+00,1.000000000000000000e+00,1.000000000000000000e+00,1.000000000000000000e+00,1.000000000000000000e+00,1.000000000000000000e+00,1.000000000000000000e+00,1.000000000000000000e+00,1.000000000000000000e+00,1.000000000000000000e+00,1.000000000000000000e+00,1.000000000000000000e+00,1.000000000000000000e+00,1.000000000000000000e+00,1.000000000000000000e+00,1.000000000000000000e+00,1.000000000000000000e+00,1.000000000000000000e+00,1.000000000000000000e+00,1.000000000000000000e+00,1.000000000000000000e+00,1.000000000000000000e+00,1.000000000000000000e+00,1.000000000000000000e+00,1.000000000000000000e+00,1.000000000000000000e+00,1.000000000000000000e+00,1.000000000000000000e+00,1.000000000000000000e+00,1.000000000000000000e+00,9.683560371398926003e-01,9.367020606994629350e-01,9.070520401000976562e-01,8.792214393615722656e-01,8.530479431152343528e-01,8.283875465393066850e-01,8.051129341125488059e-01,7.831105709075927290e-01,7.622780799865722656e-01,7.425250530242919478e-01
6.199051856994628462e-01,6.356350898742675337e-01,6.521841049194335715e-01,6.696177959442138894e-01,6.880092620849609375e-01,7.074394226074218750e-01,7.279989242553710493e-01,7.497927188873291238e-01,7.729318618774414507e-01,7.975445747375488059e-01,8.237764358520507368e-01,8.517925262451171431e-01,8.817813873291016069e-01,9.139588356018066850e-01,9.485736846923827903e-01,9.859137535095214844e-01,1.000000000000000000e+00,1.000000000000000000e+00,1.000000000000000000e+00,3.219584703445434459e-01,3.216874122619629017e-01,3.313360214233398438e-01,3.430373191833496205e-01,3.435056686401367076e-01,3.460894823074340820e-01,3.503951549530029408e-01,3.515138864517212136e-01,3.567465543746948242e-01,3.594741106033325084e-01,3.600776195526123047e-01,3.724185228347778320e-01,1.000000000000000000e+00,1.000000000000000000e+00,1.000000000000000000e+00,1.000000000000000000e+00,1.000000000000000000e+00,1.000000000000000000e+00,1.000000000000000000e+00,1.000000000000000000e+00,1.000000000000000000e+00,1.000000000000000000e+00,1.000000000000000000e+00,1.000000000000000000e+00,1.000000000000000000e+00,1.000000000000000000e+00,1.000000000000000000e+00,1.000000000000000000e+00,1.000000000000000000e+00,1.000000000000000000e+00,1.000000000000000000e+00,1.000000000000000000e+00,1.000000000000000000e+00,1.000000000000000000e+00,1.000000000000000000e+00,1.000000000000000000e+00,1.000000000000000000e+00,1.000000000000000000e+00,1.000000000000000000e+00,1.000000000000000000e+00,1.000000000000000000e+00,1.000000000000000000e+00,1.000000000000000000e+00,1.000000000000000000e+00,1.000000000000000000e+00,1.000000000000000000e+00,1.000000000000000000e+00,1.000000000000000000e+00,1.000000000000000000e+00,1.000000000000000000e+00,1.000000000000000000e+00,9.683843612670898215e-01,9.367285728454589622e-01,9.070769309997558372e-01,8.792448043823242188e-01,8.530698776245116965e-01,8.284079551696776900e-01,8.051313400268554910e-01,7.831271171569824663e-01,7.622935771942138672e-01,7.425398349761962447e-01
6.198918819427490234e-01,6.356211662292480247e-01,6.521694183349608931e-01,6.696023941040039062e-01,6.879929065704345481e-01,7.074221134185790794e-01,7.279807090759277122e-01,7.497698307037353738e-01,7.729073524475097434e-01,7.975185394287109819e-01,8.237486839294433372e-01,8.517628669738769309e-01,8.817495346069336160e-01,9.139245986938476785e-01,9.485368728637695312e-01,9.858738899230956587e-01,1.000000000000000000e+00,1.000000000000000000e+00,1.000000000000000000e+00,3.205779314041137806e-01,3.200715541839599387e-01,3.436988115310669056e-01,3.424352169036865012e-01,3.433877468109131081e-01,3.458402156829833984e-01,3.533238887786865345e-01,3.574116706848144420e-01,3.544649600982666127e-01,3.533775806427001953e-01,3.522968530654907449e-01,3.585574626922607422e-01,1.000000000000000000e+00,1.000000000000000000e+00,1.000000000000000000e+00,1.000000000000000000e+00,1.000000000000000000e+00,1.000000000000000000e+00,1.000000000000000000e+00,1.000000000000000000e+00,1.000000000000000000e+00,1.000000000000000000e+00,1.000000000000000000e+00,1.000000000000000000e+00,1.000000000000000000e+00,1.000000000000000000e+00,1.000000000000000000e+00,1.000000000000000000e+00,1.000000000000000000e+00,1.000000000000000000e+00,1.000000000000000000e+00,1.000000000000000000e+00,1.000000000000000000e+00,1.000000000000000000e+00,1.000000000000000000e+00,1.000000000000000000e+00,1.000000000000000000e+00,1.000000000000000000e+00,1.000000000000000000e+00,1.000000000000000000e+00,1.000000000000000000e+00,1.000000000000000000e+00,1.000000000000000000e+00,1.000000000000000000e+00,1.000000000000000000e+00,1.000000000000000000e+00,1.000000000000000000e+00,1.000000000000000000e+00,1.000000000000000000e+00,1.000000000000000000e+00,1.000000000000000000e+00,9.684126853942871538e-01,9.367550849914551003e-01,9.071017265319823997e-01,8.792672157287597656e-01,8.530899047851562278e-01,8.284262657165527566e-01,8.051486968994140403e-01,7.831434726715087447e-01,7.623091697692870872e-01,7.425545215606689231e-01
6.198786735534668191e-01,6.356071949005126509e-01,6.521547794342040794e-01,6.695868968963623047e-01,6.879765510559081587e-01,7.074048995971680132e-01,7.279623985290527566e-01,7.497504234313965288e-01,7.728830337524413840e-01,7.974925518035889116e-01,8.237209320068359375e-01,8.517332077026367188e-01,8.817177772521972434e-01,9.138904571533202903e-01,9.485000610351562722e-01,9.858341217041015625e-01,1.000000000000000000e+00,1.000000000000000000e+00,1.000000000000000000e+00,3.159162282943725475e-01,3.119075059890746848e-01,3.149166822433471791e-01,3.417089939117431419e-01,3.428753376007079856e-01,3.450148344039917214e-01,3.526263713836669811e-01,3.580520391464233620e-01,3.502529621124267356e-01,3.482133388519287331e-01,3.486216783523559681e-01,3.517139434814453014e-01,3.643374443054199219e-01,1.000000000000000000e+00,1.000000000000000000e+00,1.000000000000000000e+00,1.000000000000000000e+00,1.000000000000000000e+00,1.000000000000000000e+00,1.000000000000000000e+00,1.000000000000000000e+00,1.000000000000000000e+00,1.000000000000000000e+00,1.000000000000000000e+00,1.000000000000000000e+00,1.000000000000000000e+00,1.000000000000000000e+00,1.000000000000000000e+00,1.000000000000000000e+00,1.000000000000000000e+00,1.000000000000000000e+00,1.000000000000000000e+00,1.000000000000000000e+00,1.000000000000000000e+00,1.000000000000000000e+00,1.000000000000000000e+00,1.000000000000000000e+00,1.000000000000000000e+00,1.000000000000000000e+00,1.000000000000000000e+00,1.000000000000000000e+00,1.000000000000000000e+00,1.000000000000000000e+00,1.000000000000000000e+00,1.000000000000000000e+00,1.000000000000000000e+00,1.000000000000000000e+00,1.000000000000000000e+00,1.000000000000000000e+00,1.000000000000000000e+00,1.000000000000000000e+00,9.684403419494629350e-01,9.367797851562500444e-01,9.071237564086913618e-01,8.792878150939941184e-01,8.531093597412109375e-01,8.284446716308593306e-01,8.051659584045409712e-01,7.831599235534667525e-01,7.623246669769286887e-01,7.425692558288574663e-01
6.198653697967528853e-01,6.355933189392090066e-01,6.521400451660156472e-01,6.695713996887207031e-01,6.879602432250976340e-01,7.073875904083252175e-01,7.279441356658935547e-01,7.497310638427734375e-01,7.728623867034911665e-01,7.974666118621825950e-01,8.236930847167969194e-01,8.517034530639648882e-01,8.816859245300292525e-01,9.138563156127930132e-01,9.484632492065430132e-01,9.857944488525390847e-01,1.000000000000000000e+00,1.000000000000000000e+00,1.000000000000000000e+00,3.112596035003661887e-01,3.075996637344360352e-01,3.415455579757690208e-01,3.134980678558349498e-01,3.426834583282470925e-01,3.441385984420776145e-01,3.519640445709228405e-01,3.561866521835327370e-01,3.497254848480224609e-01,3.459525108337402344e-01,3.465166568756103405e-01,3.473590850830078347e-01,3.590413570404052956e-01,1.000000000000000000e+00,1.000000000000000000e+00,1.000000000000000000e+00,1.000000000000000000e+00,1.000000000000000000e+00,1.000000000000000000e+00,1.000000000000000000e+00,1.000000000000000000e+00,1.000000000000000000e+00,1.000000000000000000e+00,1.000000000000000000e+00,1.000000000000000000e+00,1.000000000000000000e+00,1.000000000000000000e+00,1.000000000000000000e+00,1.000000000000000000e+00,1.000000000000000000e+00,1.000000000000000000e+00,1.000000000000000000e+00,1.000000000000000000e+00,1.000000000000000000e+00,1.000000000000000000e+00,1.000000000000000000e+00,1.000000000000000000e+00,1.000000000000000000e+00,1.000000000000000000e+00,1.000000000000000000e+00,1.000000000000000000e+00,1.000000000000000000e+00,1.000000000000000000e+00,1.000000000000000000e+00,1.000000000000000000e+00,1.000000000000000000e+00,1.000000000000000000e+00,1.000000000000000000e+00,1.000000000000000000e+00,1.000000000000000000e+00,1.000000000000000000e+00,9.684654235839843528e-01,9.368032455444336160e-01,9.071457862854004350e-01,8.793085098266602007e-01,8.531288146972656472e-01,8.284629821777343972e-01,8.051833152770996316e-01,7.831762790679931419e-01,7.623401641845702903e-01,7.425840377807617632e-01
6.198521614074706809e-01,6.355793476104736328e-01,6.521253585815429688e-01,6.695559501647949663e-01,6.879438877105712447e-01,7.073703765869140403e-01,7.279258251190185991e-01,7.497116565704345925e-01,7.728418350219726785e-01,7.974446296691894975e-01,8.236653327941894087e-01,8.516737937927245650e-01,8.816540718078613725e-01,9.138220787048340066e-01,9.484264373779296431e-01,9.857545852661132590e-01,1.000000000000000000e+00,1.000000000000000000e+00,1.000000000000000000e+00,3.128506898880004661e-01,3.497398853302001731e-01,3.422729015350342019e-01,3.427554845809936412e-01,3.433012962341308594e-01,3.447064876556396595e-01,3.519073009490966686e-01,3.588850975036620983e-01,3.491858005523681419e-01,3.437760114669800027e-01,3.447061538696288840e-01,3.452662467956543191e-01,3.548752784729004017e-01,1.000000000000000000e+00,1.000000000000000000e+00,1.000000000000000000e+00,1.000000000000000000e+00,1.000000000000000000e+00,1.000000000000000000e+00,1.000000000000000000e+00,1.000000000000000000e+00,1.000000000000000000e+00,1.000000000000000000e+00,1.000000000000000000e+00,1.000000000000000000e+00,1.000000000000000000e+00,1.000000000000000000e+00,1.000000000000000000e+00,1.000000000000000000e+00,1.000000000000000000e+00,1.000000000000000000e+00,1.000000000000000000e+00,1.000000000000000000e+00,1.000000000000000000e+00,1.000000000000000000e+00,1.000000000000000000e+00,1.000000000000000000e+00,1.000000000000000000e+00,1.000000000000000000e+00,1.000000000000000000e+00,1.000000000000000000e+00,1.000000000000000000e+00,1.000000000000000000e+00,1.000000000000000000e+00,1.000000000000000000e+00,1.000000000000000000e+00,1.000000000000000000e+00,1.000000000000000000e+00,1.000000000000000000e+00,1.000000000000000000e+00,1.000000000000000000e+00,9.684905052185058816e-01,9.368267059326171875e-01,9.071677207946777788e-01,8.793292045593261719e-01,8.531483650207519753e-01,8.284812927246093528e-01,8.052006721496581809e-01,7.831926345825195312e-01,7.623557567596435103e-01,7.425987243652343306e-01
6.198389053344726118e-01,6.355653762817382590e-01,6.521107196807861550e-01,6.695404529571533647e-01,6.879275798797607200e-01,7.073530673980712447e-01,7.279075145721435325e-01,7.496922969818115012e-01,7.728211879730224609e-01,7.974226474761962891e-01,8.236418724060058372e-01,8.516441345214843528e-01,8.816222190856933816e-01,9.137879371643066184e-01,9.483895301818847656e-01,9.857148170471191628e-01,1.000000000000000000e+00,1.000000000000000000e+00,1.000000000000000000e+00,3.093834638595581166e-01,3.538136243820190208e-01,3.434561014175415150e-01,3.437674045562744141e-01,3.442075014114379661e-01,3.457077741622924805e-01,3.530553817749023660e-01,3.613674163818359486e-01,3.485048055648803933e-01,3.420547246932983398e-01,3.425244808197021595e-01,3.434687614440917747e-01,3.510444641113281139e-01,1.000000000000000000e+00,1.000000000000000000e+00,1.000000000000000000e+00,1.000000000000000000e+00,1.000000000000000000e+00,1.000000000000000000e+00,1.000000000000000000e+00,1.000000000000000000e+00,1.000000000000000000e+00,1.000000000000000000e+00,1.000000000000000000e+00,1.000000000000000000e+00,1.000000000000000000e+00,1.000000000000000000e+00,1.000000000000000000e+00,1.000000000000000000e+00,1.000000000000000000e+00,1.000000000000000000e+00,1.000000000000000000e+00,1.000000000000000000e+00,1.000000000000000000e+00,1.000000000000000000e+00,1.000000000000000000e+00,1.000000000000000000e+00,1.000000000000000000e+00,1.000000000000000000e+00,1.000000000000000000e+00,1.000000000000000000e+00,1.000000000000000000e+00,1.000000000000000000e+00,1.000000000000000000e+00,1.000000000000000000e+00,1.000000000000000000e+00,1.000000000000000000e+00,1.000000000000000000e+00,1.000000000000000000e+00,1.000000000000000000e+00,1.000000000000000000e+00,9.685155868530272993e-01,9.368500709533691406e-01,9.071897506713867410e-01,8.793498992919921431e-01,8.531677246093749556e-01,8.284996986389160378e-01,8.052180290222168413e-01,7.832090854644775391e-01,7.623712539672851118e-01,7.426135540008544922e-01
6.198256015777587891e-01,6.355514526367187500e-01,6.520960330963134766e-01,6.695250034332275169e-01,6.879112243652343306e-01,7.073357582092285600e-01,7.278892517089843306e-01,7.496728420257567915e-01,7.728005409240722434e-01,7.974007606506348100e-01,8.236185073852538840e-01,8.516189575195312056e-01,8.815904617309570090e-01,9.137537002563476118e-01,9.483527183532715066e-01,9.856750488281249556e-01,1.000000000000000000e+00,1.000000000000000000e+00,1.000000000000000000e+00,3.061675310134887584e-01,3.597049951553344949e-01,3.446962356567382924e-01,3.448322296142578014e-01,3.452750682830810769e-01,3.474547147750854381e-01,3.547283887863159069e-01,3.630077838897705078e-01,3.478264808654785156e-01,3.413745164871215820e-01,3.402147054672240989e-01,3.413213253021240012e-01,3.475481033325195090e-01,1.000000000000000000e+00,1.000000000000000000e+00,1.000000000000000000e+00,1.000000000000000000e+00,1.000000000000000000e+00,1.000000000000000000e+00,1.000000000000000000e+00,1.000000000000000000e+00,1.000000000000000000e+00,1.000000000000000000e+00,1.000000000000000000e+00,1.000000000000000000e+00,1.000000000000000000e+00,1.000000000000000000e+00,1.000000000000000000e+00,1.000000000000000000e+00,1.000000000000000000e+00,1.000000000000000000e+00,1.000000000000000000e+00,1.000000000000000000e+00,1.000000000000000000e+00,1.000000000000000000e+00,1.000000000000000000e+00,1.000000000000000000e+00,1.000000000000000000e+00,1.000000000000000000e+00,1.000000000000000000e+00,1.000000000000000000e+00,1.000000000000000000e+00,1.000000000000000000e+00,1.000000000000000000e+00,1.000000000000000000e+00,1.000000000000000000e+00,1.000000000000000000e+00,1.000000000000000000e+00,1.000000000000000000e+00,1.000000000000000000e+00,1.000000000000000000e+00,9.685405731201172097e-01,9.368736267089843306e-01,9.072117805480957031e-01,8.793704986572266069e-01,8.531871795654296653e-01,8.285180091857909934e-01,8.052352905273437722e-01,7.832254409790039285e-01,7.623868465423584428e-01,7.426282405853271706e-01
6.198123931884765847e-01,6.355374813079833762e-01,6.520813941955566628e-01,6.695095062255859153e-01,6.878948688507080522e-01,7.073185443878173828e-01,7.278709411621093750e-01,7.496535301208495650e-01,7.727799892425537553e-01,7.973787784576416016e-01,8.235951423645019309e-01,8.515939712524414062e-01,8.815633773803710493e-01,9.137195587158203347e-01,9.483159065246582475e-01,9.856352806091308594e-01,1.000000000000000000e+00,1.000000000000000000e+00,1.000000000000000000e+00,1.000000000000000000e+00,3.643579244613647239e-01,3.462194442749023660e-01,3.460648298263550027e-01,3.463492393493652344e-01,3.492193937301635853e-01,3.561894893646240234e-01,1.000000000000000000e+00,3.471425533294677512e-01,3.403267860412597656e-01,3.380377769470214733e-01,3.392691850662231667e-01,3.420512914657592995e-01,1.000000000000000000e+00,1.000000000000000000e+00,1.000000000000000000e+00,1.000000000000000000e+00,1.000000000000000000e+00,1.000000000000000000e+00,1.000000000000000000e+00,1.000000000000000000e+00,1.000000000000000000e+00,1.000000000000000000e+00,1.000000000000000000e+00,1.000000000000000000e+00,1.000000000000000000e+00,1.000000000000000000e+00,1.000000000000000000e+00,1.000000000000000000e+00,1.000000000000000000e+00,1.000000000000000000e+00,1.000000000000000000e+00,1.000000000000000000e+00,1.000000000000000000e+00,1.000000000000000000e+00,1.000000000000000000e+00,1.000000000000000000e+00,1.000000000000000000e+00,1.000000000000000000e+00,1.000000000000000000e+00,1.000000000000000000e+00,1.000000000000000000e+00,1.000000000000000000e+00,1.000000000000000000e+00,1.000000000000000000e+00,1.000000000000000000e+00,1.000000000000000000e+00,1.000000000000000000e+00,1.000000000000000000e+00,1.000000000000000000e+00,1.000000000000000000e+00,9.685656547546386275e-01,9.368970870971680132e-01,9.072337150573730469e-01,8.793911933898925781e-01,8.532066345214843750e-01,8.285363197326660600e-01,8.052526473999023215e-01,7.832418918609619363e-01,7.624023437500000444e-01,7.426429748535156028e-01
6.197990894317626509e-01,6.355236053466797319e-01,6.520667076110839844e-01,6.694940090179443137e-01,6.878786087036132812e-01,7.073012351989745872e-01,7.278527259826660378e-01,7.496340751647949663e-01,7.727593421936035378e-01,7.973568916320801225e-01,8.235716819763183594e-01,8.515688896179198775e-01,8.815365791320800559e-01,9.136904716491699441e-01,9.482790946960448775e-01,9.855955123901367632e-01,1.000000000000000000e+00,1.000000000000000000e+00,1.000000000000000000e+00,1.000000000000000000e+00,1.000000000000000000e+00,3.486182689666748047e-01,3.473238706588744895e-01,3.474443197250366433e-01,3.509381532669067494e-01,3.575801372528076283e-01,1.000000000000000000e+00,3.473254203796386497e-01,3.390317916870116965e-01,3.351917505264282449e-01,3.371516942977905162e-01,3.383336544036865123e-01,1.000000000000000000e+00,1.000000000000000000e+00,1.000000000000000000e+00,1.000000000000000000e+00,1.000000000000000000e+00,1.000000000000000000e+00,1.000000000000000000e+00,1.000000000000000000e+00,1.000000000000000000e+00,1.000000000000000000e+00,1.000000000000000000e+00,1.000000000000000000e+00,1.000000000000000000e+00,1.000000000000000000e+00,1.000000000000000000e+00,1.000000000000000000e+00,1.000000000000000000e+00,1.000000000000000000e+00,1.000000000000000000e+00,1.000000000000000000e+00,1.000000000000000000e+00,1.000000000000000000e+00,1.000000000000000000e+00,1.000000000000000000e+00,1.000000000000000000e+00,1.000000000000000000e+00,1.000000000000000000e+00,1.000000000000000000e+00,1.000000000000000000e+00,1.000000000000000000e+00,1.000000000000000000e+00,1.000000000000000000e+00,1.000000000000000000e+00,1.000000000000000000e+00,1.000000000000000000e+00,1.000000000000000000e+00,1.000000000000000000e+00,1.000000000000000000e+00,9.685908317565917747e-01,9.369205474853515847e-01,9.072557449340820090e-01,8.794118881225585493e-01,8.532261848449707031e-01,8.285547256469726340e-01,8.052700042724609819e-01,7.832582473754883257e-01,7.624178409576416460e-01,7.426577568054198997e-01
6.197962760925292969e-01,6.355144977569580078e-01,6.520519733428955522e-01,6.694786071777343306e-01,6.878622055053711382e-01,7.072840213775635210e-01,7.278344154357909712e-01,7.496146678924560103e-01,7.727387905120849387e-01,7.973349094390869141e-01,8.235482215881347878e-01,8.515439033508300781e-01,8.815097808837890625e-01,9.136616706848144087e-01,9.482476234436034712e-01,9.855557441711425559e-01,1.000000000000000000e+00,1.000000000000000000e+00,1.000000000000000000e+00,1.000000000000000000e+00,1.000000000000000000e+00,3.513052463531494141e-01,3.482748746871948131e-01,3.485203981399536133e-01,3.522984027862549050e-01,3.589816570281982311e-01,1.000000000000000000e+00,3.504872798919677623e-01,3.380683183670044056e-01,3.339040994644165150e-01,3.343204975128173939e-01,3.362702131271362305e-01,1.000000000000000000e+00,1.000000000000000000e+00,1.000000000000000000e+00,1.000000000000000000e+00,1.000000000000000000e+00,1.000000000000000000e+00,1.000000000000000000e+00,1.000000000000000000e+00,1.000000000000000000e+00,1.000000000000000000e+00,1.000000000000000000e+00,1.000000000000000000e+00,1.000000000000000000e+00,1.000000000000000000e+00,1.000000000000000000e+00,1.000000000000000000e+00,1.000000000000000000e+00,1.000000000000000000e+00,1.000000000000000000e+00,1.000000000000000000e+00,1.000000000000000000e+00,1.000000000000000000e+00,1.000000000000000000e+00,1.000000000000000000e+00,1.000000000000000000e+00,1.000000000000000000e+00,1.000000000000000000e+00,1.000000000000000000e+00,1.000000000000000000e+00,1.000000000000000000e+00,1.000000000000000000e+00,1.000000000000000000e+00,1.000000000000000000e+00,1.000000000000000000e+00,1.000000000000000000e+00,1.000000000000000000e+00,1.000000000000000000e+00,1.000000000000000000e+00,9.686159133911133035e-01,9.369440078735351562e-01,9.072777748107909712e-01,8.794325828552246316e-01,8.532455444335937944e-01,8.285730361938477007e-01,8.052873611450195312e-01,7.832746028900146040e-01,7.624334335327148660e-01,7.426724433898925781e-01
6.197962760925292969e-01,6.355144977569580078e-01,6.520507335662841797e-01,6.694704532623291238e-01,6.878465652465820535e-01,7.072667121887207253e-01,7.278160572052001509e-01,7.495953083038330300e-01,7.727181434631347212e-01,7.973130226135254350e-01,8.235248565673828347e-01,8.515188217163085493e-01,8.814829826354980691e-01,9.136328697204589844e-01,9.482166290283202681e-01,9.855216979980468972e-01,1.000000000000000000e+00,1.000000000000000000e+00,1.000000000000000000e+00,1.000000000000000000e+00,1.000000000000000000e+00,3.541228055953979381e-01,3.489788532257079856e-01,3.492254018783569336e-01,3.537521123886108176e-01,3.613805055618286022e-01,1.000000000000000000e+00,1.000000000000000000e+00,3.371919393539428711e-01,3.329695701599121316e-01,3.320135593414306752e-01,3.340375661849975808e-01,1.000000000000000000e+00,1.000000000000000000e+00,1.000000000000000000e+00,1.000000000000000000e+00,1.000000000000000000e+00,1.000000000000000000e+00,1.000000000000000000e+00,1.000000000000000000e+00,1.000000000000000000e+00,1.000000000000000000e+00,1.000000000000000000e+00,1.000000000000000000e+00,1.000000000000000000e+00,1.000000000000000000e+00,1.000000000000000000e+00,1.000000000000000000e+00,1.000000000000000000e+00,1.000000000000000000e+00,1.000000000000000000e+00,1.000000000000000000e+00,1.000000000000000000e+00,1.000000000000000000e+00,1.000000000000000000e+00,1.000000000000000000e+00,1.000000000000000000e+00,1.000000000000000000e+00,1.000000000000000000e+00,1.000000000000000000e+00,1.000000000000000000e+00,1.000000000000000000e+00,1.000000000000000000e+00,1.000000000000000000e+00,1.000000000000000000e+00,1.000000000000000000e+00,1.000000000000000000e+00,1.000000000000000000e+00,1.000000000000000000e+00,1.000000000000000000e+00,9.686408996582031028e-01,9.369674682617187278e-01,9.072998046875000444e-01,8.794531822204589844e-01,8.532649993896483931e-01,8.285914421081542747e-01,8.053046226501464622e-01,7.832911014556884766e-01,7.624489307403564675e-01,7.426871776580810103e-01
6.197931766510009766e-01,6.355144977569580078e-01,6.520507812500000444e-01,6.694705009460448775e-01,6.878465652465820535e-01,7.072598934173583984e-01,7.278008460998535156e-01,7.495759010314941850e-01,7.726975917816162331e-01,7.972910404205322266e-01,8.235014915466308816e-01,8.514938354492187500e-01,8.814561843872070757e-01,9.136039733886718306e-01,9.481856346130370650e-01,9.854881286621093306e-01,1.000000000000000000e+00,1.000000000000000000e+00,1.000000000000000000e+00,1.000000000000000000e+00,1.000000000000000000e+00,3.569859266281127930e-01,3.499147415161132924e-01,3.499332666397094727e-01,3.552178859710693470e-01,1.000000000000000000e+00,1.000000000000000000e+00,1.000000000000000000e+00,3.360450744628906139e-01,3.325315237045288197e-01,3.307552099227905051e-01,3.328824281692505105e-01,1.000000000000000000e+00,1.000000000000000000e+00,1.000000000000000000e+00,1.000000000000000000e+00,1.000000000000000000e+00,1.000000000000000000e+00,1.000000000000000000e+00,1.000000000000000000e+00,1.000000000000000000e+00,1.000000000000000000e+00,1.000000000000000000e+00,1.000000000000000000e+00,1.000000000000000000e+00,1.000000000000000000e+00,1.000000000000000000e+00,1.000000000000000000e+00,1.000000000000000000e+00,1.000000000000000000e+00,1.000000000000000000e+00,1.000000000000000000e+00,1.000000000000000000e+00,1.000000000000000000e+00,1.000000000000000000e+00,1.000000000000000000e+00,1.000000000000000000e+00,1.000000000000000000e+00,1.000000000000000000e+00,1.000000000000000000e+00,1.000000000000000000e+00,1.000000000000000000e+00,1.000000000000000000e+00,1.000000000000000000e+00,1.000000000000000000e+00,1.000000000000000000e+00,1.000000000000000000e+00,1.000000000000000000e+00,1.000000000000000000e+00,1.000000000000000000e+00,9.686659812927246316e-01,9.369909286499022993e-01,9.073217391967773882e-01,8.794738769531249556e-01,8.532845497131347212e-01,8.286097526550293413e-01,8.053219795227051225e-01,7.833074569702148660e-01,7.624644756317138228e-01,7.427019596099853072e-01
6.197798728942871538e-01,6.355034351348877175e-01,6.520455360412598100e-01,6.694705009460448775e-01,6.878465652465820535e-01,7.072598934173583984e-01,7.278008460998535156e-01,7.495706081390380859e-01,7.726830005645751731e-01,7.972690582275390181e-01,8.234780311584473100e-01,8.514688491821289507e-01,8.814292907714843528e-01,9.135751724243164062e-01,9.481545448303222434e-01,9.854546546936034934e-01,1.000000000000000000e+00,1.000000000000000000e+00,1.000000000000000000e+00,1.000000000000000000e+00,1.000000000000000000e+00,3.606902122497558372e-01,3.512624502182006836e-01,3.506439924240112305e-01,3.562201976776123158e-01,1.000000000000000000e+00,1.000000000000000000e+00,1.000000000000000000e+00,3.369247436523437611e-01,3.331999301910400502e-01,3.318737745285034180e-01,3.336982011795043834e-01,1.000000000000000000e+00,1.000000000000000000e+00,1.000000000000000000e+00,1.000000000000000000e+00,1.000000000000000000e+00,1.000000000000000000e+00,1.000000000000000000e+00,1.000000000000000000e+00,1.000000000000000000e+00,1.000000000000000000e+00,1.000000000000000000e+00,1.000000000000000000e+00,1.000000000000000000e+00,1.000000000000000000e+00,1.000000000000000000e+00,1.000000000000000000e+00,1.000000000000000000e+00,1.000000000000000000e+00,1.000000000000000000e+00,1.000000000000000000e+00,1.000000000000000000e+00,1.000000000000000000e+00,1.000000000000000000e+00,1.000000000000000000e+00,1.000000000000000000e+00,1.000000000000000000e+00,1.000000000000000000e+00,1.000000000000000000e+00,1.000000000000000000e+00,1.000000000000000000e+00,1.000000000000000000e+00,1.000000000000000000e+00,1.000000000000000000e+00,1.000000000000000000e+00,1.000000000000000000e+00,1.000000000000000000e+00,1.000000000000000000e+00,1.000000000000000000e+00,9.686910629272460493e-01,9.370143890380859819e-01,9.073437690734863503e-01,8.794945716857910378e-01,8.533040046691894309e-01,8.286280632019042969e-01,8.053393363952636719e-01,7.833239078521728738e-01,7.624800682067871538e-01,7.427166938781738503e-01
6.197665691375732200e-01,6.354894161224364790e-01,6.520307540893555132e-01,6.694562911987305132e-01,6.878387451171874556e-01,7.072592258453369585e-01,7.278009414672851340e-01,7.495707035064697044e-01,7.726830005645751731e-01,7.972659111022949441e-01,8.234644889831542747e-01,8.514438629150390403e-01,8.814024925231933594e-01,9.135464668273926003e-01,9.481235504150390403e-01,9.854211807250976562e-01,1.000000000000000000e+00,1.000000000000000000e+00,1.000000000000000000e+00,1.000000000000000000e+00,1.000000000000000000e+00,3.640673875808715931e-01,3.526205778121948020e-01,3.515434503555298074e-01,3.570981264114380105e-01,1.000000000000000000e+00,1.000000000000000000e+00,1.000000000000000000e+00,3.387745141983032338e-01,3.348265886306762695e-01,3.336914300918579213e-01,3.355359554290771595e-01,1.000000000000000000e+00,1.000000000000000000e+00,1.000000000000000000e+00,1.000000000000000000e+00,1.000000000000000000e+00,1.000000000000000000e+00,1.000000000000000000e+00,1.000000000000000000e+00,1.000000000000000000e+00,1.000000000000000000e+00,1.000000000000000000e+00,1.000000000000000000e+00,1.000000000000000000e+00,1.000000000000000000e+00,1.000000000000000000e+00,1.000000000000000000e+00,1.000000000000000000e+00,1.000000000000000000e+00,1.000000000000000000e+00,1.000000000000000000e+00,1.000000000000000000e+00,1.000000000000000000e+00,1.000000000000000000e+00,1.000000000000000000e+00,1.000000000000000000e+00,1.000000000000000000e+00,1.000000000000000000e+00,1.000000000000000000e+00,1.000000000000000000e+00,1.000000000000000000e+00,1.000000000000000000e+00,1.000000000000000000e+00,1.000000000000000000e+00,1.000000000000000000e+00,1.000000000000000000e+00,1.000000000000000000e+00,1.000000000000000000e+00,1.000000000000000000e+00,9.687162399291991965e-01,9.370378494262695535e-01,9.073657989501953125e-01,8.795152664184570090e-01,8.533233642578125222e-01,8.286464691162109819e-01,8.053566932678222212e-01,7.833402633666992632e-01,7.624955654144287553e-01,7.427314758300781472e-01
6.197533130645751509e-01,6.354754447937012163e-01,6.520160675048828347e-01,6.694407463073730469e-01,6.878223419189453125e-01,7.072419166564941628e-01,7.277898788452148438e-01,7.495675086975097656e-01,7.726830005645751731e-01,7.972659111022949441e-01,8.234644889831542747e-01,8.514433860778808372e-01,8.813903808593750444e-01,9.135207176208496316e-01,9.480925559997558372e-01,9.853876113891602007e-01,1.000000000000000000e+00,1.000000000000000000e+00,1.000000000000000000e+00,1.000000000000000000e+00,1.000000000000000000e+00,3.645637035369873047e-01,3.547709941864013450e-01,3.538846015930176003e-01,3.592235088348388894e-01,1.000000000000000000e+00,1.000000000000000000e+00,1.000000000000000000e+00,3.406446933746337669e-01,3.359466552734374778e-01,3.358142137527465598e-01,3.373940706253051869e-01,1.000000000000000000e+00,1.000000000000000000e+00,1.000000000000000000e+00,1.000000000000000000e+00,1.000000000000000000e+00,1.000000000000000000e+00,1.000000000000000000e+00,1.000000000000000000e+00,1.000000000000000000e+00,1.000000000000000000e+00,1.000000000000000000e+00,1.000000000000000000e+00,1.000000000000000000e+00,1.000000000000000000e+00,1.000000000000000000e+00,1.000000000000000000e+00,1.000000000000000000e+00,1.000000000000000000e+00,1.000000000000000000e+00,1.000000000000000000e+00,1.000000000000000000e+00,1.000000000000000000e+00,1.000000000000000000e+00,1.000000000000000000e+00,1.000000000000000000e+00,1.000000000000000000e+00,1.000000000000000000e+00,1.000000000000000000e+00,1.000000000000000000e+00,1.000000000000000000e+00,1.000000000000000000e+00,1.000000000000000000e+00,1.000000000000000000e+00,1.000000000000000000e+00,1.000000000000000000e+00,1.000000000000000000e+00,1.000000000000000000e+00,1.000000000000000000e+00,9.687412261962891069e-01,9.370613098144531250e-01,9.073878288269042747e-01,8.795358657836913618e-01,8.533428192138672319e-01,8.286648750305175559e-01,8.053739547729492632e-01,7.833566188812255415e-01,7.625115871429443137e-01,7.427473545074463335e-01
6.197400093078613281e-01,6.354615211486815962e-01,6.520013809204101562e-01,6.694252490997314453e-01,6.878059864044189231e-01,7.072245597839355025e-01,7.277714729309081587e-01,7.495481014251709206e-01,7.726680755615233931e-01,7.972596645355224387e-01,8.234644889831542747e-01,8.514433860778808372e-01,8.813903808593750444e-01,9.135208129882812500e-01,9.480823516845703347e-01,9.853619575500488503e-01,1.000000000000000000e+00,1.000000000000000000e+00,1.000000000000000000e+00,1.000000000000000000e+00,3.756128072738647572e-01,3.650225877761840709e-01,3.582145452499389537e-01,3.580451965332031028e-01,3.638110160827636719e-01,1.000000000000000000e+00,1.000000000000000000e+00,1.000000000000000000e+00,3.421464443206786998e-01,3.383267164230346902e-01,3.381923913955688366e-01,3.424433469772338867e-01,1.000000000000000000e+00,1.000000000000000000e+00,1.000000000000000000e+00,1.000000000000000000e+00,1.000000000000000000e+00,1.000000000000000000e+00,1.000000000000000000e+00,1.000000000000000000e+00,1.000000000000000000e+00,1.000000000000000000e+00,1.000000000000000000e+00,1.000000000000000000e+00,1.000000000000000000e+00,1.000000000000000000e+00,1.000000000000000000e+00,1.000000000000000000e+00,1.000000000000000000e+00,1.000000000000000000e+00,1.000000000000000000e+00,1.000000000000000000e+00,1.000000000000000000e+00,1.000000000000000000e+00,1.000000000000000000e+00,1.000000000000000000e+00,1.000000000000000000e+00,1.000000000000000000e+00,1.000000000000000000e+00,1.000000000000000000e+00,1.000000000000000000e+00,1.000000000000000000e+00,1.000000000000000000e+00,1.000000000000000000e+00,1.000000000000000000e+00,1.000000000000000000e+00,1.000000000000000000e+00,1.000000000000000000e+00,1.000000000000000000e+00,1.000000000000000000e+00,9.687663078308105247e-01,9.370847702026366965e-01,9.074098587036132368e-01,8.795565605163574441e-01,8.533623695373535600e-01,8.286831855773926225e-01,8.053922653198242188e-01,7.833748340606689897e-01,7.625291824340820757e-01,7.427640914916991965e-01
6.197267055511475053e-01,6.354474544525146040e-01,6.519866943359374778e-01,6.694097518920898438e-01,6.877896308898925337e-01,7.072072505950928178e-01,7.277531623840332031e-01,7.495285987854003462e-01,7.726474285125732866e-01,7.972377300262450950e-01,8.234446525573730913e-01,8.514330863952637163e-01,8.813903808593750444e-01,9.135208129882812500e-01,9.480823516845703347e-01,9.853620529174804688e-01,1.000000000000000000e+00,1.000000000000000000e+00,1.000000000000000000e+00,1.000000000000000000e+00,3.776034116744995117e-01,3.700284481048584095e-01,3.655663967132568581e-01,3.687683105468749778e-01,1.000000000000000000e+00,1.000000000000000000e+00,1.000000000000000000e+00,1.000000000000000000e+00,3.423722982406616211e-01,3.393539667129516491e-01,3.396080732345581055e-01,3.446145057678222656e-01,1.000000000000000000e+00,1.000000000000000000e+00,1.000000000000000000e+00,1.000000000000000000e+00,1.000000000000000000e+00,1.000000000000000000e+00,1.000000000000000000e+00,1.000000000000000000e+00,1.000000000000000000e+00,1.000000000000000000e+00,1.000000000000000000e+00,1.000000000000000000e+00,1.000000000000000000e+00,1.000000000000000000e+00,1.000000000000000000e+00,1.000000000000000000e+00,1.000000000000000000e+00,1.000000000000000000e+00,1.000000000000000000e+00,1.000000000000000000e+00,1.000000000000000000e+00,1.000000000000000000e+00,1.000000000000000000e+00,1.000000000000000000e+00,1.000000000000000000e+00,1.000000000000000000e+00,1.000000000000000000e+00,1.000000000000000000e+00,1.000000000000000000e+00,1.000000000000000000e+00,1.000000000000000000e+00,1.000000000000000000e+00,1.000000000000000000e+00,1.000000000000000000e+00,1.000000000000000000e+00,1.000000000000000000e+00,1.000000000000000000e+00,1.000000000000000000e+00,9.687914848327636719e-01,9.371083259582519975e-01,9.074317932128905806e-01,8.795779228210449663e-01,8.533833503723144975e-01,8.287039756774902122e-01,8.054120063781737837e-01,7.833933830261230469e-01,7.625467777252197266e-01,7.427807807922363059e-01
6.197134017944335715e-01,6.354335308074950950e-01,6.519719123840331809e-01,6.693942070007323775e-01,6.877732753753662553e-01,7.071899414062500222e-01,7.277348518371582475e-01,7.495091915130615012e-01,7.726266860961914507e-01,7.972156524658202681e-01,8.234211921691894087e-01,8.514081001281738059e-01,8.813643455505371094e-01,9.135055541992187500e-01,9.480795860290527344e-01,9.853620529174804688e-01,1.000000000000000000e+00,1.000000000000000000e+00,1.000000000000000000e+00,1.000000000000000000e+00,3.824701786041259655e-01,3.776711225509643555e-01,3.757337093353271262e-01,1.000000000000000000e+00,1.000000000000000000e+00,1.000000000000000000e+00,1.000000000000000000e+00,1.000000000000000000e+00,3.420392274856567383e-01,3.392757177352905273e-01,3.396201372146606667e-01,3.445580959320068137e-01,1.000000000000000000e+00,1.000000000000000000e+00,1.000000000000000000e+00,1.000000000000000000e+00,1.000000000000000000e+00,1.000000000000000000e+00,1.000000000000000000e+00,1.000000000000000000e+00,1.000000000000000000e+00,1.000000000000000000e+00,1.000000000000000000e+00,1.000000000000000000e+00,1.000000000000000000e+00,1.000000000000000000e+00,1.000000000000000000e+00,1.000000000000000000e+00,1.000000000000000000e+00,1.000000000000000000e+00,1.000000000000000000e+00,1.000000000000000000e+00,1.000000000000000000e+00,1.000000000000000000e+00,1.000000000000000000e+00,1.000000000000000000e+00,1.000000000000000000e+00,1.000000000000000000e+00,1.000000000000000000e+00,1.000000000000000000e+00,1.000000000000000000e+00,1.000000000000000000e+00,1.000000000000000000e+00,1.000000000000000000e+00,1.000000000000000000e+00,1.000000000000000000e+00,1.000000000000000000e+00,1.000000000000000000e+00,1.000000000000000000e+00,1.000000000000000000e+00,9.688166618347168191e-01,9.371331214904785600e-01,9.074563026428222878e-01,8.796012878417969194e-01,8.534054756164550781e-01,8.287248611450195312e-01,8.054315567016601118e-01,7.834120750427245872e-01,7.625643730163573775e-01,7.427974700927734153e-01
6.197001457214355025e-01,6.354195594787597212e-01,6.519572257995605025e-01,6.693787097930907759e-01,6.877568244934082475e-01,7.071725845336913618e-01,7.277165412902831809e-01,7.494897365570067915e-01,7.726060390472412331e-01,7.971936702728271706e-01,8.233977317810058372e-01,8.513829231262206587e-01,8.813374519348144975e-01,9.134765624999999778e-01,9.480484008789062944e-01,9.853401184082031250e-01,1.000000000000000000e+00,1.000000000000000000e+00,1.000000000000000000e+00,1.000000000000000000e+00,3.875338792800903098e-01,3.829987525939941295e-01,3.873468160629272572e-01,1.000000000000000000e+00,1.000000000000000000e+00,1.000000000000000000e+00,1.000000000000000000e+00,1.000000000000000000e+00,3.417493581771850475e-01,3.391341686248779408e-01,3.396321535110473633e-01,3.448690652847289928e-01,1.000000000000000000e+00,1.000000000000000000e+00,1.000000000000000000e+00,1.000000000000000000e+00,1.000000000000000000e+00,1.000000000000000000e+00,1.000000000000000000e+00,1.000000000000000000e+00,1.000000000000000000e+00,1.000000000000000000e+00,1.000000000000000000e+00,1.000000000000000000e+00,1.000000000000000000e+00,1.000000000000000000e+00,1.000000000000000000e+00,1.000000000000000000e+00,1.000000000000000000e+00,1.000000000000000000e+00,1.000000000000000000e+00,1.000000000000000000e+00,1.000000000000000000e+00,1.000000000000000000e+00,1.000000000000000000e+00,1.000000000000000000e+00,1.000000000000000000e+00,1.000000000000000000e+00,1.000000000000000000e+00,1.000000000000000000e+00,1.000000000000000000e+00,1.000000000000000000e+00,1.000000000000000000e+00,1.000000000000000000e+00,1.000000000000000000e+00,1.000000000000000000e+00,1.000000000000000000e+00,1.000000000000000000e+00,1.000000000000000000e+00,1.000000000000000000e+00,9.688450813293456587e-01,9.371596336364745872e-01,9.074811935424804688e-01,8.796247482299804910e-01,8.534275054931640403e-01,8.287456512451172319e-01,8.054512977600097878e-01,7.834306240081787553e-01,7.625820159912108931e-01,7.428142547607421431e-01
6.196867942810058150e-01,6.354055881500244585e-01,6.519425392150879350e-01,6.693632125854491743e-01,6.877404689788818581e-01,7.071553230285644309e-01,7.276981830596923606e-01,7.494702339172363281e-01,7.725854396820068803e-01,7.971716880798339622e-01,8.233741760253906472e-01,8.513579368591308594e-01,8.813105583190917747e-01,9.134476661682129350e-01,9.480174064636230913e-01,9.853065490722656694e-01,1.000000000000000000e+00,1.000000000000000000e+00,1.000000000000000000e+00,1.000000000000000000e+00,3.928011894226074441e-01,3.884788513183593528e-01,3.968673467636108509e-01,1.000000000000000000e+00,1.000000000000000000e+00,1.000000000000000000e+00,1.000000000000000000e+00,1.000000000000000000e+00,3.415953159332275613e-01,3.389927148818969727e-01,3.396095037460327148e-01,1.000000000000000000e+00,1.000000000000000000e+00,1.000000000000000000e+00,1.000000000000000000e+00,1.000000000000000000e+00,1.000000000000000000e+00,1.000000000000000000e+00,1.000000000000000000e+00,1.000000000000000000e+00,1.000000000000000000e+00,1.000000000000000000e+00,1.000000000000000000e+00,1.000000000000000000e+00,1.000000000000000000e+00,1.000000000000000000e+00,1.000000000000000000e+00,1.000000000000000000e+00,1.000000000000000000e+00,1.000000000000000000e+00,1.000000000000000000e+00,1.000000000000000000e+00,1.000000000000000000e+00,1.000000000000000000e+00,1.000000000000000000e+00,1.000000000000000000e+00,1.000000000000000000e+00,1.000000000000000000e+00,1.000000000000000000e+00,1.000000000000000000e+00,1.000000000000000000e+00,1.000000000000000000e+00,1.000000000000000000e+00,1.000000000000000000e+00,1.000000000000000000e+00,1.000000000000000000e+00,1.000000000000000000e+00,1.000000000000000000e+00,1.000000000000000000e+00,1.000000000000000000e+00,9.688735008239746094e-01,9.371863365173339622e-01,9.075061798095702681e-01,8.796481132507324441e-01,8.534496307373047319e-01,8.287664413452148215e-01,8.054708480834961160e-01,7.834491729736328125e-01,7.625996112823486550e-01,7.428309440612792525e-01
6.196735382080078569e-01,6.353915691375732200e-01,6.519277572631836382e-01,6.693477153778075728e-01,6.877241611480713335e-01,7.071380138397216353e-01,7.276798725128174050e-01,7.494508266448974831e-01,7.725646972656250444e-01,7.971496105194091353e-01,8.233508110046386941e-01,8.513327598571777122e-01,8.812836647033691628e-01,9.134188652038573997e-01,9.479862213134765403e-01,9.852728843688964844e-01,1.000000000000000000e+00,1.000000000000000000e+00,1.000000000000000000e+00,4.081611156463623158e-01,3.986584901809692161e-01,3.953975915908813366e-01,1.000000000000000000e+00,1.000000000000000000e+00,1.000000000000000000e+00,1.000000000000000000e+00,1.000000000000000000e+00,1.000000000000000000e+00,3.415785551071167103e-01,3.388675212860107200e-01,3.394676685333252175e-01,1.000000000000000000e+00,1.000000000000000000e+00,1.000000000000000000e+00,1.000000000000000000e+00,1.000000000000000000e+00,1.000000000000000000e+00,1.000000000000000000e+00,1.000000000000000000e+00,1.000000000000000000e+00,1.000000000000000000e+00,1.000000000000000000e+00,1.000000000000000000e+00,1.000000000000000000e+00,1.000000000000000000e+00,1.000000000000000000e+00,1.000000000000000000e+00,1.000000000000000000e+00,1.000000000000000000e+00,1.000000000000000000e+00,1.000000000000000000e+00,1.000000000000000000e+00,1.000000000000000000e+00,1.000000000000000000e+00,1.000000000000000000e+00,1.000000000000000000e+00,1.000000000000000000e+00,1.000000000000000000e+00,1.000000000000000000e+00,1.000000000000000000e+00,1.000000000000000000e+00,1.000000000000000000e+00,1.000000000000000000e+00,1.000000000000000000e+00,1.000000000000000000e+00,1.000000000000000000e+00,1.000000000000000000e+00,1.000000000000000000e+00,1.000000000000000000e+00,1.000000000000000000e+00,9.689019203186035600e-01,9.372129440307617188e-01,9.075310707092285600e-01,8.796716690063476340e-01,8.534716606140136941e-01,8.287872314453125222e-01,8.054905891418456809e-01,7.834678649902343528e-01,7.626172065734863059e-01,7.428476333618163618e-01
6.196602344512939231e-01,6.353776454925537109e-01,6.519130706787109597e-01,6.693321704864502175e-01,6.877077102661133257e-01,7.071207523345947044e-01,7.276615619659423384e-01,7.494314193725586382e-01,7.725440502166748269e-01,7.971276760101317915e-01,8.233272552490233931e-01,8.513077735900879128e-01,8.812567710876464400e-01,9.133899688720703569e-01,9.479551315307617188e-01,9.852393150329590288e-01,1.000000000000000000e+00,1.000000000000000000e+00,1.000000000000000000e+00,4.146855831146240012e-01,4.050527572631835715e-01,4.061057090759277455e-01,1.000000000000000000e+00,1.000000000000000000e+00,1.000000000000000000e+00,1.000000000000000000e+00,1.000000000000000000e+00,1.000000000000000000e+00,3.420239686965942383e-01,3.388988733291625755e-01,3.394840955734252930e-01,1.000000000000000000e+00,1.000000000000000000e+00,1.000000000000000000e+00,1.000000000000000000e+00,1.000000000000000000e+00,1.000000000000000000e+00,1.000000000000000000e+00,1.000000000000000000e+00,1.000000000000000000e+00,1.000000000000000000e+00,1.000000000000000000e+00,1.000000000000000000e+00,1.000000000000000000e+00,1.000000000000000000e+00,1.000000000000000000e+00,1.000000000000000000e+00,1.000000000000000000e+00,1.000000000000000000e+00,1.000000000000000000e+00,1.000000000000000000e+00,1.000000000000000000e+00,1.000000000000000000e+00,1.000000000000000000e+00,1.000000000000000000e+00,1.000000000000000000e+00,1.000000000000000000e+00,1.000000000000000000e+00,1.000000000000000000e+00,1.000000000000000000e+00,1.000000000000000000e+00,1.000000000000000000e+00,1.000000000000000000e+00,1.000000000000000000e+00,1.000000000000000000e+00,1.000000000000000000e+00,1.000000000000000000e+00,1.000000000000000000e+00,1.000000000000000000e+00,1.000000000000000000e+00,9.689304351806640181e-01,9.372394561767578569e-01,9.075560569763183594e-01,8.796951293945312056e-01,8.534936904907226562e-01,8.288080215454101118e-01,8.055102348327636275e-01,7.834864139556885210e-01,7.626348972320556863e-01,7.428644180297852007e-01
6.196469306945801003e-01,6.353636741638183372e-01,6.518983840942382812e-01,6.693166732788086160e-01,6.876913547515869363e-01,7.071033954620361550e-01,7.276431560516357644e-01,7.494120121002196822e-01,7.725234508514404741e-01,7.971056938171386941e-01,8.233038902282714400e-01,8.512825965881347656e-01,8.812298774719238281e-01,9.133610725402832031e-01,9.479240417480468972e-01,9.852056503295898438e-01,1.000000000000000000e+00,1.000000000000000000e+00,1.000000000000000000e+00,4.244193077087402566e-01,4.130111694335937278e-01,1.000000000000000000e+00,1.000000000000000000e+00,1.000000000000000000e+00,1.000000000000000000e+00,1.000000000000000000e+00,1.000000000000000000e+00,1.000000000000000000e+00,3.424705982208252064e-01,3.389302253723144309e-01,3.395155668258666992e-01,1.000000000000000000e+00,1.000000000000000000e+00,1.000000000000000000e+00,1.000000000000000000e+00,1.000000000000000000e+00,1.000000000000000000e+00,1.000000000000000000e+00,1.000000000000000000e+00,1.000000000000000000e+00,1.000000000000000000e+00,1.000000000000000000e+00,1.000000000000000000e+00,1.000000000000000000e+00,1.000000000000000000e+00,1.000000000000000000e+00,1.000000000000000000e+00,1.000000000000000000e+00,1.000000000000000000e+00,1.000000000000000000e+00,1.000000000000000000e+00,1.000000000000000000e+00,1.000000000000000000e+00,1.000000000000000000e+00,1.000000000000000000e+00,1.000000000000000000e+00,1.000000000000000000e+00,1.000000000000000000e+00,1.000000000000000000e+00,1.000000000000000000e+00,1.000000000000000000e+00,1.000000000000000000e+00,1.000000000000000000e+00,1.000000000000000000e+00,1.000000000000000000e+00,1.000000000000000000e+00,1.000000000000000000e+00,1.000000000000000000e+00,1.000000000000000000e+00,1.000000000000000000e+00,9.689588546752929688e-01,9.372661590576172319e-01,9.075810432434081587e-01,8.797184944152831587e-01,8.535158157348632368e-01,8.288289070129394309e-01,8.055298805236816850e-01,7.835049629211425781e-01,7.626524925231933372e-01,7.428811073303223100e-01
6.196336746215820312e-01,6.353496551513672097e-01,6.518836975097656028e-01,6.693012237548827681e-01,6.876749992370605469e-01,7.070860862731933594e-01,7.276248931884765625e-01,7.493925094604492188e-01,7.725027084350586382e-01,7.970837116241454856e-01,8.232803344726562500e-01,8.512575149536132368e-01,8.812030792236328347e-01,9.133321762084960493e-01,9.478928565979003462e-01,9.710064888000488059e-01,9.707649230957031694e-01,9.705235481262206587e-01,9.702822685241698775e-01,4.237297534942626731e-01,4.200669288635253684e-01,9.695591926574707031e-01,9.693183898925781250e-01,9.690777778625487837e-01,9.688371658325195535e-01,9.685967445373535600e-01,9.683564186096191850e-01,9.681161880493164285e-01,3.429183244705200084e-01,3.391082763671874889e-01,3.409804105758666992e-01,9.671565055847167747e-01,9.669169425964355691e-01,9.666774749755859819e-01,9.664380073547362837e-01,9.661988258361816628e-01,9.659597396850585493e-01,9.657207489013671653e-01,9.654818534851073997e-01,9.652430534362792525e-01,9.650043487548828347e-01,9.647658348083496538e-01,9.645274162292480913e-01,9.642890930175781472e-01,9.640508651733398215e-01,9.638128280639648438e-01,9.635748863220214844e-01,9.633370399475097434e-01,9.630992889404297319e-01,9.628617286682128462e-01,9.626242637634276900e-01,9.623868942260742632e-01,9.621496200561523438e-01,9.619125366210937722e-01,9.616754531860352007e-01,9.614385604858398660e-01,9.612017631530761497e-01,9.609650611877441628e-01,9.607285499572754128e-01,9.604921340942382812e-01,9.602558135986327681e-01,9.600195884704589844e-01,9.597834587097168191e-01,9.595475196838378906e-01,9.593117713928223100e-01,9.590760231018066184e-01,9.588403701782226562e-01,9.586049079895019309e-01,9.583694458007812056e-01,9.581341743469238281e-01,9.578989982604980691e-01,9.372927665710448775e-01,9.076059341430664507e-01,8.797419548034668413e-01,8.535379409790039285e-01,8.288496971130371316e-01,8.055495262145996316e-01,7.835235595703125000e-01,7.626700878143310991e-01,7.428977966308594194e-01
6.196203708648682085e-01,6.353356838226318359e-01,6.518689632415771706e-01,6.692856311798095481e-01,6.876586914062500222e-01,7.070688247680664285e-01,7.276065826416016069e-01,7.493731021881103738e-01,7.542451381683349387e-01,7.540994644165038840e-01,7.539537429809570757e-01,7.538081169128417747e-01,7.536625385284423384e-01,7.535170555114746316e-01,7.533715724945068137e-01,7.532262325286864790e-01,7.530808448791503906e-01,7.529356002807616743e-01,7.527903079986572044e-01,4.219952583312988059e-01,4.206438064575195312e-01,4.243901252746581920e-01,7.522100448608398660e-01,7.520650386810302512e-01,7.519202232360839844e-01,7.517753124237060991e-01,7.516305923461914507e-01,7.514858245849609375e-01,3.433396816253662109e-01,3.393558740615844616e-01,3.419326305389404075e-01,7.509074687957764116e-01,7.507630825042724831e-01,7.506186485290526900e-01,7.504743576049804910e-01,7.503301143646240456e-01,7.501858234405517356e-01,7.500416755676269087e-01,7.498975276947021928e-01,7.497535228729248491e-01,7.496094703674316406e-01,7.494655609130859153e-01,7.493216514587401900e-01,7.491778373718261941e-01,7.490340232849120872e-01,7.488903045654297097e-01,7.487465858459472212e-01,7.486030101776123269e-01,7.484594345092773215e-01,7.483159542083740456e-01,7.481725692749023882e-01,7.480291366577148660e-01,7.478857994079589622e-01,7.477425098419189231e-01,7.475993156433105025e-01,7.474560737609863281e-01,7.473129749298095259e-01,7.471698760986328347e-01,7.470269203186035156e-01,7.468839168548584428e-01,7.467410564422607422e-01,7.465981483459472878e-01,7.464554309844970703e-01,7.463126182556152344e-01,7.461699962615966353e-01,7.460273742675781472e-01,7.458847999572754128e-01,7.457422733306884322e-01,7.455997943878174272e-01,7.454574108123779297e-01,7.453150272369384322e-01,7.451727390289306641e-01,7.450304508209228960e-01,7.448883056640625000e-01,7.447461128234863503e-01,7.446040630340575728e-01,7.444619655609130415e-01,7.443200588226318581e-01,7.441780567169189453e-01,7.429144859313965288e-01
6.166968822479248491e-01,6.165994644165039285e-01,6.165020942687988725e-01,6.164046764373779519e-01,6.163073539733886497e-01,6.162099838256835938e-01,6.161127090454101562e-01,6.160155296325683372e-01,6.159182548522948997e-01,6.158211231231689453e-01,6.157239437103271262e-01,6.156268119812011719e-01,6.155297279357909712e-01,6.154326915740966353e-01,6.153356075286865456e-01,6.152386188507079634e-01,6.151416301727294922e-01,6.150447368621826394e-01,6.149477958679199219e-01,4.194711208343505637e-01,4.203531742095947266e-01,4.228375434875488170e-01,6.145605087280273660e-01,6.144637107849121316e-01,6.143670082092285156e-01,6.142703056335448997e-01,6.141736507415771484e-01,6.140769958496093972e-01,6.139804363250732644e-01,3.426813364028930553e-01,3.505723237991332786e-01,6.136907577514648660e-01,6.135942935943603516e-01,6.134978294372558372e-01,6.134014129638671875e-01,6.133050441741942915e-01,6.132086753845215066e-01,6.131124019622802290e-01,6.130160331726074441e-01,6.129198074340820312e-01,6.128235340118408647e-01,6.127273559570312056e-01,6.126311302185059038e-01,6.125350475311279741e-01,6.124388694763183150e-01,6.123428344726562500e-01,6.122467041015624556e-01,6.121507167816162553e-01,6.120546817779540794e-01,6.119587421417236328e-01,6.118628501892089400e-01,6.117669105529784934e-01,6.116710662841796653e-01,6.115751743316650835e-01,6.114793777465820090e-01,6.113835334777831809e-01,6.112878322601318359e-01,6.111920833587646262e-01,6.110963821411132812e-01,6.110006809234619363e-01,6.109050750732422097e-01,6.108094215393066184e-01,6.107139110565185103e-01,6.106183052062987837e-01,6.105228424072265403e-01,6.104273796081542969e-01,6.103318691253661887e-01,6.102364540100098100e-01,6.101410388946533203e-01,6.100456714630126953e-01,6.099503040313720703e-01,6.098550319671630637e-01,6.097597122192383035e-01,6.096645355224609153e-01,6.095692634582519087e-01,6.094740867614746316e-01,6.093789100646972434e-01,6.092838287353515847e-01,6.091886997222900613e-01,6.090936183929442915e-01
5.210218906402588335e-01,5.209523200988769309e-01,5.208827972412108931e-01,5.208132743835449663e-01,5.207437515258789285e-01,5.206743240356445090e-01,5.206048488616943359e-01,5.205354213714599165e-01,5.204659938812256081e-01,5.203965663909911887e-01,5.203271865844726340e-01,5.202578544616699441e-01,5.201884746551513894e-01,5.201191425323485884e-01,5.200498580932617632e-01,5.199805736541748269e-01,5.199112892150878906e-01,5.198420524597168191e-01,5.197727680206298828e-01,5.197035789489745650e-01,4.196643829345703125e-01,4.225591659545898660e-01,5.194961071014404519e-01,5.194269180297851340e-01,5.193578243255615456e-01,5.192886829376220925e-01,5.192196369171142578e-01,5.191505432128906694e-01,3.447108745574951061e-01,3.400764226913451926e-01,3.484675645828246848e-01,5.188744544982910600e-01,5.188055038452148438e-01,5.187365531921386275e-01,5.186676025390625222e-01,5.185986995697021706e-01,5.185297966003418191e-01,5.184609413146972212e-01,5.183920383453368697e-01,5.183232307434082475e-01,5.182543754577636497e-01,5.181855678558349165e-01,5.181167602539062944e-01,5.180480480194091797e-01,5.179792404174804465e-01,5.179105281829834428e-01,5.178418159484863281e-01,5.177731037139892134e-01,5.177043914794922097e-01,5.176357746124267134e-01,5.175671577453613281e-01,5.174984931945800781e-01,5.174299240112304465e-01,5.173613071441650613e-01,5.172927379608154297e-01,5.172241687774657981e-01,5.171556472778320312e-01,5.170871257781982644e-01,5.170186519622802512e-01,5.169501304626464844e-01,5.168817043304443359e-01,5.168132305145263228e-01,5.167448043823241743e-01,5.166763782501220259e-01,5.166080474853516069e-01,5.165396690368652122e-01,5.164712905883789285e-01,5.164029598236083984e-01,5.163346290588378684e-01,5.162663459777832031e-01,5.161980628967285378e-01,5.161298274993896262e-01,5.160615444183349609e-01,5.159933567047119141e-01,5.159251213073730025e-01,5.158569335937499556e-01,5.157887458801269087e-01,5.157206058502197266e-01,5.156524181365966797e-01,5.155843257904052512e-01
4.510460853576659934e-01,4.509939670562744252e-01,4.509418487548828014e-01,4.508897781372070424e-01,4.508376598358154186e-01,4.507856369018554688e-01,4.507335186004638450e-01,4.506814956665038951e-01,4.506294727325439453e-01,4.505774021148681863e-01,4.505254268646240456e-01,4.504734039306640403e-01,4.504213809967040905e-01,4.503694057464599498e-01,4.503174304962158092e-01,4.502655029296874778e-01,4.502135276794433372e-01,4.501616001129150613e-01,4.501096725463867299e-01,4.500577926635742076e-01,4.500059127807617410e-01,4.499540328979492188e-01,4.499021530151366965e-01,4.498503208160400391e-01,4.497984886169433816e-01,4.497466087341308594e-01,4.496948242187500111e-01,4.496429920196532981e-01,3.451818704605102428e-01,3.337344169616699441e-01,3.360443830490112416e-01,4.494358539581299050e-01,4.493841648101806752e-01,4.493323802947998269e-01,4.492806911468505970e-01,4.492290019989013672e-01,4.491772651672363281e-01,4.491255760192870983e-01,4.490738868713378684e-01,4.490222454071045033e-01,4.489705562591552734e-01,4.489189147949218528e-01,4.488672733306884877e-01,4.488156795501708762e-01,4.487640857696533203e-01,4.487124919891357644e-01,4.486608982086181530e-01,4.486093521118164062e-01,4.485577583312988503e-01,4.485062122344970481e-01,4.484547138214111106e-01,4.484031677246093639e-01,4.483516693115234264e-01,4.483001708984374889e-01,4.482486724853515514e-01,4.481971740722656139e-01,4.481457233428954856e-01,4.480942726135254128e-01,4.480428218841552845e-01,4.479914188385009655e-01,4.479400157928467019e-01,4.478885650634765736e-01,4.478372097015380637e-01,4.477858066558838002e-01,4.477344512939452903e-01,4.476830959320068359e-01,4.476317405700683816e-01,4.475804328918456809e-01,4.475290775299072266e-01,4.474777698516845814e-01,4.474264621734619363e-01,4.473752021789551003e-01,4.473238945007323997e-01,4.472726345062255637e-01,4.472213745117187278e-01,4.471701622009277566e-01,4.471189022064209206e-01,4.470676898956298939e-01,4.470164775848388672e-01,4.469653129577636497e-01
3.976409673690796120e-01,3.976004838943481556e-01,3.975599765777587669e-01,3.975194692611694336e-01,3.974789619445801003e-01,3.974384784698486439e-01,3.973980426788329967e-01,3.973575830459594727e-01,3.973171234130859486e-01,3.972766637802124245e-01,3.972362041473388450e-01,3.971958160400390625e-01,3.971554040908813477e-01,3.971149682998657005e-01,3.970745563507079856e-01,3.970341444015502708e-01,3.969937562942504883e-01,3.969533681869507058e-01,3.969129800796508678e-01,3.968726634979248269e-01,3.968322992324829213e-01,3.967919349670410156e-01,3.967516422271728516e-01,3.967113018035888783e-01,3.966709613800049050e-01,3.966306447982788086e-01,3.965903759002685769e-01,3.965500593185424805e-01,3.464940786361694336e-01,3.256483316421509011e-01,3.269000768661499134e-01,3.352055549621582031e-01,3.963486909866332786e-01,3.963084459304809792e-01,3.962682247161865012e-01,3.962279796600342019e-01,3.961877584457397239e-01,3.961475849151611106e-01,3.961073637008666881e-01,3.960671424865722656e-01,3.960269451141357200e-01,3.959867954254150391e-01,3.959466218948364258e-01,3.959064483642578125e-01,3.958662748336791992e-01,3.958261489868163951e-01,3.957859992980957142e-01,3.957458496093749778e-01,3.957057237625122292e-01,3.956656455993652344e-01,3.956255197525024303e-01,3.955853939056396262e-01,3.955453395843505637e-01,3.955052614212036244e-01,3.954651594161987527e-01,3.954250812530517578e-01,3.953850507736206277e-01,3.953449964523315652e-01,3.953049421310425027e-01,3.952648878097534402e-01,3.952249050140380637e-01,3.951848745346069336e-01,3.951448440551758035e-01,3.951048374176025502e-01,3.950648784637451061e-01,3.950248718261718528e-01,3.949848890304565319e-01,3.949449300765991433e-01,3.949049711227416992e-01,3.948650121688842551e-01,3.948250532150268666e-01,3.947851419448852317e-01,3.947452068328857200e-01,3.947052717208862083e-01,3.946653366088866965e-01,3.946254730224609264e-01,3.945855617523193470e-01,3.945456504821777122e-01,3.945057630538940652e-01,3.944659233093261719e-01
3.555436134338378906e-01,3.555112123489380105e-01,3.554788589477538840e-01,3.554464817047119363e-01,3.554141044616699330e-01,3.553817272186279297e-01,3.553493976593017356e-01,3.553170442581176647e-01,3.552846908569335938e-01,3.552523374557495228e-01,3.552199840545654519e-01,3.551877021789550670e-01,3.551553726196289285e-01,3.551230430603027344e-01,3.550907135009765403e-01,3.550584077835082786e-01,3.550261259078979492e-01,3.549938440322876199e-01,3.549615383148193581e-01,3.549292564392089733e-01,3.548969268798828347e-01,3.548646926879882590e-01,3.548324108123779297e-01,3.548001527786254772e-01,3.547679185867309570e-01,3.547356605529785045e-01,3.547034263610839844e-01,3.546711683273315319e-01,3.546389818191528209e-01,3.208580732345581166e-01,3.128015756607055442e-01,3.199761390686035045e-01,3.545101165771484264e-01,3.544779062271118386e-01,3.544456958770751953e-01,3.544135570526122936e-01,3.543813467025757058e-01,3.543491601943969949e-01,3.543169975280761608e-01,3.542848587036132590e-01,3.542526960372924805e-01,3.542205333709717019e-01,3.541883707046508678e-01,3.541562557220458984e-01,3.541241168975829967e-01,3.540919780731200950e-01,3.540598392486572488e-01,3.540277481079101562e-01,3.539956331253051869e-01,3.539635181427002175e-01,3.539314508438110574e-01,3.538993358612060325e-01,3.538672447204589955e-01,3.538351535797119030e-01,3.538031101226806752e-01,3.537710189819335826e-01,3.537389516830444225e-01,3.537068843841552623e-01,3.536748409271240345e-01,3.536427974700927512e-01,3.536107540130615234e-01,3.535787105560302956e-01,3.535466909408569447e-01,3.535146713256835938e-01,3.534826278686523660e-01,3.534506559371948242e-01,3.534186363220214733e-01,3.533866167068481223e-01,3.533546209335327037e-01,3.533226490020752175e-01,3.532906770706176758e-01,3.532586812973022572e-01,3.532267093658447155e-01,3.531947612762451061e-01,3.531627893447876199e-01,3.531308174133300781e-01,3.530988693237304688e-01,3.530669689178466686e-01,3.530350208282470592e-01,3.530030727386474498e-01
3.215064525604248158e-01,3.214799642562866100e-01,3.214534997940063366e-01,3.214270353317260631e-01,3.214005470275879128e-01,3.213740825653076394e-01,3.213475942611694336e-01,3.213211774826049694e-01,3.212947130203246959e-01,3.212682485580444225e-01,3.212418079376220814e-01,3.212153673171996848e-01,3.211889505386352761e-01,3.211625099182128795e-01,3.211360692977905384e-01,3.211096525192260742e-01,3.210832118988037331e-01,3.210568189620971458e-01,3.210304021835327370e-01,3.210040092468261497e-01,3.209775924682617410e-01,3.209511995315551536e-01,3.209248304367065541e-01,3.208983898162841575e-01,3.208719968795776256e-01,3.208456277847290261e-01,3.208192586898803711e-01,3.207928895950317161e-01,3.207665205001831166e-01,3.207401514053344616e-01,3.207138061523437389e-01,3.206874608993530162e-01,3.206610918045044167e-01,3.206347465515136941e-01,3.206084251403808483e-01,3.205820798873901256e-01,3.205557584762573353e-01,3.205294370651244895e-01,3.205031156539916992e-01,3.204767942428589089e-01,3.204504728317260631e-01,3.204241752624511497e-01,3.203978776931762917e-01,3.203715562820434459e-01,3.203452587127685325e-01,3.203189849853515514e-01,3.202926874160766380e-01,3.202663898468017800e-01,3.202401161193847434e-01,3.202138662338256947e-01,3.201875925064087136e-01,3.201613187789916770e-01,3.201350688934326283e-01,3.201088190078735241e-01,3.200825452804565430e-01,3.200562953948974387e-01,3.200300693511962669e-01,3.200038194656372181e-01,3.199775695800781139e-01,3.199513435363769420e-01,3.199251174926757701e-01,3.198988914489745983e-01,3.198726654052734264e-01,3.198464393615722545e-01,3.198202610015868919e-01,3.197940587997436523e-01,3.197678327560424805e-01,3.197416782379150502e-01,3.197154760360717551e-01,3.196892738342285156e-01,3.196630716323852761e-01,3.196369171142577903e-01,3.196107387542724831e-01,3.195845603942871205e-01,3.195583820343017578e-01,3.195322513580322044e-01,3.195060729980468972e-01,3.194799184799194114e-01,3.194537639617919811e-01,3.194276332855224831e-01
2.934168577194213867e-01,2.933947801589965598e-01,2.933727264404296653e-01,2.933506965637207031e-01,2.933286428451538086e-01,2.933065891265869141e-01,2.932845354080200195e-01,2.932625055313110574e-01,2.932404756546020397e-01,2.932184457778930775e-01,2.931964159011840598e-01,2.931743860244750977e-01,2.931523561477661355e-01,2.931303501129150502e-01,2.931083440780639648e-01,2.930863142013550027e-01,2.930643081665039174e-01,2.930422782897948997e-01,2.930202960968017467e-01,2.929982900619506614e-01,2.929763078689575084e-01,2.929543018341064231e-01,2.929322957992553933e-01,2.929103374481201172e-01,2.928883552551269642e-01,2.928663730621338113e-01,2.928443908691406028e-01,2.928223848342895730e-01,2.928004264831542969e-01,2.927784681320190208e-01,2.927564859390258678e-01,2.927345275878906472e-01,2.927125930786133035e-01,2.926906347274780273e-01,2.926686763763427512e-01,2.926467418670654075e-01,2.926248073577880637e-01,2.926028490066528431e-01,2.925809144973754994e-01,2.925590038299560325e-01,2.925370693206786887e-01,2.925151348114013450e-01,2.924932003021240012e-01,2.924713134765625222e-01,2.924493789672851785e-01,2.924274682998657116e-01,2.924055576324463002e-01,2.923836708068847656e-01,2.923617601394653542e-01,2.923398494720458873e-01,2.923179864883422852e-01,2.922960758209228738e-01,2.922741889953613392e-01,2.922523021697998047e-01,2.922304391860962025e-01,2.922085523605346680e-01,2.921866655349731334e-01,2.921647787094115989e-01,2.921429395675659291e-01,2.921210527420043945e-01,2.920991897583007924e-01,2.920773267745971902e-01,2.920554876327514648e-01,2.920336246490478627e-01,2.920117616653442605e-01,2.919899463653564675e-01,2.919680833816528098e-01,2.919462442398071400e-01,2.919244050979614147e-01,2.919025897979736217e-01,2.918807506561279519e-01,2.918589115142822266e-01,2.918370723724365012e-01,2.918152809143066406e-01,2.917934656143188477e-01,2.917716264724731223e-01,2.917498111724853294e-01,2.917280197143554688e-01,2.917062282562256081e-01,2.916844129562378152e-01
2.698411703109740989e-01,2.698225259780883678e-01,2.698038578033447044e-01,2.697852134704589733e-01,2.697665691375732422e-01,2.697479248046875111e-01,2.697292804718017800e-01,2.697106361389159934e-01,2.696919918060302623e-01,2.696733713150024636e-01,2.696547269821166770e-01,2.696360826492309459e-01,2.696174621582031472e-01,2.695988416671752930e-01,2.695802211761474387e-01,2.695616006851196400e-01,2.695429801940917858e-01,2.695243597030639870e-01,2.695057630538940652e-01,2.694871425628662109e-01,2.694685459136962891e-01,2.694499254226684348e-01,2.694313287734985130e-01,2.694127321243285911e-01,2.693941354751586692e-01,2.693755388259887473e-01,2.693569421768188255e-01,2.693383455276489036e-01,2.693197727203369141e-01,2.693011999130249245e-01,2.692826032638550027e-01,2.692640066146850808e-01,2.692454099655151589e-01,2.692268371582031139e-01,2.692082881927490012e-01,2.691897153854370117e-01,2.691711425781250222e-01,2.691525936126709095e-01,2.691340208053588645e-01,2.691154718399048074e-01,2.690968990325927623e-01,2.690783739089965820e-01,2.690598011016845925e-01,2.690412521362304799e-01,2.690227031707763672e-01,2.690041780471801869e-01,2.689856290817260742e-01,2.689671039581298939e-01,2.689485549926757812e-01,2.689300298690796009e-01,2.689115047454834206e-01,2.688929796218871848e-01,2.688744544982910045e-01,2.688559293746948242e-01,2.688374042510986439e-01,2.688188791275024636e-01,2.688003778457641602e-01,2.687818765640258567e-01,2.687633514404296764e-01,2.687448501586914285e-01,2.687263488769531250e-01,2.687078475952148215e-01,2.686893463134765736e-01,2.686708450317382701e-01,2.686523675918578991e-01,2.686338663101196511e-01,2.686153650283813477e-01,2.685968875885009766e-01,2.685784101486206055e-01,2.685599088668823020e-01,2.685414314270019309e-01,2.685229778289794922e-01,2.685045003890991211e-01,2.684860229492187500e-01,2.684675455093383789e-01,2.684490919113159402e-01,2.684306144714355691e-01,2.684121608734130748e-01,2.683936834335327037e-01,2.683752536773681419e-01
2.497722864151001032e-01,2.497562885284423939e-01,2.497403144836425892e-01,2.497243404388427845e-01,2.497083663940429799e-01,2.496923923492431752e-01,2.496764183044433705e-01,2.496604442596435658e-01,2.496444702148437611e-01,2.496284961700439564e-01,2.496125459671020563e-01,2.495965719223022516e-01,2.495805978775024470e-01,2.495646476745605469e-01,2.495486974716186468e-01,2.495327234268188421e-01,2.495167732238769420e-01,2.495008230209350697e-01,2.494848728179931696e-01,2.494689226150512695e-01,2.494529724121093694e-01,2.494370460510254017e-01,2.494210958480835016e-01,2.494051456451416016e-01,2.493892192840576061e-01,2.493732929229736384e-01,2.493573427200317383e-01,2.493414163589477428e-01,2.493254661560058705e-01,2.493095636367797796e-01,2.492936372756958119e-01,2.492777109146118164e-01,2.492617845535278209e-01,2.492458581924438532e-01,2.492299079895019531e-01,2.492140054702758900e-01,2.491981029510497991e-01,2.491821765899658314e-01,2.491662740707397405e-01,2.491503715515136774e-01,2.491344690322875866e-01,2.491185665130615234e-01,2.491026639938354603e-01,2.490867614746093694e-01,2.490708827972412109e-01,2.490549802780151478e-01,2.490390777587890569e-01,2.490231990814208984e-01,2.490072965621948353e-01,2.489914178848266491e-01,2.489755392074584905e-01,2.489596605300903320e-01,2.489437818527221735e-01,2.489279031753540150e-01,2.489120244979858287e-01,2.488961458206176702e-01,2.488802671432495117e-01,2.488643884658813532e-01,2.488485574722290039e-01,2.488326787948608454e-01,2.488168001174926869e-01,2.488009452819824330e-01,2.487850904464721791e-01,2.487692356109619252e-01,2.487533807754516713e-01,2.487375259399414174e-01,2.487216711044311634e-01,2.487058162689209095e-01,2.486899614334106556e-01,2.486741304397583063e-01,2.486582994461059570e-01,2.486424446105957031e-01,2.486265897750854492e-01,2.486107826232910045e-01,2.485949277877807506e-01,2.485790967941284291e-01,2.485632658004760798e-01,2.485474586486816351e-01,2.485316276550292858e-01,2.485157966613769642e-01
2.324819326400756891e-01,2.324680805206298939e-01,2.324542284011840709e-01,2.324403762817382757e-01,2.324265241622924805e-01,2.324126958847045898e-01,2.323988676071166992e-01,2.323850154876709040e-01,2.323711872100830134e-01,2.323573350906372181e-01,2.323435068130493275e-01,2.323296785354614369e-01,2.323158502578735463e-01,2.323020219802856556e-01,2.322881937026977650e-01,2.322743654251098744e-01,2.322605371475219838e-01,2.322467327117919977e-01,2.322329044342041071e-01,2.322190999984741211e-01,2.322052717208862305e-01,2.321914434432983398e-01,2.321776390075683538e-01,2.321638107299804632e-01,2.321500301361084095e-01,2.321362018585205189e-01,2.321223974227905329e-01,2.321085929870605469e-01,2.320947885513305609e-01,2.320809841156005748e-01,2.320671796798706166e-01,2.320533752441406306e-01,2.320395946502685491e-01,2.320257902145385631e-01,2.320120096206665095e-01,2.319982051849365234e-01,2.319844245910644420e-01,2.319706201553344838e-01,2.319568157196044977e-01,2.319430351257324163e-01,2.319292306900024303e-01,2.319154739379882812e-01,2.319016933441161998e-01,2.318878889083862416e-01,2.318741083145141602e-01,2.318603515625000111e-01,2.318465709686279297e-01,2.318327903747558483e-01,2.318190336227416992e-01,2.318052768707275502e-01,2.317914962768554688e-01,2.317777156829833873e-01,2.317639827728271429e-01,2.317502021789550892e-01,2.317364454269409124e-01,2.317226886749267634e-01,2.317089319229125866e-01,2.316951751708984375e-01,2.316814184188842884e-01,2.316676616668701116e-01,2.316539287567138672e-01,2.316401720046997181e-01,2.316264152526855413e-01,2.316126823425292969e-01,2.315989494323730524e-01,2.315851926803588756e-01,2.315714597702026312e-01,2.315577268600463867e-01,2.315439701080322377e-01,2.315302371978759655e-01,2.315165042877197210e-01,2.315027713775634766e-01,2.314890384674072321e-01,2.314753055572509877e-01,2.314615726470947155e-01,2.314478635787963756e-01,2.314341306686401312e-01,2.314204216003417913e-01,2.314066886901855469e-01,2.313929796218872070e-01
2.174304008483886608e-01,2.174182891845703181e-01,2.174061775207519476e-01,2.173940658569336049e-01,2.173819541931152344e-01,2.173698425292968639e-01,2.173577547073364258e-01,2.173456430435180553e-01,2.173335313796997126e-01,2.173214197158813421e-01,2.173093318939209040e-01,2.172972202301025335e-01,2.172851324081420954e-01,2.172730207443237249e-01,2.172609329223632868e-01,2.172488451004028209e-01,2.172367572784423828e-01,2.172246694564819447e-01,2.172125577926635742e-01,2.172004699707031361e-01,2.171884059906005748e-01,2.171763181686401367e-01,2.171642303466796986e-01,2.171521425247192327e-01,2.171400547027587946e-01,2.171279907226562611e-01,2.171159029006957952e-01,2.171038150787353571e-01,2.170917272567748912e-01,2.170796632766723577e-01,2.170675992965698242e-01,2.170555114746093861e-01,2.170434474945068248e-01,2.170313835144042913e-01,2.170192956924438532e-01,2.170072555541992243e-01,2.169951677322387584e-01,2.169831037521362249e-01,2.169710397720336914e-01,2.169589757919311579e-01,2.169469356536865290e-01,2.169348716735839955e-01,2.169227838516235296e-01,2.169107198715209961e-01,2.168986797332763672e-01,2.168866157531738337e-01,2.168745517730713002e-01,2.168625116348266713e-01,2.168504714965820424e-01,2.168384075164794811e-01,2.168263673782348522e-01,2.168143272399902233e-01,2.168022871017455944e-01,2.167902469635009655e-01,2.167782068252563366e-01,2.167661666870117076e-01,2.167541265487670787e-01,2.167420864105224498e-01,2.167300462722778209e-01,2.167180061340331920e-01,2.167059659957885631e-01,2.166939496994018666e-01,2.166819334030151423e-01,2.166698932647705134e-01,2.166578531265258845e-01,2.166458368301391602e-01,2.166338205337524359e-01,2.166217803955078069e-01,2.166097640991210826e-01,2.165977478027343861e-01,2.165857315063476618e-01,2.165736913681030329e-01,2.165616750717163086e-01,2.165496826171874889e-01,2.165376663208007924e-01,2.165256500244140681e-01,2.165136337280273438e-01,2.165016174316406194e-01,2.164896011352538951e-01,2.164776086807251032e-01
2.042093276977539062e-01,2.041986465454101451e-01,2.041879653930664118e-01,2.041772842407226507e-01,2.041665792465209850e-01,2.041558980941772516e-01,2.041452407836913951e-01,2.041345596313476618e-01,2.041238784790039007e-01,2.041131973266601674e-01,2.041025161743164062e-01,2.040918588638305775e-01,2.040811777114868164e-01,2.040704965591430553e-01,2.040598392486572266e-01,2.040491580963134655e-01,2.040385007858276367e-01,2.040278434753418080e-01,2.040171623229980469e-01,2.040065050125122181e-01,2.039958238601684570e-01,2.039851903915405329e-01,2.039745092391967718e-01,2.039638519287109431e-01,2.039531946182250866e-01,2.039425373077392578e-01,2.039318799972534291e-01,2.039212226867675726e-01,2.039105653762817438e-01,2.038999080657958873e-01,2.038892507553100586e-01,2.038786172866821345e-01,2.038679599761962780e-01,2.038573026657104492e-01,2.038466691970825251e-01,2.038360118865966686e-01,2.038253784179687444e-01,2.038147211074829157e-01,2.038040876388549916e-01,2.037934303283691351e-01,2.037827968597412109e-01,2.037721633911132868e-01,2.037615299224853627e-01,2.037508726119995062e-01,2.037402391433715820e-01,2.037296056747436579e-01,2.037189483642578014e-01,2.037083148956298773e-01,2.036976814270019531e-01,2.036870479583740290e-01,2.036764383316040095e-01,2.036658048629760853e-01,2.036551713943481334e-01,2.036445379257202093e-01,2.036339282989501898e-01,2.036232948303222656e-01,2.036126852035522461e-01,2.036020517349243220e-01,2.035914182662963978e-01,2.035808086395263783e-01,2.035701990127563588e-01,2.035595655441284069e-01,2.035489559173583873e-01,2.035383462905883678e-01,2.035277366638183483e-01,2.035171270370483287e-01,2.035064935684204046e-01,2.034959077835082897e-01,2.034852981567382701e-01,2.034746646881103460e-01,2.034640550613403265e-01,2.034534692764282116e-01,2.034428596496581920e-01,2.034322500228881725e-01,2.034216403961181530e-01,2.034110546112060658e-01,2.034004449844360463e-01,2.033898353576660267e-01,2.033792495727539118e-01,2.033686637878417969e-01
1.925039291381835938e-01,1.924944400787353405e-01,1.924849629402160534e-01,1.924754619598388616e-01,1.924659609794616699e-01,1.924564719200134166e-01,1.924469828605651911e-01,1.924374938011169378e-01,1.924279928207397461e-01,1.924185037612914928e-01,1.924090147018432673e-01,1.923995494842529186e-01,1.923900723457336315e-01,1.923805832862854059e-01,1.923710942268371527e-01,1.923616170883178655e-01,1.923521280288696400e-01,1.923426508903503529e-01,1.923331618309020996e-01,1.923236846923828125e-01,1.923142075538635254e-01,1.923047423362732045e-01,1.922952771186828558e-01,1.922857999801635687e-01,1.922763228416442816e-01,1.922668457031249944e-01,1.922573685646057073e-01,1.922478914260864202e-01,1.922384262084960993e-01,1.922289490699768122e-01,1.922194838523864635e-01,1.922100424766540472e-01,1.922005653381347601e-01,1.921911001205444391e-01,1.921816349029540905e-01,1.921721696853637695e-01,1.921627044677734486e-01,1.921532392501830999e-01,1.921437740325927790e-01,1.921343088150024303e-01,1.921248555183410756e-01,1.921154141426086315e-01,1.921059608459472767e-01,1.920964956283569280e-01,1.920870423316955455e-01,1.920775890350341908e-01,1.920681238174438421e-01,1.920586705207824596e-01,1.920492172241211049e-01,1.920397520065307562e-01,1.920303106307983398e-01,1.920208692550659235e-01,1.920114159584045410e-01,1.920019626617431585e-01,1.919925212860107422e-01,1.919830679893493597e-01,1.919736266136169434e-01,1.919641852378845270e-01,1.919547557830810491e-01,1.919453144073486328e-01,1.919358730316162165e-01,1.919264316558838002e-01,1.919169902801513561e-01,1.919075489044189398e-01,1.918981075286865234e-01,1.918887019157409779e-01,1.918792605400085338e-01,1.918698191642761175e-01,1.918603897094726674e-01,1.918509483337402233e-01,1.918415188789367731e-01,1.918320894241332952e-01,1.918226599693298451e-01,1.918132543563842718e-01,1.918038129806518555e-01,1.917943954467773438e-01,1.917849659919738659e-01,1.917755365371704157e-01,1.917661070823669378e-01,1.917566895484924261e-01
1.820677161216735784e-01,1.820592164993286022e-01,1.820507287979125921e-01,1.820422291755676159e-01,1.820337414741516058e-01,1.820252418518066295e-01,1.820167541503906194e-01,1.820082783699035756e-01,1.819997906684875377e-01,1.819913029670715277e-01,1.819828152656555176e-01,1.819743275642395075e-01,1.819658398628234974e-01,1.819573521614074596e-01,1.819488644599914495e-01,1.819403886795044056e-01,1.819319009780883678e-01,1.819234371185302623e-01,1.819149613380432184e-01,1.819064736366272084e-01,1.818979978561401367e-01,1.818895101547241266e-01,1.818810343742370550e-01,1.818725585937500111e-01,1.818640828132629395e-01,1.818556070327758678e-01,1.818471312522888239e-01,1.818386673927307184e-01,1.818302035331726130e-01,1.818217277526855413e-01,1.818132519721984974e-01,1.818047761917114258e-01,1.817963123321533203e-01,1.817878365516662487e-01,1.817793726921081432e-01,1.817708969116210993e-01,1.817624330520629938e-01,1.817539811134338268e-01,1.817455172538757213e-01,1.817370533943176159e-01,1.817285895347595104e-01,1.817201256752014049e-01,1.817116618156432994e-01,1.817031979560851940e-01,1.816947340965270885e-01,1.816862821578979492e-01,1.816778182983398438e-01,1.816693782806396429e-01,1.816609144210815374e-01,1.816524624824523981e-01,1.816440105438232311e-01,1.816355466842651256e-01,1.816270947456359863e-01,1.816186189651489147e-01,1.816101670265197754e-01,1.816017150878906361e-01,1.815932869911193737e-01,1.815848350524902344e-01,1.815763831138610951e-01,1.815679311752319280e-01,1.815594792366027888e-01,1.815510272979736217e-01,1.815425872802734486e-01,1.815341353416442816e-01,1.815257072448730469e-01,1.815172672271728460e-01,1.815088272094726451e-01,1.815003752708435059e-01,1.814919352531433050e-01,1.814834952354431041e-01,1.814750552177429310e-01,1.814666271209716686e-01,1.814581990242004339e-01,1.814497590065002330e-01,1.814413189888000599e-01,1.814328789710998591e-01,1.814244389533996582e-01,1.814160108566284235e-01,1.814075708389282227e-01,1.813991546630859264e-01
1.727048516273498591e-01,1.726972103118896429e-01,1.726895689964294545e-01,1.726819396018982045e-01,1.726742982864379883e-01,1.726666569709777721e-01,1.726590156555175837e-01,1.726513743400573675e-01,1.726437330245971791e-01,1.726360917091369629e-01,1.726284623146057129e-01,1.726208209991454967e-01,1.726131796836853083e-01,1.726055622100829967e-01,1.725979328155517467e-01,1.725902915000915583e-01,1.725826621055603083e-01,1.725750207901000921e-01,1.725673913955688421e-01,1.725597620010375921e-01,1.725521326065063421e-01,1.725445032119750921e-01,1.725368738174438421e-01,1.725292563438415583e-01,1.725216269493103083e-01,1.725139975547790583e-01,1.725063681602478083e-01,1.724987506866454967e-01,1.724911212921142467e-01,1.724834918975829967e-01,1.724758744239807129e-01,1.724682450294494629e-01,1.724606394767761175e-01,1.724530220031738337e-01,1.724453926086425837e-01,1.724377751350402721e-01,1.724301576614379883e-01,1.724225282669067383e-01,1.724149107933044545e-01,1.724072933197021429e-01,1.723996758460998591e-01,1.723920583724975475e-01,1.723844647407531683e-01,1.723768472671508845e-01,1.723692297935485729e-01,1.723616123199462891e-01,1.723539948463440052e-01,1.723463892936706598e-01,1.723387718200683483e-01,1.723311662673950306e-01,1.723235487937927191e-01,1.723159432411193737e-01,1.723083496093749944e-01,1.723007440567016491e-01,1.722931265830993652e-01,1.722855210304260198e-01,1.722779154777526744e-01,1.722702860832214244e-01,1.722626805305481068e-01,1.722550749778747614e-01,1.722474694252014160e-01,1.722398757934570368e-01,1.722322821617126576e-01,1.722246885299682506e-01,1.722170829772949330e-01,1.722094774246215876e-01,1.722018837928772084e-01,1.721942782402038630e-01,1.721866846084594838e-01,1.721791028976440430e-01,1.721714973449706976e-01,1.721639037132263184e-01,1.721563100814819391e-01,1.721487164497375599e-01,1.721411228179931530e-01,1.721335172653198353e-01,1.721259236335754284e-01,1.721183538436889537e-01,1.721107602119445745e-01,1.721031665802001953e-01
1.642578721046447643e-01,1.642509579658508190e-01,1.642440438270568737e-01,1.642371296882629284e-01,1.642302274703979492e-01,1.642233133316040039e-01,1.642163991928100586e-01,1.642094850540161133e-01,1.642025947570800726e-01,1.641956806182861273e-01,1.641887784004211481e-01,1.641818642616272028e-01,1.641749501228332575e-01,1.641680479049682506e-01,1.641611456871032715e-01,1.641542315483093262e-01,1.641473293304443470e-01,1.641404271125793402e-01,1.641335368156432994e-01,1.641266345977783203e-01,1.641197204589843750e-01,1.641128182411193959e-01,1.641059160232543890e-01,1.640990138053894098e-01,1.640921235084533691e-01,1.640852212905883900e-01,1.640783190727233831e-01,1.640714168548584040e-01,1.640645384788513295e-01,1.640576362609863226e-01,1.640507340431213434e-01,1.640438437461853027e-01,1.640369415283203236e-01,1.640300512313842829e-01,1.640231490135192760e-01,1.640162587165832631e-01,1.640093564987182562e-01,1.640024662017822155e-01,1.639955878257751409e-01,1.639886975288391002e-01,1.639818072319030873e-01,1.639749169349670466e-01,1.639680266380310059e-01,1.639611363410949652e-01,1.639542460441589244e-01,1.639473557472229115e-01,1.639404654502868708e-01,1.639335751533508301e-01,1.639267086982726940e-01,1.639198184013366810e-01,1.639129281044006403e-01,1.639060497283935658e-01,1.638991594314575251e-01,1.638922810554504506e-01,1.638853907585144098e-01,1.638785123825073353e-01,1.638716220855712946e-01,1.638647437095642201e-01,1.638578772544860840e-01,1.638509988784790095e-01,1.638440966606140026e-01,1.638372182846069280e-01,1.638303399085998535e-01,1.638234615325927790e-01,1.638165831565857045e-01,1.638097047805786022e-01,1.638028264045715277e-01,1.637959718704223577e-01,1.637890934944152832e-01,1.637822151184082087e-01,1.637753367424011341e-01,1.637684702873229980e-01,1.637615919113159235e-01,1.637547135353088490e-01,1.637478470802307129e-01,1.637409925460815430e-01,1.637341141700744684e-01,1.637272477149963323e-01,1.637203812599182240e-01,1.637135028839111217e-01
1.565986514091491644e-01,1.565923571586608776e-01,1.565860748291015569e-01,1.565797924995422363e-01,1.565735220909118541e-01,1.565672397613525335e-01,1.565609574317932129e-01,1.565546751022338923e-01,1.565483927726745716e-01,1.565421104431152233e-01,1.565358281135559027e-01,1.565295577049255482e-01,1.565232753753661998e-01,1.565169930458068792e-01,1.565107345581054632e-01,1.565044522285461426e-01,1.564981698989868220e-01,1.564918994903564398e-01,1.564856171607971191e-01,1.564793467521667369e-01,1.564730644226074163e-01,1.564667940139770619e-01,1.564605236053466797e-01,1.564542412757873591e-01,1.564479827880859431e-01,1.564417123794555609e-01,1.564354419708252064e-01,1.564291715621948242e-01,1.564229011535644420e-01,1.564166307449340876e-01,1.564103603363037054e-01,1.564040899276733509e-01,1.563978195190429688e-01,1.563915491104125866e-01,1.563852906227111705e-01,1.563790202140808161e-01,1.563727617263794001e-01,1.563664913177490179e-01,1.563602209091186634e-01,1.563539624214172474e-01,1.563476920127868652e-01,1.563414335250854492e-01,1.563351631164550670e-01,1.563289046287536510e-01,1.563226461410522350e-01,1.563163876533508190e-01,1.563101291656494030e-01,1.563038587570190485e-01,1.562976002693176325e-01,1.562913417816162165e-01,1.562850832939148005e-01,1.562788248062133845e-01,1.562725663185119684e-01,1.562663197517394909e-01,1.562600612640380748e-01,1.562538027763366588e-01,1.562475442886352428e-01,1.562412858009338268e-01,1.562350273132324108e-01,1.562287688255309948e-01,1.562225222587585449e-01,1.562162637710571289e-01,1.562100052833557129e-01,1.562037706375122015e-01,1.561974883079528809e-01,1.561912536621093694e-01,1.561849951744079534e-01,1.561787486076355036e-01,1.561724901199340876e-01,1.561662435531616100e-01,1.561599850654601940e-01,1.561537384986877441e-01,1.561474919319152943e-01,1.561412572860717829e-01,1.561350107192993053e-01,1.561287641525268555e-01,1.561225175857544056e-01,1.561162710189819280e-01,1.561100244522094782e-01,1.561037778854370006e-01
1.496218919754028209e-01,1.496161580085754450e-01,1.496104121208191029e-01,1.496046781539916992e-01,1.495989441871642955e-01,1.495932102203369196e-01,1.495874762535095159e-01,1.495817422866821400e-01,1.495760083198547363e-01,1.495702743530273326e-01,1.495645523071288951e-01,1.495588183403015192e-01,1.495530843734741155e-01,1.495473504066467396e-01,1.495416164398193359e-01,1.495358824729919323e-01,1.495301604270934948e-01,1.495244264602661188e-01,1.495186924934387152e-01,1.495129823684692438e-01,1.495072484016418402e-01,1.495015263557434027e-01,1.494957923889160267e-01,1.494900703430175892e-01,1.494843363761901855e-01,1.494786143302917480e-01,1.494728803634643444e-01,1.494671583175659069e-01,1.494614362716674694e-01,1.494557261466979980e-01,1.494499921798705944e-01,1.494442701339721569e-01,1.494385480880737194e-01,1.494328260421752819e-01,1.494271039962768444e-01,1.494213819503784069e-01,1.494156599044799694e-01,1.494099378585815319e-01,1.494042158126830944e-01,1.493985056877136230e-01,1.493927836418151855e-01,1.493870615959167480e-01,1.493813395500183105e-01,1.493756294250488392e-01,1.493699073791504017e-01,1.493641853332519642e-01,1.493584752082824652e-01,1.493527531623840277e-01,1.493470430374145563e-01,1.493413329124450573e-01,1.493356227874755859e-01,1.493299007415771484e-01,1.493241906166076771e-01,1.493184685707092396e-01,1.493127584457397405e-01,1.493070483207702692e-01,1.493013262748718317e-01,1.492956161499023326e-01,1.492899060249328613e-01,1.492842078208923284e-01,1.492784976959228571e-01,1.492727875709533580e-01,1.492670774459838867e-01,1.492613673210144154e-01,1.492556571960449163e-01,1.492499470710754450e-01,1.492442369461059459e-01,1.492385268211364746e-01,1.492328047752380371e-01,1.492270946502685658e-01,1.492213845252990667e-01,1.492156982421875000e-01,1.492099881172180287e-01,1.492042779922485296e-01,1.491985797882079967e-01,1.491928696632385254e-01,1.491871714591979925e-01,1.491814613342285212e-01,1.491757631301879883e-01,1.491700649261474554e-01
1.432402610778808483e-01,1.432350039482116755e-01,1.432297468185424749e-01,1.432244896888733021e-01,1.432192325592041016e-01,1.432139873504638672e-01,1.432087302207946666e-01,1.432034730911254938e-01,1.431982159614562933e-01,1.431929588317871205e-01,1.431877017021179199e-01,1.431824564933776855e-01,1.431771993637084850e-01,1.431719422340393122e-01,1.431666851043701116e-01,1.431614518165588434e-01,1.431561946868896429e-01,1.431509375572204701e-01,1.431456923484802357e-01,1.431404352188110352e-01,1.431351900100708008e-01,1.431299328804016002e-01,1.431246876716613659e-01,1.431194424629211315e-01,1.431141853332519587e-01,1.431089520454406627e-01,1.431037068367004284e-01,1.430984497070312556e-01,1.430932044982910212e-01,1.430879592895507868e-01,1.430827140808105524e-01,1.430774688720703181e-01,1.430722117424011175e-01,1.430669665336608831e-01,1.430617213249206487e-01,1.430564880371093806e-01,1.430512428283691462e-01,1.430459976196289118e-01,1.430407643318176159e-01,1.430355191230773815e-01,1.430302739143371471e-01,1.430250287055969127e-01,1.430197834968566784e-01,1.430145382881164440e-01,1.430093050003051758e-01,1.430040717124939076e-01,1.429988265037536732e-01,1.429935932159423773e-01,1.429883480072021429e-01,1.429831147193908747e-01,1.429778695106506403e-01,1.429726362228393444e-01,1.429673910140991100e-01,1.429621577262878418e-01,1.429569125175476074e-01,1.429516911506652777e-01,1.429464578628540095e-01,1.429412126541137751e-01,1.429359793663024791e-01,1.429307460784912109e-01,1.429255127906799427e-01,1.429202675819397084e-01,1.429150342941284124e-01,1.429098010063171442e-01,1.429045677185058483e-01,1.428993463516235463e-01,1.428941130638122503e-01,1.428888797760009821e-01,1.428836464881896862e-01,1.428784132003784180e-01,1.428731799125671498e-01,1.428679347038269154e-01,1.428627133369445856e-01,1.428574800491332897e-01,1.428522467613220215e-01,1.428470134735107533e-01,1.428417921066284235e-01,1.428365707397460938e-01,1.428313374519348256e-01,1.428261160850524958e-01
1.373807430267333929e-01,1.373759150505065862e-01,1.373710751533508412e-01,1.373662471771240345e-01,1.373614072799682617e-01,1.373565673828124889e-01,1.373517394065856823e-01,1.373468995094299372e-01,1.373420596122741644e-01,1.373372316360473577e-01,1.373323917388916127e-01,1.373275756835937444e-01,1.373227357864379994e-01,1.373179078102111927e-01,1.373130798339843861e-01,1.373082399368286133e-01,1.373034119606018066e-01,1.372985839843750000e-01,1.372937440872192272e-01,1.372889161109924205e-01,1.372840881347656139e-01,1.372792601585388073e-01,1.372744321823120006e-01,1.372696042060851940e-01,1.372647762298583873e-01,1.372599482536315807e-01,1.372551202774047741e-01,1.372502923011779674e-01,1.372454643249511608e-01,1.372406363487243541e-01,1.372358083724975475e-01,1.372309923171997070e-01,1.372261643409729004e-01,1.372213363647460938e-01,1.372165203094482533e-01,1.372116923332214466e-01,1.372068643569946400e-01,1.372020363807678334e-01,1.371972084045410267e-01,1.371923923492431585e-01,1.371875762939453181e-01,1.371827483177185114e-01,1.371779322624206432e-01,1.371731042861938366e-01,1.371682882308959961e-01,1.371634602546691895e-01,1.371586441993713490e-01,1.371538162231445424e-01,1.371490001678466741e-01,1.371441721916198675e-01,1.371393680572509655e-01,1.371345520019531250e-01,1.371297240257263184e-01,1.371249079704284779e-01,1.371200919151306097e-01,1.371152758598327692e-01,1.371104478836059626e-01,1.371056318283080944e-01,1.371008157730102539e-01,1.370959997177124134e-01,1.370911955833435114e-01,1.370863795280456432e-01,1.370815634727478027e-01,1.370767474174499623e-01,1.370719313621520941e-01,1.370671153068542536e-01,1.370622992515563854e-01,1.370574831962585449e-01,1.370526671409607045e-01,1.370478510856628362e-01,1.370430588722229004e-01,1.370382428169250599e-01,1.370334267616271917e-01,1.370286107063293513e-01,1.370238065719604492e-01,1.370189785957336426e-01,1.370141625404358021e-01,1.370093584060669001e-01,1.370045423507690319e-01,1.369997382164001576e-01
1.319817781448364147e-01,1.319773197174072266e-01,1.319728493690490723e-01,1.319683909416198841e-01,1.319639205932617299e-01,1.319594621658325140e-01,1.319550037384033259e-01,1.319505453109741100e-01,1.319460868835449219e-01,1.319416165351867676e-01,1.319371581077575795e-01,1.319326996803283636e-01,1.319282412528991755e-01,1.319237828254699596e-01,1.319193124771118053e-01,1.319148540496826172e-01,1.319104075431823675e-01,1.319059491157531794e-01,1.319014906883239635e-01,1.318970322608947754e-01,1.318925738334655873e-01,1.318881154060363714e-01,1.318836569786071833e-01,1.318791985511779674e-01,1.318747401237487793e-01,1.318702816963195912e-01,1.318658351898193415e-01,1.318613767623901256e-01,1.318569183349609375e-01,1.318524718284606878e-01,1.318480134010314997e-01,1.318435549736022838e-01,1.318390965461730957e-01,1.318346500396728460e-01,1.318301916122436579e-01,1.318257331848144420e-01,1.318212985992431585e-01,1.318168401718139704e-01,1.318123936653137207e-01,1.318079352378845326e-01,1.318034887313842829e-01,1.317990303039550670e-01,1.317945837974548451e-01,1.317901253700256292e-01,1.317856788635253795e-01,1.317812204360961914e-01,1.317767858505249079e-01,1.317723274230956920e-01,1.317678809165954701e-01,1.317634344100952204e-01,1.317589879035949707e-01,1.317545294761657826e-01,1.317500829696655329e-01,1.317456364631652832e-01,1.317411899566650335e-01,1.317367434501647838e-01,1.317322969436645619e-01,1.317278504371643122e-01,1.317234039306640625e-01,1.317189574241638128e-01,1.317145109176635631e-01,1.317100644111633412e-01,1.317056179046630915e-01,1.317011713981628418e-01,1.316967248916625921e-01,1.316922903060913086e-01,1.316878557205200251e-01,1.316834092140197754e-01,1.316789627075195257e-01,1.316745162010192760e-01,1.316700696945190541e-01,1.316656351089477428e-01,1.316611886024475209e-01,1.316567420959472712e-01,1.316523075103759877e-01,1.316478610038757380e-01,1.316434264183044545e-01,1.316389918327331432e-01,1.316345453262329213e-01,1.316300868988037054e-01
